ply
format ascii 1.0
comment Created by Open3D
element vertex 1267
property double x
property double y
property double z
property uchar red
property uchar green
property uchar blue
end_header
-19.4071 6.83453 -26.4427 128 128 128
20.1788 3.94436 -16.0757 128 128 128
2.22419 20.4711 -32.8456 128 128 128
2.89384 21.8627 -43.7492 128 128 128
15.3199 56.4249 -46.9017 128 128 128
-19.257 -5.37378 -50.1138 128 128 128
-3.73585 17.9097 -77.1723 128 128 128
-1.45891 -9.01863 -68.5102 128 128 128
-14.1621 20.3109 -70.1613 128 128 128
16.6964 -3.48747 -2.86059 128 128 128
-0.739176 -17.0428 -0.852694 128 128 128
8.46884 -18.7472 -26.0773 128 128 128
-3.69446 -20.2464 -40.2694 128 128 128
11.2633 -17.2358 -30.9929 128 128 128
11.0976 -12.9853 -18.7104 128 128 128
4.86575 36.4002 -80.5749 128 128 128
20.4627 0.614585 -50.8878 128 128 128
-3.10675 24.159 -43.7922 128 128 128
-12.1091 12.0597 -27.3166 128 128 128
8.94866 -14.5481 -38.9134 128 128 128
20.5608 -0.771562 -21.9813 128 128 128
17.6713 -8.58518 -50.8454 128 128 128
1.65538 -17.0173 -26.4524 128 128 128
-4.72184 -13.4218 -54.5246 128 128 128
-15.2582 16.7522 -74.1606 128 128 128
9.12255 34.2107 -46.1578 128 128 128
4.01687 -20.1938 -23.9158 128 128 128
-12.973 -16.0007 -23.8528 128 128 128
-13.1082 10.9533 -22.7582 128 128 128
-20.5355 18.6159 -58.8825 128 128 128
2.59503 45.7489 -77.4979 128 128 128
4.31473 -20.1359 -33.4693 128 128 128
-17.3799 -11.0492 -40.139 128 128 128
3.49209 -20.2958 -37.8245 128 128 128
19.2326 7.31344 -39.9732 128 128 128
1.38397 36.1401 -77.6152 128 128 128
-11.3828 43.8069 -47.9064 128 128 128
11.9078 -16.7751 -40.3309 128 128 128
-9.9407 -9.63725 -64.0192 128 128 128
8.9041 5.54853 -71.76 128 128 128
4.54598 -20.0909 -21.1744 128 128 128
-16.9213 51.8743 -62.8096 128 128 128
-11.4891 -17.0524 -13.5753 128 128 128
3.36307 11.2303 -76.1257 128 128 128
-18.5029 -9.03687 -26.5283 128 128 128
3.32157 -20.31 -40.509 128 128 128
14.9725 -8.25354 -8.76205 128 128 128
-18.3314 7.66214 -67.0193 128 128 128
-14.138 -14.9153 -40.7801 128 128 128
-4.38051 -20.0392 -41.8867 128 128 128
12.9109 -15.6306 -45.4137 128 128 128
13.5048 18.0329 -44.3768 128 128 128
18.8147 8.30601 -4.88323 128 128 128
-13.9252 -9.84859 -3.48235 128 128 128
15.6167 36.3297 -53.646 128 128 128
4.86228 -19.8889 -42.8707 128 128 128
4.57985 7.01616 -74.4476 128 128 128
-11.5679 12.5928 -15.3133 128 128 128
14.7507 -8.58924 -6.23687 128 128 128
-10.786 -14.7587 -54.2181 128 128 128
14.7391 53.1874 -69.1903 128 128 128
18.196 48.2648 -70.2018 128 128 128
-4.69575 -15.5295 -47.9452 128 128 128
2.24208 -20.044 -45.6372 128 128 128
9.59389 12.0202 -73.6476 128 128 128
1.67318 20.5302 -39.9693 128 128 128
-19.368 35.8831 -53.6283 128 128 128
9.12601 -1.4618 -72.2154 128 128 128
0.669854 -20.048 -46.4691 128 128 128
-0.041582 -4.53058 -72.5864 128 128 128
-5.41716 -19.8525 -21.4553 128 128 128
15.9398 7.17798 -70.8008 128 128 128
-1.87244 -19.7229 -47.7414 128 128 128
-9.13886 -18.4219 -16.9085 128 128 128
-15.8346 -2.72623 -53.5775 128 128 128
14.1708 -9.5177 -37.6643 128 128 128
8.94016 -14.553 -12.4976 128 128 128
-0.61925 -13.1992 -63.4873 128 128 128
9.69183 15.0577 -78.3591 128 128 128
-0.0970063 -19.6548 -48.5468 128 128 128
-17.0711 4.81547 -51.6384 128 128 128
-4.62597 -20.073 -16.9651 128 128 128
-17.4019 -10.9549 -12.8208 128 128 128
-14.5949 3.87913 -64.2501 128 128 128
18.4096 43.984 -69.7726 128 128 128
12.3543 50.0915 -72.3958 128 128 128
-17.5024 -10.0672 -47.0007 128 128 128
5.44978 -16.1583 -7.73347 128 128 128
-14.8406 28.197 -46.3527 128 128 128
-5.05696 -19.9651 -33.5763 128 128 128
17.0825 0.602733 -36.7534 128 128 128
7.95719 -15.0923 -15.007 128 128 128
4.7502 -20.0419 -9.39087 128 128 128
-17.0699 0.726472 -22.5022 128 128 128
16.9004 11.7734 -22.8736 128 128 128
4.81309 -20.0261 -27.7604 128 128 128
-13.4865 -14.652 -47.9783 128 128 128
-20.5502 11.8325 -57.464 128 128 128
-4.78543 -16.3959 -33.3559 128 128 128
-5.86627 -19.7247 -30.275 128 128 128
8.13884 -18.8822 -0.968247 128 128 128
-5.48029 -19.8383 -25.7713 128 128 128
-20.5689 39.5507 -60.9607 128 128 128
-6.26828 -19.5837 -16.2793 128 128 128
-2.70935 52.7888 -81.0066 128 128 128
2.68078 35.0927 -77.4858 128 128 128
-1.26062 20.5528 -25.6526 128 128 128
-8.84739 27.4472 -45.9848 128 128 128
1.09113 -17.0466 -3.45424 128 128 128
-6.38377 -19.5443 -13.1529 128 128 128
-20.4787 -1.92207 -32.3362 128 128 128
-0.635333 -17.0737 -28.2123 128 128 128
-19.9406 52.4865 -65.6618 128 128 128
-19.2722 -7.14823 -7.34087 128 128 128
-11.1361 10.4267 -76.4986 128 128 128
-17.0275 11.5931 -20.5739 128 128 128
-5.43522 -19.8235 -2.09333 128 128 128
-5.92359 -19.6937 -19.2499 128 128 128
-5.64937 -19.7551 -0.218674 128 128 128
-14.6831 -9.03369 -58.6553 128 128 128
-9.58903 18.2056 -35.2338 128 128 128
-14.4669 54.5447 -45.979 128 128 128
-5.03638 -19.9549 -9.04086 128 128 128
19.6765 6.09473 -24.5046 128 128 128
13.9307 9.87344 -29.5877 128 128 128
7.95648 -14.3994 -46.991 128 128 128
8.32605 21.8547 -75.527 128 128 128
-17.2687 -11.2053 -16.1323 128 128 128
-6.22933 -19.5846 -7.10921 128 128 128
-15.303 1.07648 -68.2526 128 128 128
-5.32573 -18.0633 0 128 128 128
-2.74313 -18.192 0 128 128 128
-9.5948 -14.1272 -7.81942 128 128 128
20.5783 0.368061 -43.8349 128 128 128
-7.22041 15.4945 -30.4512 128 128 128
-9.92027 26.084 -74.5117 128 128 128
-15.6887 16.9678 -46.2989 128 128 128
5.87811 -19.6939 -7.89343 128 128 128
9.30422 -14.3435 -34.6726 128 128 128
-13.264 -15.7253 -8.87633 128 128 128
-16.9851 1.81629 -41.719 128 128 128
6.59385 -19.4667 -2.64691 128 128 128
-15.1172 56.7121 -74.5166 128 128 128
-18.5582 -5.84291 -53.1243 128 128 128
5.23535 -19.888 -4.43437 128 128 128
-16.6333 12.3584 -41.9615 128 128 128
-15.1604 -7.88846 -15.5382 128 128 128
-13.4088 8.3912 -68.6767 128 128 128
-8.98402 14.5277 -16.7348 128 128 128
5.32567 -19.8911 -29.9302 128 128 128
13.0661 -7.3578 -54.6717 128 128 128
-7.76782 51.8573 -75.8081 128 128 128
-20.5667 41.2916 -60.0887 128 128 128
16.3608 43.9556 -65.4619 128 128 128
5.61102 -19.7885 -17.9482 128 128 128
7.55846 -19.1606 -18.907 128 128 128
6.30575 -19.57 -14.5024 128 128 128
16.0297 4.42582 -69.3376 128 128 128
6.50338 -19.5063 -12.2023 128 128 128
16.3661 10.3662 -71.4505 128 128 128
-2.9812 -13.095 -63.2895 128 128 128
15.2168 16.5019 -52.1868 128 128 128
7.01604 -11.5256 -56.5932 128 128 128
5.96272 -18.2344 0 128 128 128
-3.0674 20.3359 -34.7977 128 128 128
0.987904 17.0591 -18.5107 128 128 128
-3.97045 -19.425 -47.7023 128 128 128
0.407842 29.3938 -43.5238 128 128 128
7.15078 -19.3015 -37.1449 128 128 128
3.99347 -19.6502 -46.4856 128 128 128
-4.19352 -16.5778 -4.72999 128 128 128
14.6105 -8.75457 -42.3659 128 128 128
4.99251 18.889 -76.8644 128 128 128
17.5922 10.6454 -11.4886 128 128 128
2.92176 -19.4238 -48.719 128 128 128
4.7855 -19.6847 -44.9271 128 128 128
-11.1013 -4.40322 -62.4066 128 128 128
6.64629 -15.749 -19.1766 128 128 128
-7.16973 -19.2942 -9.22046 128 128 128
-17.0141 -11.6132 -1.07931 128 128 128
-12.28 -11.8909 -38.0575 128 128 128
13.1415 10.9145 -16.1242 128 128 128
3.04062 -16.7954 -33.4355 128 128 128
17.1955 9.93839 -70.0508 128 128 128
-12.379 -4.09118 -60.9583 128 128 128
-6.6166 -19.4779 -28.7776 128 128 128
-20.2967 3.39086 -3.67161 128 128 128
-1.32365 -17.0452 -2.4847 128 128 128
17.9621 55.3829 -70.6641 128 128 128
6.93048 -7.44424 -68.4487 128 128 128
-7.74928 30.1363 -41.5504 128 128 128
-16.7467 -2.39196 -46.6927 128 128 128
15.2776 -13.8047 -19.0184 128 128 128
4.95239 19.2042 -80.5231 128 128 128
-7.17414 -19.2936 -32.9511 128 128 128
-9.82767 39.019 -42.5183 128 128 128
-8.41836 -14.8398 -12.9317 128 128 128
-18.4966 -9.04771 -12.8654 128 128 128
-11.6498 3.83219 -68.4928 128 128 128
6.86858 -15.6599 -13.8358 128 128 128
10.5133 -17.7069 -7.17789 128 128 128
14.8466 -8.44872 -10.4826 128 128 128
-20.4062 -2.65221 -5.8683 128 128 128
-6.79018 -19.4207 -35.3273 128 128 128
-18.7155 58.8077 -52.1152 128 128 128
-7.32061 -12.1495 -62.6793 128 128 128
19.6504 6.16637 -2.60006 128 128 128
-17.6037 2.78347 -65.6919 128 128 128
-6.80963 -19.4138 -22.7945 128 128 128
-7.83089 60.4956 -45.4259 128 128 128
-18.8994 8.12511 -14.9175 128 128 128
-8.17488 -13.4248 -60.0042 128 128 128
-7.22895 -19.2752 -24.6924 128 128 128
11.3513 -14.7352 0 128 128 128
-16.9616 0.29664 -49.734 128 128 128
-13.9854 4.80898 -65.9748 128 128 128
-6.15368 -19.5299 -42.7136 128 128 128
15.3343 -3.38903 -54.6371 128 128 128
1.33156 -17.0449 -24.0644 128 128 128
-6.76861 -19.3858 -41.1291 128 128 128
14.5234 21.6818 -46.0261 128 128 128
-16.4197 -3.23881 -48.5481 128 128 128
20.4476 31.0042 -63.0401 128 128 128
6.16858 -19.6263 -32.0764 128 128 128
-1.01306 -3.07184 -69.2326 128 128 128
15.5974 30.2533 -53.6078 128 128 128
3.29262 -15.8435 -48.1082 128 128 128
16.8013 19.6823 -63.7149 128 128 128
6.44689 -19.5339 -25.7016 128 128 128
-3.09655 16.7749 -14.9518 128 128 128
9.36042 -8.76837 -58.8309 128 128 128
-16.6107 -3.92922 -31.9799 128 128 128
12.759 -11.3441 -40.4188 128 128 128
-14.5305 8.96586 -35.073 128 128 128
-10.0233 43.1786 -78.5423 128 128 128
6.8925 -19.3867 -30.0192 128 128 128
14.696 -12.909 -50.1911 128 128 128
-17.0619 33.0867 -59.8423 128 128 128
16.2828 5.21201 -33.6479 128 128 128
16.868 2.80358 -38.3969 128 128 128
17.0384 0.885769 -8.80611 128 128 128
6.42208 -19.5427 -39.8722 128 128 128
-16.6892 53.3115 -64.1879 128 128 128
1.71642 -16.936 -41.8547 128 128 128
7.16807 -19.2952 -22.2921 128 128 128
-16.0724 -12.8739 -39.6228 128 128 128
16.0997 0.0188607 -56.3074 128 128 128
-7.73547 -15.1864 -41.5166 128 128 128
8.90501 -14.5732 -21.3222 128 128 128
2.40984 -15.2176 -51.0806 128 128 128
-7.97234 -18.9727 -20.7333 128 128 128
-16.9241 -2.20477 -5.09445 128 128 128
17.0677 58.8578 -61.3933 128 128 128
17.2817 -11.1661 -6.28908 128 128 128
20.1464 -4.20415 -37.5649 128 128 128
7.10925 -19.3142 -9.12573 128 128 128
-3.52733 20.2598 -33.0497 128 128 128
6.89495 -19.386 -33.6464 128 128 128
9.6543 14.0809 -5.42773 128 128 128
-5.03203 57.1351 -76.9103 128 128 128
-6.17672 42.1517 -40.9487 128 128 128
3.2963 -0.0113907 -71.1176 128 128 128
-15.7265 22.2586 -73.874 128 128 128
6.30648 -19.5239 -41.5253 128 128 128
-15.9931 43.2594 -66.509 128 128 128
11.9741 -8.67183 -54.7237 128 128 128
16.6914 -3.50719 -28.4773 128 128 128
-13.2171 -10.8075 -1.55459 128 128 128
0.458239 8.93092 -79.4666 128 128 128
-17.0707 0.545437 -11.8896 128 128 128
9.8332 13.9513 -34.6807 128 128 128
-11.7927 -15.2193 -50.9744 128 128 128
20.4605 -2.18729 -38.1269 128 128 128
-7.48119 -18.8653 -44.8883 128 128 128
20.2304 -3.30093 -44.4453 128 128 128
-5.96173 -19.2471 -45.9865 128 128 128
-3.82404 -16.6558 -30.1463 128 128 128
1.97908 -11.157 -60.0708 128 128 128
-14.1912 47.9041 -45.6841 128 128 128
9.50646 -18.2604 -28.572 128 128 128
6.72449 -19.247 -43.7353 128 128 128
-0.702174 -17.071 -23.7511 128 128 128
-19.3741 19.754 -67.5681 128 128 128
-2.71289 -19.1819 -49.8252 128 128 128
-11.6149 21.4872 -77.6126 128 128 128
1.06114 -17.0517 -6.94461 128 128 128
-18.4496 39.4743 -51.5362 128 128 128
1.53531 -19.024 -50.9005 128 128 128
-12.2989 16.4773 -7.94326 128 128 128
-7.80449 53.6832 -75.7904 128 128 128
16.8722 2.75057 -40.7998 128 128 128
14.5309 -8.96775 -35.5378 128 128 128
0.797746 10.1441 -76.1433 128 128 128
-2.66738 60.6 -40.3759 128 128 128
-12.1896 -16.5567 -2.89207 128 128 128
16.437 -12.3469 -4.72413 128 128 128
-0.490324 -17.0633 -14.8433 128 128 128
-16.8709 38.7461 -48.8245 128 128 128
-2.84479 20.3482 -6.16501 128 128 128
-12.2295 -6.6432 -65.2424 128 128 128
6.65803 -18.7947 -47.1471 128 128 128
-12.8335 42.0482 -49.3234 128 128 128
-14.9948 -13.2511 -47.6194 128 128 128
14.0455 59.1081 -45.5341 128 128 128
8.47635 -18.7294 -8.26907 128 128 128
13.2011 48.7685 -76.3676 128 128 128
20.5901 0.248545 -13.3469 128 128 128
4.69329 -19.213 -47.9824 128 128 128
-4.43414 -18.7587 -50.2054 128 128 128
4.33999 -18.8293 -50.0205 128 128 128
11.9383 -16.7405 -10.2291 128 128 128
-2.72376 -15.7193 -49.0982 128 128 128
19.2291 17.6008 -52.9391 128 128 128
3.22609 -18.5502 -51.9709 128 128 128
-8.37552 26.7215 -75.4974 128 128 128
-20.5064 22.9202 -62.4843 128 128 128
9.92792 -14.7529 -55.4949 128 128 128
17.7224 -7.19521 0 128 128 128
11.852 12.6177 -71.893 128 128 128
-8.69564 -18.6444 -24.1805 128 128 128
-8.35096 -18.8005 -30.1997 128 128 128
-19.7152 48.8951 -54.7652 128 128 128
-7.59529 -19.144 -14.6912 128 128 128
19.1462 -1.43696 -57.4936 128 128 128
3.1687 44.3883 -40.2481 128 128 128
-7.57617 -19.1519 -36.7834 128 128 128
-8.19558 16.7756 0 128 128 128
-19.9173 5.16178 -40.2841 128 128 128
-8.12784 -18.9019 -27.0914 128 128 128
-6.10229 -10.6238 -59.0095 128 128 128
8.287 -18.8293 -35.8935 128 128 128
6.69579 38.2281 -76.2931 128 128 128
-20.3122 -3.3397 -2.69443 128 128 128
-8.97335 -18.5181 -31.9244 128 128 128
-13.6126 22.9574 -76.0508 128 128 128
-8.41443 -18.7714 -38.4485 128 128 128
-7.62993 -19.1284 -11.4482 128 128 128
-9.4619 -14.2098 -40.7226 128 128 128
-14.0409 -14.7098 -44.6566 128 128 128
9.65223 -18.1522 -0.123698 128 128 128
17.1315 53.354 -71.943 128 128 128
-8.83788 -18.5689 -40.2759 128 128 128
-8.93215 -18.4599 -42.0449 128 128 128
7.33479 -12.1886 -54.8644 128 128 128
-12.2763 -16.5191 -37.3239 128 128 128
20.3406 4.01558 -45.5834 128 128 128
-10.3503 -17.771 -40.8069 128 128 128
8.44806 -18.7563 -34.1457 128 128 128
-20.4543 41.9016 -62.8961 128 128 128
8.08237 -18.9224 -31.7028 128 128 128
-13.1241 -15.8599 -15.3958 128 128 128
10.423 -17.7593 -1.80607 128 128 128
5.21081 42.2545 -76.8723 128 128 128
-15.4412 -13.613 -17.0227 128 128 128
7.6362 -19.1254 -16.34 128 128 128
3.28419 18.114 -80.8431 128 128 128
-16.2917 6.26001 -69.9346 128 128 128
-15.5307 7.02962 -3.26389 128 128 128
-6.05183 -13.5182 -61.3301 128 128 128
-16.8656 55.7483 -63.1095 128 128 128
-18.7515 21.2825 -52.1237 128 128 128
-4.88936 -16.3546 -10.417 128 128 128
-16.8644 3.38105 -55.7637 128 128 128
-1.54848 54.5307 -77.5791 128 128 128
8.01331 -18.9538 -28.3366 128 128 128
-14.599 -14.4975 -19.1568 128 128 128
-16.5982 15.8853 -55.9146 128 128 128
7.8346 -19.0355 -13.7948 128 128 128
11.2096 -12.9078 -36.5213 128 128 128
-12.0511 49.5107 -48.5247 128 128 128
13.285 10.7471 -23.8172 128 128 128
-10.5763 -13.3632 -9.65921 128 128 128
-11.1447 -17.2769 -7.52258 128 128 128
-7.91852 -18.993 -4.52054 128 128 128
-8.09687 -18.9012 -0.108532 128 128 128
-1.84788 -7.50766 -69.9624 128 128 128
-10.4711 -17.6308 0 128 128 128
-8.14117 -18.8829 -2.32848 128 128 128
5.9603 -12.3332 -63.1876 128 128 128
-9.87605 -18.0493 -3.77924 128 128 128
17.0784 50.0679 -61.2002 128 128 128
3.43991 -6.23531 -70.8316 128 128 128
-9.20722 -18.4041 -28.2715 128 128 128
-11.6527 -8.75666 -55.2197 128 128 128
19.9705 15.6832 -54.8658 128 128 128
-20.4937 1.99624 -35.5456 128 128 128
13.3869 10.2499 -69.4158 128 128 128
-7.03246 31.7194 -79.9494 128 128 128
-9.45632 -18.2727 -19.6802 128 128 128
14.556 -13.9113 -46.5856 128 128 128
7.18843 -10.4689 -58.328 128 128 128
-20.2662 7.69042 -50.9727 128 128 128
7.87386 -19.0136 -3.81467 128 128 128
18.3756 9.26638 -3.31485 128 128 128
14.8436 -9.81342 -57.0378 128 128 128
-12.7423 0.80426 -65.0754 128 128 128
-14.2088 -11.2768 -55.5618 128 128 128
-20.5695 16.9055 -59.9228 128 128 128
-9.38478 20.0896 -78.9173 128 128 128
-8.12888 -18.8958 -7.60672 128 128 128
-8.23946 -16.8472 0 128 128 128
-16.8503 11.7904 -61.7608 128 128 128
8.00467 15.0905 -31.6748 128 128 128
5.75746 48.998 -80.3669 128 128 128
7.64017 -3.07892 -71.8593 128 128 128
-5.90739 -16.1084 0 128 128 128
16.0441 -12.8961 -29.4576 128 128 128
9.4743 -18.2894 -38.7362 128 128 128
-16.8359 27.493 -72.4043 128 128 128
7.5799 54.446 -45.312 128 128 128
-12.8546 39.4258 -49.3488 128 128 128
-18.7695 8.44755 -12.4825 128 128 128
-13.9198 15.1189 -5.85151 128 128 128
-11.014 -13.0226 -1.84102 128 128 128
-9.73763 -10.1522 -55.9123 128 128 128
14.1524 -7.9824 -49.5616 128 128 128
11.2674 53.7785 -73.3944 128 128 128
8.97319 -18.5101 -23.2449 128 128 128
-15.2782 13.3924 -67.2611 128 128 128
-3.08147 25.1603 -40.2321 128 128 128
-16.7836 48.0731 -57.5322 128 128 128
-15.6454 -13.3739 -20.6733 128 128 128
-10.4111 -17.7713 -24.1772 128 128 128
16.7681 1.32549 -54.083 128 128 128
-15.6947 30.0817 -47.2642 128 128 128
9.34503 -18.3272 -20.3804 128 128 128
8.04626 35.4949 -45.5128 128 128 128
-6.33161 -15.8751 -24.1056 128 128 128
-18.8964 -8.13664 -38.2388 128 128 128
9.03782 54.0906 -75.0629 128 128 128
17.5052 -2.19746 -61.6499 128 128 128
-11.9465 -12.2203 -32.7276 128 128 128
-0.4943 35.4769 -77.6712 128 128 128
-3.40987 -6.88647 -65.2216 128 128 128
10.0286 -17.9757 -3.61144 128 128 128
18.972 32.9511 -52.5986 128 128 128
9.3465 -18.319 -14.75 128 128 128
-20.3947 -2.8962 -30.8846 128 128 128
-3.48944 -16.7013 -6.57385 128 128 128
8.42856 -18.7552 -10.3486 128 128 128
0.655132 37.3764 -81.1817 128 128 128
2.06801 -16.9485 -16.9954 128 128 128
7.98261 -18.9643 -6.16407 128 128 128
-19.704 -5.56085 -44.2232 128 128 128
7.49099 -16.46 0 128 128 128
-4.78207 32.5712 -76.9964 128 128 128
-18.7442 56.9819 -69.0347 128 128 128
-14.349 14.7331 -12.1787 128 128 128
20.5096 1.73654 -27.6199 128 128 128
8.73127 -18.4625 -43.4235 128 128 128
14.1512 5.31382 -65.969 128 128 128
-8.17551 14.986 -23.283 128 128 128
12.2683 28.2168 -72.4869 128 128 128
18.8074 52.1596 -68.9193 128 128 128
16.8214 45.773 -57.7386 128 128 128
0.797218 -17.067 -32.5323 128 128 128
4.52318 16.4766 -34.034 128 128 128
4.52652 23.2657 -40.5105 128 128 128
-0.741526 11.4378 -76.5116 128 128 128
7.83163 -18.6785 -45.1493 128 128 128
-10.0284 -11.2519 -53.021 128 128 128
-6.36043 -17.8215 -51.6789 128 128 128
-15.8941 -13.0485 -13.863 128 128 128
14.0286 21.8104 -70.3639 128 128 128
-20.5885 0.242246 -4.64382 128 128 128
3.59008 34.5698 -80.861 128 128 128
18.3806 54.1534 -51.4104 128 128 128
-11.4931 -17.0658 -23.108 128 128 128
-10.9345 19.498 -77.9921 128 128 128
-6.16743 -18.4223 -49.6832 128 128 128
16.5316 15.8123 -72.4985 128 128 128
-6.29799 25.1932 -44.7278 128 128 128
18.4959 39.5464 -69.6079 128 128 128
-7.72719 -15.2251 -20.7879 128 128 128
-19.3818 -6.84861 -1.3801 128 128 128
-8.64408 32.5912 -75.3368 128 128 128
1.40213 -18.3291 -53.2155 128 128 128
-15.4529 49.1965 -53.3223 128 128 128
20.4348 2.50732 -35.7767 128 128 128
12.3099 -16.4946 -27.3164 128 128 128
15.9383 -6.34727 -60.0705 128 128 128
-5.47068 22.88 -80.4595 128 128 128
-7.51566 -18.3619 -47.9 128 128 128
-20.5407 2.17686 -45.3627 128 128 128
16.5339 12.2508 -38.0709 128 128 128
-16.7059 -3.53277 -37.0267 128 128 128
-8.77001 -18.1672 -45.8696 128 128 128
13.1974 24.9958 -76.4115 128 128 128
-16.7633 3.26497 -35.309 128 128 128
5.97166 -15.9856 -12.1662 128 128 128
6.43133 -8.99886 -67.0992 128 128 128
12.0528 -12.1154 -26.1762 128 128 128
-3.65341 -18.2673 -52.5393 128 128 128
10.5212 -12.3547 -48.4951 128 128 128
0.604493 -11.7951 -65.3898 128 128 128
16.345 48.1022 -73.099 128 128 128
15.9925 33.333 -54.6807 128 128 128
8.88272 -3.93485 -70.5126 128 128 128
4.85041 -18.115 -52.1915 128 128 128
-9.94939 -18.0323 -29.875 128 128 128
-3.68744 -16.6823 -35.4949 128 128 128
15.3952 45.878 -74.2376 128 128 128
-3.36035 -16.7178 -1.39798 128 128 128
-9.44768 -14.2417 -2.53605 128 128 128
-2.79386 31.102 -77.4697 128 128 128
-19.661 -6.14323 -22.398 128 128 128
-1.03679 20.5612 -38.7714 128 128 128
-10.0928 -17.9537 -38.9267 128 128 128
17.0532 -0.656364 -5.67924 128 128 128
-9.07146 20.909 -75.0813 128 128 128
-11.4427 55.4677 -47.968 128 128 128
19.6481 10.456 -64.678 128 128 128
9.78833 -18.1206 -31.4792 128 128 128
-14.764 -14.3543 -28.3823 128 128 128
7.65748 -17.8857 -49.7084 128 128 128
12.3741 -11.7465 -12.6204 128 128 128
-18.2119 -7.73345 -50.3265 128 128 128
8.76977 -17.7462 -48.0954 128 128 128
-11.926 -13.386 0 128 128 128
1.20085 -6.35952 -66.2287 128 128 128
-16.7331 3.34237 -1.17421 128 128 128
-15.9831 27.1197 -54.6285 128 128 128
-10.0077 -17.7457 -43.9997 128 128 128
-18.3817 9.254 -2.65187 128 128 128
5.70583 -16.0842 -17.1713 128 128 128
-11.4755 17.0624 -32.8903 128 128 128
-12.3644 -16.4332 -0.335532 128 128 128
13.6734 -1.60867 -61.406 128 128 128
-20.0814 -4.33964 -0.849517 128 128 128
-4.40645 16.5125 -21.1026 128 128 128
4.14456 -16.5898 -16.5387 128 128 128
9.06195 -14.4829 -26.9683 128 128 128
-2.14332 40.7904 -77.5466 128 128 128
10.232 -17.5506 -44.552 128 128 128
-14.3404 -9.25431 -32.8475 128 128 128
17.033 4.87692 -55.2587 128 128 128
14.7054 20.2098 -69.3032 128 128 128
7.22716 19.284 -19.276 128 128 128
-9.91275 -14.5544 -55.9722 128 128 128
7.05213 -15.5736 -22.2728 128 128 128
14.4842 -14.6067 -21.6584 128 128 128
-14.1694 9.48084 -9.19858 128 128 128
14.9931 17.9646 -68.6502 128 128 128
10.3463 -9.39903 -56.3305 128 128 128
-5.57725 -17.4655 -53.5175 128 128 128
11.8662 -12.275 -1.58044 128 128 128
-17.0711 1.01989 -43.5763 128 128 128
0.951207 -15.6881 -49.9097 128 128 128
-13.0118 11.0328 -2.6629 128 128 128
4.52075 -17.3418 -54.6168 128 128 128
13.3982 -15.6065 -14.9516 128 128 128
6.11656 -17.3756 -53.2344 128 128 128
16.7188 19.4964 -48.5072 128 128 128
-4.85862 -14.3813 -51.8962 128 128 128
-9.40326 13.992 -78.3353 128 128 128
14.2203 47.9882 -70.0892 128 128 128
16.814 20.7235 -57.5083 128 128 128
14.9355 -14.1855 -23.486 128 128 128
-20.3898 2.89774 -16.1765 128 128 128
14.8621 -8.07982 -59.7927 128 128 128
-10.4076 -17.7735 -36.952 128 128 128
20.5615 0.963705 -25.2404 128 128 128
15.8181 -4.31218 -50.5285 128 128 128
-10.4539 -17.7448 -26.0206 128 128 128
1.61587 13.0315 -80.3835 128 128 128
-11.5165 12.6381 -33.7755 128 128 128
-6.28015 -5.68657 -65.2675 128 128 128
13.352 -10.6689 -33.8469 128 128 128
-13.4162 51.0525 -76.1921 128 128 128
-17.7421 37.9456 -71.0631 128 128 128
-10.5329 -17.6958 -34.8474 128 128 128
-1.92319 26.9762 -81.0867 128 128 128
16.7347 -0.871915 -50.74 128 128 128
10.5922 -17.6591 -37.1596 128 128 128
-18.802 8.40178 -26.7801 128 128 128
-11.899 -16.7925 -25.1567 128 128 128
15.681 -13.3207 -16.0332 128 128 128
10.599 -17.6549 -18.861 128 128 128
9.14136 23.7937 -75.0395 128 128 128
17.9622 9.99892 -9.39549 128 128 128
15.6691 -13.3461 -21.1363 128 128 128
5.23665 11.9389 -75.8173 128 128 128
20.2413 6.14498 -48.5025 128 128 128
-14.4247 -2.93664 -66.2576 128 128 128
-19.8194 36.365 -66.0833 128 128 128
11.9673 37.4183 -72.759 128 128 128
2.43251 -16.8847 -13.9322 128 128 128
-7.14314 15.5182 -4.80061 128 128 128
10.465 -17.7379 -34.63 128 128 128
-1.24085 42.7354 -40.0718 128 128 128
10.3822 -17.7892 -5.3004 128 128 128
-11.0388 -10.9435 -51.6582 128 128 128
10.8925 -17.473 -27.6078 128 128 128
-7.3911 19.7007 -79.7905 128 128 128
16.6018 2.95415 -57.0867 128 128 128
-4.55309 20.0324 -77.0404 128 128 128
-8.94809 38.3174 -79.1549 128 128 128
-7.98323 -10.367 -64.6259 128 128 128
12.9512 14.5563 -71.1177 128 128 128
-5.70778 19.7532 -11.7037 128 128 128
-18.1254 23.0121 -70.3626 128 128 128
-3.28545 -16.7484 -24.571 128 128 128
-16.9478 15.9772 -57.9564 128 128 128
-17.5394 -0.27097 -63.4224 128 128 128
-10.5817 -17.651 -1.71193 128 128 128
15.1809 -13.9179 -32.1641 128 128 128
-4.96626 35.3084 -40.6263 128 128 128
-10.8314 -17.4942 -9.69153 128 128 128
20.5011 1.50879 -9.88807 128 128 128
15.1232 36.1314 -74.5492 128 128 128
-13.9251 -15.1289 -25.5278 128 128 128
-16.7466 -11.8685 -42.2131 128 128 128
-15.1601 41.7984 -46.7033 128 128 128
-11.0376 -17.3724 -20.7976 128 128 128
-10.8327 -17.5028 -15.2607 128 128 128
-11.5634 -17.0268 -28.3503 128 128 128
-1.43742 14.4143 -80.6645 128 128 128
-13.3395 21.3022 -71.2661 128 128 128
6.86525 11.1961 -74.9623 128 128 128
-10.4674 50.027 -42.9057 128 128 128
-11.0237 -17.3756 -17.0541 128 128 128
-7.15052 -15.5274 -29.014 128 128 128
3.17383 -16.3592 -45.4699 128 128 128
-18.8908 -2.90989 0 128 128 128
5.17077 -6.63044 -69.9981 128 128 128
8.3564 18.8249 -34.0823 128 128 128
0.653257 -17.0715 -20.5127 128 128 128
16.5812 -12.1873 -13.998 128 128 128
16.8634 2.8342 -31.7972 128 128 128
15.1396 -13.9662 -34.5564 128 128 128
-12.0497 -16.6784 -18.4125 128 128 128
-10.295 30.7483 -78.3975 128 128 128
-9.82992 16.0424 -44.8166 128 128 128
16.1676 5.56758 -14.5971 128 128 128
-14.057 -14.9948 -13.8514 128 128 128
3.0295 46.3007 -40.2248 128 128 128
-0.780071 -17.0677 -38.2802 128 128 128
-15.8208 60.264 -67.0001 128 128 128
-7.99142 53.92 -41.6637 128 128 128
-11.2434 -17.2171 -11.8949 128 128 128
-9.44414 17.0503 -74.6475 128 128 128
11.809 -12.3562 -10.9841 128 128 128
-6.17335 15.9274 -19.6591 128 128 128
11.7906 57.0244 -72.911 128 128 128
-19.1204 -1.26873 -57.79 128 128 128
-10.9522 -15.2805 0 128 128 128
11.9341 -1.24269 -70.2804 128 128 128
14.6409 49.8248 -46.1581 128 128 128
-17.0911 0.305698 -13.71 128 128 128
-0.242381 -12.0048 -58.8475 128 128 128
-14.2164 -4.38503 -56.6562 128 128 128
16.9594 -1.21955 -45.6422 128 128 128
11.4419 -17.1044 -25.2642 128 128 128
12.1747 -16.5655 -2.073 128 128 128
4.61316 -9.10536 -62.0999 128 128 128
13.501 -9.2589 -48.4962 128 128 128
11.0145 -17.3887 -21.1162 128 128 128
15.7342 27.0298 -53.9265 128 128 128
11.435 -17.1061 -23.5358 128 128 128
12.4543 -16.3847 -7.91979 128 128 128
6.7958 8.04497 -77.9755 128 128 128
-11.8875 -16.8022 -32.2915 128 128 128
-15.9505 54.6236 -66.6258 128 128 128
11.1967 -17.2563 -16.26 128 128 128
-0.48692 26.1517 -77.6716 128 128 128
-14.0521 -9.67309 -16.0972 128 128 128
13.0274 -11.0214 -5.28291 128 128 128
-12.2766 16.5237 -27.9844 128 128 128
-18.8619 30.8806 -52.3695 128 128 128
-6.54336 -15.7898 -12.4842 128 128 128
-1.3472 -17.0443 -21.3321 128 128 128
16.4162 -12.3677 -41.6591 128 128 128
-17.9532 9.99207 -1.12885 128 128 128
10.0787 -16.4555 0 128 128 128
-0.531655 -9.51489 -62.598 128 128 128
15.9479 6.10746 -11.2811 128 128 128
20.1686 36.3002 -56.4247 128 128 128
-3.04393 -16.5152 -57.2936 128 128 128
-16.9808 1.40839 -51.4708 128 128 128
20.4573 22.7553 -62.9554 128 128 128
-2.51854 -17.4292 -55.339 128 128 128
-0.688686 -17.4508 -55.6695 128 128 128
-20.5644 43.124 -60.0624 128 128 128
-4.28547 -11.8797 -64.5159 128 128 128
-15.9489 6.06986 -1.49984 128 128 128
-0.162992 -16.5776 -57.6708 128 128 128
-4.96374 -17.0105 -55.1845 128 128 128
2.21898 -16.9184 -11.8739 128 128 128
15.3421 -11.1068 -53.0526 128 128 128
9.89287 48.661 -42.5718 128 128 128
11.5707 -14.5566 -53.3833 128 128 128
-16.6059 -3.90361 -13.5137 128 128 128
3.59195 16.693 -30.4699 128 128 128
5.32387 16.2251 0 128 128 128
2.24937 -16.868 -56.6972 128 128 128
-9.08258 -16.4796 -52.2384 128 128 128
-8.05633 -14.5895 -45.7397 128 128 128
-12.7511 43.9608 -49.2239 128 128 128
-15.0842 25.2428 -52.5936 128 128 128
12.848 22.0055 -71.8592 128 128 128
3.71964 -16.1499 -57.8103 128 128 128
1.90951 52.4954 -77.5517 128 128 128
-4.70481 -16.4207 -36.9956 128 128 128
7.79966 -17.0526 -52.362 128 128 128
-8.41236 6.93417 -72.7112 128 128 128
16.1616 -12.7582 -33.5806 128 128 128
-14.364 50.9431 -69.874 128 128 128
-10.219 -7.12507 -66.6204 128 128 128
-15.5906 -13.438 -24.3095 128 128 128
20.5724 1.0055 -45.5816 128 128 128
-15.815 -5.72127 -46.2774 128 128 128
-11.1786 -16.0176 -49.6327 128 128 128
-14.5594 46.3852 -69.541 128 128 128
-20.4952 1.80647 -21.271 128 128 128
12.067 21.3133 -43.9089 128 128 128
-12.7887 -16.1459 -26.713 128 128 128
19.1167 -7.25863 -44.3882 128 128 128
-9.9538 13.8481 -2.44927 128 128 128
14.5391 8.95175 -32.4894 128 128 128
-12.2498 -16.5384 -35.259 128 128 128
-5.99817 -9.73687 -66.4611 128 128 128
-17.8821 24.6844 -70.8209 128 128 128
15.1068 -7.99897 -24.3346 128 128 128
4.54846 -16.4688 -29.391 128 128 128
-8.36982 18.3222 -79.3123 128 128 128
-12.4648 -16.3819 -30.0635 128 128 128
-12.6879 -16.2193 -5.99672 128 128 128
16.002 12.8835 -1.30091 128 128 128
-7.61615 -15.2806 -17.6169 128 128 128
-11.835 -16.8141 -40.7053 128 128 128
19.786 -5.70369 -12.108 128 128 128
11.8348 -16.8406 -35.1358 128 128 128
-19.1156 7.53899 -4.81399 128 128 128
18.8171 -8.3059 -6.78726 128 128 128
8.91673 51.2148 -79.1692 128 128 128
8.07204 13.8031 -78.9139 128 128 128
-2.32155 -16.8947 -5.07522 128 128 128
12.7814 -16.1513 -32.7128 128 128 128
-19.9766 4.85099 -29.9406 128 128 128
12.648 -16.2484 -36.7939 128 128 128
6.17232 15.939 -31.4128 128 128 128
-6.00292 -5.45762 -70.682 128 128 128
-14.1752 -14.8889 -17.4336 128 128 128
-3.12424 11.4669 -76.2361 128 128 128
18.1355 9.75862 -39.5582 128 128 128
15.5375 13.4906 -18.2821 128 128 128
18.0146 18.2566 -70.439 128 128 128
7.73838 60.4893 -79.6309 128 128 128
-10.8671 23.2707 -47.4 128 128 128
-14.0451 -15.0263 -35.2781 128 128 128
-5.95859 38.2461 -44.5889 128 128 128
12.6077 -16.2778 -18.7092 128 128 128
12.2847 -16.513 -29.1821 128 128 128
11.3005 28.6746 -43.3867 128 128 128
-12.5702 -16.1123 -43.3986 128 128 128
-17.0426 59.2896 -59.9166 128 128 128
-8.21477 -14.809 -43.2179 128 128 128
-1.22831 -17.0433 -40.15 128 128 128
-14.693 -13.0623 -49.6297 128 128 128
17.5796 2.35921 -65.4327 128 128 128
-0.940299 -17.0533 -8.00798 128 128 128
2.55774 20.3959 -7.19236 128 128 128
0.480184 -17.0801 -39.8623 128 128 128
-16.939 2.16957 -14.0693 128 128 128
17.355 -2.76942 0 128 128 128
-3.48704 -16.6984 -3.19887 128 128 128
0.852574 -17.0647 -37.7613 128 128 128
2.2227 37.708 -40.1394 128 128 128
6.01508 29.5668 -40.9003 128 128 128
-16.9911 -1.51418 -12.409 128 128 128
-0.909319 -17.0563 -10.0981 128 128 128
-15.806 6.46277 -20.0675 128 128 128
4.41016 -16.5114 -39.0742 128 128 128
13.5407 32.0085 -50.1882 128 128 128
-16.4474 -4.57622 -24.2503 128 128 128
-13.8533 -9.93121 -41.8283 128 128 128
12.6858 43.7924 -49.1451 128 128 128
-10.9828 -12.5728 -45.8671 128 128 128
-18.7351 4.16418 -64.0273 128 128 128
-0.115657 -17.0866 -30.7921 128 128 128
-2.1961 47.324 -40.1488 128 128 128
8.75193 26.1644 -41.953 128 128 128
15.3755 -7.44508 -22.7368 128 128 128
16.8412 -11.8494 -35.1939 128 128 128
0.0245055 -17.0485 -4.73915 128 128 128
-0.717559 -17.0703 -34.6608 128 128 128
-15.4254 24.0792 -74.2154 128 128 128
-15.2282 -7.21458 -45.195 128 128 128
20.1563 22.2233 -64.7813 128 128 128
-17.4627 18.677 -49.5292 128 128 128
12.405 -9.9873 -60.8363 128 128 128
6.11635 -16.6041 -55.2936 128 128 128
-1.55415 -14.0168 -62.1457 128 128 128
-12.2376 -16.128 -45.4646 128 128 128
-19.9764 6.43369 -46.7402 128 128 128
11.8674 -16.5958 -43.7676 128 128 128
2.83995 -16.81 -6.9053 128 128 128
-16.0728 2.86423 -59.4647 128 128 128
-1.49576 -17.0332 -29.8318 128 128 128
12.8892 -11.2087 -36.8922 128 128 128
-9.46309 -13.8356 -45.2206 128 128 128
7.82356 -15.1488 -3.93812 128 128 128
-3.69482 16.668 -7.6145 128 128 128
-1.92632 -16.9903 -36.465 128 128 128
16.4688 -9.59371 -53.1163 128 128 128
-19.8136 5.50756 -23.2077 128 128 128
-1.55704 -17.0271 -25.9667 128 128 128
3.46856 -16.6984 -40.621 128 128 128
1.4257 -17.0402 -1.26465 128 128 128
-16.7027 42.1892 -56.9956 128 128 128
-20.5155 1.27906 -7.90019 128 128 128
16.5951 11.957 -63.0157 128 128 128
-15.7536 -5.45092 -61.5626 128 128 128
14.1206 -14.9304 -8.78908 128 128 128
-2.19531 -16.9266 -16.3047 128 128 128
15.9672 -8.37214 -56.983 128 128 128
-3.21789 -16.7496 -9.74211 128 128 128
-1.93657 -16.9655 -11.9359 128 128 128
-17.0357 1.06534 -17.9643 128 128 128
17.3313 11.0999 -16.1371 128 128 128
-11.2946 43.8191 -73.3886 128 128 128
-3.07733 -16.7821 -19.1547 128 128 128
-9.6949 -14.0493 -18.7021 128 128 128
-17.0815 -0.138011 -41.0457 128 128 128
-3.07142 -16.779 -14.917 128 128 128
-13.4163 -13.7035 -51.5266 128 128 128
-10.956 -13.1158 -40.257 128 128 128
19.8695 -3.21827 -50.2793 128 128 128
3.5781 -16.6834 -3.37655 128 128 128
1.86574 -16.9741 -8.53432 128 128 128
-18.5685 -8.91775 -4.28556 128 128 128
19.7664 -5.73902 -3.97986 128 128 128
-6.06942 -0.437787 -69.8956 128 128 128
-19.3836 -6.90624 -19.716 128 128 128
-17.0253 34.6696 -59.0621 128 128 128
-15.2948 13.7767 -7.42725 128 128 128
-18.7774 8.41264 -8.18199 128 128 128
1.76446 -16.9877 -5.11705 128 128 128
-16.8951 2.56205 -26.2891 128 128 128
-4.02857 55.4798 -44.0332 128 128 128
-3.36498 -16.733 -21.5465 128 128 128
-8.51674 -14.7965 -27.8486 128 128 128
17.8762 -9.88541 0 128 128 128
12.3483 16.4451 -3.93504 128 128 128
-19.6957 -6.03264 -27.7962 128 128 128
-15.8103 -6.43798 -15.9563 128 128 128
-2.58655 -16.8752 -32.8065 128 128 128
-3.86793 -16.6465 -26.5191 128 128 128
2.93971 -8.62806 -63.3146 128 128 128
4.74852 -16.4073 -36.1657 128 128 128
20.3418 3.20721 -41.9926 128 128 128
2.80989 -16.8347 -30.3496 128 128 128
7.34271 19.2422 -24.8909 128 128 128
3.27663 -16.7496 -23.9667 128 128 128
7.21784 -15.3961 -42.2488 128 128 128
3.52701 -16.704 -20.5695 128 128 128
9.14066 14.4376 -37.2506 128 128 128
-8.06889 -4.84803 -64.9541 128 128 128
-7.79067 -13.1647 -51.8708 128 128 128
10.8214 -13.2199 -31.9532 128 128 128
-0.725667 31.3942 -40.0387 128 128 128
6.78836 4.59112 -72.5203 128 128 128
-19.2822 55.9367 -67.79 128 128 128
16.898 -2.53538 -40.0165 128 128 128
2.90973 -16.8162 -28.2191 128 128 128
3.20342 -16.7676 -35.4649 128 128 128
1.47167 -16.8126 -43.6755 128 128 128
-17.0875 0.429092 -30.823 128 128 128
-0.685166 11.6754 -80.1834 128 128 128
-5.45621 -16.1733 -19.4474 128 128 128
-7.33759 -15.4263 -14.0711 128 128 128
5.4571 -5.04258 -71.2773 128 128 128
-1.66886 -16.7147 -44.4054 128 128 128
15.8998 1.98737 -59.301 128 128 128
13.3299 20.6374 -76.2989 128 128 128
-3.74359 -16.4368 -43.9608 128 128 128
15.5479 -7.08541 -29.5367 128 128 128
0.331863 -16.6594 -45.5344 128 128 128
-20.3104 14.0417 -62.9719 128 128 128
-15.4642 9.01534 -46.6242 128 128 128
11.1012 -3.82155 -68.9967 128 128 128
11.4476 -16.6649 -45.81 128 128 128
17.014 -11.6133 -25.7561 128 128 128
18.5534 45.205 -51.7525 128 128 128
5.79132 1.04808 -75.275 128 128 128
11.0517 -13.0435 -33.8378 128 128 128
-15.7477 17.5877 -53.6173 128 128 128
-18.3965 18.3633 -69.7579 128 128 128
-14.9932 -8.2206 -35.236 128 128 128
-4.15931 -16.5862 -38.9939 128 128 128
-11.7219 6.73467 -69.9294 128 128 128
-16.1317 30.8402 -66.1473 128 128 128
4.05053 -16.6128 -31.4633 128 128 128
4.14985 -16.5885 -8.90799 128 128 128
-16.8007 29.4005 -63.7292 128 128 128
-16.999 6.99872 -53.2396 128 128 128
-13.8768 53.2842 -70.5328 128 128 128
15.3725 7.43076 -14.5093 128 128 128
-10.3728 -10.8724 -61.9171 128 128 128
19.7492 5.83004 -38.2025 128 128 128
9.22255 -6.28203 -68.2403 128 128 128
13.4576 -10.5458 -30.5661 128 128 128
11.2358 12.8703 -16.1574 128 128 128
-0.983983 -14.9122 -60.8126 128 128 128
-0.597835 -16.0707 -48.5603 128 128 128
-4.71808 -16.4166 -17.44 128 128 128
9.93951 -13.8817 -30.2158 128 128 128
-16.4639 7.65236 -49.4697 128 128 128
-5.18598 6.88771 -78.106 128 128 128
20.4624 29.2752 -62.9062 128 128 128
13.4288 -15.5683 -4.98975 128 128 128
-5.48285 -16.1214 -41.5231 128 128 128
-2.26196 -0.57688 -75.1363 128 128 128
4.93931 -16.3486 -24.0404 128 128 128
12.5016 3.89695 -67.5907 128 128 128
-20.0019 -4.74495 -10.0123 128 128 128
4.2788 -16.5518 -11.2231 128 128 128
4.90344 -16.3596 -19.0353 128 128 128
9.44881 30.7977 -42.3129 128 128 128
-16.6423 3.70098 -15.8097 128 128 128
1.81394 -9.91636 -61.9449 128 128 128
14.2381 19.5444 -51.1264 128 128 128
-5.22567 -16.2274 -2.42401 128 128 128
-3.44598 60.4801 -43.8929 128 128 128
-14.2327 -3.35525 -58.076 128 128 128
6.51924 0.944382 -70.586 128 128 128
15.3953 -13.6668 -14.1192 128 128 128
-13.6166 -10.3286 -10.0107 128 128 128
-5.65394 -16.0853 -5.76055 128 128 128
-18.9379 3.21965 0 128 128 128
-16.3166 4.98716 -7.00539 128 128 128
-5.80009 -16.0779 -34.8869 128 128 128
-5.11622 -16.2843 -15.5873 128 128 128
-3.33202 16.7237 -2.55652 128 128 128
-0.776502 -8.11556 -64.35 128 128 128
-16.2222 5.93659 -61.3787 128 128 128
-4.81233 -16.3773 -7.84214 128 128 128
17.0468 2.56948 -47.1276 128 128 128
-4.76923 20.0318 -36.2525 128 128 128
15.1085 59.5224 -52.7095 128 128 128
-5.47356 -16.1702 -21.4407 128 128 128
18.9973 11.5644 -67.0026 128 128 128
-13.915 15.1299 -9.20582 128 128 128
5.28033 -16.2263 -14.4625 128 128 128
15.0517 -13.8636 -43.2659 128 128 128
-17.8195 -1.44774 -61.5979 128 128 128
4.87775 -16.3448 -1.03117 128 128 128
19.9296 26.4945 -65.7505 128 128 128
20.2616 -3.58419 -6.36943 128 128 128
5.98138 -15.9689 -3.06428 128 128 128
14.8609 14.2467 -6.36874 128 128 128
5.5083 -16.1573 -20.7398 128 128 128
-18.5637 -8.92913 -36.6853 128 128 128
10.0453 -15.7183 -52.8682 128 128 128
-8.02572 -15.0676 -23.6231 128 128 128
11.2149 -16.1064 -49.2186 128 128 128
12.4598 -15.5084 -47.88 128 128 128
8.64473 35.1791 -79.2877 128 128 128
-9.12918 28.9636 -42.1422 128 128 128
7.57163 -11.7624 -63.0495 128 128 128
13.5305 10.4555 -6.97445 128 128 128
-12.8951 -16.0641 -20.0229 128 128 128
-11.7999 53.4915 -48.2956 128 128 128
-4.51577 -16.0212 -45.7155 128 128 128
1.33932 -16.0824 -48.2804 128 128 128
13.9832 15.0532 -2.3615 128 128 128
-18.9849 15.5017 -51.5201 128 128 128
-20.48 37.1724 -62.7373 128 128 128
-1.96085 -15.9337 -58.7251 128 128 128
-17.09 -11.4981 -31.836 128 128 128
-18.0838 -9.76268 -15.0536 128 128 128
11.9151 -1.48118 -64.2593 128 128 128
11.4023 12.7385 -33.1392 128 128 128
-7.61207 -16.3628 -54.5763 128 128 128
-4.21464 39.9589 -44.0577 128 128 128
14.6472 44.6216 -69.3835 128 128 128
8.981 -15.7742 -54.3731 128 128 128
20.5508 16.9165 -59.2119 128 128 128
18.5844 -3.13829 -57.4284 128 128 128
-14.1633 56.1917 -70.1581 128 128 128
-6.14731 -15.949 -38.0428 128 128 128
-13.3281 -15.6911 -38.7524 128 128 128
-13.6987 -15.3414 -29.7355 128 128 128
-18.7742 -8.42769 -33.2161 128 128 128
5.66767 16.0745 -1.63747 128 128 128
-8.53814 30.2761 -75.4002 128 128 128
-17.3542 28.342 -49.5384 128 128 128
-19.7931 5.83123 -42.2506 128 128 128
-11.5568 8.258 -75.5319 128 128 128
-7.20018 15.5026 -15.4424 128 128 128
-13.3007 -15.7121 -33.6291 128 128 128
-9.07207 -1.99537 -71.852 128 128 128
-14.289 -14.7985 -32.0147 128 128 128
16.1349 -12.7554 -17.6951 128 128 128
-15.0538 14.0585 -37.0568 128 128 128
13.5021 45.9145 -76.1324 128 128 128
17.0701 58.0226 -59.8579 128 128 128
-14.4519 -14.6178 -3.88967 128 128 128
11.2776 -12.3315 -45.6644 128 128 128
-8.46107 18.5081 -45.3769 128 128 128
-7.74908 19.0817 -35.6329 128 128 128
-4.61126 40.237 -77.0414 128 128 128
-14.4242 -14.6628 -22.0222 128 128 128
4.83201 32.8951 -76.9819 128 128 128
-15.5844 55.7105 -47.1855 128 128 128
16.7115 -11.9983 -2.77761 128 128 128
20.1538 1.05581 0 128 128 128
10.7597 13.2205 -13.9434 128 128 128
-6.41341 23.4045 -76.4222 128 128 128
-14.1725 -14.8843 -10.6697 128 128 128
19.0365 -7.80282 -38.0894 128 128 128
-13.3058 -15.6789 -1.71537 128 128 128
-16.2531 -12.6024 -15.6309 128 128 128
17.3668 -11.0503 -20.4314 128 128 128
-14.4056 -14.6646 -7.45599 128 128 128
14.8271 54.4629 -46.3671 128 128 128
0.875047 -0.212093 -75.5125 128 128 128
-14.6195 -14.4592 -0.920403 128 128 128
-1.01484 -15.5928 -50.2339 128 128 128
-13.1953 -14.5951 0 128 128 128
10.5138 -13.432 -13.4929 128 128 128
-3.04526 -1.8325 -74.2485 128 128 128
13.2507 -15.7516 -25.5698 128 128 128
13.279 -15.7232 -22.8752 128 128 128
-20.5693 30.9774 -60.179 128 128 128
14.1482 -14.9336 -38.1483 128 128 128
20.4406 -2.36316 -27.0132 128 128 128
7.65198 -15.2862 -35.0549 128 128 128
12.5884 11.4908 -1.74502 128 128 128
1.35096 6.11383 -78.4903 128 128 128
-19.0444 1.80717 -61.2431 128 128 128
13.7301 -15.3172 -35.4227 128 128 128
-20.3853 4.67316 -48.0244 128 128 128
13.4817 -15.5426 -30.7001 128 128 128
13.8832 -15.1743 -33.5885 128 128 128
-7.12484 -3.03832 -72.1221 128 128 128
18.2325 26.586 -51.0628 128 128 128
-14.1974 -14.7559 -42.9584 128 128 128
14.2185 -14.8442 -13.1861 128 128 128
18.3887 -8.69547 -45.6508 128 128 128
5.59971 -14.1781 -51.8065 128 128 128
13.8748 -9.94869 -20.9935 128 128 128
14.5473 -14.5324 -6.78555 128 128 128
8.67717 -14.6911 -6.89951 128 128 128
19.319 7.8742 -44.5777 128 128 128
14.5279 -14.5706 -25.7872 128 128 128
5.32523 15.7772 -76.4831 128 128 128
5.06457 44.9836 -40.6627 128 128 128
13.8241 -15.2142 -16.9018 128 128 128
-13.6575 27.1127 -45.2168 128 128 128
17.0711 0.944827 -45.4558 128 128 128
19.015 -7.85412 -30.0955 128 128 128
14.3204 -14.739 -3.03068 128 128 128
-20.4187 2.67867 -42.4256 128 128 128
-19.2702 -7.24623 -35.4214 128 128 128
-19.1559 -2.53084 -55.9727 128 128 128
11.4211 -4.73333 -61.6023 128 128 128
6.25344 -15.5495 -44.8243 128 128 128
13.9629 -15.0874 -18.8167 128 128 128
7.86413 6.67228 -72.9387 128 128 128
14.1415 -14.9132 -10.8699 128 128 128
2.02613 20.48 -11.2479 128 128 128
15.1198 7.97207 -28.7544 128 128 128
-19.4011 6.87677 -40.9765 128 128 128
4.68379 16.4656 -40.6265 128 128 128
13.2231 -14.8502 0 128 128 128
14.119 44.2379 -75.5959 128 128 128
11.5606 -7.67582 -64.8038 128 128 128
6.46066 -15.8234 -24.9705 128 128 128
-18.0183 50.3846 -50.6557 128 128 128
5.93132 -15.9811 -41.3859 128 128 128
4.76035 16.4036 -37.9914 128 128 128
12.6461 -10.6548 -47.2161 128 128 128
17.0711 7.93386 -57.2296 128 128 128
-6.57256 -15.5401 -43.7333 128 128 128
8.90574 -6.45807 -62.4424 128 128 128
-2.78248 -15.1619 -51.0363 128 128 128
-13.9862 11.3554 -45.5762 128 128 128
-5.50864 -15.6109 -57.981 128 128 128
-16.8745 8.32423 -59.7698 128 128 128
16.5334 4.15246 -17.2891 128 128 128
-6.34523 -14.4081 -59.665 128 128 128
14.1057 -14.9236 -41.3546 128 128 128
-9.49295 5.40064 -71.3 128 128 128
13.3864 -15.5221 -42.8402 128 128 128
-14.1458 13.769 -48.6641 128 128 128
11.9162 -9.1047 -62.6451 128 128 128
-7.31307 -15.451 -26.5023 128 128 128
15.4862 -13.5603 -39.7688 128 128 128
-7.48422 -15.3705 -35.1383 128 128 128
9.96207 13.8413 -2.0085 128 128 128
-19.8222 -5.56803 -15.7722 128 128 128
16.6227 17.9565 -64.3261 128 128 128
-14.4904 29.5642 -69.6683 128 128 128
-12.8415 16.1076 -23.2354 128 128 128
-5.32966 -11.7834 -57.4805 128 128 128
9.77312 -4.77662 -63.4903 128 128 128
10.669 17.6009 -31.8194 128 128 128
7.35676 -15.4305 -30.7044 128 128 128
17.5027 -10.115 -46.7455 128 128 128
6.95113 -15.6211 -32.9118 128 128 128
-18.6209 18.7673 -51.7089 128 128 128
-9.70061 60.5991 -78.7197 128 128 128
7.2742 -15.4693 -27.5079 128 128 128
-16.7042 -3.50504 -11.0997 128 128 128
8.63569 18.6757 -23.5109 128 128 128
-16.4823 -12.289 -4.24269 128 128 128
-7.31575 -15.4318 -9.66062 128 128 128
8.80452 55.8401 -75.2123 128 128 128
16.2556 5.29672 -26.9394 128 128 128
16.9823 55.2924 -58.786 128 128 128
-7.83277 -15.1476 -6.603 128 128 128
-6.85661 13.7129 -75.5454 128 128 128
-10.7448 36.1153 -43.0431 128 128 128
-7.5697 -15.2848 -3.00892 128 128 128
16.2384 5.31166 -5.7498 128 128 128
-7.68289 -15.2635 -30.9073 128 128 128
-7.65597 -15.2869 -37.0701 128 128 128
9.73085 -14.0351 -10.691 128 128 128
8.26019 -14.9338 -18.7988 128 128 128
-12.3041 46.1707 -77.0874 128 128 128
8.24127 -14.9537 -25.5766 128 128 128
9.24865 -14.3755 -2.86255 128 128 128
6.34221 19.5863 -32.3608 128 128 128
-9.74994 8.67231 -76.8316 128 128 128
0.0171893 -5.86616 -71.5031 128 128 128
3.69436 16.6642 -6.94783 128 128 128
-4.23288 20.1521 -38.1702 128 128 128
14.7908 32.0365 -69.1525 128 128 128
8.42587 -14.8184 -0.819676 128 128 128
17.0245 49.9426 -72.1016 128 128 128
7.84771 -15.1425 -8.6841 128 128 128
14.3145 -9.28131 -22.74 128 128 128
-4.21195 20.1485 -21.7708 128 128 128
-3.4892 16.6996 -4.84262 128 128 128
-6.18962 -15.2519 -46.8197 128 128 128
-17.0711 2.25208 -48.7514 128 128 128
1.59767 -13.2829 -63.2838 128 128 128
-12.1737 29.5831 -48.6267 128 128 128
-9.88437 -4.64536 -69.2331 128 128 128
-8.9084 -14.5712 -14.9263 128 128 128
-8.9581 -14.5426 -22.1415 128 128 128
-19.4631 7.97758 -45.8855 128 128 128
20.4352 -2.4926 -36.4485 128 128 128
-8.74069 -14.6677 -33.548 128 128 128
15.3754 26.9339 -46.9085 128 128 128
-20.442 0.450995 -51.1313 128 128 128
-15.0114 -8.18807 -9.37317 128 128 128
8.48488 -14.8149 -23.1983 128 128 128
-13.3763 42.0942 -71.2005 128 128 128
5.28817 26.2372 -80.4959 128 128 128
20.3492 -3.17529 -24.4584 128 128 128
8.70481 -14.6884 -31.5272 128 128 128
16.4185 -3.14246 -62.914 128 128 128
8.55036 -14.7546 -40.5745 128 128 128
-0.839022 -14.5307 -53.4717 128 128 128
-14.6405 -5.72351 -63.1549 128 128 128
-8.47783 -14.1629 -58.3635 128 128 128
-7.60439 -1.39487 -73.0794 128 128 128
-19.2367 45.0869 -67.9647 128 128 128
10.3942 -13.5295 -16.5039 128 128 128
10.8549 -12.6303 -58.5635 128 128 128
8.65688 -14.4892 -43.7497 128 128 128
17.793 -10.1889 -42.8088 128 128 128
-2.68646 -14.3435 -53.4294 128 128 128
15.491 11.8997 -72.9828 128 128 128
3.54138 -12.7299 -63.6347 128 128 128
7.38796 48.3627 -45.224 128 128 128
17.086 0.208634 -2.48 128 128 128
1.56462 -14.8117 -52.588 128 128 128
-1.14042 41.0361 -43.5706 128 128 128
-7.08845 -14.3927 -48.9418 128 128 128
-8.00105 4.32987 -71.7653 128 128 128
5.5919 -14.9301 -49.288 128 128 128
-9.60302 3.82806 -70.3855 128 128 128
-3.81114 -10.9618 -65.8639 128 128 128
0.252231 -14.0621 -62.1656 128 128 128
-17.003 1.60077 -36.2634 128 128 128
13.7255 -14.3042 -48.4435 128 128 128
-14.205 -9.44997 -23.9343 128 128 128
13.1059 -10.9559 -22.3553 128 128 128
15.9775 -5.12668 -61.5474 128 128 128
-16.2562 12.5752 -15.8879 128 128 128
-4.09614 -14.5152 -60.6739 128 128 128
4.60905 -14.5276 -60.4457 128 128 128
-3.96927 52.4025 -44.0137 128 128 128
17.083 -0.419079 -40.9861 128 128 128
9.434 -12.6833 -50.3095 128 128 128
-6.31851 44.7052 -80.1987 128 128 128
14.1685 34.8538 -75.5477 128 128 128
-12.1501 -13.1089 -55.6981 128 128 128
11.0298 -13.0442 -22.854 128 128 128
1.91244 1.48514 -72.3437 128 128 128
-15.9345 6.17037 -39.2351 128 128 128
2.22567 16.9296 -28.7153 128 128 128
-10.6991 54.9691 -73.9215 128 128 128
-10.7484 18.1094 -73.7845 128 128 128
4.75774 -13.488 -62.0398 128 128 128
5.79877 45.9431 -80.3616 128 128 128
15.5135 -7.12547 -18.9628 128 128 128
18.8517 23.2836 -52.332 128 128 128
-15.83 -13.1578 -31.5592 128 128 128
4.92301 47.063 -76.9525 128 128 128
9.38978 -13.4698 -58.7898 128 128 128
12.0207 -7.73254 -56.3384 128 128 128
-15.0404 -14.0752 -38.5411 128 128 128
14.3209 14.7732 -19.3383 128 128 128
-9.9815 17.9941 -0.414507 128 128 128
3.03622 48.2445 -40.2257 128 128 128
15.0015 -14.1161 -28.0654 128 128 128
1.39085 17.1124 -40.8083 128 128 128
6.99733 -13.1363 -52.9847 128 128 128
2.28033 16.9272 -35.2948 128 128 128
-5.31003 58.9687 -76.8372 128 128 128
-10.5704 -13.3679 -6.65989 128 128 128
-13.1164 16.6168 -76.2383 128 128 128
-3.31022 -8.26717 -63.6669 128 128 128
19.0257 7.8058 -15.6058 128 128 128
-12.7967 -11.309 -22.824 128 128 128
20.1063 -4.39065 -26.6586 128 128 128
18.5994 2.68826 -63.3374 128 128 128
-9.67464 -14.0651 -25.7273 128 128 128
-9.67184 -14.0672 -29.7608 128 128 128
8.24896 -13.7677 -49.0061 128 128 128
-9.67089 -14.068 -4.29917 128 128 128
0.508364 17.079 -35.0742 128 128 128
-9.79489 -13.9715 -12.2101 128 128 128
-2.97724 16.7926 -12.7318 128 128 128
-9.86587 -13.9162 -16.938 128 128 128
-11.0131 -13.0233 -3.94137 128 128 128
14.8783 42.8775 -52.2388 128 128 128
-9.83084 -13.9435 -23.5518 128 128 128
-9.97536 -13.831 -0.580026 128 128 128
4.04018 -13.8239 -54.1144 128 128 128
10.2034 -13.6848 -25.7782 128 128 128
-3.97768 -12.7437 -56.5272 128 128 128
-6.1443 47.0353 -44.6741 128 128 128
9.54717 -14.1744 -36.3826 128 128 128
9.88271 -13.9154 -8.26802 128 128 128
16.8445 34.5854 -57.7786 128 128 128
-20.0151 14.6618 -64.7584 128 128 128
11.5453 -12.6127 -30.4769 128 128 128
16.6183 41.3678 -48.4604 128 128 128
9.9493 -13.8533 -1.35833 128 128 128
-2.39343 1.02357 -76.0315 128 128 128
13.066 18.5577 -76.4438 128 128 128
20.2821 27.0011 -64.0851 128 128 128
11.4377 -12.6988 -4.032 128 128 128
18.0418 19.4159 -50.5893 128 128 128
18.9843 8.3518 -42.9566 128 128 128
11.039 -13.044 -27.5407 128 128 128
11.2228 -12.8738 -9.25459 128 128 128
-8.8653 -12.9561 -50.574 128 128 128
-10.8936 -1.02637 -65.9227 128 128 128
-20.1907 -3.97935 -27.1042 128 128 128
-9.01362 -13.4532 -48.4964 128 128 128
6.8233 -14.1302 -50.2935 128 128 128
-11.8522 -8.10733 -63.9705 128 128 128
-20.5449 2.19006 -51.5457 128 128 128
-11.171 -12.9241 -18.9658 128 128 128
-17.0945 0.187787 -34.3167 128 128 128
-10.5927 -13.3705 -26.9697 128 128 128
-15.544 13.4564 -0.568799 128 128 128
14.1816 -9.48612 -24.4793 128 128 128
-11.1732 -12.9126 -13.9979 128 128 128
11.1136 -10.9055 -51.5573 128 128 128
-6.12588 -11.5037 -64.2194 128 128 128
