ply
format ascii 1.0
comment Created by Open3D
element vertex 747
property double x
property double y
property double z
property double nx
property double ny
property double nz
property uchar red
property uchar green
property uchar blue
end_header
-0.0301688 -0.0167476 -0.205409 -0.0992786 0.563326 0.740798 255 0 0
0.00990105 0.00151043 -0.202515 -0.548657 0 0.761345 255 0 0
-0.00773621 -0.0261917 -0.199707 -0.00895611 0.0299065 0.987179 255 0 0
0.0223451 -0.036248 -0.204223 0.265866 -0.501545 0.787049 255 0 0
0.0391032 -0.00786082 -0.205037 0 0 0.666667 255 0 0
-0.0251215 -0.0256445 -0.201782 0.116047 0.338145 0.746225 255 0 0
-0.0249023 -0.045227 -0.206787 -0.184903 -0.294358 0.839825 255 0 0
0.0122057 -0.0113475 -0.200246 -0.35806 0.100479 0.833526 255 0 0
0.00209123 -0.0378952 -0.200684 0.0273407 -0.26973 0.881069 255 0 0
0.00760157 -0.0063784 -0.203907 -0.325677 -0.0367362 0.786246 255 0 0
0.0216662 -0.0307973 -0.200684 0.321821 -0.438892 0.807468 255 0 0
0.0247828 -0.00369453 -0.19873 0 0 1 255 0 0
0.0331726 -0.0213394 -0.203735 0.59533 -0.233619 0.736617 255 0 0
0.0271728 0.0238434 -0.200684 0.0200171 0.0100086 0.993153 255 0 0
0.0319214 -0.0137177 -0.200684 0.429165 -0.018678 0.832519 255 0 0
0.0223083 0.0312897 -0.199707 0 0 1 255 0 0
-0.0152291 -0.0133476 -0.20733 -0.060271 0.69309 0.672084 255 0 0
-0.0128056 -0.0161385 -0.204564 -0.0571438 0.576517 0.741598 255 0 0
-0.0277783 -0.0187836 -0.204126 -0.0430534 0.310961 0.862379 255 0 0
0.0166982 -0.0160232 -0.19873 -0.229186 0.121869 0.88769 255 0 0
0.00498269 -0.0139642 -0.202759 -0.161576 0.103129 0.931773 255 0 0
0.038269 0.0172119 -0.206787 0.550727 0.550727 0.627216 255 0 0
0.0220549 -0.0336321 -0.202542 0.296447 -0.392984 0.796856 255 0 0
0.0221642 -0.0236632 -0.198764 0.0999906 -0.0769285 0.95787 255 0 0
0.0272751 0.0114212 -0.199707 0.111648 0 0.957077 255 0 0
0.0372315 0.00911789 -0.205298 0.3709 0.200466 0.701943 255 0 0
-0.0378113 -0.0226135 -0.203735 -0.254901 0 0.930146 255 0 0
0.00971859 -0.0236994 -0.19873 -0.0329166 0.0752587 0.964689 255 0 0
0.0254406 -0.0289487 -0.201782 0.414945 -0.351629 0.813948 255 0 0
0.0171331 0.0187932 -0.200065 -0.309513 0.0280416 0.86464 255 0 0
-0.0302417 -0.0411975 -0.205063 -0.0990898 -0.438499 0.82263 255 0 0
-0.0369934 -0.0262329 -0.201977 -0.0369977 0.305588 0.832435 255 0 0
0.0122744 0.0287893 -0.202108 -0.243316 -0.0188901 0.888261 255 0 0
0.019488 -0.0312112 -0.200318 0.188264 -0.386081 0.840745 255 0 0
0.00194601 -0.0137729 -0.204223 -0.148615 0.559842 0.725189 255 0 0
-0.0305278 -0.0390905 -0.203735 -0.109855 -0.395087 0.840374 255 0 0
-0.0286407 -0.0394897 -0.203735 -0.168345 -0.652663 0.717544 255 0 0
0.0360718 -0.00784874 -0.202759 0.554968 -0.22497 0.762124 255 0 0
-0.0302982 -0.0261756 -0.201782 -0.0414898 0.102467 0.95245 255 0 0
0.0146645 -0.0161718 -0.198763 -0.0809679 0.0563127 0.960046 255 0 0
-0.0129139 -0.0205841 -0.201782 -0.0509945 0.23756 0.881282 255 0 0
-0.0151044 -0.0262487 -0.200163 -0.225467 0.255859 0.856929 255 0 0
0.0276427 -0.0264291 -0.201954 0.439799 -0.358776 0.798073 255 0 0
0.00493028 -0.0389557 -0.201836 0.111543 -0.407933 0.834141 255 0 0
-0.000361139 -0.0377836 -0.200684 -0.0522794 -0.318105 0.866989 255 0 0
0.0273712 -0.00863647 -0.19873 0 0 1 255 0 0
0.0357666 -0.00330544 -0.203735 0.595174 0.604622 0.529339 255 0 0
0.00445938 -0.0452576 -0.205688 0 -0.67789 0.735163 255 0 0
0.00733317 0.0038817 -0.204372 -0.351093 -0.0850044 0.834989 255 0 0
0.00738553 -0.0414865 -0.203875 0.136096 -0.548913 0.79032 255 0 0
0.0105286 -0.0120544 -0.200684 -0.652842 0.271281 0.642213 255 0 0
0.0321197 -0.00372772 -0.20044 0.500799 0.0304092 0.799645 255 0 0
0.0371597 0.0160397 -0.205344 0.361797 0.112185 0.833066 255 0 0
0.0197475 0.0312574 -0.199707 0 0 1 255 0 0
-0.0345895 -0.0406145 -0.204851 0.177216 -0.486146 0.689396 255 0 0
0.00733185 0.0063649 -0.204321 -0.277533 0 0.88515 255 0 0
-0.00519394 -0.0185938 -0.202134 -0.0783825 0.350707 0.839564 255 0 0
0.0364583 0.0243632 -0.205688 0.575684 0.052943 0.722127 255 0 0
-0.0253859 -0.0212302 -0.202557 -0.0705339 0.281278 0.861838 255 0 0
0.00487366 -0.0404969 -0.202759 0.0276826 -0.60881 0.779993 255 0 0
-0.00261755 -0.0405457 -0.202759 -0.14205 -0.413758 0.832315 255 0 0
0.0298157 -0.00606735 -0.199316 0.265746 0 0.898963 255 0 0
0.0126834 0.0308762 -0.201836 -0.105469 0.0481134 0.956193 255 0 0
0.00552979 0.0013076 -0.205688 -0.26069 0.0350746 0.842357 255 0 0
0.0220795 -0.0163193 -0.197754 0 0 1 255 0 0
0.0325623 0.00389404 -0.201782 0.257233 0.0579755 0.891033 255 0 0
0.0171051 0.0137909 -0.199707 -0.042312 0.0124029 0.982509 255 0 0
-0.00521088 -0.0402527 -0.202759 0 -0.644371 0.764712 255 0 0
0.0376723 0.0264655 -0.206787 0.30491 0.0515786 0.741694 255 0 0
-0.000468659 -0.0184777 -0.201782 -0.0905684 0.257708 0.874996 255 0 0
0.00393295 -0.013443 -0.203735 -0.384808 0.771144 0.507208 255 0 0
-0.00260734 -0.0452576 -0.205688 -0.154307 -0.647662 0.722583 255 0 0
0.0147812 0.00386696 -0.200293 -0.297549 0 0.867329 255 0 0
-0.0226326 -0.033081 -0.200684 -0.0743838 -0.263934 0.887215 255 0 0
0.0145889 -0.0212377 -0.197754 -0.13555 0.0109111 0.940328 255 0 0
0.00897217 0.0112779 -0.203735 -0.508058 0.0908192 0.78329 255 0 0
0.017161 -0.0212377 -0.197754 0 0 1 255 0 0
0.026324 -0.0304998 -0.202759 0.372228 -0.373608 0.813118 255 0 0
0.0331604 0.0265655 -0.203735 0.538564 0.106402 0.797227 255 0 0
-0.0176971 -0.0191294 -0.202759 -0.0207557 0.319199 0.859008 255 0 0
0.0222106 -0.0386408 -0.205555 0.290231 -0.411235 0.82905 255 0 0
-0.0352885 -0.0236054 -0.202552 -0.146456 0.252485 0.875316 255 0 0
-0.0351029 -0.0146866 -0.207764 0 0.918773 0.394785 255 0 0
0.0169594 -0.0409629 -0.20449 0.168731 -0.226702 0.906943 255 0 0
-0.0178673 -0.0114797 -0.209019 0.031501 0.459165 0.777649 255 0 0
0.0172636 -0.0362721 -0.202419 0.267895 -0.409943 0.834884 255 0 0
0.0388794 -0.0105972 -0.204712 0 0 0 255 0 0
0.038644 0.00111725 -0.205688 0.579654 0.0933417 0.750483 255 0 0
-0.0163116 -0.00986481 -0.209717 0 0 0 255 0 0
0.0341105 0.00390905 -0.202498 0.605322 0.0605635 0.761856 255 0 0
0.0172412 0.0290578 -0.20044 -0.353455 -0.0281891 0.826297 255 0 0
-0.0229431 -0.0151062 -0.206787 0 0.7705 0.637438 255 0 0
0.0221924 0.00148268 -0.19873 0 0 1 255 0 0
0.00489731 -0.0416565 -0.203735 0 -0.639244 0.76898 255 0 0
0.0222851 0.0137787 -0.199512 0 0.277915 0.887684 255 0 0
0.0204163 0.0327148 -0.199707 0 0 1 255 0 0
0.0328674 0.00162411 -0.201782 0.422872 0.109133 0.819559 255 0 0
-0.00527969 -0.0437243 -0.205376 -0.0242782 -0.381679 0.853247 255 0 0
0.0247828 -0.00110619 -0.19873 0 0 1 255 0 0
0.0172623 -0.00369663 -0.19886 -0.200599 0.10061 0.901994 255 0 0
0.00713399 -0.0237101 -0.198828 -0.0843631 0.185242 0.910361 255 0 0
-0.027688 -0.0362952 -0.202095 -0.0695291 -0.241188 0.903024 255 0 0
0.0401306 0.0196076 -0.20874 0.791926 0.127313 0.583122 255 0 0
0.0315518 0.0289917 -0.202759 0.373509 0.0361971 0.846782 255 0 0
0.0197067 0.0289307 -0.199707 0 0 1 255 0 0
-0.0298844 -0.038105 -0.202759 -0.134169 -0.369629 0.84116 255 0 0
-0.0127096 -0.0262039 -0.199805 -0.0440103 0.197036 0.905567 255 0 0
-0.0125961 -0.0144679 -0.205688 -0.00548417 0.643797 0.72021 255 0 0
-0.012767 -0.0237 -0.200684 -0.0123474 0.073021 0.968129 255 0 0
0.022995 -0.034668 -0.203735 0.216857 -0.550928 0.769159 255 0 0
0.0173233 0.00148846 -0.199512 -0.256666 0.0553569 0.880397 255 0 0
0.0182114 -0.011755 -0.197754 -0.534083 0.342872 0.720146 255 0 0
0.0336914 0.0113564 -0.202759 0.628555 0.03966 0.76899 255 0 0
0.0117773 -0.0275574 -0.197754 0.153349 -0.604451 0.744393 255 0 0
0.0246277 -0.0210935 -0.198918 0.21297 -0.161065 0.908617 255 0 0
0.0299377 0.00149326 -0.200098 0.247039 0.0966823 0.890626 255 0 0
-0.0128091 -0.0187033 -0.202419 -0.104579 0.495086 0.774417 255 0 0
0.0221924 0.0113663 -0.19873 0 0 1 255 0 0
0.0297302 0.0287702 -0.201977 0.267905 0.020309 0.890257 255 0 0
-0.00773716 -0.0386331 -0.202061 -0.041431 -0.394188 0.84397 255 0 0
0.0166397 -0.0378723 -0.202759 0.223741 -0.54147 0.772307 255 0 0
0.0322571 -0.0260636 -0.204321 0.361067 -0.230691 0.856967 255 0 0
0.0390951 -0.00148643 -0.205688 0.23922 0.130538 0.883722 255 0 0
0.0124054 -0.00870743 -0.200293 -0.455169 0.0276592 0.791163 255 0 0
0.0125595 -0.0241252 -0.197754 -0.278417 0.228929 0.857379 255 0 0
-0.0180206 -0.0433655 -0.205688 0.0509688 -0.418758 0.838136 255 0 0
-0.00776901 -0.0360392 -0.200554 -0.040084 -0.349251 0.85906 255 0 0
0.0200195 -0.00967102 -0.197754 -0.114456 0.574676 0.739889 255 0 0
0.0170863 -0.0111354 -0.19873 -0.152399 0.0651898 0.926373 255 0 0
0.00567246 0.00384664 -0.205566 -0.410863 -0.115493 0.745182 255 0 0
-0.0370789 -0.0197144 -0.203735 0 0 1 255 0 0
-0.000402464 -0.0261505 -0.199414 -0.185527 0.237039 0.87901 255 0 0
-0.0103327 -0.0108281 -0.209196 -0.142554 0.685981 0.658417 255 0 0
0.0336914 0.0139999 -0.202759 0.654322 0 0.756215 255 0 0
0.00181889 -0.0456645 -0.205688 0.165906 -0.140266 0.924468 255 0 0
0.00707054 -0.0103035 -0.203735 0 0 0 255 0 0
0.0196128 -0.0211111 -0.197754 0.121914 -0.0691934 0.950276 255 0 0
0.0071579 -0.0337067 -0.199463 0.0610789 -0.324149 0.872197 255 0 0
0.020339 -0.0239048 -0.19873 0.26903 -0.14075 0.887797 255 0 0
0.0270624 -0.0236113 -0.200472 0.331883 -0.242947 0.859765 255 0 0
0.0213013 -0.020223 -0.197754 0.405098 -0.399406 0.81165 255 0 0
0.0324249 -0.0237634 -0.203875 0.543455 -0.220507 0.771377 255 0 0
0.0144318 -0.0351929 -0.200684 0.256172 -0.534937 0.758505 255 0 0
0.00218852 -0.0286407 -0.19873 0 0 1 255 0 0
0.0239225 -0.0162522 -0.197754 0.251564 -0.107376 0.897031 255 0 0
0.0296931 0.0313542 -0.20195 0.255929 0 0.900212 255 0 0
-0.0103604 -0.0335901 -0.200137 -0.113891 -0.239128 0.887563 255 0 0
0.00915909 0.0291901 -0.203735 -0.587327 -0.0642642 0.284639 255 0 0
-0.00766144 -0.0414938 -0.204061 0 -0.640755 0.767721 255 0 0
0.00995234 0.00633862 -0.202759 -0.381111 0.00739716 0.825913 255 0 0
0.00232965 -0.0237737 -0.199524 -0.079165 0.19782 0.904273 255 0 0
0.00583267 -0.012413 -0.202759 0 0 1 255 0 0
0.0294434 0.0330749 -0.201977 0.168406 0 0.907885 255 0 0
0.0273712 -0.00369453 -0.19873 0 0 1 255 0 0
0.0302734 0.0214752 -0.201782 0.271343 0.0425721 0.882252 255 0 0
0.0365397 0.0310542 -0.205688 0.121548 -0.0698412 0.863593 255 0 0
0.0388794 -0.00623322 -0.204712 0 0 0 255 0 0
-0.0259857 -0.0394897 -0.203735 0 -0.645809 0.763499 255 0 0
0.0147144 -0.0311065 -0.199394 0.100146 -0.287999 0.886735 255 0 0
-0.0327702 -0.0439453 -0.206787 -0.0516858 -0.152215 0.930117 255 0 0
-0.00183964 -0.019989 -0.201782 0 0.789572 0.613658 255 0 0
0.0323258 0.00628357 -0.201782 0.341492 0.0175236 0.859823 255 0 0
0.0272751 0.00622177 -0.199707 0 0 1 255 0 0
0.013382 0.0114822 -0.200684 -0.77629 0 0.630374 255 0 0
0.0147995 0.0138486 -0.200528 -0.260478 0.0516886 0.880032 255 0 0
0.013382 0.0181376 -0.200684 -0.688089 0.173438 0.648207 255 0 0
-0.00277748 -0.0360071 -0.200371 -0.0821783 -0.269522 0.888467 255 0 0
-0.00542355 -0.019989 -0.201782 -0.132666 0.72553 0.625099 255 0 0
-0.0326172 -0.0133001 -0.209131 -0.1025 0.743632 0.613727 255 0 0
0.00984328 -0.0291138 -0.19873 0.0913962 -0.254713 0.899032 255 0 0
-0.0111068 -0.00940857 -0.210815 -0.253792 0.51347 0.688436 255 0 0
-0.0370178 -0.0230942 -0.202759 -0.142501 0 0.70541 255 0 0
0.0328776 0.0314392 -0.203735 0.400784 -0.0526995 0.845084 255 0 0
0.0357666 -0.00113399 -0.203735 0.565839 -0.004173 0.765594 255 0 0
0.034293 -0.000954475 -0.20234 0.483435 0.0749573 0.805056 255 0 0
0.0387573 0.0257874 -0.206787 0 0 0 255 0 0
0.0172501 -0.00863648 -0.19873 -0.00917303 0.00887711 0.996893 255 0 0
0.0101547 0.0286446 -0.202759 -0.234526 -0.0323299 0.889583 255 0 0
-0.0136833 -0.0177765 -0.203735 -0.244382 0.621706 0.691171 255 0 0
0.0345703 -0.0237359 -0.205102 0.34796 -0.0157731 0.866698 255 0 0
0.0221924 0.00618973 -0.19873 0 0 1 255 0 0
-0.0178906 -0.0411351 -0.204245 -0.0758784 -0.540603 0.793508 255 0 0
0.0147863 0.00885174 -0.200358 -0.310745 0.0558754 0.863313 255 0 0
-0.0027634 -0.0139099 -0.204985 -0.121594 0.680294 0.679865 255 0 0
0.0372807 -0.00616778 -0.20381 0.382922 0.0193213 0.829002 255 0 0
0.0318184 0.0264263 -0.202759 0.39743 0.0785185 0.837242 255 0 0
0.0147784 0.00623871 -0.200254 -0.299881 0.00678568 0.862341 255 0 0
0.00478166 -0.0437317 -0.205409 -0.0448025 -0.370662 0.850797 255 0 0
0.00588989 0.0153504 -0.204712 0 0 1 255 0 0
0.00904422 -0.0133616 -0.201782 -0.343253 0.256991 0.812915 255 0 0
-0.0179065 -0.0311676 -0.199785 -0.061452 -0.175533 0.922949 255 0 0
0.0148117 0.0214661 -0.200684 -0.155821 0 0.925379 255 0 0
0.0147964 0.01147 -0.200489 -0.298126 0 0.866682 255 0 0
0.0102749 0.0187162 -0.202759 -0.318746 0.0668651 0.864577 255 0 0
0.0047245 -0.00923157 -0.206787 0 0 0 255 0 0
0.0293511 -0.0310313 -0.20482 0.27848 -0.159803 0.865345 255 0 0
-0.0313454 -0.0314045 -0.201782 -0.508416 -0.136854 0.769392 255 0 0
0.0223083 0.0237274 -0.199707 0 0 1 255 0 0
-0.00521088 -0.0169754 -0.202759 0 0.370658 0.835577 255 0 0
0.0321472 0.0139569 -0.202173 0.31336 0.0106138 0.881203 255 0 0
-0.0368347 -0.0435181 -0.206787 0 0 0.875 255 0 0
0.0148642 -0.0271018 -0.19873 0.173621 -0.461947 0.806862 255 0 0
0.00971023 -0.0387985 -0.202207 0.138917 -0.543841 0.785345 255 0 0
0.012217 0.0239172 -0.202148 -0.330508 0.000653219 0.854102 255 0 0
-0.0191905 -0.0453084 -0.206787 0.505135 -0.625369 0.581951 255 0 0
0.0103951 0.0264862 -0.202759 -0.348436 -0.0283105 0.850988 255 0 0
0.0273712 -0.0112259 -0.19873 0 0 1 255 0 0
-0.00513458 -0.0235846 -0.199785 -0.086429 0.209093 0.897765 255 0 0
0.0176868 -0.0345001 -0.201782 0.295453 -0.464744 0.796076 255 0 0
0.00720368 -0.0374756 -0.200684 0 -0.697587 0.7165 255 0 0
-0.0126991 -0.0355486 -0.200684 -0.0642654 -0.227305 0.9022 255 0 0
0.0147314 -0.0393066 -0.203735 0.147875 -0.387116 0.84559 255 0 0
0.0355377 0.00634613 -0.203735 0.647181 0 0.761876 255 0 0
-0.00524235 -0.0156288 -0.203979 -0.040265 0.556862 0.752984 255 0 0
0.0269356 0.0288366 -0.200684 0.170996 0.0260423 0.925279 255 0 0
0.0172501 -0.00604859 -0.19873 -0.0357816 0.0105927 0.985011 255 0 0
0.029834 -0.011268 -0.199433 0.337845 -0.0716066 0.868844 255 0 0
0.0304184 0.0187042 -0.201782 0.353552 0 0.853554 255 0 0
0.0322091 0.0113882 -0.202131 0.418177 0.0659121 0.828123 255 0 0
-0.027338 -0.0120564 -0.208984 0.0133987 0.324888 0.818272 255 0 0
0.00521469 0.019165 -0.206787 -0.33585 0.217313 0.768603 255 0 0
0.0315246 0.0312805 -0.202759 0.339318 0 0.865608 255 0 0
0.0321777 0.0187592 -0.202368 0.396644 0 0.850177 255 0 0
-0.032742 -0.0110974 -0.211647 -0.165674 0.687578 0.646024 255 0 0
0.0147039 -0.00866216 -0.199284 -0.305019 0.0559925 0.859477 255 0 0
0.0151917 0.0288839 -0.200684 -0.328305 0.102708 0.826432 255 0 0
0.0373721 -0.00868922 -0.204032 0.450726 -0.0770059 0.810794 255 0 0
0.0145679 -0.0409937 -0.203969 0.140411 -0.264161 0.895728 255 0 0
-0.000200612 -0.0197623 -0.200684 -0.202105 0.541936 0.716512 255 0 0
0.0145107 -0.0258425 -0.197754 0.0418253 -0.190406 0.924627 255 0 0
0.0221924 0.00383568 -0.19873 0 0 1 255 0 0
0.00732776 -0.00815064 -0.204223 -0.580867 0.0919195 0.683695 255 0 0
-0.0352507 -0.0166168 -0.205502 0.130504 0.347611 0.785951 255 0 0
0.00195482 -0.0108892 -0.207275 -0.129643 0.5779 0.688013 255 0 0
0.0222825 -0.00847362 -0.19873 0.0499275 0.128119 0.936395 255 0 0
-0.0227939 -0.0209759 -0.202515 -0.135245 0.263729 0.866654 255 0 0
-0.0106792 -0.0372009 -0.201782 -0.157648 -0.661995 0.707741 255 0 0
0.0317688 0.0327148 -0.202759 0.836048 0 0.548656 255 0 0
-0.030185 -0.0212936 -0.202759 0 0.186691 0.916271 255 0 0
-0.0319672 -0.0123444 -0.209717 -0.245285 0.63313 0.677638 255 0 0
0.00950799 -0.0278849 -0.197754 0.0441933 -0.288613 0.854871 255 0 0
0.029892 -0.00111209 -0.199805 0.233237 0.0602906 0.900967 255 0 0
0.00966331 -0.0311602 -0.19873 0.0225314 -0.118538 0.953972 255 0 0
0.013382 0.0162354 -0.200684 -0.77629 0 0.630374 255 0 0
0.0298157 -0.00866394 -0.199316 0.265746 0 0.898963 255 0 0
0.0199187 -0.0263526 -0.19873 0.0844533 -0.0544554 0.957653 255 0 0
0.00718781 -0.0359851 -0.200254 0.0597114 -0.269191 0.896074 255 0 0
0.0173202 0.00385055 -0.199479 -0.241251 -0.0452326 0.881454 255 0 0
0.012206 -0.0410541 -0.203862 0.0226716 -0.367723 0.853573 255 0 0
0.0271728 0.0262207 -0.200684 0.106491 0.025108 0.9527 255 0 0
0.0223083 0.0328865 -0.199707 0 0 1 255 0 0
0.028141 0.0314293 -0.201782 0.510947 0.0918005 0.778906 255 0 0
0.0324097 0.0328674 -0.203735 0.836048 0 0.548656 255 0 0
0.0222486 -0.0319023 -0.201782 0.313581 -0.489939 0.777216 255 0 0
0.0153402 0.0310245 -0.200684 -0.37937 0.0479694 0.76572 255 0 0
-0.0228058 -0.04375 -0.205493 -0.0438173 -0.258903 0.900621 255 0 0
-0.0326965 -0.0412659 -0.205298 -0.0135819 -0.398252 0.855427 255 0 0
-0.0353434 -0.0207387 -0.203735 -0.10302 0.253128 0.885638 255 0 0
-0.0154076 -0.0412903 -0.204223 0 -0.641763 0.766884 255 0 0
0.0346815 0.030933 -0.204983 0.50098 -0.131413 0.793648 255 0 0
0.0223083 0.0289307 -0.199707 0 0 1 255 0 0
0.034711 0.0288155 -0.205156 0.429595 0.0527766 0.835213 255 0 0
0.00768075 0.0260338 -0.204712 -0.369217 0 0.576325 255 0 0
0.0350305 0.0164575 -0.204204 0.459528 0.0473163 0.822499 255 0 0
0.0197032 0.0137889 -0.199674 -0.0542576 0.0773721 0.964163 255 0 0
0.0110626 -0.00852737 -0.201782 -0.773125 0 0.634254 255 0 0
-0.020379 -0.0437585 -0.205532 0.0945031 -0.272112 0.892839 255 0 0
-0.0134582 -0.0122299 -0.207764 0 0.774708 0.627884 255 0 0
0.0248113 0.0288811 -0.200405 0.258645 0.0132529 0.891709 255 0 0
0.00488762 -0.0190284 -0.200684 -0.0383446 0.34036 0.836745 255 0 0
0.0282593 0.0287415 -0.201782 0.708117 0.0723642 0.686003 255 0 0
0.0327581 0.0289078 -0.203735 0.536748 0.0754002 0.785943 255 0 0
-0.0310852 -0.0282669 -0.201782 -0.278372 0.21795 0.825271 255 0 0
0.0123093 -0.021109 -0.19873 -0.153651 0.0339987 0.928622 255 0 0
-0.00928879 -0.0172119 -0.202759 -0.248018 0.616573 0.693435 255 0 0
0.0256556 -0.0136656 -0.19873 0.30124 -0.0441642 0.881216 255 0 0
0.0172354 0.0261262 -0.200114 -0.339932 0.178223 0.782628 255 0 0
0.00719694 -0.0186895 -0.200521 -0.170819 0.246084 0.87689 255 0 0
0.0197067 0.026329 -0.199707 0 0 1 255 0 0
0.0223083 0.0263291 -0.199707 0 0 1 255 0 0
0.0246706 0.0262502 -0.200105 0.257645 0.0660939 0.89175 255 0 0
0.00570001 -0.00127941 -0.20558 -0.101196 0.129939 0.940653 255 0 0
0.00926747 0.0263016 -0.203735 -0.406045 -0.0398372 0.820339 255 0 0
0.0139313 0.0263519 -0.201782 -0.725516 0.101699 0.640242 255 0 0
0.0149298 0.026041 -0.200684 -0.244296 0 0.882373 255 0 0
0.0297394 0.026392 -0.201782 0.26576 0.056608 0.891005 255 0 0
-0.0276672 -0.0167114 -0.205395 0.0339108 0.522164 0.761012 255 0 0
0.0347549 0.0262733 -0.204809 0.556019 0.131845 0.776557 255 0 0
0.036377 0.0263855 -0.205688 0.253623 0.0542828 0.887872 255 0 0
0.00827789 0.00875778 -0.203735 0 0 1 255 0 0
0.0298401 -0.00370827 -0.199473 0.252325 0.0732041 0.891774 255 0 0
-0.0349153 -0.0188454 -0.204249 -0.0249227 0.303601 0.869217 255 0 0
-0.0326589 -0.0168457 -0.205525 0.000218583 0.592006 0.737702 255 0 0
0.0345459 -0.00854385 -0.202173 0.4913 -0.0111451 0.813279 255 0 0
0.0118887 0.00873947 -0.201826 -0.373099 0.0975521 0.823495 255 0 0
0.0104752 0.0238681 -0.202759 -0.494628 0.0126973 0.772387 255 0 0
0.0148942 0.0238223 -0.200684 -0.1801 0.0378878 0.915335 255 0 0
0.0171326 0.0237689 -0.200059 -0.289002 -0.054889 0.857656 255 0 0
0.0197067 0.0237274 -0.199707 0 0 1 255 0 0
0.024693 0.0237463 -0.199863 0.231617 0.0617158 0.899886 255 0 0
0.0288052 0.0237376 -0.200684 0.375049 0.0693549 0.835649 255 0 0
0.030117 0.0240221 -0.201782 0.20971 0.0387576 0.908784 255 0 0
0.0321902 0.0238372 -0.202571 0.395992 0.0811192 0.845839 255 0 0
-0.027743 -0.0286941 -0.200684 -0.000483139 0.0267603 0.988407 255 0 0
0.025305 -0.0110952 -0.19873 0.170598 0.0979136 0.906291 255 0 0
0.0076188 0.0240377 -0.20482 -0.378931 -0.0868926 0.796645 255 0 0
0.00940068 0.0237452 -0.203735 -0.417241 0.0229395 0.811982 255 0 0
0.0333557 0.0246887 -0.203735 0.732869 0.249487 0.632977 255 0 0
0.0343831 0.0238122 -0.204061 0.613272 0.178158 0.665217 255 0 0
0.0129089 -0.00111748 -0.200684 -0.258798 0 0.87675 255 0 0
-0.0300068 -0.0289307 -0.200684 -0.246577 0.136676 0.869671 255 0 0
-0.0352783 -0.0312271 -0.201782 0 0 1 255 0 0
0.0197067 0.0187607 -0.199707 0 0 1 255 0 0
0.0298455 0.0114368 -0.200684 0.319468 0.0301229 0.868712 255 0 0
0.0123248 0.0212865 -0.202012 -0.373779 0.0265281 0.825381 255 0 0
0.0171295 0.0213953 -0.20002 -0.292488 0.0089616 0.855071 255 0 0
0.0197067 0.0213623 -0.199707 0 0 1 255 0 0
0.0223083 0.0213623 -0.199707 0 0 1 255 0 0
0.0246735 0.0213623 -0.199707 0.101185 0.0101066 0.961568 255 0 0
0.027168 0.0214624 -0.200645 0.155733 0.0380743 0.932811 255 0 0
0.0289523 0.021347 -0.200684 0.280437 0.0532962 0.876971 255 0 0
0.032118 0.0212572 -0.202325 0.373405 0.0105225 0.856632 255 0 0
0.0391032 0.0230408 -0.207764 0.549361 0 0.377686 255 0 0
0.00736364 0.0214422 -0.205223 -0.314265 -0.0756648 0.804927 255 0 0
0.0103951 0.0211975 -0.202759 -0.364954 0 0.84177 255 0 0
0.0346798 0.0213038 -0.204223 0.617121 -0.00178928 0.683314 255 0 0
0.0363769 0.0213318 -0.205688 0.619267 0 0.613025 255 0 0
0.00540543 0.0209707 -0.206787 -0.500383 -0.0822093 0.683933 255 0 0
0.00579834 0.0215149 -0.205688 -0.50935 -0.320636 0.622367 255 0 0
0.0336914 0.0216827 -0.202759 0.652433 0 0.757846 255 0 0
0.0378418 0.021166 -0.207113 0.605619 -0.0314603 0.758916 255 0 0
0.0392117 0.0213403 -0.207764 0.26677 -0.0377861 0.890382 255 0 0
0.0216217 -0.0405579 -0.206787 0.548087 -0.548087 0.631823 255 0 0
0.00567627 -0.00723648 -0.205688 -0.242201 -0.242201 0.864248 255 0 0
0.0298645 -0.0136441 -0.199629 0.362908 -0.0958014 0.853667 255 0 0
0.012027 0.0139426 -0.201977 -0.449744 0 0.796717 255 0 0
-0.0151324 -0.0336548 -0.200528 -0.0376216 -0.232992 0.904826 255 0 0
0.017161 -0.0238129 -0.197754 0 0 1 255 0 0
0.0401306 0.0208384 -0.20874 0.812015 0 0.583636 255 0 0
0.0318262 -0.0209386 -0.202472 0.549978 -0.235688 0.762419 255 0 0
-0.0102932 -0.041272 -0.204028 -0.085893 -0.5277 0.796252 255 0 0
0.0223083 0.0187607 -0.199707 0 0 1 255 0 0
0.0246735 0.0187607 -0.199707 0 0 1 255 0 0
0.0271301 0.0188202 -0.200358 0.258288 0.0398715 0.89536 255 0 0
0.0290731 0.0188497 -0.200684 0.234163 0 0.903898 255 0 0
-0.0371573 -0.0286691 -0.201782 0 0 1 255 0 0
0.00477714 -0.0312296 -0.19873 0 0 1 255 0 0
-0.0251448 -0.0286097 -0.200684 0 0 1 255 0 0
0.0073094 0.0189426 -0.205275 -0.344386 0.0400185 0.813877 255 0 0
0.00916525 0.0189643 -0.203735 -0.567929 0.0623106 0.760273 255 0 0
0.0121369 0.0187813 -0.202035 -0.417981 0.0655304 0.802439 255 0 0
0.00567627 0.0185852 -0.205688 -0.420337 0.462005 0.607833 255 0 0
0.0379333 0.0188154 -0.20695 0.527675 0.172196 0.762366 255 0 0
0.0393066 0.0190773 -0.207764 0.272515 0.148779 0.747331 255 0 0
0.00235816 -0.0392369 -0.201782 0.037581 -0.570317 0.778934 255 0 0
0.0099491 -0.0263585 -0.197754 -0.19175 0.231664 0.864212 255 0 0
0.00919914 0.0163167 -0.203735 -0.362716 -0.0876992 0.814094 255 0 0
0.012027 0.0163336 -0.201977 -0.449814 0 0.796628 255 0 0
0.0171082 0.0161621 -0.199746 -0.173544 0.0839322 0.917742 255 0 0
0.0197067 0.0161591 -0.199707 0 0 1 255 0 0
0.0223083 0.0161591 -0.199707 0 0 1 255 0 0
0.0246735 0.0161591 -0.199707 0 0 1 255 0 0
0.027099 0.0161926 -0.200137 0.256703 0.0480065 0.89465 255 0 0
0.0291329 0.0161762 -0.200684 0.210516 0.0391932 0.907813 255 0 0
0.0304447 0.0164235 -0.201782 0.376006 0.0700006 0.834389 255 0 0
0.0321594 0.0163556 -0.202251 0.325628 0.0568356 0.871613 255 0 0
0.00478897 -0.0237528 -0.199219 -0.14006 0.267456 0.86947 255 0 0
0.00727499 0.0160007 -0.204665 -0.266669 -0.011484 0.87208 255 0 0
0.0198364 -0.00369453 -0.19873 0 0 1 255 0 0
0.00711377 -0.0403341 -0.202759 0.122945 -0.553297 0.790423 255 0 0
-0.00522975 -0.011487 -0.207507 -0.0389916 0.56439 0.761842 255 0 0
0.00961685 -0.0359661 -0.200346 0.117683 -0.372598 0.851042 255 0 0
0.0336914 0.0156784 -0.202759 0.66871 0.173093 0.69979 255 0 0
0.00751147 0.013646 -0.204627 -0.273195 0.00537752 0.878784 255 0 0
0.0092392 0.0138257 -0.203735 -0.432405 0.0618833 0.81661 255 0 0
0.0103951 0.0139999 -0.202759 -0.364957 0 0.841769 255 0 0
0.013382 0.0138596 -0.200684 -0.776646 0 0.629937 255 0 0
0.0246637 0.013786 -0.199629 0.0525995 0.108267 0.948426 255 0 0
0.027109 0.0137623 -0.19982 0.161058 0.101175 0.91599 255 0 0
0.0172846 -0.0387253 -0.203782 0.240166 -0.335302 0.864993 255 0 0
0.0294596 0.0138368 -0.200684 0.24255 0.0702284 0.894644 255 0 0
0.0306549 0.0144068 -0.201782 0.712507 0.119587 0.668077 255 0 0
0.0350269 0.0137878 -0.204014 0.44923 0.0482457 0.818194 255 0 0
0.00956563 -0.0110975 -0.201956 -0.38884 0.203325 0.807077 255 0 0
0.0355949 0.00170112 -0.203735 0.691223 0.0809076 0.702864 255 0 0
-0.0328918 -0.0286011 -0.201782 -0.0346959 0.002818 0.987084 255 0 0
0.0372668 0.0137518 -0.205431 0.357449 -0.0400623 0.857669 255 0 0
0.0385742 0.0137177 -0.205688 0.579692 0 0.741255 255 0 0
0.0169884 -0.0333701 -0.200684 0.248402 -0.327514 0.857226 255 0 0
0.010128 0.0112228 -0.202759 -0.250117 0.0879456 0.888319 255 0 0
0.012027 0.0113106 -0.201977 -0.44979 0 0.796659 255 0 0
0.0171051 0.0114212 -0.199707 0 0 1 255 0 0
0.0196711 0.0114029 -0.199381 -0.249771 0.00445513 0.879709 255 0 0
0.0246002 0.0113886 -0.199121 0.264728 0.0692387 0.889629 255 0 0
-0.0350698 -0.0388523 -0.203735 0.0634792 -0.230652 0.914424 255 0 0
0.0198364 0.00148268 -0.19873 0 0 1 255 0 0
0.00592041 0.0122528 -0.205688 -0.905459 0 0.424434 255 0 0
0.00754907 0.0114513 -0.204386 -0.249819 0.107721 0.886488 255 0 0
0.0351028 0.0111847 -0.203979 0.481685 0.0168159 0.819579 255 0 0
0.0373077 0.0112682 -0.205444 0.483408 -0.0249749 0.812806 255 0 0
0.0385742 0.0122528 -0.205688 0.57735 -0.57735 0.57735 255 0 0
0.038855 0.0113358 -0.206787 0.827517 -0.0730164 0.5341 255 0 0
0.0321197 -0.00610218 -0.20044 0.506462 0 0.802662 255 0 0
0.00420052 -0.0457502 -0.206787 0.205978 -0.382657 0.705453 255 0 0
-0.00808024 -0.0204716 -0.201782 -0.164032 0.312452 0.839529 255 0 0
0.0345459 -0.00615265 -0.202173 0.401082 0 0.845939 255 0 0
0.0339855 0.00862642 -0.202759 0.394583 0.108424 0.836989 255 0 0
0.0385742 0.00859833 -0.205688 0.802882 0.068002 0.569434 255 0 0
0.0132243 0.00862969 -0.200684 -0.527854 0.095946 0.743657 255 0 0
0.0171051 0.00882021 -0.199707 -0.010507 0.010507 0.996505 255 0 0
0.00214019 -0.0405532 -0.202759 0.0223421 -0.616527 0.776361 255 0 0
0.0221924 0.00877825 -0.19873 0 0 1 255 0 0
0.0234833 -0.0177307 -0.197754 0.459162 -0.459162 0.760487 255 0 0
0.024588 0.00879046 -0.199023 0.272488 -0.0319834 0.887236 255 0 0
0.0300079 0.00886141 -0.200554 0.358548 0.0320034 0.852794 255 0 0
0.0099144 0.00871353 -0.202759 -0.344188 0.0153034 0.852213 255 0 0
0.0323486 0.00867882 -0.201929 0.433755 0.0477207 0.821104 255 0 0
0.0353459 0.00883048 -0.203805 0.375592 0.125079 0.84789 255 0 0
0.0391642 0.00904973 -0.206787 0.638211 0.152341 0.630739 255 0 0
0.0228424 -0.0395813 -0.206787 0.17556 -0.77776 0.570392 255 0 0
-0.0253906 -0.0153504 -0.206787 -0.112727 0.510522 0.751337 255 0 0
0.00875854 0.00152016 -0.203735 -0.729219 0 0.68428 255 0 0
0.0057591 0.00617709 -0.204991 -0.426173 0 0.776485 255 0 0
0.00883865 0.00626564 -0.203735 -0.629978 0.00471733 0.737081 255 0 0
0.0173141 0.00621236 -0.199414 -0.247133 0.0715636 0.883366 255 0 0
0.0198364 0.00618973 -0.19873 -0.0128228 0.0124092 0.995799 255 0 0
0.0245905 0.00620026 -0.199043 0.25454 0.0728942 0.889924 255 0 0
0.0299927 0.00624512 -0.20045 0.390182 0.058681 0.840962 255 0 0
0.0341594 0.00631332 -0.202759 0.436168 0 0.837442 255 0 0
0.037262 0.00639267 -0.2052 0.469195 0 0.831667 255 0 0
0.0172156 -0.0286186 -0.198797 0.0768262 -0.168137 0.93224 255 0 0
0.0385742 0.00640793 -0.205688 0.536351 0 0.792713 255 0 0
0.0395246 0.00594984 -0.206787 0.447757 0 0.777352 255 0 0
-0.000519466 -0.00932083 -0.20874 -0.188027 0.423597 0.777886 255 0 0
-0.000477041 -0.0407061 -0.202759 0.0356609 -0.456084 0.830673 255 0 0
0.0160675 -0.017807 -0.19873 -0.52007 0.533071 0.667355 255 0 0
0.0119927 -0.0386269 -0.202448 0.168054 -0.461267 0.821012 255 0 0
0.0197388 -0.0186615 -0.197754 0 0 1 255 0 0
0.0271552 -0.0212286 -0.199863 0.290681 -0.236761 0.877771 255 0 0
0.00875854 0.00393257 -0.203735 -0.729348 0 0.684143 255 0 0
0.00990906 0.00391235 -0.202661 -0.43041 0.0650773 0.807503 255 0 0
0.01174 0.0039443 -0.201782 -0.341273 0.0621571 0.842107 255 0 0
0.0206146 -0.0324097 -0.201782 0.484539 -0.469397 0.738165 255 0 0
0.0130809 0.00378817 -0.200684 -0.362518 0.0791864 0.82246 255 0 0
0.0198364 0.00383568 -0.19873 0 0 1 255 0 0
0.0246526 0.00380085 -0.19873 0.126544 0.033977 0.944765 255 0 0
0.0299683 0.00386696 -0.200293 0.265746 0 0.898964 255 0 0
0.0314331 0.00387459 -0.200684 0.680107 0.12634 0.698906 255 0 0
0.0355377 0.00393257 -0.203735 0.654152 0 0.756363 255 0 0
0.0395711 0.00399049 -0.206787 0.190522 -0.0100853 0.915236 255 0 0
-0.0103596 -0.0387845 -0.202289 -0.0620824 -0.36312 0.861633 255 0 0
0.0196951 -0.0337605 -0.201885 0.238797 -0.41615 0.826412 255 0 0
0.0298787 -0.0186588 -0.200514 0.481162 -0.186377 0.799347 255 0 0
0.00731277 0.00147205 -0.204862 -0.570209 -0.044552 0.741127 255 0 0
0.0115382 0.00150471 -0.201782 -0.257733 0 0.878055 255 0 0
0.0129089 0.00149746 -0.200684 -0.258797 0 0.87675 255 0 0
0.0147674 0.00149326 -0.200098 -0.309458 0.130675 0.85615 255 0 0
0.0247828 0.00148268 -0.19873 0.0840789 0.0085886 0.968215 255 0 0
0.0275061 0.00148962 -0.199668 0.152973 0.0587008 0.923123 255 0 0
0.0166982 -0.0136049 -0.19873 -0.204197 0.0102182 0.898545 255 0 0
0.0317993 0.00141819 -0.200684 0.294813 0.0805163 0.863903 255 0 0
0.0342102 0.00142507 -0.202414 0.578093 0.0231901 0.771659 255 0 0
0.037278 0.00146169 -0.205223 0.505325 0.0291196 0.799167 255 0 0
0.0399432 0.00126243 -0.206787 0.190542 0.0297526 0.919283 255 0 0
0.0317044 -0.015831 -0.200684 0.386195 -0.233005 0.822518 255 0 0
0.00721063 -0.000735951 -0.204712 -0.591759 0.11598 0.715524 255 0 0
0.00875854 -0.000410219 -0.203735 -0.691054 0.102326 0.698371 255 0 0
0.00990395 -0.00105278 -0.202377 -0.524365 0.131406 0.721041 255 0 0
0.0115382 -0.00112294 -0.201782 -0.257732 0 0.878056 255 0 0
0.0147537 -0.00111301 -0.199902 -0.296971 0 0.867968 255 0 0
0.0173009 -0.00110891 -0.199273 -0.259391 0.092351 0.877786 255 0 0
0.0198364 -0.00110619 -0.19873 0 0 1 255 0 0
0.0221924 -0.00110619 -0.19873 0 0 1 255 0 0
0.0274144 -0.00110706 -0.199023 0.211822 0.14714 0.887487 255 0 0
-0.0103378 -0.0311554 -0.199707 0 0 1 255 0 0
0.0330505 -0.000884045 -0.201782 0.71248 0.0705916 0.681685 255 0 0
0.0371011 -0.00124848 -0.204579 0.542318 0.148158 0.775661 255 0 0
-0.0280355 -0.0431417 -0.205688 -0.0961314 -0.312978 0.83307 255 0 0
0.00588989 -0.00380611 -0.204712 0 0 0.5 255 0 0
-0.0227356 -0.0385818 -0.202759 0 -0.324573 0.880318 255 0 0
-0.0028925 -0.0103073 -0.20874 -0.371691 0.594907 0.565564 255 0 0
0.0278981 -0.0296885 -0.203735 0.439306 -0.443977 0.780952 255 0 0
-0.00420761 -0.0198975 -0.200684 -0.530551 0.535899 0.656756 255 0 0
0.00717522 -0.00410259 -0.203907 -0.302396 0.115323 0.814808 255 0 0
0.00976147 -0.00387131 -0.202359 -0.403942 -0.040626 0.808817 255 0 0
0.0114646 -0.00364083 -0.201782 -0.305538 0.0678685 0.850797 255 0 0
0.0127967 -0.0038166 -0.200684 -0.296354 0.0707666 0.85969 255 0 0
0.0147507 -0.00371574 -0.199863 -0.33398 0.06662 0.847131 255 0 0
0.0221924 -0.00369453 -0.19873 0 0 1 255 0 0
0.0344433 -0.00386819 -0.202226 0.568414 0.10393 0.753713 255 0 0
0.0372961 -0.00379372 -0.204087 0.299512 0.173077 0.847444 255 0 0
0.00823212 -0.00376892 -0.202759 -0.630407 -0.632908 0.44946 255 0 0
-0.0168075 -0.0350952 -0.200684 -0.176861 -0.705252 0.660976 255 0 0
0.0247369 -0.0260187 -0.200215 0.321513 -0.238901 0.864512 255 0 0
-0.027686 -0.0132397 -0.20874 -0.0546833 0.262123 0.885834 255 0 0
-0.00928879 -0.0402527 -0.202759 -0.165989 -0.660738 0.710709 255 0 0
0.00965698 -0.00616135 -0.202446 -0.44454 0.0409783 0.800787 255 0 0
0.01124 -0.00596094 -0.201782 -0.497686 0.109406 0.757034 255 0 0
0.0125531 -0.0061701 -0.200551 -0.448658 0.138074 0.784599 255 0 0
0.014722 -0.006073 -0.199512 -0.343163 0.133043 0.838416 255 0 0
0.0198364 -0.00604859 -0.19873 0 0 1 255 0 0
0.0221924 -0.00604859 -0.19873 0 0 1 255 0 0
0.0247828 -0.00604859 -0.19873 0 0 1 255 0 0
0.0273712 -0.00604859 -0.19873 0 0 1 255 0 0
0.0360718 -0.00617142 -0.202759 0.66314 0.0685452 0.730658 255 0 0
-0.0103429 -0.035877 -0.200684 -0.0469801 -0.160344 0.925165 255 0 0
-0.0252304 -0.0265165 -0.200684 -0.0070745 0.334725 0.851787 255 0 0
0.0197318 -0.0404227 -0.20527 0.285984 -0.0439027 0.910654 255 0 0
-0.0302778 -0.0236433 -0.202033 0.040676 0.230511 0.884536 255 0 0
0.00567627 -0.0082105 -0.205688 -0.145309 0.0515105 0.954337 255 0 0
0.00973246 -0.00848604 -0.202292 -0.42803 0.101363 0.792595 255 0 0
0.0197797 -0.00842011 -0.19873 -0.0699163 0.161563 0.926196 255 0 0
0.0321197 -0.00871372 -0.20044 0.506468 0 0.802655 255 0 0
-0.0127444 -0.00942176 -0.211094 -0.189792 0.452665 0.684932 255 0 0
-0.0027076 -0.00950527 -0.20874 -0.0727286 0.287813 0.321125 255 0 0
0.00106239 -0.00882721 -0.20874 0 0.908167 0.418608 255 0 0
0.00823212 -0.00904846 -0.202759 -0.502867 0.199593 0.314778 255 0 0
-0.0152235 -0.00966453 -0.210937 0.13364 0.239115 0.611359 255 0 0
-0.00994491 -0.00969696 -0.209717 -0.285324 0.313423 0.826946 255 0 0
-0.00798374 -0.00964101 -0.209717 -0.0418523 0.641492 0.702276 255 0 0
-0.00576706 -0.00962372 -0.208935 -0.108194 0 0.368208 255 0 0
0.000401537 -0.00960287 -0.207764 -0.427484 0.429017 0.78092 255 0 0
0.00122165 -0.00960287 -0.207764 0 0.271736 0.859723 255 0 0
-0.000400448 -0.0312296 -0.19873 -0.0119127 -0.110285 0.9551 255 0 0
-0.0352783 -0.033844 -0.201782 0.0026692 -0.0313586 0.989492 255 0 0
-0.0177561 -0.0237 -0.200684 0 0.15396 0.926579 255 0 0
-0.0193024 -0.00986481 -0.209717 0 0 0 255 0 0
-0.0168152 -0.00986481 -0.209717 0 0 0 255 0 0
0.0214958 -0.00964737 -0.197754 0.0797952 0.590983 0.723973 255 0 0
0.0123093 -0.0187531 -0.19873 -0.115163 0.0257644 0.951425 255 0 0
-0.00771011 -0.0437158 -0.205337 0.0106102 -0.316755 0.882867 255 0 0
-0.0351105 -0.0114472 -0.212014 -0.223465 0.614313 0.669949 255 0 0
-0.0251993 -0.0113532 -0.209351 -0.0395752 0.331115 0.717201 255 0 0
-0.0202319 -0.0113183 -0.209092 -0.0462223 0.35184 0.841637 255 0 0
-0.0134023 -0.0104065 -0.210815 -0.1916 0.164879 0.895798 255 0 0
-0.0129667 -0.0110539 -0.209438 -0.0549479 0.688263 0.609615 255 0 0
-0.00791315 -0.0107269 -0.20874 -0.122533 0.574383 0.754681 255 0 0
-0.0226755 -0.0183306 -0.203796 -0.177988 0.502311 0.76945 255 0 0
-0.00569471 -0.0104726 -0.20874 -0.139153 0.547553 0.671546 255 0 0
-0.00283046 -0.0113619 -0.207498 -0.124362 0.483098 0.784984 255 0 0
-0.000458727 -0.0111751 -0.207276 -0.115102 0.574596 0.743583 255 0 0
0.00400225 -0.0102437 -0.207438 0 0 0 255 0 0
0.00760028 -0.0114991 -0.202708 -0.130016 0.129566 0.935575 255 0 0
0.0345713 -0.011188 -0.202336 0.486571 -0.086294 0.813576 255 0 0
0.0369982 -0.0106168 -0.203805 0.390938 0.119857 0.78814 255 0 0
-0.0302856 -0.0153504 -0.206787 0 0.753493 0.656745 255 0 0
0.0146881 -0.0112466 -0.199082 -0.30537 0.0676137 0.859039 255 0 0
0.0197388 -0.0111694 -0.197754 -0.127724 0.0978432 0.938051 255 0 0
0.0220752 -0.011167 -0.19771 0.0469151 0.129873 0.935159 255 0 0
0.0238775 -0.0113646 -0.197754 0.2387 0.161735 0.856549 255 0 0
0.0320058 -0.0112749 -0.200512 0.526421 -0.119154 0.788217 255 0 0
-0.0309784 -0.0116073 -0.210815 -0.19829 0.661375 0.645371 255 0 0
-0.00771236 -0.0118491 -0.207601 -0.164532 0.664057 0.671808 255 0 0
0.0330505 -0.0117137 -0.201782 0.637096 -0.1578 0.713801 255 0 0
-0.0101505 -0.0120095 -0.207764 0 0.743 0.652879 255 0 0
-0.0226752 -0.0410645 -0.204321 0 -0.386481 0.858946 255 0 0
-0.037033 -0.0128504 -0.211304 -0.075159 0.639047 0.473595 255 0 0
-0.0144424 -0.0122299 -0.207764 -0.240205 0.603554 0.710362 255 0 0
0.000560284 -0.0121078 -0.205688 -0.525161 0.525033 0.669736 255 0 0
0.00153446 -0.0121078 -0.205688 0 0.796812 0.600297 255 0 0
-0.0153686 -0.0177765 -0.203735 0 0.746385 0.665512 255 0 0
-0.0356141 -0.0129013 -0.210815 -0.180646 0.734742 0.591893 255 0 0
-0.035056 -0.0137389 -0.209298 -0.176256 0.760945 0.537368 255 0 0
-0.0301138 -0.0132082 -0.20889 -0.116983 0.565086 0.712517 255 0 0
-0.0251434 -0.0130271 -0.20874 0 0.363159 0.843679 255 0 0
-0.0226715 -0.0130271 -0.20874 0 0.363158 0.843679 255 0 0
-0.0205902 -0.0128784 -0.20874 -0.249503 0.541115 0.751465 255 0 0
-0.0200319 -0.0139291 -0.207299 -0.148048 0.662024 0.688479 255 0 0
-0.012672 -0.0133675 -0.206993 -0.160001 0.549051 0.710936 255 0 0
-0.0102795 -0.0131128 -0.206787 -0.0610791 0.521288 0.767658 255 0 0
-0.00787015 -0.0128742 -0.206787 -0.113415 0.698363 0.66608 255 0 0
-0.00531311 -0.0126572 -0.206787 0 0.767959 0.640498 255 0 0
-0.00310993 -0.0126572 -0.206787 -0.130687 0.706689 0.648685 255 0 0
-0.000412543 -0.0137423 -0.204679 -0.140865 0.597463 0.713386 255 0 0
0.037348 -0.013614 -0.204357 0.289107 -0.186632 0.82246 255 0 0
-0.00765347 -0.0139809 -0.205444 -0.17572 0.643089 0.691128 255 0 0
-0.00527458 -0.0137806 -0.2052 -0.039799 0.562306 0.746659 255 0 0
0.00724915 -0.0138074 -0.202095 -0.312914 0.225108 0.826563 255 0 0
0.00996758 -0.0139932 -0.200627 -0.347317 0.25795 0.820513 255 0 0
0.0121883 -0.0136345 -0.199977 -0.220984 0.144186 0.89274 255 0 0
0.0179966 -0.013679 -0.197754 -0.318218 0.0131119 0.843067 255 0 0
0.0197352 -0.0137436 -0.197717 -0.0670606 -0.0307279 0.961345 255 0 0
0.0220652 -0.013737 -0.197607 0.0609101 -0.0631955 0.912859 255 0 0
0.0241255 -0.0136605 -0.197754 0.191015 -0.0178746 0.918011 255 0 0
-0.0372959 -0.021158 -0.203735 -0.0526602 0.108167 0.943479 255 0 0
0.0330505 -0.0137863 -0.201782 0.70695 0 0.707263 255 0 0
0.0342526 -0.0137486 -0.202379 0.552318 -0.116822 0.781318 255 0 0
-0.025219 -0.0167023 -0.205298 -0.0778715 0.554221 0.752606 255 0 0
0.0356358 -0.0141285 -0.203735 0.566959 -0.191614 0.763334 255 0 0
-0.030351 -0.0143191 -0.207764 -0.0255173 0.643353 0.728524 255 0 0
-0.0253125 -0.0141507 -0.207534 -0.110984 0.669069 0.698364 255 0 0
-0.0226888 -0.0141729 -0.207438 0 0.729792 0.683658 255 0 0
-0.0328979 -0.0144424 -0.207764 -0.0709829 0.70662 0.68276 255 0 0
-0.0279755 -0.0144424 -0.207764 0.0286815 0.714675 0.691199 255 0 0
-0.005159 -0.0213226 -0.200684 -0.059325 0.247085 0.883958 255 0 0
-0.0157661 -0.0145493 -0.205688 -0.128309 0.727874 0.619488 255 0 0
-0.0279507 -0.0153232 -0.206787 0 0.768269 0.62639 255 0 0
-0.0209808 -0.0151062 -0.206787 -0.170242 0.68355 0.655927 255 0 0
-0.0202738 -0.0163317 -0.205037 -0.0646139 0.63805 0.705276 255 0 0
-0.0178935 -0.0161921 -0.204972 -0.0683919 0.616811 0.720191 255 0 0
-0.0154067 -0.0161401 -0.204806 -0.093017 0.528593 0.755412 255 0 0
-0.00772808 -0.0158001 -0.20416 -0.083369 0.533756 0.762361 255 0 0
-0.00298548 -0.0156186 -0.203816 -0.202173 0.449934 0.791713 255 0 0
0.0370484 -0.0159424 -0.204842 0.29292 -0.151138 0.797886 255 0 0
-0.0227801 -0.0164566 -0.205259 -0.107714 0.587918 0.734332 255 0 0
-0.000410438 -0.0153732 -0.203735 -0.100739 0.690301 0.680876 255 0 0
0.00222858 -0.0162247 -0.202433 -0.0926103 0.365868 0.833485 255 0 0
0.00485657 -0.016196 -0.202095 -0.199226 0.289211 0.859955 255 0 0
0.00692012 -0.0158523 -0.201782 -0.293333 0.29416 0.840632 255 0 0
0.00984417 -0.0162151 -0.200167 -0.320196 0.168038 0.849653 255 0 0
0.0123416 -0.0162125 -0.199284 -0.213704 0.263728 0.866279 255 0 0
0.025438 -0.0162313 -0.19873 0.218493 -0.0400628 0.912405 255 0 0
0.0298694 -0.0161404 -0.199996 0.329962 -0.132346 0.870265 255 0 0
0.0326954 -0.0163858 -0.201782 0.485716 -0.239368 0.796103 255 0 0
0.033963 -0.0160393 -0.202466 0.578245 -0.0868345 0.757038 255 0 0
0.0354072 -0.0162811 -0.203735 0.398028 0 0.754603 255 0 0
0.0178985 -0.0164995 -0.197754 -0.306777 0.13161 0.8506 255 0 0
0.0197388 -0.0163193 -0.197754 0 0 1 255 0 0
0.0273632 -0.0315891 -0.204115 0.439104 -0.228691 0.815953 255 0 0
-0.0352783 -0.0286011 -0.201782 0 0 1 255 0 0
-0.00274106 -0.0167683 -0.202759 -0.0807994 0.398566 0.822587 255 0 0
-0.0273857 -0.0268459 -0.200684 -0.173747 0.495172 0.751718 255 0 0
-0.00740433 -0.0170768 -0.202759 -0.114671 0.538721 0.756709 255 0 0
0.0369451 -0.018854 -0.205613 0.315743 -0.339798 0.622477 255 0 0
-0.030287 -0.0187338 -0.204169 -0.0111197 0.31407 0.86148 255 0 0
-0.0252685 -0.0186653 -0.203939 -0.0653775 0.530906 0.761671 255 0 0
-0.0201935 -0.0180206 -0.203735 -0.0013635 0.534551 0.767901 255 0 0
-0.0177826 -0.0180206 -0.203735 -0.109304 0.408782 0.818772 255 0 0
-0.0103179 -0.0185683 -0.20241 -0.0111813 0.411059 0.816952 255 0 0
-0.00769552 -0.0186547 -0.202216 -0.0622068 0.319555 0.85876 255 0 0
-0.00279758 -0.0185718 -0.201899 -0.0545942 0.365863 0.828677 255 0 0
0.00207818 -0.0179871 -0.201782 -0.0590295 0.321282 0.840427 255 0 0
0.00464467 -0.0177438 -0.201782 -0.203195 0.540524 0.717287 255 0 0
0.00970555 -0.0187559 -0.199707 -0.358461 0.173853 0.82806 255 0 0
0.0338059 -0.018055 -0.202759 0.499508 -0.333752 0.770509 255 0 0
0.0350189 -0.0188652 -0.204223 0.558984 -0.306412 0.731514 255 0 0
-0.0152805 -0.018872 -0.202564 -0.103988 0.516709 0.762382 255 0 0
0.0144001 -0.0180698 -0.19873 -0.189488 0.44096 0.786641 255 0 0
0.0172014 -0.0186936 -0.197754 -0.0407031 0.0669192 0.968837 255 0 0
0.0219734 -0.0185554 -0.197754 0.146832 -0.116282 0.938705 255 0 0
0.0248234 -0.0187857 -0.19873 0.0948343 -0.0721532 0.962201 255 0 0
0.0274621 -0.0188116 -0.199355 0.30955 -0.149227 0.873825 255 0 0
-0.0200927 -0.0191294 -0.202759 -0.0533735 0.251616 0.885552 255 0 0
0.00231203 -0.0192871 -0.200684 -0.101431 0.290979 0.861 255 0 0
0.0147357 -0.0190411 -0.197754 -0.186329 0.233466 0.860176 255 0 0
0.00981649 -0.0413225 -0.204006 0.0406242 -0.539228 0.80214 255 0 0
-0.0225433 -0.0194183 -0.202759 -0.0778149 0.454676 0.793474 255 0 0
-0.0248973 -0.0196075 -0.202759 -0.162636 0.657933 0.686355 255 0 0
0.0229746 -0.0195414 -0.19873 0.403267 -0.403267 0.810915 255 0 0
-0.0303284 -0.0201874 -0.203735 0 0.752578 0.658502 255 0 0
-0.0279175 -0.0201874 -0.203735 -0.095335 0.700089 0.672932 255 0 0
-0.0200719 -0.0211715 -0.202075 -0.0793983 0.304327 0.860964 255 0 0
-0.0176153 -0.0212036 -0.201912 -0.0724406 0.352257 0.831454 255 0 0
-0.0152206 -0.0209503 -0.201782 -0.0471838 0.202878 0.902612 255 0 0
-0.0103803 -0.0205316 -0.201782 0.0445226 0.237898 0.873684 255 0 0
-0.00301933 -0.0198975 -0.200684 0.0994325 0.792493 0.571964 255 0 0
0.0304169 -0.021524 -0.201782 0.560211 -0.28101 0.735759 255 0 0
0.0347916 -0.0212944 -0.205005 0.517144 -0.181646 0.781399 255 0 0
0.0364746 -0.0238525 -0.205688 0.164 0.136627 0.904684 255 0 0
-0.0211868 -0.03479 -0.201782 -0.30999 -0.621314 0.705294 255 0 0
-0.0324944 -0.0213742 -0.202759 -0.0438423 0.209493 0.905061 255 0 0
-0.0277832 -0.0212936 -0.202759 -0.0149797 0.202251 0.91129 255 0 0
-0.00297088 -0.0211731 -0.200635 0.0522737 0.173244 0.912534 255 0 0
-0.000188264 -0.0207145 -0.200684 -0.0485381 0.0488317 0.968454 255 0 0
0.0022864 -0.0211934 -0.200021 -0.122126 0.252396 0.876023 255 0 0
0.00480156 -0.0212097 -0.199707 -0.0334781 0.154886 0.927228 255 0 0
0.00716553 -0.0212054 -0.199668 -0.080458 0.171254 0.919117 255 0 0
0.00973435 -0.0211446 -0.199088 -0.218162 0.244498 0.856772 255 0 0
0.0222986 -0.0212153 -0.19873 0.115786 -0.115782 0.95112 255 0 0
0.0292003 -0.021227 -0.200684 0.36484 -0.227652 0.843665 255 0 0
-0.0346893 -0.0216797 -0.202759 -0.202474 0.354306 0.83454 255 0 0
-0.0126572 -0.021874 -0.200684 -0.134376 0.315218 0.840492 255 0 0
-0.0104561 -0.0218342 -0.200684 0.0514661 0.270279 0.857159 255 0 0
0.0207825 -0.0218124 -0.19873 0.568354 -0.228333 0.74833 255 0 0
-0.0151443 -0.0222778 -0.200684 -0.104857 0.741616 0.618938 255 0 0
-0.0175537 -0.0444946 -0.206787 0.098937 -0.641252 0.731036 255 0 0
0.00213021 -0.0262151 -0.198822 -0.105411 0.104846 0.946162 255 0 0
-0.0327791 -0.0236419 -0.202026 -0.112293 0.273902 0.874213 255 0 0
-0.0276805 -0.0236099 -0.202043 -0.0693146 0.245056 0.885643 255 0 0
0.0314433 -0.023056 -0.202759 0.550386 -0.221627 0.766282 255 0 0
-0.0103396 -0.0261958 -0.19974 -0.00443473 0.149813 0.924749 255 0 0
-0.0252533 -0.023819 -0.201782 -0.0119552 0.0119552 0.996251 255 0 0
-0.0151443 -0.0237 -0.200684 -0.01361 0.01361 0.995065 255 0 0
-0.0103882 -0.0237 -0.200684 -0.00100308 0.12652 0.944757 255 0 0
-0.00287507 -0.0236823 -0.199707 -0.00135695 0.0796916 0.962305 255 0 0
0.0119057 -0.0231966 -0.19873 -0.273825 0.221528 0.856109 255 0 0
0.0131836 -0.0224152 -0.197754 -0.526586 0.530902 0.663965 255 0 0
0.0246539 -0.023559 -0.199551 0.288928 -0.207667 0.879088 255 0 0
0.028595 -0.0229874 -0.200684 0.593363 -0.238999 0.721197 255 0 0
0.0298469 -0.0239337 -0.202207 0.467156 -0.293399 0.797995 255 0 0
0.0145889 -0.0238129 -0.197754 0 0 1 255 0 0
-0.0233409 -0.0245387 -0.201782 -0.085944 0.406242 0.713328 255 0 0
-0.0195821 -0.0244954 -0.200684 0 0 1 255 0 0
0.0282593 -0.0245361 -0.201782 0.592787 -0.238405 0.721947 255 0 0
0.0271944 -0.0284906 -0.202399 0.485042 -0.322074 0.781872 255 0 0
-0.0328918 -0.0262085 -0.201782 0 0 1 255 0 0
-0.0276992 -0.0258439 -0.201782 -0.143353 0.251949 0.859144 255 0 0
-0.0237007 -0.0256119 -0.201782 -0.526309 0.344971 0.730634 255 0 0
-0.00276756 -0.0261917 -0.199707 0 0.129307 0.938488 255 0 0
0.0294113 -0.0260468 -0.202619 0.46766 -0.325078 0.792084 255 0 0
0.0306833 -0.0264674 -0.203735 0.472902 -0.378745 0.776602 255 0 0
0.00477714 -0.0262909 -0.19873 0 0 1 255 0 0
0.00906542 -0.0258179 -0.19873 -0.318146 0.238484 0.800644 255 0 0
0.0122467 -0.0261566 -0.197754 0.0286036 -0.0560039 0.967938 255 0 0
0.0187988 -0.0254516 -0.197754 0.568825 -0.22985 0.746237 255 0 0
-0.0316162 -0.0378723 -0.202759 -0.333543 -0.661874 0.67132 255 0 0
-0.00760956 -0.0402527 -0.202759 0 -0.644451 0.764645 255 0 0
0.017392 -0.0268585 -0.19873 0.0496345 -0.27264 0.892966 255 0 0
0.0296673 -0.028622 -0.204046 0.426556 -0.334554 0.809585 255 0 0
0.032015 -0.0284763 -0.205023 0.348994 -0.341537 0.82835 255 0 0
0.0337753 -0.0280418 -0.205444 0.0398205 -0.405578 0.7735 255 0 0
-0.00524139 -0.0414653 -0.20393 -0.0618519 -0.549898 0.788312 255 0 0
-0.0227509 -0.0286941 -0.200684 0 0 1 255 0 0
-0.020342 -0.0286575 -0.200423 -0.157483 0.21201 0.88953 255 0 0
-0.0178986 -0.0285851 -0.20018 -0.0949547 0.268611 0.870335 255 0 0
0.0243901 -0.0281873 -0.200684 0.375854 -0.277994 0.833763 255 0 0
-0.015302 -0.0287933 -0.199707 -0.0376816 0.0376816 0.983212 255 0 0
-0.0127029 -0.0287933 -0.199707 0 0 1 255 0 0
-0.0103378 -0.0287933 -0.199707 0 0 1 255 0 0
-0.0077362 -0.0287933 -0.199707 0 0 1 255 0 0
-0.0051297 -0.028775 -0.19959 -0.161393 0.0237446 0.876493 255 0 0
-0.00275402 -0.0286407 -0.19873 -0.111803 0.147308 0.892099 255 0 0
-0.000400448 -0.0286407 -0.19873 -0.0127047 0.044119 0.980817 255 0 0
0.00477714 -0.0286407 -0.19873 0 0 1 255 0 0
0.0069817 -0.0287901 -0.19873 -0.119859 -0.0143945 0.872793 255 0 0
0.00756073 -0.0280304 -0.197754 -0.232529 -0.0140195 0.848285 255 0 0
0.0123735 -0.0287697 -0.19873 0.0340889 -0.156362 0.937987 255 0 0
0.0146622 -0.0286407 -0.19873 0.0115857 -0.0117788 0.996428 255 0 0
0.0198435 -0.0287652 -0.199294 0.170455 -0.323836 0.868797 255 0 0
0.0223511 -0.0288483 -0.200098 0.328497 -0.328487 0.85795 255 0 0
-0.0228638 -0.0362366 -0.201782 0 -0.128962 0.952869 255 0 0
0.03125 -0.0301361 -0.205688 0 0 0 255 0 0
-0.0374298 -0.0312271 -0.201782 0 0 1 255 0 0
-0.0328918 -0.0312271 -0.201782 0 0 1 255 0 0
0.024499 -0.0310629 -0.202249 0.369931 -0.42662 0.805789 255 0 0
-0.0250082 -0.0434346 -0.205688 -0.0392808 -0.358512 0.849123 255 0 0
-0.0300412 -0.0312551 -0.200684 -0.185472 -0.132382 0.875473 255 0 0
-0.027743 -0.031308 -0.200684 0.0023977 -0.122034 0.951846 255 0 0
-0.025128 -0.0313473 -0.200684 -0.0107451 -0.0513318 0.980042 255 0 0
-0.0227509 -0.031308 -0.200684 0 0 1 255 0 0
-0.0203277 -0.0312469 -0.200293 -0.17584 -0.194248 0.887768 255 0 0
-0.0127029 -0.0311554 -0.199707 0 0 1 255 0 0
-0.0077362 -0.0311554 -0.199707 0 0 1 255 0 0
-0.00513229 -0.0311554 -0.199707 -0.0777342 -0.0105544 0.968715 255 0 0
-0.0027573 -0.0310278 -0.198925 -0.181211 -0.183063 0.880353 255 0 0
0.00218852 -0.0312297 -0.19873 -0.006823 -0.0504009 0.981648 255 0 0
0.00713043 -0.0312296 -0.19873 0.0094432 -0.00975797 0.997109 255 0 0
