ply
format ascii 1.0
comment Created by Open3D
element vertex 749
property double x
property double y
property double z
property double nx
property double ny
property double nz
property uchar red
property uchar green
property uchar blue
end_header
0.0103961 0.0227197 -0.186646 -0.247809 0.184071 0.874313 255 0 0
0.0274714 -0.0122955 -0.188571 0.366699 0.098354 0.826472 255 0 0
0.0679245 0.00865745 -0.183716 -0.134147 -0.549251 0.712089 255 0 0
0.025091 0.0355114 -0.188022 -0.199292 0.580745 0.728371 255 0 0
0.0352609 0.0351235 -0.185041 -0.161746 0.500024 0.788084 255 0 0
0.0224237 -0.0388726 -0.185886 0.25872 0.00899522 0.849882 255 0 0
0.0246048 -0.0147476 -0.186646 0.345365 0 0.861556 255 0 0
0.005262 -0.0273036 -0.188062 -0.227128 -0.0659388 0.883062 255 0 0
0.050335 0.0152328 -0.180743 -0.0514912 -0.229482 0.869882 255 0 0
0.0288239 -0.0197022 -0.189697 0.694922 0.0733166 0.697118 255 0 0
0.0225423 0.0113029 -0.183716 0.138192 -0.650297 0.690603 255 0 0
0.0527466 0.0326396 -0.180534 -0.195753 0.377821 0.819209 255 0 0
0.03243 0.0335998 -0.184692 -0.186872 0.485039 0.789667 255 0 0
0.0203988 0.0252154 -0.183716 -0.117096 0.107819 0.937698 255 0 0
0.0176824 0.0128975 -0.183716 0 0 1 255 0 0
0.0428162 0.0228271 -0.179688 0 0 1 255 0 0
0.00295067 -0.0302322 -0.189927 -0.362823 -0.0739494 0.822488 255 0 0
0.0449646 0.00673676 -0.187622 0.0462782 -0.908246 0.401807 255 0 0
0.056961 0.0364075 -0.182617 -0.262949 0.609725 0.695647 255 0 0
0.0619507 0.0252736 -0.177612 -0.442333 0.124378 0.721497 255 0 0
0.0402832 0.0228271 -0.179688 -0.00953522 0.00953522 0.996507 255 0 0
0.00127996 0.00536619 -0.188721 -0.657685 -0.0411999 0.630523 255 0 0
0.0226868 0.0128975 -0.183716 0 0 1 255 0 0
0.0205906 0.0320217 -0.186646 -0.119251 0.376298 0.850154 255 0 0
0.0559425 0.0278845 -0.178589 0 0 0.9375 255 0 0
0.0502014 0.035338 -0.182817 -0.122125 0.477407 0.78379 255 0 0
0.0103429 0.00531387 -0.184692 -0.0668964 0.01219 0.97243 255 0 0
0.0527446 0.0418396 -0.187622 -0.0588035 0.822714 0.549094 255 0 0
0.0553778 0.0349906 -0.181408 -0.199477 0.559226 0.749352 255 0 0
0.0525487 0.0383682 -0.184692 -0.229621 0.618012 0.668682 255 0 0
0.0693826 0.0179434 -0.177727 0 -0.135549 0.933412 255 0 0
0.0176824 0.0176824 -0.183716 0 0 1 255 0 0
0.0276755 0.0278207 -0.182739 -0.207134 0.177004 0.891334 255 0 0
0.0576824 0.0151984 -0.18011 -0.0405498 -0.250021 0.865372 255 0 0
0.0451475 0.00804247 -0.186018 -0.011422 -0.500131 0.773682 255 0 0
0.0202301 -0.00716718 -0.185083 0.276572 0.0214712 0.88284 255 0 0
0.0328369 0.016139 -0.181641 -0.124307 -0.333055 0.794929 255 0 0
0.0245099 -0.00984845 -0.186646 0.477738 0.0905674 0.791911 255 0 0
0.0127518 0.0127518 -0.184692 0 0 1 255 0 0
0.0268962 0.0309804 -0.184692 -0.44822 0.451169 0.756855 255 0 0
0.0273231 0.0229447 -0.182617 -0.274837 0.172762 0.838523 255 0 0
0.026125 -0.0295544 -0.187622 0.421592 0.0813948 0.813057 255 0 0
0.026928 -0.0379563 -0.186646 0.237185 0.267084 0.806706 255 0 0
0.00304042 -0.0146603 -0.188416 -0.571391 -0.0749216 0.722627 255 0 0
0.0311127 -0.013855 -0.192749 0.300337 0.295332 0.7694 255 0 0
0.0325108 0.0280056 -0.181641 -0.0728156 0.264104 0.871129 255 0 0
0.0604268 0.0200087 -0.1784 -0.112605 -0.136624 0.87269 255 0 0
0.0575145 0.0308949 -0.179688 -0.152425 0.422044 0.788709 255 0 0
0.0375148 0.0310974 -0.182617 -0.197673 0.490075 0.773487 255 0 0
0.00306357 0.0127814 -0.188512 -0.37841 0.113707 0.803457 255 0 0
0.0627104 0.0233837 -0.176636 -0.0823973 -0.107826 0.859857 255 0 0
0.0279338 -0.00217959 -0.189762 0.389037 0.0650601 0.836333 255 0 0
0.0141716 0.0149374 -0.184692 -0.563816 -0.088824 0.712178 255 0 0
0.0291901 -0.0349375 -0.188721 0.5285 0.149722 0.752761 255 0 0
0.0602356 0.0233719 -0.177612 -0.236326 0.018614 0.812213 255 0 0
0.0654093 0.00584412 -0.187622 0 -0.921364 0.3887 255 0 0
0.0377662 0.025234 -0.180622 -0.0472194 0.0381366 0.966826 255 0 0
0.0304893 0.00686319 -0.187622 0.114221 -0.545312 0.749716 255 0 0
0.0376099 0.0376099 -0.186451 0 0.51243 0.803566 255 0 0
0.0677795 0.0144119 -0.179688 -0.0549917 -0.344635 0.801334 255 0 0
0.0151558 -0.0145861 -0.184692 0 0 1 255 0 0
0.00516129 0.015737 -0.187772 -0.420737 0.114629 0.800341 255 0 0
0.0542298 0.041626 -0.186646 -0.348073 0 0.85895 255 0 0
0.0301165 -0.0197253 -0.190534 0.617519 0.0294912 0.684483 255 0 0
0.0177765 -0.0222412 -0.184692 0 0 1 255 0 0
0.0276203 0.0174503 -0.182617 -0.130604 -0.221276 0.851664 255 0 0
0.0245099 0.00290843 -0.186646 0.480416 -0.184089 0.787602 255 0 0
0.0117747 0.0261434 -0.187622 -0.436296 0.437715 0.772316 255 0 0
0.00354958 -0.0390243 -0.189697 0 0 0.75 255 0 0
0.0427138 0.00972837 -0.184979 0 -0.764692 0.644381 255 0 0
0.0550842 0.0152163 -0.180189 -0.0317234 -0.253687 0.863626 255 0 0
0.0456034 0.0394287 -0.186646 -0.171847 0.614756 0.726414 255 0 0
0.0254933 0.0295341 -0.183716 -0.19892 0.323143 0.845679 255 0 0
0.0525024 0.0120926 -0.182617 -0.0491768 -0.304783 0.839526 255 0 0
0.0500992 0.03806 -0.184839 -0.113578 0.513019 0.783767 255 0 0
0.0577113 0.0326759 -0.179905 -0.0487575 0.190176 0.915315 255 0 0
0.0468953 0.0406697 -0.187622 0 0.512063 0.756187 255 0 0
0.0413818 0.0318909 -0.181641 -0.524027 0.524027 0.67141 255 0 0
0.024826 -0.0222575 -0.186646 0.22268 0.0153051 0.911102 255 0 0
0.055076 0.0327066 -0.180163 -0.117511 0.268603 0.87257 255 0 0
0.0151558 -0.00715192 -0.184692 0 0 1 255 0 0
0.0177765 -0.0272725 -0.184692 0 0 1 255 0 0
0.0153843 0.0176256 -0.183716 -0.183804 0.063167 0.913098 255 0 0
0.00364304 -0.0222778 -0.188721 -0.70624 -0.055146 0.691363 255 0 0
0.0452696 0.0278159 -0.180102 -0.220461 0.300145 0.817791 255 0 0
0.0225449 0.0368957 -0.188721 0 0 1 255 0 0
0.00347495 -0.0273647 -0.188721 -0.235234 0.12036 0.865438 255 0 0
0.0226644 0.0303457 -0.185278 -0.276233 0.39004 0.81815 255 0 0
0.0326443 0.0102212 -0.184967 -0.0395595 -0.431005 0.785408 255 0 0
-0.00199824 -0.00213409 -0.19165 -0.137406 -0.0138859 0.891585 255 0 0
0.0326347 0.0150096 -0.182617 -0.0744593 -0.186862 0.88077 255 0 0
0.032881 0.0369636 -0.186646 -0.128545 0.502585 0.796632 255 0 0
0.0151558 -0.0272725 -0.184692 0 0 1 255 0 0
0.0312347 -0.0365092 -0.190674 0.203544 0 0.930638 255 0 0
0.0210533 0.0267067 -0.183716 -0.334889 0.507345 0.751502 255 0 0
0.0401235 0.0126251 -0.182837 -0.0489121 -0.471393 0.751277 255 0 0
0.0476783 0.0326528 -0.18142 -0.141096 0.407577 0.817933 255 0 0
0.0453796 0.0202764 -0.179688 0 0 1 255 0 0
0.0691528 0.00771904 -0.184692 -0.148975 -0.439083 0.687117 255 0 0
0.0176824 0.0152878 -0.183716 0 0 1 255 0 0
0.00786059 0.0227836 -0.188054 -0.356864 0.106091 0.824156 255 0 0
0.067749 0.0155322 -0.178589 -0.0426178 -0.223247 0.868375 255 0 0
0.0272522 0.0113754 -0.183716 0.122812 -0.703095 0.656096 255 0 0
0.0243835 -0.00722758 -0.186646 0.690957 0 0.722896 255 0 0
0.0350624 0.00338599 -0.19165 0.133586 -0.645768 0.662216 255 0 0
0.0552577 0.0227304 -0.178589 0 0 1 255 0 0
0.0277732 -0.0296772 -0.188329 0.432476 0 0.818644 255 0 0
0.0131798 0.0294037 -0.187622 0 0 0.75 255 0 0
0.0312424 0.0367737 -0.186646 -0.256227 0.579869 0.724416 255 0 0
0.0502502 0.0121791 -0.182617 0 -0.258705 0.876864 255 0 0
0.0044837 0.0127358 -0.187622 -0.37559 0.0218187 0.799417 255 0 0
0.0210724 0.0367126 -0.188721 0 0 1 255 0 0
0.0228172 0.0272949 -0.183716 -0.124682 0.194691 0.909816 255 0 0
0.0202942 0.0128975 -0.183716 0 0 1 255 0 0
0.00860138 0.0243439 -0.187622 0 0 0.8 255 0 0
0.0451913 0.0351236 -0.183148 -0.161931 0.398917 0.80379 255 0 0
0.0376686 0.0328836 -0.183263 -0.126863 0.316177 0.853469 255 0 0
0.030398 0.0252355 -0.181641 -0.0969064 0.000467111 0.95082 255 0 0
0.0379121 0.0279594 -0.181046 -0.122666 0.174083 0.904368 255 0 0
-0.000122073 0.00271586 -0.189697 -0.194083 0 0.914561 255 0 0
0.0277054 -0.0322428 -0.188172 0.348894 0.0546091 0.841599 255 0 0
0.00548145 -0.0322037 -0.188329 -0.470507 -0.0722866 0.767797 255 0 0
0.0602442 0.0151724 -0.179925 -0.0495794 -0.334931 0.821339 255 0 0
0.0550537 0.0362366 -0.182617 -0.0880529 0.425096 0.821905 255 0 0
0.00514984 -0.00214424 -0.186646 -0.250497 0 0.886578 255 0 0
0.0427631 0.0202428 -0.179791 -0.0958004 -0.102923 0.923855 255 0 0
0.0288239 -0.0172272 -0.189697 0.684776 0 0.728751 255 0 0
0.035184 0.0286587 -0.181641 -0.0588323 0.171345 0.865227 255 0 0
0.0434112 0.00673676 -0.187622 0.180597 -0.835614 0.470157 255 0 0
0.0528703 0.00944797 -0.184692 0.0706345 -0.419021 0.806427 255 0 0
0.0549622 0.0402238 -0.185566 -0.217841 0.328884 0.705908 255 0 0
0.0477773 0.0352061 -0.182947 -0.105456 0.461587 0.797153 255 0 0
0.0340271 -0.0361633 -0.193726 0.836048 0 0.548656 255 0 0
0.0351587 0.0304748 -0.182617 -0.119641 0.199759 0.896078 255 0 0
0.0404755 0.0393677 -0.187622 0 0.443631 0.797498 255 0 0
0.0350453 0.00608132 -0.188721 0 -0.793318 0.601481 255 0 0
0.00891113 -0.0392863 -0.186646 -0.476288 0 0.797559 255 0 0
0.0426537 0.0178425 -0.180585 -0.0487188 -0.140357 0.919036 255 0 0
0.0302651 0.0395036 -0.188221 -0.286299 -0.116365 0.80131 255 0 0
0.0668488 0.0234413 -0.176636 0.367096 -0.242228 0.83464 255 0 0
0.00206407 -0.0170509 -0.189697 -0.38845 0.0231549 0.817575 255 0 0
0.0323792 0.000387729 -0.192749 0.23863 -0.13084 0.887075 255 0 0
0.0505574 0.0341288 -0.181641 -0.235057 0.578321 0.728229 255 0 0
0.0151558 -0.0198364 -0.184692 0 0 1 255 0 0
0.0269492 0.000450023 -0.188721 0.599359 -0.112096 0.756683 255 0 0
0.0103178 0.00770613 -0.184804 -0.113577 0.0806493 0.870003 255 0 0
0.0527445 0.0227 -0.178589 0 0 1 255 0 0
0.0227657 0.0154659 -0.182774 0 -0.255241 0.869089 255 0 0
0.0177765 0.00290855 -0.184692 0 0 1 255 0 0
0.0504067 0.0367986 -0.183716 -0.114862 0.542639 0.774385 255 0 0
0.0202874 -0.0297231 -0.185602 0.177045 -0.126536 0.905423 255 0 0
0.0276474 -0.0348458 -0.187963 0.28426 0.066698 0.867589 255 0 0
0.00597678 -0.0393067 -0.188721 -0.217929 -0.0935402 0.885724 255 0 0
0.0454125 0.00480094 -0.189697 -0.0310125 -0.29281 0.784914 255 0 0
0.0127518 -0.0172119 -0.184692 0 0 1 255 0 0
0.0148544 -0.0099411 -0.183716 0 0 1 255 0 0
0.00273533 -0.0021582 -0.187842 -0.461811 0 0.782786 255 0 0
0.0680712 0.0227381 -0.177612 0.148891 -0.168389 0.89258 255 0 0
0.0333862 0.001894 -0.192749 0.166817 -0.683123 0.657684 255 0 0
0.0125517 -0.0296143 -0.185446 -0.244197 0.0218996 0.874467 255 0 0
0.0624608 0.0385721 -0.182617 -0.192493 0.395183 0.780725 255 0 0
0.0127518 -0.0097758 -0.184692 0 0 1 255 0 0
0.0496811 0.0257431 -0.179688 -0.266401 0.256311 0.820021 255 0 0
0.0278249 0.0327077 -0.185008 -0.211345 0.410561 0.814741 255 0 0
0.0645447 0.0336609 -0.179688 -0.288675 0.652181 0.631987 255 0 0
0.0262909 -0.0346008 -0.187622 0.703051 0.0739696 0.6875 255 0 0
0.0146947 0.0125817 -0.184692 -0.191745 -0.112969 0.878094 255 0 0
0.0278696 0.0360366 -0.187622 -0.255495 0.612308 0.697964 255 0 0
0.0629786 0.0323764 -0.178589 -0.0865067 0.222341 0.888289 255 0 0
0.0377731 0.0204249 -0.180542 -0.10803 -0.0949497 0.919513 255 0 0
0.0371094 0.00143973 -0.193075 -0.277369 -0.475237 0.667664 255 0 0
0.06026 0.0368042 -0.181641 -0.145557 0.411459 0.810513 255 0 0
0.0527445 0.020162 -0.178589 -0.0216394 -0.0425776 0.970777 255 0 0
0.0523224 0.0267181 -0.178589 -0.368605 0.187654 0.780922 255 0 0
0.0577581 0.0277198 -0.178532 -0.0600345 0.0470368 0.952255 255 0 0
0.0322647 -0.00472705 -0.192871 0.194238 -0.0509233 0.903822 255 0 0
0.0404445 0.0137711 -0.181641 -0.102059 -0.654022 0.657682 255 0 0
0.020565 0.00952244 -0.184692 0.269039 -0.365566 0.816718 255 0 0
0.0553623 0.0130513 -0.181424 -0.0272646 -0.516717 0.743601 255 0 0
0.0323283 -0.0247843 -0.19165 0.467533 0.14118 0.756819 255 0 0
0.0126008 -0.0271739 -0.185196 -0.233427 -0.116826 0.878223 255 0 0
0.00360298 0.00503921 -0.186646 -0.688316 0.127095 0.671288 255 0 0
0.0225672 -0.0272088 -0.185707 0.0789054 0 0.965723 255 0 0
0.0476245 0.0380212 -0.185239 -0.221795 0.560843 0.740245 255 0 0
0.0327352 0.0394135 -0.187622 0 0 1 255 0 0
0.0372838 0.0393154 -0.187622 0 0 0.857143 255 0 0
0.030398 0.020285 -0.181641 0 0 1 255 0 0
0.0158666 0.0200043 -0.183716 -0.377949 0.182466 0.810053 255 0 0
0.032074 -0.0346578 -0.19165 0.610095 -0.0213892 0.738687 255 0 0
0.0352346 0.0128551 -0.183152 -0.031612 -0.259052 0.857334 255 0 0
0.00776164 -0.00235272 -0.185669 -0.236379 0.00120664 0.892966 255 0 0
0.0327948 0.00826373 -0.186367 -0.0142333 -0.571563 0.737624 255 0 0
0.0280569 0.0184519 -0.181641 -0.177709 -0.237382 0.82827 255 0 0
0.0302582 -0.014954 -0.190851 0.648673 0.239853 0.659571 255 0 0
0.00525007 -0.0245639 -0.188122 -0.418007 0.00201385 0.808966 255 0 0
0.0178539 0.0104746 -0.183716 -0.0838868 -0.15276 0.889508 255 0 0
0.0428292 0.0253449 -0.179716 -0.0762041 0.114691 0.943162 255 0 0
0.0252964 0.00781475 -0.185726 0.163491 -0.32276 0.840044 255 0 0
0.0652302 0.0147814 -0.179726 -0.10612 -0.362969 0.77598 255 0 0
0.00231361 0.0157903 -0.189697 -0.555961 0.125195 0.315065 255 0 0
0.00673294 -0.0297211 -0.187622 -0.753651 0 0.657275 255 0 0
0.0292664 0.0169373 -0.182617 -0.360273 -0.724184 0.555704 255 0 0
0.0302991 0.00277275 -0.190478 0.340681 -0.493624 0.737274 255 0 0
0.0352347 0.0101357 -0.184901 -0.0503856 -0.462309 0.773445 255 0 0
0.0254553 -0.00215992 -0.188018 0.419882 0.0526377 0.813046 255 0 0
0.0576711 0.0200063 -0.178589 0 0 1 255 0 0
0.050059 0.0279389 -0.179688 -0.0105927 0.0105927 0.995614 255 0 0
0.0601528 0.00780555 -0.185554 0.0114437 -0.631239 0.69773 255 0 0
0.0667419 0.0286713 -0.177612 -0.27967 0.627744 0.66484 255 0 0
0.00267755 -0.0246676 -0.189697 -0.267668 0.0108071 0.877565 255 0 0
0.0528742 0.0056208 -0.188263 -0.179762 -0.517763 0.700727 255 0 0
0.0176544 -0.037089 -0.185669 0.0011261 -0.050431 0.981641 255 0 0
0.0676593 0.0204176 -0.177612 0 0 1 255 0 0
0.0332336 -0.0244293 -0.192749 0.712801 0.0941625 0.404687 255 0 0
0.0549883 0.0388707 -0.184692 -0.225835 0.602541 0.710474 255 0 0
0.0578697 0.00605496 -0.186646 -0.0811343 -0.107369 0.937085 255 0 0
0.0250778 0.0128975 -0.183716 -0.00903286 -0.0856709 0.956681 255 0 0
0.0452491 0.0378397 -0.185602 -0.163174 0.631696 0.696985 255 0 0
0.0326205 0.00290879 -0.191251 0.287422 -0.557235 0.726419 255 0 0
0.0601309 0.0381245 -0.182675 -0.173393 0.429866 0.793696 255 0 0
0.00828231 -0.0321559 -0.186646 -0.1773 -0.0489719 0.917196 255 0 0
0.0692937 0.0203858 -0.177612 0 0 1 255 0 0
0.0681305 0.0296669 -0.176636 -0.782172 0.287333 0.296312 255 0 0
0.0247154 -0.017292 -0.186646 0.27958 0.0533746 0.877425 255 0 0
0.0127637 0.0251714 -0.186537 -0.254161 0.280224 0.867604 255 0 0
0.0202789 0.0228865 -0.183563 -0.227311 0.0907022 0.876286 255 0 0
0.0671005 0.0351562 -0.179932 -0.144338 0.647568 0.635348 255 0 0
0.0374085 0.0385132 -0.187622 0 0.112198 0.963246 255 0 0
0.0560557 0.0296122 -0.178589 -0.13273 0.447921 0.768115 255 0 0
0.00577209 0.0200465 -0.188721 -0.396566 0.261726 0.811936 255 0 0
0.042511 0.00542831 -0.188721 0 0 0 255 0 0
0.0387878 0.0138321 -0.181641 -0.414834 -0.822325 0.38948 255 0 0
0.0644074 0.0388947 -0.182617 -0.224727 0.615178 0.684322 255 0 0
0.017719 0.027761 -0.185819 -0.268426 0.224513 0.85478 255 0 0
0.000741098 0.0101738 -0.189697 -0.223313 0.083635 0.723821 255 0 0
0.0159781 0.0298143 -0.186646 -0.198291 0.0289308 0.888499 255 0 0
0.0103747 -0.0172653 -0.185262 -0.250267 -0.00554053 0.873137 255 0 0
0.0676329 0.0177813 -0.177779 -0.0546599 -0.207843 0.87783 255 0 0
0.0649306 0.0282548 -0.177612 -0.116599 0.283837 0.867381 255 0 0
0.0199652 -0.0390167 -0.185669 0 0 1 255 0 0
0.00444603 -0.0373306 -0.189697 -0.292685 -0.0540653 0.863358 255 0 0
0.0332306 -0.0346802 -0.19314 0.751556 0.0899562 0.618068 255 0 0
0.0601368 0.0129581 -0.181275 -0.0829321 -0.432993 0.76134 255 0 0
0.0125999 -0.0390727 -0.185669 0 0 1 255 0 0
0.0150914 -0.0171863 -0.184692 -0.0499054 0.00270888 0.964543 255 0 0
0.00193929 -0.0149104 -0.189697 -0.451248 -0.109882 0.790914 255 0 0
0.0327877 0.0179468 -0.181578 -0.0618975 -0.0720669 0.951656 255 0 0
0.0353699 0.0229543 -0.180664 0 0 1 255 0 0
0.0600996 0.0328959 -0.179722 -0.15934 0.284419 0.85554 255 0 0
0.0333862 -0.0302887 -0.192749 0.786196 -0.177153 0.557033 255 0 0
0.0669861 0.0370789 -0.181641 0 0.418024 0.274328 255 0 0
0.0227788 0.0227788 -0.182617 -0.0560213 0.0100928 0.971754 255 0 0
0.0283661 0.0391541 -0.189697 -0.571929 0.592355 0.567461 255 0 0
0.0477046 0.0152588 -0.180973 -0.0691302 -0.241393 0.85918 255 0 0
0.0204186 0.0351608 -0.188666 -0.0957927 0.207929 0.843377 255 0 0
0.0477 0.0228198 -0.179688 -0.11103 -0.00254172 0.923812 255 0 0
0.0575562 0.0168274 -0.179688 -0.0760221 -0.485549 0.718347 255 0 0
0.00514889 0.000287042 -0.186619 -0.267754 -0.0296545 0.871116 255 0 0
0.0593414 0.041626 -0.184692 0 0 0 255 0 0
0.00673294 -0.0279388 -0.187622 -0.753081 -0.125195 0.618837 255 0 0
0.0152397 -0.037089 -0.185669 0 0 1 255 0 0
0.0285862 0.0251748 -0.181641 -0.341755 0.0709805 0.81221 255 0 0
0.0377734 0.0154364 -0.181641 -0.0537396 -0.201591 0.891232 255 0 0
0.0603638 0.0303192 -0.178589 -0.0369803 0.0783235 0.961813 255 0 0
0.0533218 0.0184117 -0.178589 -0.233611 -0.384107 0.689112 255 0 0
0.00779775 -0.0246724 -0.186516 -0.341054 -0.0568812 0.833406 255 0 0
0.0327892 0.00450802 -0.189941 0.16997 -0.702298 0.642612 255 0 0
0.00740433 -0.0372879 -0.187732 -0.442755 -0.086287 0.77613 255 0 0
0.0227106 -0.00975105 -0.186113 0.228575 0.0193446 0.903853 255 0 0
0.0151558 -0.00474548 -0.184692 0 0 1 255 0 0
0.0202301 0.00291497 -0.185083 0.284164 -0.0271831 0.8816 255 0 0
0.0685222 0.0241852 -0.177612 0.424111 -0.422027 0.79241 255 0 0
0.0311127 -0.0124817 -0.192749 0 0 1 255 0 0
0.0676005 0.0277318 -0.176636 -0.0763441 0.0976004 0.948008 255 0 0
0.062745 0.0127819 -0.181124 -0.0407387 -0.401873 0.800687 255 0 0
0.0301269 0.037978 -0.187975 -0.279772 0.259889 0.808657 255 0 0
0.0524952 0.0175737 -0.179688 -0.0715526 -0.121162 0.908484 255 0 0
0.0354767 0.0383657 -0.187622 -0.0627953 0.502454 0.748199 255 0 0
0.0452169 0.0302404 -0.180745 -0.0719778 0.188759 0.91508 255 0 0
0.00778336 0.015283 -0.186212 -0.313237 0.124268 0.853008 255 0 0
0.051178 0.0418396 -0.187622 0 0.836048 0.548656 255 0 0
0.0572934 0.0402052 -0.184692 -0.107695 0.237498 0.592635 255 0 0
0.0591125 0.0409546 -0.184692 -0.309472 0.309472 0.241775 255 0 0
0.0603259 0.0400183 -0.183716 -0.155767 0.200131 0.741834 255 0 0
0.0103429 -0.0097758 -0.184692 0 0 1 255 0 0
0.0452688 0.0403796 -0.187622 -0.0896572 0.229563 0.848148 255 0 0
0.0505805 0.0400889 -0.186286 -0.108664 0.510796 0.760948 255 0 0
0.0526052 0.0402139 -0.186157 -0.0920792 0.54555 0.776409 255 0 0
0.00779495 0.0103723 -0.185725 -0.136697 0.0367436 0.926546 255 0 0
0.0378365 0.0299596 -0.181641 -0.115645 0.238161 0.893234 255 0 0
0.0151558 -0.024648 -0.184692 0 0 1 255 0 0
0.0625366 0.0334595 -0.179688 -0.188697 0.487282 0.757905 255 0 0
0.0624118 0.0061086 -0.186646 0.0908346 -0.256609 0.882467 255 0 0
0.0643005 0.0394287 -0.182617 0 0 1 255 0 0
0.0227857 0.00526321 -0.185791 0.181752 -0.136402 0.909719 255 0 0
0.0426788 0.0396641 -0.187622 -0.0616122 0.249901 0.896806 255 0 0
0.047482 0.0394525 -0.18632 -0.231586 0.448902 0.734981 255 0 0
0.00262833 -0.0263489 -0.189697 -0.369787 0.0328481 0.826438 255 0 0
0.00291316 0.0181885 -0.189697 -0.305386 0 0.133606 255 0 0
0.0351807 0.0394135 -0.187622 0 0 1 255 0 0
0.0552864 0.0376015 -0.18335 -0.151614 0.560458 0.746686 255 0 0
0.0577774 0.037797 -0.183063 -0.17129 0.456957 0.783687 255 0 0
0.0650286 0.0375657 -0.181641 -0.087077 0.276796 0.877615 255 0 0
0.00273864 -0.00728607 -0.188135 -0.432422 0.0062585 0.786824 255 0 0
0.0286713 0.0393982 -0.188721 0 0 1 255 0 0
0.0428247 0.0378564 -0.186099 -0.11674 0.631024 0.727339 255 0 0
0.0280573 0.0375187 -0.188656 -0.310661 0.441393 0.759735 255 0 0
0.0369907 0.0353902 -0.184909 -0.239555 0.438929 0.705719 255 0 0
0.0326462 0.0382019 -0.187622 -0.0398124 0.210924 0.913778 255 0 0
0.0402959 0.0376167 -0.186198 -0.0928729 0.501363 0.783629 255 0 0
0.0527568 0.0372152 -0.183569 -0.261481 0.593241 0.704913 255 0 0
0.0628329 0.0303742 -0.178352 -0.184311 0.174964 0.89071 255 0 0
0.0272522 0.0381355 -0.189697 -0.314941 0.36854 0.719372 255 0 0
0.0431297 0.0321239 -0.181641 -0.157383 0.406598 0.818566 255 0 0
0.0254189 0.0379334 -0.189697 0 0.566231 0.715556 255 0 0
0.0352478 0.0371471 -0.186474 -0.135284 0.556388 0.765233 255 0 0
0.0653472 0.0352602 -0.180136 -0.109956 0.400136 0.824772 255 0 0
0.0479187 0.0365906 -0.183716 -0.104805 0.644625 0.724696 255 0 0
0.0526326 0.0358344 -0.182617 -0.169893 0.440617 0.799943 255 0 0
0.0577302 0.0351653 -0.181134 -0.0985931 0.427847 0.816131 255 0 0
0.0601635 0.0351744 -0.180847 -0.122564 0.46326 0.800356 255 0 0
0.0627193 0.0351076 -0.18039 -0.102311 0.438184 0.810346 255 0 0
0.0550981 0.0305453 -0.179688 -0.0949175 0.0940632 0.936957 255 0 0
0.0253169 0.0369415 -0.188721 -0.0291355 0.342457 0.875375 255 0 0
0.0424906 0.0362244 -0.184692 -0.101077 0.673883 0.706867 255 0 0
0.0444641 0.036377 -0.184692 -0.262014 0.597693 0.706271 255 0 0
0.0400798 0.032873 -0.182917 -0.12386 0.404145 0.814073 255 0 0
0.0505315 0.0249155 -0.178589 -0.239613 0.23283 0.838582 255 0 0
0.029625 0.0365295 -0.187622 -0.24643 0.592616 0.721334 255 0 0
0.0303476 0.0352914 -0.186227 -0.225435 0.514883 0.774089 255 0 0
0.0328074 0.0352244 -0.185571 -0.184042 0.520606 0.775429 255 0 0
0.0428001 0.0349474 -0.183542 -0.121178 0.492419 0.777635 255 0 0
0.0527973 0.034565 -0.181641 -0.185241 0.484149 0.787462 255 0 0
0.0277263 0.0347941 -0.186516 -0.226886 0.616942 0.708677 255 0 0
0.0226293 0.0353373 -0.188342 -0.133017 0.32696 0.850568 255 0 0
0.0402985 0.0348612 -0.183716 -0.0199187 0.233315 0.913229 255 0 0
0.0673218 0.0343323 -0.178589 -0.857143 0.428571 0.285714 255 0 0
0.0671105 0.0328134 -0.178288 -0.0740794 0.466208 0.672717 255 0 0
0.0311127 -0.00472355 -0.192749 0.559447 0 0.776888 255 0 0
0.0227365 -0.00222242 -0.18628 0.348305 0 0.858711 255 0 0
0.0301051 0.0153931 -0.182617 -0.0296396 -0.0812446 0.955978 255 0 0
0.0526879 0.0107368 -0.183402 0 -0.604334 0.701536 255 0 0
0.0254345 0.0342789 -0.186646 -0.188029 0.609759 0.725683 255 0 0
0.035159 0.0326464 -0.18345 -0.151198 0.408533 0.808702 255 0 0
0.0425851 0.0332511 -0.182617 -0.142597 0.342262 0.845082 255 0 0
0.0450989 0.0336426 -0.182617 -0.0844634 0.425734 0.822892 255 0 0
-0.00161709 -0.00482205 -0.191441 -0.413284 0.131596 0.784916 255 0 0
0.0188293 0.0344849 -0.188721 0 0 1 255 0 0
0.0301293 0.0332641 -0.184855 -0.168035 0.506429 0.780321 255 0 0
0.0453168 0.0324222 -0.181641 -0.0712911 0.310792 0.872119 255 0 0
0.0177765 0.00771968 -0.184692 -0.0512698 -0.0663878 0.9554 255 0 0
0.0186729 0.0333862 -0.188171 0 0.416869 0.273613 255 0 0
0.0202965 0.0333252 -0.187677 -0.169833 0.386478 0.820161 255 0 0
0.0229568 0.0325635 -0.186442 -0.273077 0.442965 0.80009 255 0 0
0.0253514 0.032605 -0.185669 -0.275346 0.434941 0.8017 255 0 0
0.0327623 0.0323995 -0.183716 -0.0690749 0.339132 0.855855 255 0 0
4.91463e-05 0.00527294 -0.189847 -0.331319 0.034562 0.811028 255 0 0
0.0305564 0.0320629 -0.183716 -0.198956 0.384453 0.821664 255 0 0
0.0650737 0.0301535 -0.177639 -0.0754134 0.115055 0.941374 255 0 0
0.0402985 0.0303057 -0.181469 -0.187025 0.290586 0.862407 255 0 0
0.042728 0.0302955 -0.181044 -0.0730899 0.244924 0.892453 255 0 0
0.0476951 0.0303478 -0.180603 -0.0827933 0.191063 0.911727 255 0 0
0.00776393 -0.0122528 -0.185734 -0.241385 -0.0573818 0.877873 255 0 0
0.0502248 0.0303655 -0.180241 -0.148949 0.310437 0.853164 255 0 0
0.0525583 0.0304108 -0.179726 -0.103794 0.102703 0.943009 255 0 0
0.0580168 0.0298455 -0.178589 -0.124501 0.231858 0.877592 255 0 0
0.0672857 0.0300335 -0.177612 -0.165476 0.127489 0.904038 255 0 0
0.0243835 -0.00501823 -0.186646 0.699585 0.0904045 0.688619 255 0 0
0.0277999 0.0300255 -0.18352 -0.217743 0.370557 0.821374 255 0 0
0.0302145 0.0302128 -0.183136 -0.144261 0.286181 0.862752 255 0 0
0.0177734 0.0303139 -0.186612 -0.0845033 0.108435 0.949376 255 0 0
0.0200849 0.0302904 -0.18606 -0.19446 0.306919 0.844644 255 0 0
0.0249827 0.0305794 -0.184743 -0.219814 0.398662 0.819301 255 0 0
0.0177765 -0.0198364 -0.184692 0 0 1 255 0 0
0.0376912 0.0177937 -0.180727 -0.0568392 -0.165691 0.906747 255 0 0
0.0356954 0.0294698 -0.181641 -0.232342 0.461631 0.776721 255 0 0
0.0478086 0.0279151 -0.179688 -0.0450655 0.0970931 0.956906 255 0 0
0.051918 0.0279389 -0.179688 -0.0589076 0.143944 0.93145 255 0 0
0.0625567 0.0274542 -0.177612 -0.140141 0.172973 0.915012 255 0 0
0.0693156 0.0155093 -0.178589 0 -0.113439 0.622104 255 0 0
0.0353699 0.0203858 -0.180664 0 0 1 255 0 0
0.0400814 0.0276735 -0.180718 -0.0315129 0.100659 0.951988 255 0 0
0.0426061 0.0277306 -0.180607 -0.0776937 0.159593 0.924971 255 0 0
0.0653768 0.0272288 -0.176636 -0.168867 0.313588 0.842535 255 0 0
0.0177386 -0.0296483 -0.184692 0.104964 -0.027047 0.956946 255 0 0
0.0692871 0.0243805 -0.177612 0.251174 -0.258354 0.789771 255 0 0
0.0427958 0.0153109 -0.181315 0 -0.261183 0.873775 255 0 0
0.0222495 0.0285285 -0.184692 -0.238466 0.385757 0.822296 255 0 0
0.025127 0.0277354 -0.183533 -0.207675 0.228411 0.879715 255 0 0
0.0298324 0.0284058 -0.182617 -0.223035 0.428148 0.797415 255 0 0
0.0305189 0.0273802 -0.181641 -0.112086 0.201643 0.905848 255 0 0
-0.00148242 0.00562123 -0.190813 -0.196137 0.211184 0.879405 255 0 0
0.0127298 0.027801 -0.187663 -0.181777 0.195174 0.88641 255 0 0
0.0144399 0.0288137 -0.187622 -0.435565 0.438806 0.772502 255 0 0
0.0153443 0.027712 -0.186613 -0.201724 0.247627 0.884894 255 0 0
0.0610657 0.0267792 -0.177612 0 0 1 255 0 0
0.0109962 0.0273351 -0.187779 0 0.196699 0.906241 255 0 0
0.0289001 0.0269623 -0.181641 -0.665153 0.259145 0.631946 255 0 0
0.0628183 0.0253154 -0.176636 -0.221818 0.0430574 0.830519 255 0 0
0.0675677 0.0254373 -0.176636 0.041549 -0.0750625 0.965778 255 0 0
0.0289612 0.00673676 -0.187622 0.489575 -0.487474 0.72297 255 0 0
0.0136605 0.026928 -0.186646 -0.520746 0.327144 0.739047 255 0 0
0.0453796 0.025383 -0.179688 0 0 1 255 0 0
0.0526872 0.0251465 -0.178589 -0.0115778 0.0344996 0.985 255 0 0
0.0553373 0.0251806 -0.178589 0 0 1 255 0 0
0.0579122 0.0251883 -0.178217 -0.255875 0.0876437 0.84761 255 0 0
0.0602356 0.0250982 -0.177612 -0.0417971 0.0124267 0.976755 255 0 0
0.0253854 0.0253361 -0.182648 -0.0776013 0.0983353 0.948096 255 0 0
0.0274797 0.0254149 -0.182617 -0.216735 0.00539355 0.880638 255 0 0
0.0325356 0.0251528 -0.180786 -0.230248 0.094553 0.815333 255 0 0
0.040145 0.0252241 -0.180205 -0.180427 0.283971 0.861062 255 0 0
0.0202444 -0.0146284 -0.185213 0.273339 0.0436066 0.879418 255 0 0
0.0177176 -0.0390407 -0.185669 0 0 1 255 0 0
0.0152907 0.0252417 -0.18558 -0.246728 0.302889 0.838 255 0 0
0.0170166 0.0259033 -0.185474 0 0 1 255 0 0
0.0227882 0.0251807 -0.183034 -0.205137 0.306375 0.84093 255 0 0
0.0103526 0.0252479 -0.187622 -0.335481 0.335911 0.63583 255 0 0
0.0675601 0.00774293 -0.185018 -0.0915294 -0.488772 0.747064 255 0 0
0.0302344 0.0081092 -0.186357 0.0893147 -0.511187 0.763629 255 0 0
0.0101913 -0.0272314 -0.185864 -0.29717 -0.0265342 0.858967 255 0 0
0.0610718 0.0232422 -0.176636 -0.435731 0.0525698 0.683004 255 0 0
0.0650603 0.0234495 -0.176636 0 0 1 255 0 0
0.00273533 0.000289144 -0.187842 -0.461809 0 0.782788 255 0 0
0.0109711 0.024531 -0.186646 -0.438347 0.43507 0.772923 255 0 0
0.0328403 0.0229106 -0.180881 -0.258831 -0.0260739 0.857547 255 0 0
0.0486511 0.0230835 -0.178589 -0.68767 0.0579248 0.519268 255 0 0
0.0621847 0.00924683 -0.184692 -0.140831 -0.784949 0.552702 255 0 0
0.0502517 0.0227625 -0.178589 -0.0545929 -0.054463 0.942606 255 0 0
0.0692444 0.0227844 -0.177612 0 0 1 255 0 0
0.028395 0.0225043 -0.181641 -0.261222 0.0897192 0.866076 255 0 0
0.030398 0.0226517 -0.181641 0 0 1 255 0 0
0.0126152 0.0227458 -0.185913 -0.268015 0.182808 0.870513 255 0 0
0.0151711 0.0228373 -0.184887 -0.295478 0.166003 0.85612 255 0 0
0.0627543 0.0227814 -0.177612 -0.0553283 -0.719627 0.338062 255 0 0
0.00939941 0.0231781 -0.187622 -0.670271 0.1653 0.672876 255 0 0
0.049324 0.0218658 -0.179688 -0.369929 -0.553538 0.548954 255 0 0
0.00621319 0.0224114 -0.188721 -0.525268 0.00538125 0.812447 255 0 0
0.0626102 0.0201454 -0.177856 -0.105695 -0.210938 0.82877 255 0 0
0.0328901 0.0203932 -0.180999 -0.229692 -0.0971878 0.845285 255 0 0
0.040182 0.0203327 -0.180202 -0.0605474 -0.255918 0.853853 255 0 0
0.0477295 0.0202764 -0.179688 0 0 1 255 0 0
0.0499159 0.0201598 -0.179688 -0.123322 -0.073188 0.902849 255 0 0
0.0509704 0.0206284 -0.178589 -0.382275 -0.227115 0.698876 255 0 0
0.0552877 0.020162 -0.178589 0 0 1 255 0 0
0.00891113 0.0217285 -0.186646 -0.495901 0.495901 0.712857 255 0 0
0.0147553 0.0205498 -0.184692 -0.247963 0.117382 0.881248 255 0 0
0.0176824 0.0202942 -0.183716 -0.00927583 0.00895597 0.996826 255 0 0
0.0202281 0.0202289 -0.183075 -0.286805 0.106048 0.843616 255 0 0
0.0227788 0.0201823 -0.182617 0 0 1 255 0 0
0.0252769 0.0202022 -0.182617 -0.143252 0.00343864 0.92206 255 0 0
0.0278193 0.020285 -0.181641 -0.0668539 0.0636181 0.957596 255 0 0
0.00366211 0.021637 -0.189697 0 0 1 255 0 0
0.00737104 0.0204634 -0.187922 -0.529549 0.221848 0.739528 255 0 0
0.00860478 0.0199585 -0.186646 -0.361126 0.0875845 0.844693 255 0 0
0.0125969 0.0202616 -0.185096 -0.228697 0.276231 0.867403 255 0 0
0.0552183 0.0105948 -0.183363 -0.0796571 -0.499682 0.728821 255 0 0
0.00339222 0.020192 -0.189697 -0.0355143 0.0358204 0.886346 255 0 0
0.00462287 0.0205394 -0.189697 -0.261988 0.207818 0.873117 255 0 0
0.0226993 -0.0172676 -0.185956 0.225224 0 0.908732 255 0 0
0.0515442 0.0192108 -0.179688 -0.676452 -0.676452 0.29125 255 0 0
0.0629206 0.0176585 -0.178563 -0.0461935 -0.100629 0.926275 255 0 0
0.0652553 0.0177841 -0.178124 -0.105851 -0.214653 0.847974 255 0 0
0.0151267 -0.0391187 -0.185566 -0.0900407 0.0749921 0.823477 255 0 0
0.0304286 0.0179495 -0.181641 -0.0294595 -0.0820147 0.955225 255 0 0
0.0452139 0.0177992 -0.180295 -0.0493062 -0.25054 0.852249 255 0 0
0.047725 0.017728 -0.180262 -0.0412711 -0.24831 0.857913 255 0 0
0.0635376 0.0161438 -0.178589 -0.142857 -0.833294 0.475502 255 0 0
0.0501065 0.0177341 -0.179851 -0.103792 -0.207559 0.863925 255 0 0
0.0553778 0.018134 -0.178589 -0.0370157 -0.23043 0.866634 255 0 0
0.0578964 0.0179257 -0.178589 -0.0282154 -0.179077 0.896791 255 0 0
0.0603943 0.0176514 -0.178589 -0.0216215 -0.138872 0.919375 255 0 0
0.0103849 0.0178515 -0.185425 -0.332863 0.0781102 0.843915 255 0 0
0.0127518 0.0177765 -0.184692 0 0 1 255 0 0
0.0201683 0.0177565 -0.183029 -0.277935 -0.0103882 0.854535 255 0 0
0.0227788 0.0178009 -0.182617 0 0 1 255 0 0
0.00688171 0.018219 -0.187622 -0.528779 0.27683 0.74963 255 0 0
0.00803789 0.0176424 -0.186524 -0.413588 0.192275 0.801689 255 0 0
0.055069 0.0170269 -0.179688 -0.0694989 -0.293119 0.831132 255 0 0
0.0594177 0.0166626 -0.179688 -0.210821 -0.840842 0.429739 255 0 0
0.0550118 0.00941277 -0.184692 -0.0909116 -0.467033 0.75509 255 0 0
0.0203059 0.0154121 -0.183328 -0.211065 -0.177938 0.845247 255 0 0
0.0253415 0.015399 -0.182676 -0.0313949 -0.171828 0.901958 255 0 0
0.0277557 0.0154241 -0.182617 -0.0101006 -0.0550801 0.974468 255 0 0
0.0312576 0.0164185 -0.181641 -0.372282 -0.720293 0.553153 255 0 0
0.0452234 0.0153543 -0.181138 -0.0545848 -0.250226 0.866326 255 0 0
0.0526886 0.01528 -0.180359 -0.0898647 -0.302485 0.830522 255 0 0
0.0627657 0.0151219 -0.17986 -0.0322449 -0.414034 0.786937 255 0 0
0.0656363 0.0158492 -0.178589 -0.120159 -0.364398 0.767546 255 0 0
0.0650902 0.0101173 -0.183063 -0.0684308 -0.511723 0.733621 255 0 0
0.00364304 0.0166016 -0.188721 0 0 1 255 0 0
0.0103713 0.0152003 -0.185208 -0.260802 0.0696165 0.876126 255 0 0
0.015324 0.015324 -0.183716 -0.155796 -0.029538 0.919278 255 0 0
0.00313146 0.0152299 -0.188721 -0.121388 0.0887964 0.914826 255 0 0
0.0061086 0.0147298 -0.186646 -0.312883 0.238551 0.831466 255 0 0
0.0103429 -0.00715192 -0.184692 -0.115195 0.00932922 0.947745 255 0 0
0.00020435 -0.00715417 -0.19011 -0.430406 0.0462072 0.789202 255 0 0
0.069397 0.0143204 -0.179688 0 -0.445968 0.726081 255 0 0
0.037262 0.0143433 -0.182617 -0.135658 -0.794421 0.549671 255 0 0
0.0156946 0.0131965 -0.183716 -0.264636 -0.127486 0.839057 255 0 0
0.0276748 0.0128911 -0.183624 -0.0223192 -0.256315 0.863546 255 0 0
0.030265 0.012881 -0.183472 -0.0619356 -0.387074 0.791908 255 0 0
0.0277503 0.00776451 -0.186268 0.114467 -0.334584 0.845523 255 0 0
0.0327093 0.012918 -0.183117 -0.0314292 -0.283881 0.851282 255 0 0
0.0376778 0.0127926 -0.182926 -0.0775583 -0.322709 0.822761 255 0 0
0.0428772 0.0136184 -0.181641 0 -0.389865 0.813056 255 0 0
0.0476074 0.0134023 -0.181641 0 -0.258923 0.876593 255 0 0
0.0501963 0.0134023 -0.181641 -0.0180328 -0.381033 0.818247 255 0 0
0.0528093 0.0132356 -0.181508 -0.0859097 -0.525613 0.716488 255 0 0
0.0652803 0.0127305 -0.180973 -0.0703905 -0.385706 0.786697 255 0 0
0.0678759 0.0126827 -0.180639 -0.0880751 -0.450685 0.757823 255 0 0
0.0161591 -0.0175476 -0.183716 0.008385 0.0164815 0.766 255 0 0
0.00773535 0.0127947 -0.185921 -0.27506 0.0535211 0.870647 255 0 0
0.0103607 0.0127747 -0.185018 -0.257549 0.0278699 0.878999 255 0 0
0.0426788 0.0123959 -0.182617 -0.0305036 -0.390711 0.798963 255 0 0
0.0452257 0.0123676 -0.182617 -0.046535 -0.367397 0.810573 255 0 0
0.0478719 0.0121791 -0.182617 0 -0.258486 0.877131 255 0 0
0.0250778 0.0113754 -0.183716 0 -0.770514 0.63742 255 0 0
0.0550537 0.0119202 -0.182617 -0.0734473 -0.457045 0.759344 255 0 0
0.0578257 0.0117493 -0.182617 0 -0.773151 0.634212 255 0 0
0.0602051 0.0117493 -0.182617 0 -0.772365 0.635174 255 0 0
0.0619405 0.0117493 -0.182617 -0.139472 -0.79307 0.542079 255 0 0
0.000965595 0.0117493 -0.189697 0 0 0 255 0 0
0.0103607 0.010362 -0.185018 -0.246245 -0.00916633 0.877887 255 0 0
0.0127612 0.01035 -0.184822 0.0711774 -0.197969 0.881525 255 0 0
0.0150378 0.0103516 -0.184855 -0.126776 -0.19468 0.848665 255 0 0
0.0161591 0.011158 -0.183716 -0.793924 -0.200326 0.529934 255 0 0
0.020059 0.0106325 -0.183716 0.137783 -0.202265 0.901855 255 0 0
0.0278575 0.0102661 -0.184887 0.0811695 -0.438529 0.794628 255 0 0
0.0302267 0.0103083 -0.185058 0 -0.383527 0.820783 255 0 0
0.0329056 0.0113754 -0.183716 -0.101527 -0.780676 0.583069 255 0 0
0.0352347 0.0113133 -0.183716 -0.103339 -0.644201 0.669468 255 0 0
0.0376892 0.011158 -0.183716 -0.0253019 -0.371493 0.82729 255 0 0
0.040337 0.0109661 -0.183716 -0.0233119 -0.283521 0.858163 255 0 0
0.0477422 0.0107079 -0.183441 -0.0303981 -0.590818 0.700058 255 0 0
0.0503662 0.0105979 -0.183496 0.00183848 -0.536189 0.727491 255 0 0
0.0578057 0.01036 -0.183167 -0.0659474 -0.411286 0.77655 255 0 0
0.0602181 0.0102677 -0.18322 0.0515454 -0.441019 0.785173 255 0 0
0.062707 0.0103745 -0.183063 -0.0700958 -0.46713 0.749232 255 0 0
0.0654419 0.0112534 -0.181641 -0.0845798 -0.786124 0.576222 255 0 0
0.0678406 0.0112534 -0.181641 0 -0.748011 0.658981 255 0 0
0.0693359 0.0112534 -0.181641 0 0 0 255 0 0
0.00717926 -0.0348256 -0.187622 -0.404734 -0.0316377 0.81442 255 0 0
0.00423384 0.0103445 -0.187622 -0.13366 0.112297 0.921387 255 0 0
0.0226555 0.0100615 -0.184692 0.0590688 -0.168385 0.919722 255 0 0
0.0252228 0.010126 -0.184725 0.0547702 -0.283311 0.86681 255 0 0
0.0677511 0.0100357 -0.183057 0 -0.470949 0.770575 255 0 0
0.0694755 0.00974273 -0.183402 0 -0.226242 0.743317 255 0 0
0.0127518 -0.00474548 -0.184692 0 0 1 255 0 0
0.0376732 0.00988879 -0.184971 0 -0.581987 0.729805 255 0 0
0.0400848 0.00979004 -0.184985 -0.0354689 -0.691099 0.671688 255 0 0
0.0169729 0.00954056 -0.184692 -0.30517 -0.3054 0.750558 255 0 0
0.0452784 0.00966925 -0.184795 -0.0815146 -0.563754 0.704179 255 0 0
0.0477417 0.00946808 -0.184692 -0.0299486 -0.613059 0.721694 255 0 0
0.0500461 0.00944797 -0.184692 -0.0941171 -0.534963 0.732584 255 0 0
0.00140762 0.00945282 -0.188721 -0.91102 0 0.412361 255 0 0
0.00537109 0.00935364 -0.186646 -0.293538 0.0632556 0.85071 255 0 0
0.0571441 0.00924683 -0.184692 -0.103363 -0.779927 0.57895 255 0 0
0.0613098 0.00924683 -0.184692 0.468398 -0.46018 0.754213 255 0 0
0.0227172 0.00286602 -0.1861 0.247656 -0.104539 0.893198 255 0 0
0.0127518 0.000284314 -0.184692 0 0 1 255 0 0
0.00118422 0.00788752 -0.188721 -0.391275 0.0832703 0.81528 255 0 0
0.00278582 0.00773508 -0.187948 -0.448132 0.108212 0.785655 255 0 0
0.00406647 0.00895691 -0.187622 -0.504762 0.50585 0.699522 255 0 0
0.00517949 0.00777119 -0.18659 -0.298278 0.0621874 0.86051 255 0 0
0.00776164 0.00776164 -0.185669 -0.187152 0.0183528 0.915804 255 0 0
0.0128471 0.00782177 -0.185599 0.146592 0.0100939 0.902299 255 0 0
0.015227 0.00775549 -0.185533 -0.212601 -0.0636008 0.880384 255 0 0
0.0201813 0.00771968 -0.184692 0.0214483 -0.0724379 0.969209 255 0 0
0.0226457 0.007736 -0.185099 0.205504 -0.233124 0.855864 255 0 0
0.0351801 0.00819696 -0.186221 -0.0482709 -0.557924 0.727245 255 0 0
0.0378462 0.00806808 -0.186227 -0.0252217 -0.484164 0.770927 255 0 0
0.0403681 0.00788164 -0.186249 -0.0571491 -0.319682 0.83737 255 0 0
0.0426707 0.00782649 -0.18619 0.0208343 -0.362544 0.824898 255 0 0
0.0476908 0.00799408 -0.185995 -0.0212712 -0.644509 0.689611 255 0 0
0.0502287 0.00797599 -0.185948 -0.0130772 -0.704734 0.660162 255 0 0
0.0527171 0.00794373 -0.185864 -0.0240084 -0.706609 0.667375 255 0 0
0.0551987 0.00773663 -0.185995 -0.0489404 -0.540572 0.738773 255 0 0
0.0576872 0.00775966 -0.185698 -0.0520699 -0.528559 0.742874 255 0 0
0.0627289 0.00775846 -0.185669 -0.00900406 -0.566357 0.739055 255 0 0
0.0657349 0.00876617 -0.183716 -0.141167 -0.786909 0.549256 255 0 0
0.0693848 0.00841827 -0.183716 -0.135509 -0.133132 0.862554 255 0 0
0.000166271 0.00736406 -0.189914 -0.629983 0.138726 0.619102 255 0 0
0.0327352 0.00695801 -0.187622 0.028568 -0.603897 0.720874 255 0 0
0.0351807 0.00695801 -0.187622 0 -0.667243 0.696749 255 0 0
0.0374078 0.00688426 -0.187622 -0.0901169 -0.769799 0.60045 255 0 0
0.0278942 0.00504374 -0.187866 0.334705 -0.420122 0.79627 255 0 0
0.00603485 -0.0171814 -0.186646 -0.376481 0 0.829032 255 0 0
0.0394135 0.00673676 -0.187622 -0.202523 -0.77839 0.545863 255 0 0
0.0502991 0.00673676 -0.187622 0 -0.753229 0.657732 255 0 0
0.0522995 0.00673676 -0.187622 -0.102616 -0.769858 0.593681 255 0 0
0.0297318 -0.0071785 -0.191162 0.679207 0.0141739 0.730385 255 0 0
0.00269474 0.00536572 -0.187822 -0.50112 0.00337409 0.769498 255 0 0
0.00511333 0.00517742 -0.186506 -0.297912 0.0113706 0.869069 255 0 0
0.00775706 0.00534007 -0.185571 -0.195918 0.0505159 0.899847 255 0 0
0.0228419 -0.0121633 -0.186202 0.232021 0 0.905993 255 0 0
0.0127851 0.00531959 -0.18487 0.129797 0.180595 0.893849 255 0 0
0.015199 0.0053304 -0.185213 -0.168561 0.270368 0.815731 255 0 0
0.0177765 0.00531387 -0.184692 -0.0112804 0.0109862 0.996046 255 0 0
0.0202106 0.00532043 -0.184926 0.259538 -0.086625 0.887518 255 0 0
0.0251336 0.00526516 -0.186533 0.282924 -0.229375 0.870704 255 0 0
0.0271124 0.0061086 -0.186646 0.215253 -0.466083 0.776347 255 0 0
0.030191 0.00541885 -0.188369 0.166419 -0.537749 0.741502 255 0 0
0.0325966 0.00581479 -0.188515 0.184609 -0.619283 0.700954 255 0 0
0.037884 0.00604454 -0.188552 -0.144157 -0.76827 0.566801 255 0 0
0.0397208 0.00604957 -0.188093 -0.0581794 -0.696887 0.583437 255 0 0
0.0453186 0.00578422 -0.188611 0.194032 -0.5409 0.625992 255 0 0
0.0477481 0.00561673 -0.188482 -0.0177315 -0.357098 0.824202 255 0 0
0.0502833 0.00564558 -0.188471 0.0211384 -0.587214 0.723853 255 0 0
0.0550537 0.00588951 -0.187622 -0.0809885 -0.395721 0.771151 255 0 0
0.055776 0.0062561 -0.186646 -0.134768 -0.774699 0.574722 255 0 0
0.0602051 0.00603485 -0.186646 0 0 1 255 0 0
0.0652771 0.0062561 -0.186646 0 -0.452552 0.54431 255 0 0
0.0202693 -0.00234957 -0.185441 0.273085 0.0430003 0.880131 255 0 0
0.0672607 0.00614547 -0.186646 -0.277062 -0.580645 0.308662 255 0 0
0.0567475 0.00562287 -0.187622 -0.0713663 -0.403723 0.768252 255 0 0
0.063385 0.00584412 -0.187622 0.180887 -0.822454 0.48829 255 0 0
0.0669556 0.00584412 -0.187622 -0.150568 -0.917578 0.33064 255 0 0
0.0012722 -0.0262756 -0.190674 -0.569909 0 0.671312 255 0 0
0.0353144 0.00483582 -0.190141 0.0608749 -0.725207 0.665301 255 0 0
0.0377891 0.00475624 -0.19023 -0.0181591 -0.663458 0.701167 255 0 0
0.0522385 0.00444603 -0.189697 -0.0374461 -0.426106 0.764863 255 0 0
0.0261803 0.00440025 -0.187622 0.49659 -0.323341 0.765425 255 0 0
0.0397208 0.00445121 -0.190534 -0.0564299 -0.383938 0.820737 255 0 0
0.0305456 0.00425847 -0.189697 0.264091 -0.513734 0.765634 255 0 0
0.046936 0.00440852 -0.189697 -0.125554 -0.552674 0.651441 255 0 0
0.0504896 0.0043585 -0.189697 0 -0.439361 0.77742 255 0 0
0.00775783 0.00292296 -0.185588 -0.187107 -0.0296629 0.905463 255 0 0
0.0103429 0.00290855 -0.184692 -0.0585741 -0.00807664 0.973689 255 0 0
0.0127518 0.00290855 -0.184692 0 0 1 255 0 0
0.0151558 0.00290855 -0.184692 0 0 1 255 0 0
0.00112837 0.00258112 -0.188721 -0.51182 0 0.722606 255 0 0
0.00360298 0.00294018 -0.186646 -0.754451 -0.0963168 0.623635 255 0 0
0.0257085 0.00266006 -0.187683 0.380469 -0.184544 0.827673 255 0 0
0.0274506 0.00296986 -0.188584 0.5219 -0.299876 0.751186 255 0 0
0.0375977 0.00339763 -0.19165 0 -0.6489 0.506595 255 0 0
0.0202098 -0.0172333 -0.18492 0.272896 0.0425173 0.88039 255 0 0
0.0284712 0.00236373 -0.189697 0.487056 -0.336781 0.769434 255 0 0
0.0353808 0.0023504 -0.192749 0.164407 -0.488524 0.777759 255 0 0
0.0323507 -0.0299001 -0.191455 0.473258 0.000118667 0.747795 255 0 0
0.0374939 0.00235049 -0.192749 -0.0402434 -0.179618 0.920614 255 0 0
-0.00150538 0.00208902 -0.189697 -0.126439 -0.126439 0.924718 255 0 0
-0.00171108 0.000337115 -0.190869 -0.206304 -0.169996 0.72365 255 0 0
-3.36038e-05 0.000216733 -0.18995 -0.40283 -0.125234 0.793877 255 0 0
0.00125869 0.000513891 -0.188721 -0.476312 -0.0738346 0.776516 255 0 0
0.00776037 0.00028558 -0.185642 -0.246693 -0.00338161 0.882403 255 0 0
0.0103429 0.000284314 -0.184692 -0.110085 0.0011245 0.950929 255 0 0
0.0151245 0.000253064 -0.184692 0 0 1 255 0 0
0.0178079 0.000253064 -0.184692 0 0 1 255 0 0
0.0202586 0.000284954 -0.185343 0.291607 -0.0814428 0.874471 255 0 0
0.0227966 0.000286744 -0.18632 0.348123 0 0.858888 255 0 0
0.0279855 0.000225701 -0.189927 0.636224 -0.112571 0.730775 255 0 0
0.0300589 0.000350998 -0.191254 0.438598 -0.115931 0.814654 255 0 0
0.0318604 0.00143051 -0.19165 0.504775 -0.50795 0.69799 255 0 0
0.0353272 0.00144177 -0.193335 0.179293 -0.509697 0.651756 255 0 0
0.032135 -0.0145476 -0.192889 0.330354 0.192113 0.792291 255 0 0
0.0250124 -0.0246654 -0.186646 0.344256 -0.00878111 0.856274 255 0 0
-6.94215e-05 -0.00207524 -0.190381 -0.381408 -0.0516961 0.825109 255 0 0
0.00140762 -0.00216751 -0.188721 -0.427782 0 0.819509 255 0 0
0.0103444 -0.00234047 -0.184719 -0.14621 0.00489892 0.927547 255 0 0
0.0127518 -0.00234016 -0.184692 0 0 1 255 0 0
0.026886 -0.00216751 -0.188721 0.680314 0 0.73292 255 0 0
0.0299744 -0.00174421 -0.19126 0.488338 0.0176252 0.805766 255 0 0
0.0319112 -0.0019599 -0.192749 0.247564 0 0.666872 255 0 0
0.00277348 -0.0361206 -0.190479 -0.117963 0 0.961508 255 0 0
0.00410843 -0.0309296 -0.189697 -0.743982 -0.371991 0.55508 255 0 0
0.015213 -0.0346192 -0.185376 -0.117799 -0.182437 0.892047 255 0 0
-3.75278e-06 -0.00457962 -0.190373 -0.4985 0.025638 0.758318 255 0 0
0.00140762 -0.00449104 -0.188721 -0.675334 0 0.718577 255 0 0
0.00275287 -0.00455044 -0.187948 -0.413694 -0.0442097 0.757717 255 0 0
0.00514507 -0.00457271 -0.18651 -0.351424 0.0381902 0.836759 255 0 0
0.0077858 -0.022213 -0.186266 -0.294746 -0.0632563 0.857994 255 0 0
0.0228532 -0.00463362 -0.186359 0.262122 0.00789362 0.893926 255 0 0
0.0255737 -0.0045378 -0.187876 0.491457 0.0241923 0.787983 255 0 0
0.0270335 -0.00455072 -0.188721 0.453346 -0.0176833 0.804287 255 0 0
0.0280121 -0.00469475 -0.189697 0.540606 -0.0107455 0.778772 255 0 0
0.0296958 -0.00484748 -0.191139 0.698187 0 0.711339 255 0 0
0.00776164 -0.00477104 -0.185669 -0.138456 0.0111709 0.936906 255 0 0
0.0103429 -0.00474548 -0.184692 -0.126941 0 0.941332 255 0 0
0.0177765 -0.00474548 -0.184692 0 0 1 255 0 0
0.0202515 -0.00476082 -0.185278 0.2757 0.0258641 0.882418 255 0 0
0.0258484 -0.0121574 -0.187622 0.347366 0.0159584 0.854735 255 0 0
-0.00159216 -0.00679461 -0.190999 -0.205624 0 0.59523 255 0 0
0.00140762 -0.00708389 -0.188721 -0.63932 0.0644837 0.644466 255 0 0
0.00524937 -0.00716643 -0.186616 -0.287059 -0.0639396 0.854812 255 0 0
0.00776037 -0.00718901 -0.185642 -0.244748 0.0306506 0.883905 255 0 0
0.0127518 -0.00715192 -0.184692 0 0 1 255 0 0
0.0177765 -0.00715192 -0.184692 0 0 1 255 0 0
0.0227966 -0.00721507 -0.18632 0.229722 0.0179056 0.903168 255 0 0
0.0256615 -0.00727781 -0.187897 0.537396 0 0.772795 255 0 0
0.0269966 -0.00736189 -0.188721 0.550173 -0.009581 0.792725 255 0 0
0.0279917 -0.0070522 -0.189697 0.529086 0.0446306 0.785869 255 0 0
0.0311127 -0.00723495 -0.192749 0.722395 0.073545 0.669193 255 0 0
0.0322784 -0.0072422 -0.192944 0.31533 0.050337 0.848077 255 0 0
0.0341579 -0.0349862 -0.193726 0.543914 0.0273944 0.755826 255 0 0
0.00406647 -0.00793457 -0.187622 -0.693202 -0.222866 0.651553 255 0 0
0.000166549 -0.00902897 -0.189914 -0.449701 0 0.638285 255 0 0
0.0281016 -0.00954744 -0.189697 0.428117 0.0767597 0.800337 255 0 0
0.0299112 -0.0095537 -0.191072 0.554119 0.0595548 0.745744 255 0 0
0.0324008 -0.00975737 -0.192993 0.280155 -0.110669 0.857409 255 0 0
0.00140762 -0.00887299 -0.188721 0 0 1 255 0 0
0.00284272 -0.00962358 -0.187988 -0.279685 -0.0594142 0.84327 255 0 0
0.00419399 -0.00971223 -0.187622 -0.604133 0.0546824 0.741108 255 0 0
0.00544805 -0.0096588 -0.186646 -0.316303 -0.00409804 0.850835 255 0 0
0.015162 -0.00976955 -0.184692 -0.00137457 0.000488314 0.967044 255 0 0
0.0177765 -0.0097758 -0.184692 0 0 1 255 0 0
0.0202301 -0.00979665 -0.185083 0.280642 0 0.885026 255 0 0
0.0256529 -0.00955486 -0.187828 0.484331 0.0395642 0.780117 255 0 0
0.027063 -0.00967407 -0.188721 0.346128 0.289529 0.575101 255 0 0
0.0311127 -0.0106583 -0.192749 0.645335 -0.245493 0.662614 255 0 0
0.00790544 -0.0270622 -0.186646 -0.148215 -0.0283792 0.931084 255 0 0
0.000711798 -0.0123361 -0.189697 -0.135932 -0.0752964 0.925148 255 0 0
0.00140762 -0.0111084 -0.188721 -0.625819 -0.628828 0.46144 255 0 0
0.00280517 -0.0121365 -0.188329 -0.438813 -0.107514 0.776602 255 0 0
0.00426934 -0.0122584 -0.187622 -0.393084 -0.0606535 0.813284 255 0 0
0.00554809 -0.0120483 -0.186646 -0.299463 -0.00930708 0.867969 255 0 0
0.028595 -0.0113869 -0.189697 0.629916 0.131339 0.740435 255 0 0
0.0294342 -0.0114479 -0.190674 0.847998 0 0.529999 255 0 0
0.0326087 -0.0123281 -0.193556 0.274051 0.0272515 0.849014 255 0 0
0.0103483 -0.0121885 -0.18479 -0.149275 -0.101709 0.903194 255 0 0
0.0127518 -0.0121811 -0.184692 0 0 1 255 0 0
0.0151558 -0.0121811 -0.184692 0 0 1 255 0 0
0.0177765 -0.0121811 -0.184692 0 0 1 255 0 0
0.0202429 -0.0122162 -0.1852 0.287564 -0.0636002 0.878573 255 0 0
0.0341797 -0.0121536 -0.194702 0.847998 0 0.529999 255 0 0
0.00186443 -0.0131874 -0.189697 -0.617679 -0.187565 0.707422 255 0 0
0.000387619 -0.0148013 -0.19022 -0.265371 -0.09066 0.866954 255 0 0
0.00453631 -0.0149481 -0.187622 -0.263813 -0.0905778 0.870335 255 0 0
0.00777277 -0.0146917 -0.185968 -0.232321 -0.0740617 0.882621 255 0 0
0.0103747 -0.0146332 -0.185262 -0.243202 -0.0316208 0.876208 255 0 0
0.0127518 -0.0145861 -0.184692 0 0 1 255 0 0
0.0177765 -0.0145861 -0.184692 0 0 1 255 0 0
0.0227695 -0.0147021 -0.186103 0.226191 0.0359009 0.901338 255 0 0
0.0258484 -0.0148252 -0.187622 0.230244 0 0.907703 255 0 0
0.0274782 -0.0147229 -0.188407 0.539315 0 0.775197 255 0 0
0.0288239 -0.0147613 -0.189697 0.693703 0.071386 0.699914 255 0 0
0.0250473 -0.0322021 -0.186646 0.172858 0 0.930608 255 0 0
0.0260696 -0.0221588 -0.187622 0.345007 0 0.861897 255 0 0
0.000332601 -0.024879 -0.191248 -0.354246 -0.0985515 0.705931 255 0 0
0.00081701 -0.017072 -0.190186 -0.358723 -0.0927713 0.74977 255 0 0
0.00316788 -0.0169597 -0.188656 -0.561681 -0.00706112 0.704511 255 0 0
0.0275494 -0.0171648 -0.188482 0.525225 0 0.780409 255 0 0
0.0296548 -0.0173215 -0.190052 0.24919 -0.0957039 0.779 255 0 0
0.0325623 -0.0173187 -0.193238 0 0 0 255 0 0
0.00473404 -0.0172699 -0.187622 -0.349655 0.003296 0.842484 255 0 0
0.00783886 -0.017248 -0.186113 -0.252807 0 0.883922 255 0 0
0.0177765 -0.0172119 -0.184692 0.0442026 -0.000837917 0.982766 255 0 0
0.0259165 -0.0171673 -0.187622 0.257801 0.0492688 0.887115 255 0 0
0.0321601 -0.0199818 -0.192979 0.52844 -0.0524699 0.666174 255 0 0
0.00486247 -0.0198127 -0.187866 -0.450966 -0.116388 0.769689 255 0 0
