ply
format ascii 1.0
comment Created by Open3D
element vertex 732
property double x
property double y
property double z
property double nx
property double ny
property double nz
property uchar red
property uchar green
property uchar blue
end_header
0.020518 0.027832 -0.195679 0.503197 -0.428879 0.724748 255 0 0
-0.00884437 -0.00495974 -0.193075 0.224645 0.107186 0.872916 255 0 0
0.0115589 -0.0148525 -0.2 0.366303 0.381861 0.722596 255 0 0
-0.00377146 0.0174535 -0.190674 0.0329148 -0.0330856 0.984352 255 0 0
-0.00629333 0.0100625 -0.191782 0.175376 -0.144303 0.905258 255 0 0
-0.0176849 0.0278625 -0.197205 0 0.863727 0.503935 255 0 0
0.00824738 0.0467224 -0.193726 -0.497562 0.205092 0.725797 255 0 0
0.00944392 0.0192871 -0.194702 0.361378 -0.362974 0.809545 255 0 0
-0.0212854 0.0174637 -0.193726 -0.252295 0.108413 0.895223 255 0 0
0.00876529 0.044909 -0.192974 -0.256377 0.189446 0.877142 255 0 0
0.0257212 -0.0319646 -0.197205 0.312264 0.314409 0.643971 255 0 0
0.0111566 0.0199316 -0.195015 0.388991 -0.304893 0.809682 255 0 0
6.89626e-05 0.0408783 -0.194702 -0.595272 0.232373 0.720295 255 0 0
0.00106506 0.0426502 -0.194741 -0.19481 0.271586 0.886684 255 0 0
0.0311203 -0.00403976 -0.443115 -0.128866 0.907344 0.400153 255 0 0
0.00413656 0.00492589 -0.199951 0.632217 -0.387268 0.485559 255 0 0
-0.00371162 0.0424932 -0.197469 -0.470634 0.279579 0.760115 255 0 0
-0.0186715 0.0199474 -0.193355 -0.236008 0.307207 0.856565 255 0 0
-0.00366442 -0.0206395 -0.190674 -0.0523157 0.243753 0.873994 255 0 0
0.0211977 -0.0274157 -0.197762 0.273604 0.338478 0.772806 255 0 0
0.00121043 -0.0424744 -0.19314 -0.214288 -0.203981 0.867579 255 0 0
0.0283813 0.000159621 -0.449707 0.176511 0.770205 0.606895 255 0 0
0.0133835 -0.0228523 -0.195484 0.369472 0.303712 0.747112 255 0 0
0.0135114 0.0176672 -0.197842 0.535118 -0.465773 0.678288 255 0 0
0.0286774 -0.0107208 -0.433203 0.221211 0.655427 0.687575 255 0 0
0.00864944 -0.0376384 -0.190674 0 0 1 255 0 0
0.0104675 -0.0230255 -0.193726 0.30067 0.300118 0.763677 255 0 0
0.0330811 -0.0091095 -0.43457 0.381576 0.384403 0.840616 255 0 0
0.000939603 -0.0354126 -0.19165 -0.108055 -0.116947 0.929684 255 0 0
0.0187836 0.0349884 -0.192749 0.010877 -0.010877 0.996239 255 0 0
0.0109646 0.0227814 -0.193726 0.259339 -0.224537 0.87541 255 0 0
0.0137619 0.0299683 -0.192749 0.0389711 -0.0387892 0.982003 255 0 0
-0.0211613 -0.0223594 -0.193599 -0.176827 -0.22573 0.873399 255 0 0
-0.00509453 0.0420913 -0.198242 -0.438143 0.470219 0.709161 255 0 0
-0.00358914 0.00470211 -0.194883 0.396258 -0.287486 0.811247 255 0 0
-0.0230255 -0.02211 -0.193726 -0.335382 -0.335382 0.798496 255 0 0
0.00370026 0.0325267 -0.19165 0 0 1 255 0 0
0.00225949 -0.0141106 -0.194702 0.481441 0.315419 0.706829 255 0 0
-0.00226021 0.0427094 -0.196655 -0.632406 0.229343 0.673826 255 0 0
0.0186593 -0.0326255 -0.193517 0.186525 0.221557 0.842488 255 0 0
-0.0254946 -0.0148634 -0.193726 -0.315527 -0.157306 0.8642 255 0 0
-0.0235972 0.00757688 -0.192126 -0.312453 0.140205 0.852918 255 0 0
0.00396824 -0.0468654 -0.193726 -0.212352 -0.210806 0.868183 255 0 0
-0.00345343 -0.00722625 -0.194746 0.28432 0.223774 0.807797 255 0 0
0.0235036 -0.00408427 -0.447917 -0.318763 0.833961 0.44161 255 0 0
0.0223236 -0.00617599 -0.445557 -0.651546 0.646859 0.396309 255 0 0
0.00950199 0.0149985 -0.196899 0.528553 -0.542848 0.61932 255 0 0
-0.00684865 0.0377655 -0.196838 -0.421201 0.616657 0.603835 255 0 0
-0.00590964 0.0200195 -0.190674 -0.205278 -0.0391811 0.904412 255 0 0
0.00129459 0.0475438 -0.197204 -0.302696 0.262501 0.850402 255 0 0
0.00619698 0.0350281 -0.19165 0 0 1 255 0 0
-0.02934 -0.0101583 -0.194702 -0.190287 -0.0362865 0.92077 255 0 0
-0.0150757 -0.0288391 -0.193726 -0.460417 -0.460417 0.758968 255 0 0
0.0257012 -0.0300565 -0.198312 0.247484 0.323663 0.775093 255 0 0
0.0269775 -0.00809479 -0.435547 -0.227442 0.682327 0.694766 255 0 0
-0.0206729 0.0221627 -0.195413 -0.443065 0.49145 0.724157 255 0 0
-0.0133057 0.0284271 -0.194702 -0.797094 0.178484 0.538447 255 0 0
0.022817 -0.0256602 -0.19873 0 0 1 255 0 0
-0.0174561 0.0235901 -0.194702 -0.464207 0.464207 0.754337 255 0 0
0.0111923 0.0350281 -0.19165 0 0 1 255 0 0
0.0113175 -0.0421392 -0.190674 -0.0951264 -0.167192 0.910921 255 0 0
-0.00971222 0.0354716 -0.196655 -0.360579 0.15447 0.846603 255 0 0
0.0050621 -0.0382843 -0.19165 -0.554531 -0.413224 0.701997 255 0 0
-0.00596757 0.022343 -0.190674 -0.199311 0.0356118 0.914104 255 0 0
0.0176443 0.0206248 -0.19873 0.495901 -0.495901 0.712857 255 0 0
-0.00133663 -0.0125675 -0.193423 0.23798 0.191573 0.834994 255 0 0
-0.0299072 -0.00292826 -0.194702 -0.643867 -0.152392 0.726046 255 0 0
-0.0062561 0.0273074 -0.191964 -0.208644 0.166994 0.855517 255 0 0
-0.00648747 -0.0276104 -0.19165 -0.166207 -0.0916766 0.908335 255 0 0
-0.0013011 0.0324707 -0.192749 0 0 1 255 0 0
-0.00629272 -0.0124242 -0.19176 0.104068 0.104476 0.911 255 0 0
-0.0129748 -0.00699165 -0.19165 0.304539 0.180187 0.815399 255 0 0
-0.0257568 0.0160904 -0.194702 -0.350343 0.341365 0.432128 255 0 0
-0.0128746 0.0365448 -0.19873 -0.287824 0.115959 0.868887 255 0 0
-0.0138326 0.00767308 -0.190674 0.0935654 -0.141508 0.931566 255 0 0
0.0114089 0.0273977 -0.192749 0.0717463 -0.04501 0.968093 255 0 0
-0.00610762 -0.0370789 -0.193726 -0.212104 -0.258672 0.848965 255 0 0
0.00647116 0.0448748 -0.193685 -0.237774 0.234028 0.89604 255 0 0
-0.0186859 -0.022378 -0.192672 -0.205389 -0.171634 0.874093 255 0 0
0.0252533 -0.0335998 -0.195679 0.353016 0.353016 0.773673 255 0 0
0.001576 -0.0525377 -0.197449 -0.248349 -0.245636 0.83791 255 0 0
-0.0283241 -0.00738597 -0.193726 -0.31928 -0.0541972 0.871418 255 0 0
0.0136141 0.0253645 -0.193726 0.207666 -0.211632 0.883303 255 0 0
0.011599 0.0217438 -0.194702 0.33098 -0.333314 0.833823 255 0 0
-0.0186742 -0.00241629 -0.190674 0 0 1 255 0 0
-0.0186742 6.76513e-05 -0.190674 0 0 1 255 0 0
-0.0112304 0.0302811 -0.194702 -0.442983 0.423999 0.496873 255 0 0
-0.0163411 0.0105433 -0.19165 -0.11252 0.264943 0.884017 255 0 0
-0.0112432 0.0174391 -0.191854 -0.238939 0.155811 0.884495 255 0 0
0.0210779 -0.035032 -0.193447 0.241029 0.268955 0.81619 255 0 0
-0.0237681 6.8009e-05 -0.19165 -0.235448 0 0.902504 255 0 0
-0.00621764 -0.0224781 -0.190674 -0.03443 -0.0452862 0.97577 255 0 0
0.0086937 0.0350281 -0.19165 0 0 1 255 0 0
-0.00429866 0.0152725 -0.190674 0.262158 -0.262321 0.860373 255 0 0
-0.022644 0.0213928 -0.195679 -0.702479 0.345481 0.622227 255 0 0
0.00141102 0.0495869 -0.197843 -0.207983 0.103039 0.888768 255 0 0
0.00380707 0.0500696 -0.19727 -0.262233 0.270673 0.840355 255 0 0
0.00545417 0.0499234 -0.196655 -0.33001 0.282945 0.792814 255 0 0
-0.0271454 0.0123672 -0.194702 -0.645867 -0.102717 0.570957 255 0 0
-0.0310931 -0.00306388 -0.194911 -0.275078 -0.169726 0.842116 255 0 0
0.0111957 0.0325351 -0.191711 0.137756 -0.0762569 0.929288 255 0 0
0.00484848 -0.00566101 -0.201782 0.676452 0.676452 0.29125 255 0 0
0.00632668 0.0491943 -0.195679 -0.291291 0.148072 0.87845 255 0 0
-0.0164761 0.0324244 -0.200214 -0.476401 0.116123 0.802477 255 0 0
-0.0186742 0.00255171 -0.190674 0 0 1 255 0 0
-0.00125881 -0.0493774 -0.197917 0 0 0.5 255 0 0
0.00615448 -0.0125635 -0.197558 0.430202 0.323482 0.714567 255 0 0
-0.000400305 0.0492554 -0.19873 -0.722459 0.262146 0.544521 255 0 0
0.00611612 0.0475928 -0.195084 -0.356284 0.413723 0.803298 255 0 0
-0.000633692 0.0474396 -0.198047 -0.339781 0.42257 0.769013 255 0 0
0.0039711 0.0470403 -0.195679 -0.36758 0.392557 0.805841 255 0 0
0.0162415 0.0250232 -0.195093 0.343265 -0.374872 0.816446 255 0 0
-0.000758702 -0.00697157 -0.196655 0.4314 0.282186 0.735691 255 0 0
0.00120301 0.0250427 -0.19165 0 0 1 255 0 0
0.00380262 0.0124985 -0.194946 0.33244 -0.301999 0.841176 255 0 0
0.0213762 0.0226031 -0.20024 0.501912 -0.467047 0.683397 255 0 0
-0.0277862 0.0119675 -0.194702 -0.240531 0.0453924 0.862665 255 0 0
0.0111923 -0.0451101 -0.19165 -0.03059 -0.0151683 0.988268 255 0 0
0.00814438 0.0152907 -0.195496 0.374488 -0.42391 0.771981 255 0 0
0.028595 -0.00708389 -0.436523 0 0.807195 0.589616 255 0 0
-0.0206146 0.00729397 -0.190674 -0.29517 0.146176 0.869657 255 0 0
-0.013094 0.029396 -0.194946 -0.538808 0.536576 0.626341 255 0 0
0.0086937 0.0304871 -0.19165 0 0 1 255 0 0
0.00127511 0.00494962 -0.197632 0.440984 -0.508609 0.703891 255 0 0
-0.0117378 -0.0332794 -0.194702 -0.174254 -0.293287 0.856455 255 0 0
-0.000862217 0.00426292 -0.196655 0.479722 -0.403618 0.746676 255 0 0
0.0110202 0.0446101 -0.192701 0.00459622 0.141377 0.910292 255 0 0
0.00148093 0.0446854 -0.195484 -0.295203 0.481872 0.790037 255 0 0
-0.000863909 0.0456619 -0.19693 0 0.421348 0.269195 255 0 0
-0.00377146 0.0199402 -0.190674 0 0 1 255 0 0
-0.021366 0.0123843 -0.192617 -0.146115 0.176005 0.91597 255 0 0
-0.00719833 0.0184556 -0.19165 -0.596359 0.243374 0.714621 255 0 0
0.00619052 0.0150929 -0.194891 0.260236 -0.309999 0.851119 255 0 0
0.0308716 -0.000266218 -0.450293 0.0761602 0.802113 0.562687 255 0 0
0.0143699 -0.0389709 -0.19165 0.459708 0.610689 0.612712 255 0 0
-0.00352396 -0.0295076 -0.190674 -0.141162 -0.171695 0.892191 255 0 0
0.0183106 0.0157043 -0.203735 0.385311 -0.393578 0.742899 255 0 0
-0.00633876 0.0400594 -0.197896 -0.21618 0.428346 0.382021 255 0 0
0.0326538 -0.00403595 -0.442627 -0.130015 0.907258 0.399973 255 0 0
0.00465775 0.0440979 -0.193726 -0.461412 0.463335 0.756584 255 0 0
-0.018919 0.0329781 -0.201782 -0.462249 0.414492 0.728904 255 0 0
-0.000394344 0.0440979 -0.195679 0 0 1 255 0 0
0.00389171 0.0422859 -0.193726 -0.183621 0.183729 0.921725 255 0 0
0.00624059 0.0425893 -0.193107 -0.256139 0.206638 0.884636 255 0 0
0.0111961 0.0423116 -0.191723 0.00285483 0.19217 0.913734 255 0 0
0.013461 0.0422106 -0.191824 0 0.235112 0.893098 255 0 0
-0.00118824 0.0423947 -0.195446 -0.412883 0.218112 0.816805 255 0 0
0.00299009 0.0432739 -0.194702 -0.405156 0.407574 0.807939 255 0 0
0.00626581 0.0374645 -0.191916 -0.221583 0.147893 0.88299 255 0 0
0.0161634 0.0375131 -0.191776 0.130743 -0.202484 0.886823 255 0 0
0.00120301 0.027537 -0.19165 -0.0247314 0.000508056 0.990591 255 0 0
-0.00589371 -0.0250442 -0.190674 -0.205337 -0.0171408 0.897495 255 0 0
0.0137968 -0.0374669 -0.19165 0.07406 0.110191 0.936801 255 0 0
-0.0137088 -0.0125793 -0.190674 0 0 1 255 0 0
0.0232697 0.023172 -0.200684 0.274186 -0.435232 0.768531 255 0 0
0.00879996 -0.0400216 -0.190674 -0.0996503 -0.0815163 0.942524 255 0 0
0.00858099 0.012396 -0.198092 0.522978 -0.484474 0.637703 255 0 0
0.00199566 0.0415344 -0.193726 -0.245209 0.37729 0.833809 255 0 0
0.0150528 0.0413818 -0.19165 0 0 1 255 0 0
0.00616097 0.0400631 -0.192549 -0.2455 0.175351 0.879844 255 0 0
0.0112157 0.0400517 -0.19165 -0.010063 0.0372427 0.971947 255 0 0
0.015823 0.0398407 -0.19165 0 0 1 255 0 0
0.00372497 0.0398328 -0.193062 -0.203173 0.255231 0.887842 255 0 0
0.0226593 0.0259552 -0.19873 0.495901 -0.495901 0.712857 255 0 0
-0.0237014 0.00251198 -0.19165 -0.160709 0.0338327 0.930846 255 0 0
0.00357056 0.0301644 -0.19165 0 0 1 255 0 0
-0.00309483 0.0396957 -0.195435 -0.454278 0.444972 0.759382 255 0 0
0.0206451 0.018069 -0.203572 0.271595 -0.671129 0.594062 255 0 0
0.025177 -0.00765991 -0.440186 -0.831837 0.459361 0.310489 255 0 0
0.01162 0.017185 -0.196849 0.506323 -0.42159 0.720983 255 0 0
0.0137035 0.0325521 -0.192627 0.162671 -0.134649 0.911914 255 0 0
-0.00220299 -0.03125 -0.19165 -0.560378 -0.559591 0.610602 255 0 0
0.0140181 -0.0148601 -0.201782 0.272696 0.211733 0.810328 255 0 0
0.0138132 -0.0299125 -0.193019 0.131095 0.178624 0.879419 255 0 0
0.00371879 0.0374853 -0.192705 -0.066602 0.121966 0.944718 255 0 0
-0.000543276 0.0392151 -0.193726 -0.407276 0.409009 0.806046 255 0 0
0.0112322 0.0374675 -0.19165 0.00241974 -0.0368348 0.953026 255 0 0
0.0136886 0.0375214 -0.19165 0 0 1 255 0 0
-0.00939179 0.0393296 -0.199707 -0.409001 0.601162 0.630581 255 0 0
-0.00828171 0.0392456 -0.19873 -0.357166 0.377614 0.446564 255 0 0
-0.00126939 0.0374565 -0.193604 -0.26844 0.29588 0.870864 255 0 0
-0.0179647 0.0290934 -0.19873 -0.114621 0.722449 0.661343 255 0 0
0.00120956 0.0375295 -0.192912 -0.127318 0.195015 0.917544 255 0 0
0.0333709 -0.00300503 -0.445068 0.091552 0.83136 0.452574 255 0 0
0.00374535 -0.0348674 -0.190674 -0.0549179 -0.0411559 0.970799 255 0 0
-0.00348854 0.0380031 -0.194702 -0.314367 0.541307 0.710001 255 0 0
-0.00223732 0.0383301 -0.194702 -0.469783 0.456996 0.755287 255 0 0
0.00867219 -0.0474965 -0.192644 -0.21198 -0.26702 0.83588 255 0 0
-0.0105743 0.0388489 -0.199707 -0.221969 0.229369 0.884863 255 0 0
-0.00613709 0.0371124 -0.195484 -0.533917 0.490906 0.631798 255 0 0
-0.00325712 0.0368118 -0.193726 -0.127482 0.227501 0.909138 255 0 0
-0.00569057 0.0241165 -0.190674 -0.31511 0.488644 0.77509 255 0 0
-0.0105743 0.0383911 -0.199707 -0.276353 0 0.916689 255 0 0
0.0203781 0.0365906 -0.192749 0 0 1 255 0 0
0.0194385 0.0297992 -0.194702 0.30942 -0.255467 0.850433 255 0 0
0.0166687 0.0268189 -0.194702 0.301086 -0.300254 0.843798 255 0 0
0.00370217 0.0350525 -0.191782 -0.133114 0.191133 0.910169 255 0 0
0.0137536 0.0349208 -0.191886 0.195854 -0.194224 0.890714 255 0 0
0.0162642 0.0349774 -0.192688 0.117081 -0.0995381 0.926048 255 0 0
0.0208706 0.0348178 -0.19306 0.138154 -0.253373 0.858341 255 0 0
-0.00351732 -0.0475075 -0.198375 -0.539379 -0.314438 0.381244 255 0 0
0.0145823 0.0167898 -0.199707 0.584702 -0.585747 0.561268 255 0 0
-0.0181274 0.0219421 -0.193726 -0.332184 0.332184 0.845499 255 0 0
0.0159186 0.0200987 -0.197871 0.510879 -0.513526 0.653465 255 0 0
-0.014122 0.0366134 -0.199707 0 0 0.5 255 0 0
-0.00374569 0.0348544 -0.193517 -0.246065 0.22965 0.894689 255 0 0
-0.0111149 0.035242 -0.197126 -0.428528 0.351808 0.771844 255 0 0
-0.00500488 0.0355835 -0.194702 -0.3466 0.696088 0.628753 255 0 0
-0.0160523 0.0344919 -0.200158 -0.400365 0.138678 0.744418 255 0 0
-0.0143585 0.0360107 -0.199707 0 0 1 255 0 0
-0.0134899 0.0346588 -0.198437 -0.358438 0.184262 0.833276 255 0 0
-0.00578117 0.0341415 -0.193726 -0.308088 0.471844 0.790487 255 0 0
-0.0328369 -0.00711632 -0.195679 0 0 1 255 0 0
0.00893063 0.0174317 -0.195028 0.35122 -0.299366 0.833451 255 0 0
0.00126597 0.0324901 -0.192083 -0.265065 -0.0209422 0.848669 255 0 0
0.0225525 0.0340271 -0.193726 0 0 0 255 0 0
0.00511551 0.0161285 -0.193726 0.508942 -0.511062 0.692671 255 0 0
-0.0101318 0.033905 -0.195679 -0.455813 0.46341 0.759925 255 0 0
-0.0088851 0.0327902 -0.194759 -0.352406 0.365367 0.81781 255 0 0
-0.00634872 0.0325122 -0.193531 -0.273586 0.295294 0.847681 255 0 0
-0.0108189 0.0322391 -0.195334 -0.462196 0.433615 0.741211 255 0 0
0.0320435 -0.000903606 -0.44873 -0.0796035 0.855479 0.511683 255 0 0
-0.0183182 0.0339966 -0.201782 -0.402668 0 0.796409 255 0 0
-0.0140599 0.0325678 -0.198231 -0.498205 0.142399 0.717459 255 0 0
-0.00818863 0.0317078 -0.193726 -0.302962 0.306219 0.865207 255 0 0
0.0138074 0.0275452 -0.193374 0.237763 -0.272053 0.84699 255 0 0
0.0101624 0.0211792 -0.193726 0.511195 -0.511195 0.690912 255 0 0
0.0111771 0.0126226 -0.20017 0.512706 -0.501941 0.630025 255 0 0
-0.0161059 -0.0149533 -0.190674 -0.0499103 -0.050174 0.971336 255 0 0
0.0210139 -0.0219854 -0.201782 0.107754 0.3233 0.783783 255 0 0
-0.00873884 -0.0150617 -0.190674 0.0466852 0.00828269 0.973769 255 0 0
0.00621427 -0.024968 -0.192163 0.240692 0.0700391 0.873852 255 0 0
-0.0185977 0.0318742 -0.200684 -0.216431 0.260042 0.888305 255 0 0
-0.0112824 0.0150513 -0.19165 -0.0313928 0.144863 0.938477 255 0 0
-0.00632136 0.0299628 -0.19271 -0.179349 0.125608 0.917424 255 0 0
-0.0037988 0.0300969 -0.192053 -0.116989 0.301494 0.859459 255 0 0
-0.0012969 0.0301093 -0.192134 0.0678848 0.285004 0.863504 255 0 0
0.00624237 0.030397 -0.19165 0 0 1 255 0 0
0.0113 0.0299687 -0.192393 0.207919 -0.173304 0.884124 255 0 0
0.0160583 0.030013 -0.193288 0.267912 -0.220303 0.867199 255 0 0
0.0213049 0.0299298 -0.195174 0.341618 -0.341345 0.830556 255 0 0
0.0231857 0.0307236 -0.195679 0.401473 -0.491325 0.703752 255 0 0
-0.0163589 0.0149015 -0.192749 -0.0889864 0.0391433 0.959774 255 0 0
0.0239754 0.0297623 -0.197088 0.426235 -0.538081 0.623649 255 0 0
-0.0163117 -0.0343933 -0.195679 0 0 0 255 0 0
-0.0160811 -0.0324323 -0.195426 -0.178775 -0.132944 0.905767 255 0 0
-0.0112286 0.0291481 -0.193726 -0.225803 0.190411 0.896834 255 0 0
0.0257474 0.0293978 -0.198505 0.391686 -0.488995 0.66545 255 0 0
0.00368345 0.0274783 -0.19165 0.0309783 -0.00533807 0.971522 255 0 0
-0.0203705 0.0295563 -0.200684 0 0 0 255 0 0
-0.0133133 0.0272153 -0.193726 -0.147377 0.189954 0.904255 255 0 0
-0.0113815 0.0275476 -0.193374 -0.285441 0.225658 0.853345 255 0 0
-0.00882975 0.027446 -0.192712 -0.0937795 0.0974378 0.945065 255 0 0
0.00616737 0.027093 -0.19165 0 0 1 255 0 0
0.00815392 0.0271423 -0.19176 0 0 0.9 255 0 0
0.0159358 0.0277943 -0.193726 0.209694 -0.20898 0.900291 255 0 0
0.0186551 0.0275623 -0.194923 0.313501 -0.318412 0.816464 255 0 0
-0.0169792 0.0280991 -0.197205 -0.482484 0.717418 0.474126 255 0 0
0.0215172 0.0272347 -0.197034 0.536615 -0.536408 0.645238 255 0 0
0.0253715 0.028202 -0.19873 0.32643 -0.520391 0.73772 255 0 0
0.0262429 0.0273932 -0.199986 0.251774 -0.454015 0.772206 255 0 0
-0.00105734 0.0174196 -0.19165 0.202145 -0.0744629 0.905013 255 0 0
-0.00639797 0.0251937 -0.19165 -0.122908 0.121429 0.933879 255 0 0
0.0027771 0.0267181 -0.190674 0 0 1 255 0 0
-0.0113418 0.0249481 -0.192749 -0.0209426 0.0441286 0.983857 255 0 0
-0.00356415 0.0255628 -0.19165 0.0701299 0.27446 0.854428 255 0 0
-0.00125647 0.0250804 -0.19165 0.0334912 0.0336258 0.983267 255 0 0
0.00599707 0.0247795 -0.191807 0.173491 -0.193483 0.86308 255 0 0
0.015213 0.0262146 -0.193726 0.509591 -0.513837 0.690137 255 0 0
0.0132439 -0.0182724 -0.198632 0.481446 0.418028 0.667521 255 0 0
0.0332031 -0.000372767 -0.450195 0.135026 0.761047 0.59808 255 0 0
-0.016362 0.019927 -0.192782 -0.0998196 0.0766148 0.956406 255 0 0
-0.0185646 0.0248871 -0.195507 -0.467653 0.305375 0.775464 255 0 0
-0.0167776 0.0251882 -0.194702 -0.403013 0.30988 0.803738 255 0 0
0.0181381 0.0255509 -0.195581 0.436007 -0.442867 0.734562 255 0 0
0.0209496 0.025193 -0.198092 0.551055 -0.473119 0.670291 255 0 0
0.0130615 0.0157883 -0.19873 0.511985 -0.520741 0.622032 255 0 0
0.0284652 -0.0091095 -0.43457 0.06216 0.655891 0.74815 255 0 0
-0.00846786 0.00983008 -0.19165 0.205355 -0.210291 0.865509 255 0 0
-0.0213839 0.0247949 -0.19725 -0.386695 0.240309 0.821465 255 0 0
0.0144161 0.0245107 -0.194702 0.354669 -0.363544 0.788051 255 0 0
0.0237994 0.0249841 -0.2003 0.366447 -0.39998 0.774417 255 0 0
0.0258895 0.0256688 -0.200684 0.0859901 -0.196625 0.913462 255 0 0
0.0132347 -0.0154205 -0.200586 0.488496 0.392156 0.676605 255 0 0
-0.0230756 0.0245579 -0.197754 0 0 1 255 0 0
-0.00129182 -0.00503047 -0.197291 0.427347 0.313774 0.717127 255 0 0
0.0221685 0.0244573 -0.19987 0.427682 -0.458159 0.716406 255 0 0
-0.0168182 -0.0175466 -0.19165 -0.259908 -0.0828893 0.882031 255 0 0
0.00616668 0.0225525 -0.192393 0.213946 -0.216527 0.863239 255 0 0
-0.00326182 0.0147486 -0.19165 0.262037 -0.261805 0.860703 255 0 0
-0.0190948 0.0228111 -0.194946 -0.451445 0.394211 0.753362 255 0 0
-0.00397762 0.00764478 -0.193379 0.316959 -0.293728 0.832343 255 0 0
-0.0163889 0.0224838 -0.193482 -0.313076 0.254417 0.862933 255 0 0
-0.0113187 0.0223859 -0.192309 -0.284078 0.253628 0.858932 255 0 0
0.00875885 0.0224792 -0.19314 0.276431 -0.276427 0.855255 255 0 0
0.0137044 0.0224816 -0.195104 0.36471 -0.364849 0.818506 255 0 0
0.015828 0.0232453 -0.195679 0.411396 -0.410447 0.797085 255 0 0
0.0255534 0.0242818 -0.201782 0.404707 -0.715877 0.450636 255 0 0
0.0214564 -0.0322545 -0.194865 0.286126 0.260417 0.795664 255 0 0
-0.0218414 0.0229111 -0.196765 -0.478931 0.351425 0.77331 255 0 0
0.0186481 0.0225354 -0.198296 0.503643 -0.503618 0.701563 255 0 0
0.0249176 0.0239563 -0.201782 0.601317 -0.601317 0.526152 255 0 0
0.0229263 0.0206432 -0.202637 0.22396 -0.353561 0.766092 255 0 0
-0.00884109 0.00258138 -0.192993 0.243796 -0.139777 0.882949 255 0 0
-0.0088626 -0.00245068 -0.193455 0.248486 0.0829964 0.874818 255 0 0
-0.02882 -0.0169373 -0.196655 -0.313489 -0.13027 0.864576 255 0 0
-0.0063432 -0.00748749 -0.1934 0.230206 0.185495 0.840046 255 0 0
-0.0136719 -0.00484071 -0.19165 0.0559568 0.0666237 0.954434 255 0 0
-0.0138537 0.0199229 -0.192749 -0.0257337 0.000853611 0.989674 255 0 0
-0.0113528 0.0199356 -0.192043 -0.250887 -0.0528963 0.845297 255 0 0
-0.00878525 0.0200439 -0.19165 0 0 1 255 0 0
-0.0070281 0.0198746 -0.19165 -0.444325 0.0143934 0.79022 255 0 0
-0.000840188 0.0200439 -0.19165 0.232623 0.0181433 0.90014 255 0 0
0.00120301 0.0200439 -0.19165 0.0375113 -0.0118913 0.983516 255 0 0
0.00371412 0.0198873 -0.192383 0.265774 -0.192715 0.834509 255 0 0
0.00624191 0.0199534 -0.193075 0.213335 -0.196873 0.875351 255 0 0
-0.0015516 0.00527964 -0.195532 0.411059 -0.411125 0.797051 255 0 0
0.00863107 0.0202325 -0.193726 0.260374 -0.200592 0.878339 255 0 0
-0.0216421 0.0199371 -0.194767 -0.397667 0.385856 0.775906 255 0 0
0.0130493 0.0204666 -0.195679 0.41323 -0.409597 0.796777 255 0 0
0.0139497 0.019682 -0.196849 0.453268 -0.450943 0.741497 255 0 0
0.0215759 0.0215759 -0.201782 0.762335 -0.375117 0.527383 255 0 0
0.018486 0.0200844 -0.200257 0.589927 -0.590337 0.550706 255 0 0
0.0211224 0.0199115 -0.202407 0.286532 -0.411093 0.78063 255 0 0
-0.0254211 0.0197678 -0.195679 0 0 1 255 0 0
0.00121037 -0.0175061 -0.192797 0.159595 0.238634 0.855287 255 0 0
-0.00206103 0.0178724 -0.190674 0.512637 -0.196972 0.750477 255 0 0
0.00120623 0.0175765 -0.192016 0.258252 -0.216113 0.858655 255 0 0
-0.0239891 0.0177116 -0.194751 -0.212784 0.218506 0.888774 255 0 0
-0.0163589 0.0174103 -0.192749 0 0 1 255 0 0
-0.0138491 0.0174052 -0.192676 -0.0840042 0.158373 0.924957 255 0 0
0.00605122 0.0176506 -0.193685 0.256625 -0.28836 0.858519 255 0 0
0.00786591 0.0184174 -0.193726 0.508122 -0.512357 0.692317 255 0 0
-0.0196075 -0.026062 -0.194702 -0.370952 -0.370952 0.744082 255 0 0
0.0107258 0.0179244 -0.195604 0.463443 -0.40691 0.760997 255 0 0
-0.0176951 -0.0144615 -0.190674 -0.388901 -0.239701 0.804434 255 0 0
0.00789929 -0.0409165 -0.19165 -0.415607 -0.346938 0.754852 255 0 0
-0.0254822 0.0172241 -0.194702 0 0 1 255 0 0
0.00714048 0.0169754 -0.194702 0.362833 -0.360466 0.810417 255 0 0
0.0164854 -0.0174535 -0.201891 0.298104 0.298517 0.762598 255 0 0
-0.0246048 0.0162048 -0.194702 -0.230536 0.58518 0.733006 255 0 0
-0.0237394 0.0148983 -0.193726 -0.0734061 0.099108 0.950587 255 0 0
-0.0214574 0.0149569 -0.1934 -0.179548 0.227292 0.880458 255 0 0
-0.0188751 0.0149015 -0.192749 -0.0665903 0.00826775 0.973791 255 0 0
-0.0137914 0.0150617 -0.191797 -0.214074 0.163719 0.886276 255 0 0
-0.00843169 0.0148284 -0.190674 -0.173121 0.107914 0.922139 255 0 0
0.00121164 0.014917 -0.192963 0.258054 -0.280407 0.847922 255 0 0
0.0204315 0.0168 -0.204712 0.657119 -0.465877 0.579427 255 0 0
0.00562541 -0.0183818 -0.193726 0.208922 0.284461 0.811605 255 0 0
-0.025505 0.0144062 -0.193726 -0.0361252 0.0722504 0.970393 255 0 0
0.0112623 0.0151543 -0.197945 0.461945 -0.577081 0.629269 255 0 0
0.0137706 0.0151116 -0.200224 0.581244 -0.513013 0.528569 255 0 0
0.0152893 0.0162354 -0.200684 0.59464 -0.600911 0.534143 255 0 0
-0.00765228 -0.0192261 -0.19165 0.767933 0.196913 0.568639 255 0 0
0.0163189 0.0148753 -0.203016 0.481856 -0.442743 0.624885 255 0 0
0.0188226 0.0152139 -0.204712 0.512793 -0.470391 0.623721 255 0 0
-0.0283486 0.00229727 -0.193726 -0.248261 0.0551698 0.900029 255 0 0
0.0063213 -0.0173604 -0.194835 0.248352 0.27948 0.795885 255 0 0
0.0144758 0.0143566 -0.201904 0.573357 -0.539872 0.555354 255 0 0
-0.0140814 0.0128174 -0.19165 -0.22587 0.168102 0.888018 255 0 0
-0.00643116 0.0129666 -0.190674 0.212402 -0.21305 0.870731 255 0 0
0.01115 -0.0250505 -0.193663 0.234881 0.104526 0.876867 255 0 0
-0.00124608 -0.0350353 -0.191689 -0.109357 -0.085148 0.930178 255 0 0
-0.0188512 0.0123774 -0.192493 0.0457666 0.291744 0.858767 255 0 0
-0.0163174 0.0123593 -0.192178 -0.248623 0.278713 0.836136 255 0 0
0.00100526 0.0126076 -0.193685 0.256792 -0.256684 0.872966 255 0 0
0.00578435 0.0128896 -0.195614 0.417288 -0.417466 0.790588 255 0 0
0.0105795 0.0135626 -0.19873 0.497332 -0.496004 0.711785 255 0 0
-0.0088211 0.00508283 -0.192529 0.235529 -0.20913 0.871803 255 0 0
-0.00785065 -0.042099 -0.196655 0 0 1 255 0 0
-0.00602436 0.0118357 -0.19165 0.21216 -0.339069 0.832445 255 0 0
0.00644404 0.0118851 -0.196875 0.504804 -0.50505 0.695511 255 0 0
0.0129089 0.013382 -0.200684 0.522504 -0.518357 0.676975 255 0 0
0.00206741 0.0119057 -0.194702 0.361638 -0.361443 0.810558 255 0 0
-0.0155233 -0.000688791 -0.19165 0.45657 -0.454915 0.747264 255 0 0
0.0113349 -0.0223389 -0.194753 0.220376 0.220898 0.827463 255 0 0
-0.00765228 0.0114212 -0.19165 0.522588 -0.522588 0.673649 255 0 0
0.00952911 0.0116577 -0.199707 0.733595 -0.294411 0.513927 255 0 0
0.0118561 0.0116958 -0.201782 0.51465 -0.515929 0.684645 255 0 0
-0.0269877 0.0109838 -0.194702 -0.478841 0.256825 0.798681 255 0 0
-0.0260221 0.00985983 -0.193688 -0.246772 0.123338 0.892461 255 0 0
-0.0235642 0.0102295 -0.192835 -0.392312 0.235852 0.791729 255 0 0
-0.0212824 0.0100619 -0.191738 -0.173496 0.204142 0.891753 255 0 0
-0.0213486 -0.0174749 -0.192419 -0.272272 -0.0867159 0.868418 255 0 0
-0.0188557 0.0103461 -0.19165 -0.0354447 0.197837 0.915515 255 0 0
-0.0149155 0.0109634 -0.19165 -0.481416 0.477404 0.735068 255 0 0
-0.00936966 0.0104553 -0.190674 0.292896 -0.302745 0.786065 255 0 0
-0.00375354 0.0100241 -0.192772 0.238174 -0.188817 0.877062 255 0 0
-0.001372 0.00999015 -0.193586 0.298479 -0.220138 0.856844 255 0 0
0.000252116 0.0107117 -0.193726 0.413799 -0.268448 0.792369 255 0 0
0.00138003 0.00986555 -0.194891 0.333816 -0.287141 0.840583 255 0 0
0.00344181 0.0103628 -0.19557 0.414567 -0.377273 0.755542 255 0 0
0.0242963 -0.0318778 -0.196655 0.267164 0.363708 0.761768 255 0 0
0.00430377 0.00958507 -0.196747 0.501152 -0.441074 0.719296 255 0 0
0.00612005 0.0099427 -0.197728 0.515126 -0.427572 0.70598 255 0 0
0.00877336 0.00983115 -0.200167 0.528038 -0.543772 0.586401 255 0 0
-0.0282898 0.00484034 -0.193726 -0.268817 0.010244 0.885486 255 0 0
0.0112804 0.00998497 -0.20227 0.397624 -0.408624 0.750772 255 0 0
0.0130574 0.0102997 -0.203025 0.344844 -0.0547965 0.751231 255 0 0
-0.0163669 -0.0250494 -0.192822 -0.180837 -0.205456 0.868475 255 0 0
-0.000392199 0.00905991 -0.194702 0.619377 -0.253798 0.689486 255 0 0
-0.0118048 0.00826263 -0.190674 0.304551 -0.303763 0.792353 255 0 0
-0.022878 -0.0270945 -0.197713 -0.632705 -0.632705 0.446313 255 0 0
-0.030365 0.00882721 -0.194702 0 0 1 255 0 0
-0.0260581 0.00747116 -0.193147 -0.271132 0.209873 0.863455 255 0 0
-0.0217571 0.00775838 -0.19165 -0.270344 0.0979599 0.885862 255 0 0
-0.0186742 0.00752004 -0.190674 -0.00837742 0.00851939 0.997299 255 0 0
-0.0111048 0.00733218 -0.19165 0.14416 -0.175889 0.89824 255 0 0
-0.00878864 0.00756243 -0.191742 0.134542 -0.134483 0.927365 255 0 0
-0.0063165 0.00759214 -0.192566 0.236908 -0.211309 0.85276 255 0 0
-0.0306457 0.00730972 -0.194702 0 0 0.9 255 0 0
-0.029313 0.00755624 -0.194702 -0.0672682 0 0.978782 255 0 0
-0.00112083 0.00725917 -0.194856 0.321484 -0.399854 0.807968 255 0 0
0.000880185 0.00770779 -0.195435 0.428962 -0.394097 0.761373 255 0 0
0.00381775 0.00756149 -0.197724 0.523285 -0.498757 0.68419 255 0 0
0.00571594 0.00806847 -0.198632 0.496289 -0.49669 0.712031 255 0 0
0.00644279 0.00724101 -0.200134 0.606929 -0.552 0.548421 255 0 0
0.00799624 0.00831286 -0.200684 0.482072 -0.391344 0.703427 255 0 0
0.0107481 0.00834402 -0.202867 0.296526 -0.247833 0.803379 255 0 0
0.00193338 0.00705795 -0.196655 0.479178 -0.403262 0.747485 255 0 0
-0.0130081 0.00660553 -0.19165 0.274786 -0.425131 0.778859 255 0 0
-0.00285212 0.00668081 -0.194702 0.44691 -0.446467 0.759122 255 0 0
-0.00971222 -0.0395203 -0.196655 -0.583155 -0.592875 0.555364 255 0 0
-0.0281525 0.00649261 -0.193726 -0.269527 0 0.921135 255 0 0
0.0199432 -0.0240479 -0.199707 0.581432 0.587751 0.562571 255 0 0
0.00708008 0.00644175 -0.201782 0.531872 -0.653119 0.525281 255 0 0
-0.0304438 0.00460434 -0.194702 -0.0920878 -0.094371 0.935273 255 0 0
-0.029541 0.00495796 -0.194702 -0.268766 0.0101505 0.885654 255 0 0
-0.0235632 0.00506653 -0.191826 -0.25779 0.0534415 0.8834 255 0 0
-0.0207113 0.00503616 -0.190674 -0.230335 0 0.907616 255 0 0
-0.0186742 0.00503616 -0.190674 0 0 1 255 0 0
-0.0161896 0.00503616 -0.190674 0.104046 -0.00348572 0.956928 255 0 0
-0.0148392 0.00526237 -0.190674 0.644931 -0.261918 0.657709 255 0 0
-0.0137002 0.00504589 -0.19165 0.148586 -0.0750967 0.913001 255 0 0
-0.00634092 0.00487487 -0.193335 0.34163 -0.267628 0.830587 255 0 0
-0.0046213 0.00552368 -0.193726 0.358642 -0.277192 0.825514 255 0 0
6.93202e-05 0.00609589 -0.195679 0.502747 -0.504137 0.702205 255 0 0
0.00541401 0.00576877 -0.20044 0.606253 -0.565783 0.537001 255 0 0
0.00634706 0.00488502 -0.202193 0.515555 -0.403678 0.705205 255 0 0
0.00775528 0.00535329 -0.202759 0 0 1 255 0 0
-0.0290009 -0.0122974 -0.1948 -0.11786 -0.153615 0.907405 255 0 0
-0.0070281 -0.0247345 -0.19165 -0.443617 0.0268292 0.791801 255 0 0
0.0187503 -0.0375028 -0.191846 0.135473 0.162388 0.892148 255 0 0
0.00302061 -0.0510254 -0.196655 -0.417105 -0.30017 0.74861 255 0 0
-0.0209541 0.00245762 -0.190674 -0.181163 0.065643 0.923197 255 0 0
-0.0161896 0.00255171 -0.190674 0 0 1 255 0 0
-0.0135544 0.00256538 -0.19165 0.157987 -0.0022682 0.929092 255 0 0
0.00484848 0.00389481 -0.201782 0 -0.614236 0.789122 255 0 0
-0.0313587 0.00238355 -0.195353 -0.291028 0.0762667 0.876732 255 0 0
-0.00672722 0.0025062 -0.193726 0.26286 -0.123732 0.879827 255 0 0
-0.00572247 0.00211875 -0.194702 0.440081 -0.275493 0.790244 255 0 0
-0.00405678 0.00249367 -0.195327 0.471996 -0.295894 0.777153 255 0 0
-0.00133126 0.00240665 -0.197388 0.519273 -0.394929 0.710788 255 0 0
0.00174365 0.00218851 -0.200052 0.491053 -0.456404 0.704387 255 0 0
0.00325528 0.0027319 -0.200586 0.463815 -0.388002 0.720944 255 0 0
0.00413284 0.00231705 -0.201782 0.377469 -0.200113 0.673615 255 0 0
0.00532532 0.00341606 -0.201782 0 0 1 255 0 0
0.00158992 -0.0446504 -0.193726 -0.191551 -0.171664 0.881381 255 0 0
0.0261383 -0.002491 -0.447571 -0.445081 0.70294 0.51778 255 0 0
0.0235964 -0.0347146 -0.194759 0.242143 0.261439 0.812623 255 0 0
-0.00291176 0.00184059 -0.196655 0.410208 -0.264023 0.797131 255 0 0
0.0285034 0.00230026 -0.45166 0 0 1 255 0 0
-0.0057888 -0.00472755 -0.194702 0.327234 0.193509 0.809638 255 0 0
-0.0307617 0.000195232 -0.194791 -0.380075 0.176619 0.79577 255 0 0
-0.0297546 0.000837326 -0.194702 -0.417495 0.415401 0.796555 255 0 0
-0.0287351 -3.55759e-05 -0.193726 -0.299279 0.0843135 0.880042 255 0 0
-0.0211609 6.76513e-05 -0.190674 -0.138203 0 0.944568 255 0 0
-0.0162922 0.000170326 -0.190674 0.127002 -0.0919976 0.938856 255 0 0
-0.0148392 0.000745297 -0.190674 0.642883 -0.258888 0.661478 255 0 0
-0.0137051 1.91374e-05 -0.191729 0.289073 -0.0934533 0.855324 255 0 0
-0.00886141 6.81996e-05 -0.193433 0.296084 -0.122122 0.862039 255 0 0
-0.00322469 -0.0491943 -0.19873 -0.276912 -0.0909537 0.161735 255 0 0
-0.006184 -2.34902e-05 -0.194849 0.480963 -0.149103 0.777375 255 0 0
-0.00144296 9.11817e-05 -0.198148 0.600808 -0.176594 0.703368 255 0 0
7.03335e-05 0.00101185 -0.19873 0.494644 -0.494581 0.714644 255 0 0
-0.0279507 -0.0175968 -0.195679 -0.167999 0.0336524 0.90531 255 0 0
-0.00835037 -0.0347362 -0.193726 -0.263745 -0.211897 0.848047 255 0 0
-0.0137088 -0.0100937 -0.190674 0 0 1 255 0 0
-0.00386396 -0.0100419 -0.193456 0.192188 0.238617 0.833821 255 0 0
0.0236969 0.000517051 -0.45166 -0.063528 0.47927 0.451801 255 0 0
0.0258331 0.00123024 -0.45166 -0.166163 0.828565 0.534669 255 0 0
0.0307159 0.0012331 -0.452637 0.071704 0.869749 0.482915 255 0 0
0.0241089 -0.00921631 -0.439697 -0.719685 0.632345 0.286695 255 0 0
0.02417 -0.000373721 -0.450684 -0.265801 0.339509 0.884935 255 0 0
-0.000402451 -0.000638842 -0.199707 0.622767 -0.0589295 0.628766 255 0 0
0.0283204 -0.000903606 -0.44873 -0.016935 0.698079 0.681694 255 0 0
0.0215607 -0.00197792 -0.45166 0 0 0 255 0 0
0.023822 -0.00261116 -0.450098 -0.442292 0.587699 0.575923 255 0 0
0.0285072 -0.00222444 -0.447266 -0.0661346 0.839589 0.526135 255 0 0
0.0335235 -0.00195884 -0.447022 0.240822 0.839805 0.458195 255 0 0
-0.0237681 -0.00242933 -0.19165 -0.120877 0.00221083 0.951956 255 0 0
-0.0167328 -0.00237122 -0.190674 0.301597 -0.0106377 0.847151 255 0 0
-0.0157349 -0.00247472 -0.19165 0.300731 -0.0104635 0.848226 255 0 0
-0.0113418 -0.00244188 -0.192749 0.0207843 0.0207843 0.982387 255 0 0
-0.00620621 -0.00242214 -0.194819 0.426436 0.0952992 0.79141 255 0 0
-0.00133662 -0.00251099 -0.198205 0.540823 0.123095 0.737198 255 0 0
0.0214996 -0.00304222 -0.450684 -0.263512 0.789127 0.554833 255 0 0
0.0291824 -0.00300789 -0.445557 -0.0782555 0.870052 0.480123 255 0 0
0.0312957 -0.00300789 -0.445557 -0.0989156 0.90152 0.419829 255 0 0
0.0349731 -0.00300789 -0.445557 0 0 0 255 0 0
0.00874233 -0.0450298 -0.19165 -0.0433214 -0.0662585 0.962564 255 0 0
-0.00727081 -0.00268402 -0.193726 0.711656 0.133659 0.659793 255 0 0
0.0214539 -0.0041008 -0.449707 -0.586416 0.587546 0.557589 255 0 0
-0.00438944 -0.0403544 -0.194702 -0.265426 -0.22191 0.839313 255 0 0
0.0259858 -0.00405884 -0.445068 -0.488131 0.78935 0.36787 255 0 0
0.00292397 -0.00230598 -0.200684 0 0 0 255 0 0
0.0217285 -0.00549952 -0.447917 -0.666447 0.590602 0.434856 255 0 0
0.0256653 -0.0054334 -0.442627 -0.51755 0.759581 0.383131 255 0 0
0.0267639 -0.00558281 -0.440674 -0.39908 0.835273 0.361815 255 0 0
0.0288544 -0.0050621 -0.440674 0 0.92957 0.368646 255 0 0
0.0309448 -0.0050621 -0.440674 -0.0330681 0.919788 0.388953 255 0 0
0.0325012 -0.0050621 -0.440674 0 0.893532 0.449 255 0 0
0.0271606 -0.00607681 -0.438477 -0.514703 0.784309 0.346324 255 0 0
0.0313161 -0.00607681 -0.438477 0 0.90006 0.435753 255 0 0
0.0344238 -0.00607681 -0.438477 0 0 0 255 0 0
7.03335e-05 -0.00345897 -0.19873 0.650972 0.32535 0.664597 255 0 0
-0.0284271 -0.0147584 -0.19559 -0.278663 -0.14226 0.871236 255 0 0
0.0242386 -0.00769615 -0.442138 -0.77624 0.509469 0.353762 255 0 0
0.0311737 -0.00708389 -0.436523 0.0034586 0.867114 0.491678 255 0 0
0.0337982 -0.00709152 -0.437011 0 0.347394 0.359607 255 0 0
-0.0230306 -0.0249346 -0.195462 -0.391328 -0.450519 0.748563 255 0 0
-0.0012562 -0.029932 -0.190674 -0.0274875 -0.0274039 0.986509 255 0 0
-0.0221863 -0.00356483 -0.19165 -0.719922 -0.358064 0.594561 255 0 0
0.0310517 -0.00808462 -0.434896 -0.0951977 0.651497 0.718702 255 0 0
0.0331726 -0.00809479 -0.435547 0.356397 0.724695 0.589745 255 0 0
-0.0296783 -0.00500412 -0.194702 -0.340448 -0.0350942 0.856774 255 0 0
-0.0283813 -0.00497742 -0.193726 -0.43937 -0.0171971 0.830545 255 0 0
-0.0263873 -0.00494858 -0.192617 -0.361544 -0.0410149 0.841513 255 0 0
-0.0237681 -0.00492477 -0.19165 -0.0427343 -0.00941947 0.982361 255 0 0
-0.0219828 -0.00502565 -0.19165 -0.350824 -0.0988943 0.850495 255 0 0
-0.0186742 -0.00512632 -0.190674 0 0 1 255 0 0
-0.00379639 -0.014945 -0.192053 0.234401 0.112333 0.857927 255 0 0
-0.0155533 -0.00438004 -0.19165 0.389693 0.235058 0.719775 255 0 0
-0.00675201 -0.00516078 -0.193726 0.21838 0.129118 0.872776 255 0 0
-0.00402142 -0.00510685 -0.195266 0.335023 0.247772 0.785923 255 0 0
-0.00284195 -0.00447273 -0.196655 0.520494 0.260247 0.707113 255 0 0
0.00070687 -0.00529592 -0.198558 0.412911 0.275604 0.749151 255 0 0
0.0262502 -0.00946046 -0.434896 -0.619021 0.548773 0.503162 255 0 0
0.0307694 -0.009367 -0.43457 -0.0347215 0.346984 0.898075 255 0 0
0.026825 -0.0106163 -0.433105 -0.136637 0.688497 0.698751 255 0 0
0.0309601 -0.0101166 -0.433594 -0.404607 0.407605 0.818628 255 0 0
-0.0187734 -0.0174103 -0.19165 0 0 1 255 0 0
-0.0145378 -0.0059541 -0.190674 0.29798 0.297925 0.744025 255 0 0
-0.00224876 -0.00595856 -0.195679 0.59565 0.594429 0.540237 255 0 0
-0.0313873 -0.00756277 -0.195288 -0.277878 0.0278904 0.887269 255 0 0
-0.0295803 -0.00767081 -0.194702 -0.279848 -0.0433759 0.884891 255 0 0
-0.0262264 -0.00750046 -0.192861 -0.301124 -0.0715087 0.86791 255 0 0
-0.0235852 -0.00738808 -0.19165 -0.136311 -0.0329653 0.934206 255 0 0
-0.0217555 -0.00746469 -0.19165 -0.253863 -0.0184986 0.893801 255 0 0
-0.0112841 -0.00742569 -0.191687 0.088485 0.0646382 0.938069 255 0 0
0.00120332 -0.00745865 -0.197863 0.436315 0.38102 0.69985 255 0 0
0.00552893 -0.00763988 -0.200318 0.242217 0.2768 0.316285 255 0 0
-0.0205467 -0.00752883 -0.190674 -0.329551 0.00454555 0.870328 255 0 0
-0.0186742 -0.00761108 -0.190674 0 0 1 255 0 0
-0.0161896 -0.00761108 -0.190674 0 0 1 255 0 0
-0.0140166 -0.00775493 -0.190674 0.144736 0.100082 0.908399 255 0 0
-0.00445366 -0.00799097 -0.193726 0.224017 0.176401 0.847711 255 0 0
0.00336538 -0.00813075 -0.19873 0.346719 0.440482 0.70964 255 0 0
-0.0221588 -0.0275726 -0.197095 -0.781664 -0.311845 0.462346 255 0 0
-0.00636832 -0.0208232 -0.190674 0.0818038 0.294055 0.852159 255 0 0
-0.0266083 -0.0193802 -0.195484 -0.12981 0 0.849127 255 0 0
6.93202e-05 -0.00873566 -0.195679 0.596193 0.594768 0.539263 255 0 0
0.00178029 -0.00941111 -0.196875 0.402148 0.402448 0.680442 255 0 0
0.00381807 -0.00999704 -0.197758 0.335849 0.435511 0.72152 255 0 0
-0.0280952 -0.00985336 -0.193726 -0.406289 -0.0767323 0.830176 255 0 0
-0.0186742 -0.0100937 -0.190674 -0.0145336 -0.00738994 0.994712 255 0 0
-0.0161896 -0.0100937 -0.190674 0 0 1 255 0 0
-0.0108283 -0.0092708 -0.19165 0.272505 0.369694 0.749104 255 0 0
-0.00874749 -0.00989006 -0.191688 0.136874 0.136968 0.890208 255 0 0
-0.00631912 -0.00996673 -0.192656 0.234543 0.179348 0.833398 255 0 0
0.000880304 -0.0103497 -0.195484 0.374249 0.341402 0.732865 255 0 0
-0.00546455 -0.0269203 -0.190674 -0.456112 -0.296509 0.749476 255 0 0
0.00127724 -0.0323977 -0.190674 -0.0547077 -0.0409866 0.971064 255 0 0
-0.0237232 -0.0175287 -0.193456 -0.374551 -0.0928262 0.841221 255 0 0
-0.00191991 -0.0106354 -0.193726 0.300637 0.300742 0.763004 255 0 0
-0.00971476 -0.0110728 -0.190674 0.464811 0.335844 0.660167 255 0 0
0.0107494 -0.0127796 -0.200544 0.228497 0.189995 0.8014 255 0 0
-0.0308571 -0.0123382 -0.194885 0 -0.238724 0.886292 255 0 0
-0.0236379 -0.0124682 -0.192493 -0.264078 -0.107854 0.870247 255 0 0
-0.0212738 -0.0124181 -0.19165 -0.0604518 -0.0300115 0.972635 255 0 0
-0.000392199 -0.0114594 -0.194702 0.602181 0.599105 0.527684 255 0 0
0.00143459 -0.0122366 -0.194824 0.227298 0.25548 0.81398 255 0 0
0.00346731 -0.0127462 -0.195549 0.414184 0.326168 0.722987 255 0 0
0.010967 -0.0378052 -0.190674 0.0708455 0.0707896 0.948926 255 0 0
0.00785955 -0.0128911 -0.198622 0.55018 0.405289 0.654075 255 0 0
0.0222015 -0.0342865 -0.194702 0.57857 0.440356 0.652699 255 0 0
-0.0112244 -0.0125793 -0.190674 0 0 1 255 0 0
-0.0092558 -0.0127653 -0.190674 0.186944 0.129166 0.881984 255 0 0
0.0136886 -0.0351105 -0.19165 0.0237842 0.0485958 0.970307 255 0 0
-0.0196511 -0.0131008 -0.19165 -0.335615 -0.248469 0.806229 255 0 0
0.000527358 -0.013237 -0.193726 0.240021 0.240646 0.810902 255 0 0
0.0124969 -0.0133057 -0.201782 0.896905 0 0.442224 255 0 0
0.0256195 -0.0280838 -0.199707 0.302637 0.300967 0.759718 255 0 0
-0.0302963 -0.0140724 -0.195679 0 -0.370894 0.833645 255 0 0
-0.0267273 -0.0152211 -0.194832 -0.483983 -0.242706 0.777595 255 0 0
0.00384896 -0.0148242 -0.194919 0.224491 0.24966 0.816652 255 0 0
0.00585895 -0.0154194 -0.195516 0.341921 0.343761 0.740958 255 0 0
0.00867593 -0.0150745 -0.197719 0.394183 0.40618 0.691318 255 0 0
-0.00124201 -0.0449422 -0.195245 -0.272647 -0.324938 0.815677 255 0 0
0.0120621 -0.0241394 -0.194702 0.654648 0.329629 0.659248 255 0 0
-0.0112244 -0.0175445 -0.190674 0 0 1 255 0 0
-0.0110329 -0.037178 -0.195679 -0.13327 -0.212803 0.898976 255 0 0
-0.0236957 -0.0150134 -0.192983 -0.246608 -0.123511 0.884196 255 0 0
-0.0212995 -0.0149353 -0.191914 -0.237909 -0.119892 0.876335 255 0 0
-0.00611659 -0.0148737 -0.19165 0.163414 0.0429223 0.917035 255 0 0
0.00113339 -0.0151065 -0.193552 0.233616 0.186213 0.846941 255 0 0
-0.0294609 -0.0157099 -0.196655 -0.281339 -0.206022 0.837056 255 0 0
-0.00716019 -0.0150623 -0.190674 0.693866 -0.0265332 0.630643 255 0 0
0.0157972 -0.0158528 -0.202061 0.430232 0.0771021 0.772188 255 0 0
0.016221 -0.0351868 -0.192108 0.150656 0.23036 0.841939 255 0 0
-0.0171814 -0.0158234 -0.19165 -0.356494 -0.71903 0.59658 255 0 0
0.00748825 -0.0161591 -0.195679 0.756211 0.373495 0.537259 255 0 0
0.00932664 -0.0170089 -0.196909 0.392505 0.41542 0.687823 255 0 0
0.0112752 -0.0175234 -0.197649 0.404909 0.476718 0.681209 255 0 0
0.0139792 -0.0173086 -0.200141 0.501644 0.433004 0.654119 255 0 0
0.0148849 -0.0166473 -0.201782 0.59999 0.606442 0.521766 255 0 0
-0.0263278 -0.0175381 -0.195191 -0.392297 -0.111119 0.8342 255 0 0
-0.0251617 -0.016449 -0.193726 -0.702192 -0.348194 0.621037 255 0 0
-0.00628967 -0.0174103 -0.19165 0.0626272 -0.0375798 0.972169 255 0 0
-0.00379086 -0.0174103 -0.19165 0.0173695 0.0174427 0.985093 255 0 0
0.00366981 -0.0176392 -0.193517 0.224183 0.224434 0.830059 255 0 0
0.00468063 -0.0167618 -0.194702 0.659879 0.328796 0.653144 255 0 0
0.00841051 -0.0177846 -0.195622 0.318183 0.340543 0.753794 255 0 0
0.0182877 -0.0181442 -0.202466 0.312444 0.247644 0.789014 255 0 0
-0.0156237 -0.0174319 -0.190674 -0.280704 -0.0817549 0.868788 255 0 0
-0.00765228 -0.0178642 -0.19165 0.684504 -0.124387 0.675958 255 0 0
0.0182953 -0.0280447 -0.195614 0.324385 0.369513 0.732337 255 0 0
-0.00386003 -0.0424479 -0.195093 -0.210138 -0.188972 0.872378 255 0 0
0.01474 -0.0188446 -0.199707 0.586367 0.586367 0.558881 255 0 0
0.0172729 -0.019043 -0.201782 0.526053 0.509613 0.680854 255 0 0
0.0189461 -0.019928 -0.202075 0.276028 0.278465 0.795041 255 0 0
-0.0232663 -0.0197449 -0.193617 -0.385655 -0.0917507 0.817898 255 0 0
-0.0278982 -0.0190888 -0.195679 0 0 1 255 0 0
-0.0244904 -0.0198746 -0.194702 -0.397089 -0.0910435 0.273273 255 0 0
0.0072937 -0.0189972 -0.194702 0.401998 0.400341 0.683425 255 0 0
0.00897003 -0.0198389 -0.194936 0.273103 0.273808 0.794955 255 0 0
0.0109486 -0.020414 -0.195435 0.305731 0.373706 0.741235 255 0 0
-0.00359099 -0.0457241 -0.196655 -0.138078 -0.592019 0.579045 255 0 0
0.0117188 -0.0194961 -0.196655 0.298806 0.299134 0.766707 255 0 0
0.0136417 -0.020047 -0.197549 0.412605 0.439242 0.665419 255 0 0
-0.0213922 -0.0200275 -0.192866 -0.16134 -0.136549 0.898702 255 0 0
-0.018809 -0.0199422 -0.192016 -0.17706 -0.15539 0.881224 255 0 0
-0.0163997 -0.0199682 -0.19165 -0.113742 -0.0534326 0.94257 255 0 0
-0.0152893 -0.0193532 -0.190674 -0.652026 -0.206109 0.703734 255 0 0
-0.0136196 -0.0199432 -0.190674 -0.0504842 -0.0505783 0.965283 255 0 0
-0.0112244 -0.0200322 -0.190674 0 0 1 255 0 0
-0.00880522 -0.0200855 -0.190674 0.0575651 0.0267795 0.967671 255 0 0
-0.00621393 -0.019605 -0.19165 0.0600541 0.207657 0.884757 255 0 0
-0.00123757 -0.0195112 -0.19165 0.0558881 0.219542 0.885834 255 0 0
0.00371887 -0.0200043 -0.192656 0.176102 0.20392 0.844102 255 0 0
0.00621414 -0.0201127 -0.193423 0.218657 0.196463 0.843519 255 0 0
0.0155876 -0.0206177 -0.198535 0.50495 0.442064 0.669977 255 0 0
0.0177574 -0.0208168 -0.20044 0.572092 0.582643 0.572789 255 0 0
0.0211653 -0.0375098 -0.192549 0.134555 0.186078 0.862752 255 0 0
0.00814057 -0.0207611 -0.193726 0.401098 0.401316 0.712985 255 0 0
-0.00377146 -0.0274841 -0.190674 -0.0419279 -0.00893123 0.983086 255 0 0
-0.00135183 -0.0207432 -0.190674 0.0714629 0.266904 0.846911 255 0 0
0.0196533 -0.0214233 -0.201782 0.634129 0.627454 0.451864 255 0 0
-0.0149155 -0.020813 -0.19165 -0.554862 -0.554862 0.619885 255 0 0
0.0160335 -0.0225725 -0.197615 0.442633 0.39633 0.676739 255 0 0
-0.0162943 -0.022432 -0.19187 -0.134087 -0.13398 0.90273 255 0 0
-0.0139599 -0.0226506 -0.19165 -0.0707769 -0.10241 0.945453 255 0 0
0.0111325 -0.0401306 -0.190674 0 0 1 255 0 0
6.75321e-05 -0.0211639 -0.190674 0.776799 0.387328 0.496549 255 0 0
0.00146136 -0.0224152 -0.19165 0.143996 0.00583621 0.931895 255 0 0
0.00370407 -0.0224253 -0.191833 0.155594 0.109046 0.893537 255 0 0
0.00622972 -0.0225186 -0.192712 0.163667 0.182405 0.86463 255 0 0
0.00868734 -0.0225655 -0.193437 0.215886 0.207193 0.849656 255 0 0
0.00975037 -0.0216064 -0.194702 0.598746 0.602072 0.528216 255 0 0
0.0208143 -0.0231247 -0.200521 0.162181 0.616195 0.563147 255 0 0
-0.0241882 -0.0223389 -0.194702 -0.126633 -0.126633 0.0890392 255 0 0
-0.0129185 -0.0217208 -0.190674 -0.243857 -0.486995 0.755321 255 0 0
-0.00377146 -0.0225159 -0.190674 0 0 1 255 0 0
-0.00128732 -0.0225159 -0.190674 0 0 1 255 0 0
0.000142823 -0.0224406 -0.190674 0.637194 -0.00307183 0.730133 255 0 0
0.0180359 -0.0231527 -0.19873 0.503671 0.612863 0.585826 255 0 0
0.0050354 -0.0283813 -0.190674 0.613565 0.618794 0.490542 255 0 0
0.015213 -0.0283813 -0.193726 0.598779 0.602105 0.528141 255 0 0
-0.0112824 -0.0230865 -0.19165 -0.0240099 -0.231754 0.899558 255 0 0
-0.0220642 -0.0234528 -0.194702 -0.18149 -0.330561 0.844159 255 0 0
-0.00888824 -0.0233362 -0.19165 -0.0804352 -0.348497 0.853743 255 0 0
0.0168895 -0.0247101 -0.196875 0.368127 0.325329 0.731268 255 0 0
0.0211258 -0.024526 -0.199707 0.0642803 0.54404 0.659206 255 0 0
-0.0204582 -0.0239029 -0.193726 -0.33445 -0.401505 0.774369 255 0 0
-0.00719833 -0.0235443 -0.19165 -0.359529 -0.711569 0.603663 255 0 0
0.00879528 -0.0249515 -0.192858 0.121599 0.0831257 0.921584 255 0 0
0.0157506 -0.0253096 -0.195604 0.38336 0.283424 0.755404 255 0 0
-0.013813 -0.0249649 -0.192126 -0.124544 -0.258482 0.86555 255 0 0
-0.0112824 -0.0249054 -0.19165 -0.0255779 -0.0520952 0.973836 255 0 0
0.000801466 -0.0255346 -0.190674 0.228298 0.230628 0.822794 255 0 0
0.00370026 -0.0249054 -0.19165 0.0116469 0.0554072 0.974527 255 0 0
0.0179596 -0.0421448 -0.19165 0.122624 0.122624 0.699632 255 0 0
0.0195313 -0.0314636 -0.194702 0.255809 0.395445 0.752038 255 0 0
0.0233376 -0.0276628 -0.198464 0.168069 0.170485 0.877401 255 0 0
0.0129166 -0.0260773 -0.193726 0.602802 0.602802 0.522742 255 0 0
0.0190216 -0.027122 -0.196728 0.32795 0.372847 0.72582 255 0 0
-0.0185034 -0.0275588 -0.194702 -0.150814 -0.150276 0.897532 255 0 0
-0.0179749 -0.0266927 -0.193726 -0.363687 -0.359712 0.760865 255 0 0
-0.0162264 -0.0273769 -0.193684 -0.203744 -0.255675 0.854986 255 0 0
-0.0137215 -0.0273692 -0.192814 -0.117723 -0.137551 0.919452 255 0 0
-0.0113266 -0.0275055 -0.192456 -0.210462 -0.166543 0.868551 255 0 0
-0.00878525 -0.0274022 -0.19165 -0.0395788 -0.0396143 0.975855 255 0 0
0.00300312 -0.026123 -0.190674 0.198903 0.794471 0.53165 255 0 0
0.00430552 -0.0265655 -0.19165 0.307202 0.306492 0.748366 255 0 0
0.00623485 -0.0273895 -0.191807 0.236976 0.114568 0.861041 255 0 0
0.00873731 -0.027537 -0.192712 0.0627081 0.0628255 0.946049 255 0 0
0.0112783 -0.0276078 -0.193183 0.18637 0.188243 0.863806 255 0 0
0.0135876 -0.0277453 -0.193675 0.17284 0.210652 0.857804 255 0 0
0.0167602 -0.0291748 -0.194702 0.257245 0.395309 0.749695 255 0 0
0.0144315 -0.0270081 -0.194702 0.292434 0.292612 0.801116 255 0 0
-0.00128732 -0.0274841 -0.190674 0 0 1 255 0 0
0.0035781 -0.0275865 -0.190674 0.117285 0.0862889 0.920851 255 0 0
0.025177 -0.028483 -0.19873 0.395802 0.389418 0.702303 255 0 0
-0.0171089 -0.0284042 -0.194702 -0.286582 -0.437694 0.771614 255 0 0
0.0237995 -0.0301051 -0.197367 0.298694 0.381357 0.743161 255 0 0
-0.000747098 -0.0421956 -0.193726 -0.259826 -0.191278 0.852103 255 0 0
-0.0134853 -0.0298843 -0.193677 -0.166492 -0.196778 0.881544 255 0 0
0.0160086 -0.0301575 -0.193609 0.196432 0.223715 0.835255 255 0 0
0.0208978 -0.0302353 -0.195625 0.306378 0.38525 0.734573 255 0 0
-0.0113675 -0.0301209 -0.19314 -0.177682 -0.201906 0.874683 255 0 0
-0.0088211 -0.0300242 -0.192493 -0.166305 -0.208075 0.871128 255 0 0
0.00119659 -0.0299708 -0.190674 0 0 1 255 0 0
0.00570188 -0.03024 -0.190674 0.186696 0.122706 0.882284 255 0 0
0.00848365 -0.0297594 -0.192062 0.217845 0.230895 0.792549 255 0 0
0.0114667 -0.0301645 -0.192522 0.0990135 0.193266 0.839662 255 0 0
-0.0175476 -0.0305277 -0.195679 -0.194701 -0.194701 0.854535 255 0 0
-0.00413857 -0.0307729 -0.19165 -0.17929 -0.24178 0.864439 255 0 0
0.017807 -0.0308227 -0.193726 0.300472 0.30159 0.762204 255 0 0
-0.0178238 -0.0322357 -0.195679 0 0 0.9 255 0 0
-0.0138572 -0.0325634 -0.194774 -0.153836 -0.14791 0.904329 255 0 0
0.0235476 -0.0328489 -0.195509 0.261287 0.322485 0.795031 255 0 0
-0.00881687 -0.0324549 -0.19319 -0.20761 -0.216273 0.861063 255 0 0
