# .PCD v0.7 - Point Cloud Data file format
VERSION 0.7
FIELDS x y z normal_x normal_y normal_z rgb
SIZE 4 4 4 4 4 4 4
TYPE F F F F F F F
COUNT 1 1 1 1 1 1 1
WIDTH 575
HEIGHT 1
VIEWPOINT 0 0 0 1 0 0 0
POINTS 575
DATA ascii
-0.00283623 0.01074065 -0.204712 0.7152544 0 0.6988638 2.341805152e-38
0.0228882 0.0547485 -0.200684 0 0 1 2.341805152e-38
-0.001185295682 -0.01658353636 -0.2051556364 0.7200758182 0 0.6935256818 2.341805152e-38
0.008434295333 0.02885538 -0.2036699333 0.4169172 -0.4152223333 0.7908382667 2.341805152e-38
0.01914712174 0.03809921304 -0.205093913 0.4601727826 -0.4956881739 0.7177476522 2.341805152e-38
-0.001117545717 0.04333496 -0.200684 -0.05867016667 0.03439576667 0.9762154 2.341805152e-38
0.0208893 0.05758667143 -0.199707 0 0 1 2.341805152e-38
-0.01860808333 -0.004185488 -0.199707 0 0 1 2.341805152e-38
-0.01621062 0.035981444 -0.20221188 -0.20540304 0.28313992 0.88470232 2.341805152e-38
-0.02324771875 0.02801229375 -0.20251475 -0.32414 0.1694395 0.85234525 2.341805152e-38
-0.0242971 -0.0266876 -0.201782 -0.2388880667 0 0.8991386667 2.341805152e-38
0.004327946364 0.03026233636 -0.201782 0.1846565455 -0.1628458182 0.8387721818 2.341805152e-38
0.02348752222 0.03858947778 -0.2083604444 0.5382136111 -0.5144705556 0.6209279444 2.341805152e-38
-0.02130126 -0.00182876372 -0.2004886 -0.26705088 -0.02467624 0.89116212 2.341805152e-38
-0.001111965483 0.03838502 -0.199707 0 0 1 2.341805152e-38
-0.00279617 0.02276615 -0.201782 0.6517695 -0.27029 0.6460745 2.341805152e-38
0.015625 0.0246582 -0.211792 -0.512607 -0.512607 0.688816 2.341805152e-38
-0.0008352047609 -0.02181144783 -0.205306087 0.5025971304 0.07629547826 0.7695481304 2.341805152e-38
-0.01137476043 0.03834998696 -0.201782 -0.2439126087 0.1802908696 0.8926058261 2.341805152e-38
0.02400788621 0.04828721379 -0.2024221034 0.2167311724 -0.310219069 0.825707931 2.341805152e-38
-0.0247803 0.0115356 -0.201782 -0.712881 0 0.701285 2.341805152e-38
0.009056084 0.04595336 -0.199707 0 0 1 2.341805152e-38
-0.01600954 -0.009155268333 -0.199707 0 0 1 2.341805152e-38
0.0014896388 0.04074706 -0.199707 -0.01200704 0.01162888 0.99634008 2.341805152e-38
0.00149513372 0.030929552 -0.20041044 0.08815556 -0.30619332 0.84851296 2.341805152e-38
0.005891037 0.06408691 -0.204712 -0.2895354 0.2874923 0.8799546 2.341805152e-38
0.02043915 0.03024295 -0.2122805 0 -0.4705375 0.1690995 2.341805152e-38
-0.021275628 -0.021748656 -0.20025412 -0.24603812 -0.09641004 0.89153628 2.341805152e-38
-0.0061042796 0.020972892 -0.20052768 0.271281 -0.18344084 0.8692128 2.341805152e-38
0.009132892 0.02790322667 -0.2049072 0.5037834 -0.4584986 0.7150904667 2.341805152e-38
0.011247868 0.025966808 -0.207998 0.5390054 -0.51532384 0.65313544 2.341805152e-38
-0.0208914619 0.02327620476 -0.200684 -0.2774963333 0.2099524286 0.8679032857 2.341805152e-38
0.0276642 0.0381775 -0.211792 0.580357 -0.580357 0.571289 2.341805152e-38
-0.01332637143 0.04407177143 -0.2051302857 -0.1249125714 0.488371 0.6119885714 2.341805152e-38
0.02220665 0.05008443333 -0.201782 0.3885128333 -0.3900053333 0.7748036667 2.341805152e-38
-0.02433125 -0.01657865714 -0.201782 -0.2652478571 0.06011271429 0.8831203571 2.341805152e-38
0.01675747391 0.03570291739 -0.205093913 0.4919505652 -0.4599713913 0.7220205652 2.341805152e-38
0.003854752 0.04074706 -0.199707 0 0 1 2.341805152e-38
0.0108223 0.0593262 -0.201782 -0.2392335 0.5710635 0.742609 2.341805152e-38
-0.008445738 0.02845764 -0.199707 0 0 1 2.341805152e-38
-0.02825930667 -0.0015613214 -0.2029542 -0.1787270667 0.1935616 0.9017127333 2.341805152e-38
-0.006105875714 0.04583595238 -0.2021076667 -0.3202878095 0.2525857619 0.8538827143 2.341805152e-38
-0.02928854545 -0.01659047273 -0.204712 -0.3513146364 -0.03423527273 0.838905 2.341805152e-38
0.003198305 -0.02623241667 -0.208252 0.2267938333 0.1324 0.5197945 2.341805152e-38
-0.01826143913 0.02814383478 -0.200684 -0.2742754348 0.1516065217 0.8802725217 2.341805152e-38
-0.01600954 -0.0309219 -0.199707 0 0 1 2.341805152e-38
-0.003564835 0.0548706 -0.204712 -0.4270645 0.5869825 0.6776285 2.341805152e-38
-0.003732146 0.040946036 -0.20064492 -0.04869692 0.13267896 0.94773528 2.341805152e-38
0.003226596667 0.01135506667 -0.210083 0.5044755 0 0.7335498333 2.341805152e-38
0.01092671875 0.0312776625 -0.203674 0.3810605 -0.388592 0.788902875 2.341805152e-38
0.00543213 0.0220032 -0.205688 0.526413 -0.528469 0.666041 2.341805152e-38
-8.916853333e-05 0.05842083333 -0.204712 -0.3517026667 0.611522 0.6513706667 2.341805152e-38
-0.005858201538 0.05304893846 -0.204712 0 0 1 2.341805152e-38
0.0302429 0.0450745 -0.20874 0.836048 0 0.548656 2.341805152e-38
0.01736956667 0.03757733333 -0.204712 0.4382803333 -0.4409983333 0.7665606667 2.341805152e-38
-0.00610962 -0.030838 -0.200684 0.1643576 0 0.9139588 2.341805152e-38
0.006397472941 0.01570308824 -0.2120218824 0.5390172941 -0.3408275294 0.6785771176 2.341805152e-38
-0.00864519381 0.01587388095 -0.200684 0.1955522381 -0.1589791429 0.9020711429 2.341805152e-38
0.0118675 0.0380478 -0.201782 0.332225875 -0.2419961875 0.833804 2.341805152e-38
-0.020954572 0.028270892 -0.20182108 -0.16250496 0.10687452 0.92830824 2.341805152e-38
0.008966728485 0.03824039394 -0.2005063636 0.1551548485 -0.2761507879 0.8595585758 2.341805152e-38
0.0014896388 0.03317872 -0.199707 0.01250496 -0.0129218 0.99573028 2.341805152e-38
0.01900634 0.05332133333 -0.1998047 0.1418045333 -0.1398413 0.9272623667 2.341805152e-38
-0.01841888 -0.0309692 -0.199707 0 0 0.8 2.341805152e-38
-0.01118177143 0.04584611429 -0.2052697143 -0.4091511905 0.380192381 0.7779208571 2.341805152e-38
-0.0037785336 -0.00666916 -0.20330556 0.4202964 0.05217824 0.81210376 2.341805152e-38
-0.00610962 0.04095458 -0.200684 -0.05639084 0.13901216 0.94425508 2.341805152e-38
0.02632432381 0.03851754762 -0.210449 0.3167853333 -0.4421251429 0.7654002381 2.341805152e-38
-0.013710028 0.033328868 -0.20056676 -0.22123132 0.2216768 0.89291792 2.341805152e-38
0.0151062 0.0349731 -0.204712 0.50148 -0.497562 0.707778 2.341805152e-38
-0.02942911667 -0.02886453333 -0.204712 -0.585957 0.099444 0.7786238333 2.341805152e-38
-0.008466591667 0.01833241 -0.2002280667 0.2785672333 -0.2062741333 0.8432512333 2.341805152e-38
-0.008051553333 0.01345062 -0.201782 0.2643116667 -0.0336418 0.86224 2.341805152e-38
-0.000956834092 -0.019319448 -0.20525856 0.632718 0.02195564 0.71990892 2.341805152e-38
-0.0009798298733 0.02336631 -0.2020099667 0.249378 -0.1549595 0.8811784 2.341805152e-38
-0.02870471429 0.008325304286 -0.2032702381 -0.2622907619 0.06549242857 0.8932678095 2.341805152e-38
-0.007061 -0.0125275 -0.200684 0.7786805 0.1976125 0.5548565 2.341805152e-38
-0.00610494625 0.01581284583 -0.2019448333 0.328365625 -0.1759981667 0.843650625 2.341805152e-38
-0.00757599 0.005327225 -0.201782 0.64934 -0.2652295 0.650708 2.341805152e-38
-0.01104736833 0.02088928 -0.199707 0 0 1 2.341805152e-38
-0.01104736833 0.02325438 -0.199707 0 0 1 2.341805152e-38
0.011471256 0.040913076 -0.2004886 0.30948936 -0.17290932 0.853591 2.341805152e-38
-0.007061 -0.01656952 -0.200684 0.7674306 0 0.6411302 2.341805152e-38
0.02305605 0.033981325 -0.209717 0 0 1 2.341805152e-38
0.001514553542 0.001081254817 -0.2083333333 0.45309525 -0.05143733333 0.7920524167 2.341805152e-38
0.0199585 0.0398254 -0.204712 0.509962 -0.494026 0.704186 2.341805152e-38
0.006323717241 0.03088641724 -0.2020178276 0.2630297931 -0.3151916897 0.8404601379 2.341805152e-38
-0.01600954 0.00338211 -0.199707 0 0 1 2.341805152e-38
-0.01364898 -0.01931762 -0.199707 0 0 1 2.341805152e-38
-0.02115715556 -0.03096344444 -0.2001412222 -0.363489 0.239327 0.7796146667 2.341805152e-38
0.0180511 0.0267868 -0.210815 0 0 1 2.341805152e-38
-0.008445738 0.0308197 -0.199707 0 0 1 2.341805152e-38
-0.0232239 0.005776978 -0.200684 -0.2390806667 0 0.8989414 2.341805152e-38
-0.02815554 -0.004554368 -0.2033446 -0.0916346 -0.093089 0.7514514 2.341805152e-38
0.008666145185 0.03092674074 -0.2028673333 0.3472012963 -0.3485562222 0.8282713704 2.341805152e-38
0.0014896388 0.03838502 -0.199707 0 0 1 2.341805152e-38
-0.0232239 0.01837411667 -0.200684 -0.2390888333 0 0.8989322778 2.341805152e-38
0.003970895357 0.02588055714 -0.2030029643 0.32660875 -0.2758388571 0.8434450357 2.341805152e-38
-0.03096841818 0.003461143636 -0.2056436364 -0.1767402273 -0.04357790909 0.923496 2.341805152e-38
0.00305557 7.44462e-05 -0.209717 0 0 0 2.341805152e-38
-0.02125854 -0.009173069667 -0.2000978 -0.2653243 -0.02054533333 0.8938709333 2.341805152e-38
0.01631751154 0.03843453462 -0.2033596154 0.3746290769 -0.3478327308 0.8164674615 2.341805152e-38
-0.0232239 0.003399278 -0.200684 -0.2390808 0 0.8989413333 2.341805152e-38
-0.001115603583 0.04084573667 -0.2001629333 -0.1876559333 0.2470209333 0.8783241333 2.341805152e-38
0.01385956 0.0625763 -0.200684 0 0 1 2.341805152e-38
0.001506765833 -0.01420910833 -0.2073569167 0.415395875 -0.02854170833 0.826062 2.341805152e-38
-0.00114136725 -0.01402588 -0.2052 0.7207593 0 0.69279695 2.341805152e-38
0.003925986522 0.01834039565 -0.2077637391 0.5806797826 -0.4985139565 0.5940283478 2.341805152e-38
0.02955628333 0.04262796667 -0.209717 0.381899 -0.3832243333 0.79764 2.341805152e-38
0.003320692857 0.01637592857 -0.2086005714 0.600858 -0.5196555714 0.5836391429 2.341805152e-38
-0.023405764 0.025946672 -0.20232912 -0.28284916 0.09547372 0.88380288 2.341805152e-38
-0.01364898 0.02585603333 -0.199707 0 0 1 2.341805152e-38
0.0172729 0.04522705 -0.201782 0.637782 -0.2673115 0.6650675 2.341805152e-38
-0.02606965 -0.02678834 -0.20251475 -0.5010352 0 0.8080841 2.341805152e-38
-0.01318206 0.04533081 -0.205688 -0.1002701 0.2115424 0.9256117 2.341805152e-38
-0.008447264 0.020892944 -0.19974608 0.09620324 -0.06707404 0.95317112 2.341805152e-38
-0.01105855667 0.005755106 -0.1999349667 0.2537412667 -0.0823925 0.8839687333 2.341805152e-38
-0.003725345769 -0.02672401154 -0.2024583077 0.4604408846 0.091488 0.7807236923 2.341805152e-38
-0.01860808333 -0.02666473333 -0.199707 0 0 1 2.341805152e-38
-0.00518417 0.0196533 -0.201782 0.539063 -0.54341 0.643519 2.341805152e-38
-0.02319607647 0.0007982156353 -0.200684 -0.2519627059 0.01061070588 0.8837749412 2.341805152e-38
-0.01860808333 -0.02926636 -0.199707 0 0 1 2.341805152e-38
0.0014896388 0.03578185 -0.199707 0 0 1 2.341805152e-38
0.001366751095 0.01343427143 -0.2081821905 0.6549764762 -0.2358434762 0.6620440952 2.341805152e-38
-0.02615178235 -0.01873779412 -0.2021842941 -0.3197387059 0.09398194118 0.8710417647 2.341805152e-38
-0.003887174286 -0.03072031429 -0.201782 0.267627 0.2097964286 0.8216417143 2.341805152e-38
0.001314665263 -0.01155330526 -0.2073012105 0.3942821579 0.07107289474 0.7920057368 2.341805152e-38
-0.01364898 0.02088928 -0.199707 0 0 1 2.341805152e-38
-0.0060867304 0.023280024 -0.19994148 0.23039668 -0.20152748 0.88468768 2.341805152e-38
-0.008445738 0.03317872 -0.199707 0 0 1 2.341805152e-38
0.0228119 0.0366516 -0.20874 0.495901 -0.495901 0.712857 2.341805152e-38
0.003893535 0.05074904444 -0.2003583333 -0.2733378333 0.1523237222 0.8571622778 2.341805152e-38
-0.001132589231 0.05323673846 -0.2031343846 -0.2768666923 0.1640035769 0.875491 2.341805152e-38
-0.0279541 0.017791725 -0.2022705 0 0 0.5 2.341805152e-38
-0.006525994375 -0.02661323125 -0.200684 0.2315735 0.043608875 0.8821553125 2.341805152e-38
0.0258292875 0.046634675 -0.203735 0.30671725 -0.508290375 0.747396375 2.341805152e-38
0.00349426125 0.0041160575 -0.2099915 0.36279225 0.09431775 0.795794125 2.341805152e-38
0.00130820225 -0.001652518333 -0.208252 0.705405 0.011101 0.703640875 2.341805152e-38
-0.00017166125 0.00105255966 -0.206787 0.7265637 0 0.6864072 2.341805152e-38
-0.00283623 0.00928497 -0.204712 0.741514 0.37149 0.558706 2.341805152e-38
0.009390397273 0.02530739091 -0.2070534545 0.5072158182 -0.5645088182 0.6308635455 2.341805152e-38
0.02151138462 0.03339326154 -0.209717 0.2968149231 -0.2739693846 0.8236438462 2.341805152e-38
-0.02852797391 -0.00674704 -0.203735 -0.1503036087 0.02331213043 0.9379725217 2.341805152e-38
0.004508333333 0.0527649 -0.200684 -0.3625643333 0.3033706667 0.7480203333 2.341805152e-38
-0.02338156667 -0.02171918333 -0.200684 -0.1898198889 -0.05523644444 0.90964 2.341805152e-38
0.009056084 0.04335021667 -0.199707 0 0 1 2.341805152e-38
0.00255775 -0.00340271 -0.209717 0.737956 0.369333 0.564814 2.341805152e-38
0.001496889 0.04832966667 -0.200684 -0.099006 0.0468623 0.9601104 2.341805152e-38
0.002088548889 0.02784052222 -0.201782 0.3424292222 -0.2589361111 0.8131396667 2.341805152e-38
0.011457516 0.05321168 -0.2002932 -0.14312568 0.26967364 0.88315848 2.341805152e-38
-0.0287295 0.0108583163 -0.2032650741 -0.2597213704 -0.03618859259 0.896050963 2.341805152e-38
-0.01860808333 0.01094818 -0.199707 0 0 1 2.341805152e-38
0.003202164286 -0.001986777429 -0.2100307143 0.5389048571 0.04038728571 0.721504 2.341805152e-38
-0.0001104473125 0.0131110875 -0.206787 0.6781675 -0.26699175 0.63596825 2.341805152e-38
0.01333365 0.03120762778 -0.2052 0.5320627222 -0.460877 0.6531732222 2.341805152e-38
-0.001111965483 0.03578185 -0.199707 0 0 1 2.341805152e-38
-0.016035176 0.028497924 -0.19998056 -0.25200548 0.19589192 0.89200404 2.341805152e-38
-0.003712846 0.0308197 -0.199707 0 0 1 2.341805152e-38
0.006305695769 0.05327313462 -0.2006464231 -0.1302332308 0.1255852692 0.9333069615 2.341805152e-38
-0.01314698 0.03495482 -0.200684 -0.2560622 0.395814 0.8151002 2.341805152e-38
-0.006127359 0.008401489 -0.2021728 0.3690041 -0.0014552 0.80737705 2.341805152e-38
0.02488706667 0.04233806667 -0.206787 0.5185043333 -0.5240293333 0.6755783333 2.341805152e-38
-0.003831862593 0.0009285381037 -0.2033012222 0.4256091481 0 0.8197429259 2.341805152e-38
-0.00542259 -0.0242981 -0.201782 0.3660376 0.0301613 0.8317832 2.341805152e-38
-0.008398831481 -0.02918158889 -0.1998517407 0.2063162963 0.08760255556 0.8830102222 2.341805152e-38
-0.008403588 0.04568177 -0.2033446 -0.47138635 0.3795945 0.7747827 2.341805152e-38
0.006178855 0.06556194167 -0.2048746667 -0.4085556667 0.1921555 0.7927725 2.341805152e-38
0.0123316 0.02508036667 -0.209717 0.5943573333 -0.5953593333 0.540549 2.341805152e-38
-0.02130295556 -0.01924584444 -0.2000326667 -0.2730207037 0.01412518519 0.8833392593 2.341805152e-38
0.01831056 0.03895878 -0.203735 0.2654568 -0.4242686 0.7810216 2.341805152e-38
0.003139112 -0.01466372 -0.20874 0.7099096 0 0.36882 2.341805152e-38
0.000554562 0.0193787 -0.203735 0.502688 -0.505867 0.701002 2.341805152e-38
-0.01007078667 0.03770448333 -0.200684 -0.4604715 0.2122416667 0.7844788333 2.341805152e-38
-0.006087798 0.038430184 -0.19994148 -0.106695 0.26334132 0.89489632 2.341805152e-38
0.001492261875 -0.00460422 -0.2078856875 0.4403744375 0.1321818125 0.78791025 2.341805152e-38
-0.01574408889 0.04026115 -0.203735 -0.0564765 0.09157294444 0.9653146667 2.341805152e-38
-0.008486938 -0.004207992 -0.200684 0.15369628 0 0.92797432 2.341805152e-38
-0.003823893571 -0.011616575 -0.2029332857 0.4329009643 -0.018123 0.8159744643 2.341805152e-38
-0.0175171 0.0302658 -0.200684 -0.6048565 0.24135 0.708689 2.341805152e-38
-0.006080626 0.02585603333 -0.199707 0 0 1 2.341805152e-38
-0.01104736833 -0.02405092 -0.199707 0 0 1 2.341805152e-38
0.020629875 0.0491638 -0.200684 0.5405875 -0.3644165 0.706781 2.341805152e-38
0.0101089 0.01988985 -0.211792 0.6491445 -0.242247 0.6574065 2.341805152e-38
-0.00518417 -0.028839125 -0.201782 0.77268825 0.10075825 0.59545975 2.341805152e-38
-0.0110906 0.01574556 -0.2004886 0.1674106667 -0.2678443333 0.8472882 2.341805152e-38
0.00387446125 0.0582300875 -0.2027996667 -0.1945806667 0.16349275 0.9194650833 2.341805152e-38
0.01655644545 0.04307140455 -0.201782 0.2640937727 -0.2306296364 0.8662828182 2.341805152e-38
-0.01105499667 0.008355141667 -0.1998698333 0.2450814444 0 0.8926005833 2.341805152e-38
0.0041242605 0.063282785 -0.2048584 -0.27363765 0.2970748 0.80629765 2.341805152e-38
-0.008897953182 0.04856454545 -0.204712 -0.2258038182 0.1115469091 0.9121925909 2.341805152e-38
-0.02626249655 -0.01163114138 -0.2024221034 -0.394198931 -0.06410589655 0.840298931 2.341805152e-38
-0.02807956667 -0.02649432778 -0.203735 -0.2855378333 0.02528966667 0.832347 2.341805152e-38
-0.004323958 0.0438324 -0.201782 -0.3212791 0.1499229 0.8305751 2.341805152e-38
0.00621473 0.03577128077 -0.2006464231 0.07722965385 -0.07908246154 0.9522891923 2.341805152e-38
-0.01319885 0.0425415 -0.203735 0 0.4060075 0.291818 2.341805152e-38
-0.006080626 0.03317872 -0.199707 0 0 1 2.341805152e-38
0.0114212 0.0506836 -0.199707 0 0 1 2.341805152e-38
-0.0037745672 -0.0090634216 -0.20307132 0.34965404 0.074188 0.84354176 2.341805152e-38
-0.009465536667 0.04646813333 -0.204712 -0.4422133333 0.442249 0.7802773333 2.341805152e-38
0.0221405 0.0422668 -0.204712 0.2520935 -0.6461055 0.6583895 2.341805152e-38
0.006537658462 0.05074135385 -0.1999324615 -0.1048412308 0.1504102692 0.9269096154 2.341805152e-38
-0.00135528818 0.026053635 -0.200684 0.19379035 -0.2138308 0.8707692 2.341805152e-38
-0.001589446579 0.008362218947 -0.2052256842 0.6841013158 0.067607 0.6786502632 2.341805152e-38
-0.0007781645048 0.05551000476 -0.2036885238 -0.1421829524 0.1372716667 0.8812302381 2.341805152e-38
0.02382812 0.04585115 -0.2034422 0.39560725 -0.39593205 0.8007007 2.341805152e-38
-4.9233375e-05 -0.00139558375 -0.206787 0.806468375 0.090963875 0.55185 2.341805152e-38
0.00856127 0.01925877143 -0.210815 0.434221 -0.462161 0.7218318571 2.341805152e-38
-0.003661968889 0.02836778148 -0.1998155556 0.1476862963 -0.1217758519 0.9067565185 2.341805152e-38
0.001226848611 0.01101939389 -0.2084688889 0.5938416111 -0.05490527778 0.7490134444 2.341805152e-38
-0.0100632 0.0449524 -0.203735 -0.442053 0.442053 0.780499 2.341805152e-38
0.0130971 0.02661133333 -0.20874 0.4931456667 -0.493194 0.7166206667 2.341805152e-38
0.01580695385 0.03347777692 -0.2055378462 0.5565948462 -0.3963004615 0.692394 2.341805152e-38
0.004248552667 0.06057940667 -0.2034747333 -0.3223134 0.5079328 0.7472180667 2.341805152e-38
-0.01080403684 0.04321931053 -0.2033754211 -0.377315 0.497168 0.7555943158 2.341805152e-38
0.0114212 0.04595336 -0.199707 0.01338784 -0.01296948 0.99539148 2.341805152e-38
-0.02174883333 0.02428183333 -0.201782 -0.428687 0.428734 0.7842276667 2.341805152e-38
-0.01104736833 0.0308197 -0.199707 0 0 1 2.341805152e-38
-0.0295105 0.005163195 -0.204712 -0.707463 -0.1272745 0.6776865 2.341805152e-38
-0.008500905769 0.03841108077 -0.2005712692 -0.2412251154 0.1850373077 0.896708 2.341805152e-38
0.0114212 0.04831544 -0.199707 0 0 1 2.341805152e-38
0.00850534375 0.0649871875 -0.203491 -0.460566875 0.16588375 0.620444125 2.341805152e-38
0.006458283333 0.04831544 -0.199707 0 0 1 2.341805152e-38
-0.001085790117 0.05082123448 -0.2022873448 -0.3063794828 0.3486259655 0.8540812069 2.341805152e-38
0.001522557 0.04333285517 -0.199808069 -0.2153622414 0.04121937931 0.9071809655 2.341805152e-38
-0.01546095 0.03271993333 -0.200684 -0.3468145 0.346488 0.8306156667 2.341805152e-38
-0.02818517143 0.0008998230143 -0.2036652857 -0.4679307857 0.2039917143 0.8025267143 2.341805152e-38
-0.0087242125 0.003399278 -0.200684 0.19278795 0 0.90916275 2.341805152e-38
-0.004016238889 0.04612731667 -0.201782 -0.2232108889 0.1683518889 0.8875457778 2.341805152e-38
-0.001680391733 0.04864705333 -0.201782 -0.3135612667 0.3109181333 0.8568494667 2.341805152e-38
-0.0037612148 0.0182788 -0.2023682 0.313207 -0.1981964 0.8520508 2.341805152e-38
0.01963805 0.0304184 -0.211792 0.480252 -0.6762655 0.5402205 2.341805152e-38
-0.01109593667 0.01337813333 -0.2005863 0.1896372667 0.08062876667 0.9008818 2.341805152e-38
0.02151161071 0.04577854643 -0.2024798571 0.3136298929 -0.2674562857 0.8474083571 2.341805152e-38
-0.001116340939 0.02834023056 -0.2005483056 0.1373251111 -0.1806406111 0.8948383611 2.341805152e-38
0.00731277 0.0646973 -0.203735 -0.426136 0.449219 0.785245 2.341805152e-38
0.0271606 0.03744505 -0.211792 0.7827885 -0.1808865 0.5636535 2.341805152e-38
0.00894409 0.063298344 -0.20279788 -0.3960794 0.25181796 0.82950608 2.341805152e-38
0.0112540087 0.06327753043 -0.2019094348 -0.2792444348 0.1671545652 0.8479324783 2.341805152e-38
0.006621495714 0.06301445 -0.203735 -0.3734740714 0.3655205 0.8232925714 2.341805152e-38
0.0124359 0.06281536667 -0.200684 -0.785506 0.1227623333 0.578625 2.341805152e-38
0.006458283333 0.04074706 -0.199707 0 0 1 2.341805152e-38
-0.01104736833 0.02585603333 -0.199707 0 0 1 2.341805152e-38
-0.0247803 0.01345062 -0.201782 -0.6668262 0.0983066 0.706354 2.341805152e-38
-0.01105906833 0.03321330667 -0.1999024 -0.1241765333 0.2125506 0.9130156667 2.341805152e-38
0.009056084 0.04074706 -0.199707 0.0468412 -0.04618348 0.97843368 2.341805152e-38
-0.02464078571 -0.01883154286 -0.201782 -0.5357541429 0.1214181429 0.7597564286 2.341805152e-38
0.02164741579 0.04066386842 -0.2050202105 0.5053524737 -0.4696071579 0.7100490526 2.341805152e-38
-0.00234032 -0.0168152 -0.203735 0.7153022 0 0.6988146 2.341805152e-38
0.01216973333 0.06066553333 -0.200684 -0.4353978889 0.1780255556 0.7938255556 2.341805152e-38
0.01624235 0.06072360833 -0.2005211667 -0.1210327083 0.121922875 0.9212507083 2.341805152e-38
0.0062939325 0.0607363375 -0.2027995833 -0.3532292083 0.3443983333 0.824565 2.341805152e-38
-0.0037137616 0.038392344 -0.19974608 -0.04331432 0.1504278 0.94450796 2.341805152e-38
0.008916851667 0.06081136667 -0.2019448333 -0.1314676333 0.1726008 0.9315955 2.341805152e-38
0.0180511 0.05992125 -0.199707 0 0 1 2.341805152e-38
-0.004776 0.0519714 -0.204712 -0.434858 0.445379 0.782646 2.341805152e-38
0.006458283333 0.04595336 -0.199707 0 0 1 2.341805152e-38
-0.003352226667 0.04314574667 -0.200684 -0.2259922667 0.1481056 0.8663859333 2.341805152e-38
0.001515120033 0.02339021 -0.2030192333 0.2810753667 -0.3076538667 0.8408595667 2.341805152e-38
-0.00162756225 0.00104501308 -0.2052 0.7216776 0 0.6918448 2.341805152e-38
0.0021939275 0.0205021 -0.204712 0.4815825 -0.392209875 0.7518705 2.341805152e-38
7.31945e-05 -0.01167908 -0.206787 0.7468238 0 0.6650224 2.341805152e-38
-0.01364898 -0.01412202 -0.199707 0 0 1 2.341805152e-38
0.02161362353 0.03803747059 -0.2072467059 0.559151 -0.5595161176 0.6000702941 2.341805152e-38
0.006549622778 0.01844363333 -0.210266 0.4934111667 -0.5250281111 0.6125001111 2.341805152e-38
-0.004016367333 0.02329407333 -0.2006188667 0.3645691333 -0.2152434 0.758773 2.341805152e-38
0.01159198462 0.05817355385 -0.200684 -0.1027891538 0.06820815385 0.9435102692 2.341805152e-38
0.01382683103 0.05836014138 -0.200684 -0.03637948276 0.0567837931 0.9782045172 2.341805152e-38
0.01893267727 0.05813598636 -0.199707 0 0 1 2.341805152e-38
-0.01104736833 0.02845764 -0.199707 0 0 1 2.341805152e-38
0.0196991 0.0323486 -0.209717 0.357757 -0.657067 0.6178835 2.341805152e-38
0.00248528 0.059906 -0.203735 0 0 1 2.341805152e-38
0.006350431818 0.05826360455 -0.2018708182 -0.2190904091 0.1475819545 0.8959105 2.341805152e-38
0.0087293984 0.058502196 -0.201782 -0.13935576 0.16011316 0.91687352 2.341805152e-38
0.001826696 0.05807495714 -0.2034561429 -0.5262746429 0.3212685 0.6362525 2.341805152e-38
-0.02413856667 -0.01434368889 -0.201782 -0.197867 0.01183822222 0.9072828333 2.341805152e-38
0.009770178 0.05741578 -0.200684 -0.4113592 0.3876556 0.7483692 2.341805152e-38
-0.003512857 0.020500165 -0.20183085 0.3578454 -0.31840315 0.8171069 2.341805152e-38
0.000557423 0.0587463 -0.204712 0 0.788024 0.615644 2.341805152e-38
-0.0061522 0.005680628095 -0.2022007143 0.3501124286 -0.02114885714 0.7822458095 2.341805152e-38
0.01381787727 0.05577642727 -0.2001066818 -0.3122340909 0.2121204091 0.8589396364 2.341805152e-38
0.01639556667 0.0559021 -0.199707 -0.009384366667 0.03023283333 0.9900694 2.341805152e-38
0.01899718 0.0559021 -0.199707 0 0 1 2.341805152e-38
0.021322636 0.055717768 -0.19986332 0.11566172 -0.2041246 0.87177964 2.341805152e-38
-0.0001692177 0.0574951 -0.203735 0 0.552532 0.8300495 2.341805152e-38
0.003943943333 0.05587623333 -0.2020611429 -0.2668067619 0.2659666667 0.8852644762 2.341805152e-38
0.006081432105 0.05618285263 -0.201782 -0.1829415263 0.2171731053 0.9041681053 2.341805152e-38
0.00771713 0.0569458 -0.201782 -0.470964 0.490587 0.733156 2.341805152e-38
0.008908233103 0.05566826897 -0.200684 -0.06609482759 0.08923017241 0.9616275517 2.341805152e-38
0.01148224 0.05570068 -0.200684 -0.01176564 0.01139796 0.99649188 2.341805152e-38
0.00147364575 0.05589804167 -0.2030436667 -0.288076875 0.2146638333 0.85823575 2.341805152e-38
-0.00138187 0.0568237 -0.204712 0 0 0 2.341805152e-38
-0.003712846 0.03578185 -0.199707 0 0 1 2.341805152e-38
0.0138221069 0.05325317586 -0.199707 -0.08708644828 0.03580103448 0.9626984138 2.341805152e-38
0.01639556667 0.05329386667 -0.199707 0 0 1 2.341805152e-38
0.02139112963 0.05336733333 -0.2004668889 0.1630732222 -0.1233315926 0.8966658519 2.341805152e-38
0.001543505577 0.05327781154 -0.2021953462 -0.2976978846 0.2157629231 0.8723827308 2.341805152e-38
0.003655337 0.05368346 -0.201782 -0.2381881 0.1823105 0.86892525 2.341805152e-38
0.008899814483 0.05330578966 -0.2005155517 -0.02543441379 0.2411445517 0.9133878276 2.341805152e-38
0.0232455 0.05328115 -0.200684 0.1055283333 -0.161281 0.923943 2.341805152e-38
-0.006080626 0.03578185 -0.199707 0 0 1 2.341805152e-38
0.02867999524 0.04345122381 -0.2085540952 0.4470257143 -0.4527775714 0.7201561429 2.341805152e-38
-0.00282288 0.0545959 -0.203735 -0.5547 0 0.83205 2.341805152e-38
0.01120911 0.02073974 -0.211792 0.3074954 -0.2282699 0.8404712 2.341805152e-38
-0.01393357 0.036100775 -0.20183085 -0.192989 0.3262278 0.8614554 2.341805152e-38
-0.013657832 0.030838012 -0.19982424 -0.17640752 0.148418 0.92483272 2.341805152e-38
-0.0171204 0.0318451 -0.201782 -0.598516 0.24676 0.7092085 2.341805152e-38
-0.008554730714 -0.00923374 -0.200684 0.261523 0.004002892857 0.8749387857 2.341805152e-38
0.001448677381 0.0458127 -0.2003583333 -0.2301138095 0.2500806667 0.8553888571 2.341805152e-38
-0.004453021111 0.05352443333 -0.204712 -0.4449537778 0.1986034444 0.779661 2.341805152e-38
-0.003337480667 0.05302734667 -0.203735 -0.2567849333 0.1634612 0.8959319333 2.341805152e-38
-0.006256104615 -0.02924288077 -0.200684 0.2437574231 0.04960311538 0.8841715385 2.341805152e-38
0.023960125 0.052276575 -0.201782 0.4329705 -0.328435 0.740906 2.341805152e-38
0.01075746 0.02164002 -0.210815 0.4572602 -0.3225668 0.793796 2.341805152e-38
0.009056084 0.0506836 -0.199707 0 0 1 2.341805152e-38
0.01378938 0.0506836 -0.199707 0 0 1 2.341805152e-38
0.01639556667 0.0506836 -0.199707 0.01117916667 -0.0108298 0.9961429667 2.341805152e-38
0.01905944 0.050858156 -0.20037136 0.28722984 -0.12373224 0.86828328 2.341805152e-38
0.02135813636 0.05104758182 -0.200684 0.1384856364 -0.1380975455 0.9263868182 2.341805152e-38
0.0228882 0.051651 -0.200684 0.6279205 -0.278404 0.6646125 2.341805152e-38
-0.003712846 0.03317872 -0.199707 0 0 1 2.341805152e-38
-0.00468445 -0.030838 -0.200684 0.665958 0.671329 0.325296 2.341805152e-38
-0.0013849718 -0.004303894 -0.2052976 0.58022184 -0.03142724 0.7507934 2.341805152e-38
-0.003772736 -0.019150984 -0.2029542 0.43129188 0 0.8171118 2.341805152e-38
-0.0230519 0.02090314545 -0.200684 -0.3418380909 0.146294 0.8482345455 2.341805152e-38
0.001157328545 0.05123902727 -0.201782 -0.3528979091 0.4146950909 0.8151011818 2.341805152e-38
-0.00635314 0.0511779875 -0.204712 -0.203091 0.1971015625 0.90266375 2.341805152e-38
-0.003783226 0.05081635 -0.2034422 -0.361304 0.327334 0.8483234 2.341805152e-38
0.001919324444 0.05036078889 -0.200684 -0.2301392222 0.3070676667 0.857725 2.341805152e-38
0.0257939 0.05027987143 -0.2022007143 0.07322957143 -0.3822508571 0.820398 2.341805152e-38
-0.003780092143 0.01340649286 -0.2033864286 0.4096641786 -0.12753625 0.8197074286 2.341805152e-38
-0.005650657143 0.05012297143 -0.203735 -0.3073694286 0.2949501429 0.8418061429 2.341805152e-38
0.01347777778 0.03378974444 -0.203735 0.4271531111 -0.2717873333 0.8040196667 2.341805152e-38
-0.0078481 0.05018106667 -0.204712 0 0 1 2.341805152e-38
0.0038578804 0.048365484 -0.1999024 -0.26884544 0.04760356 0.88858896 2.341805152e-38
0.009056084 0.04831544 -0.199707 0 0 1 2.341805152e-38
0.01382858462 0.04827060385 -0.1997445769 0.06512073077 -0.06544630769 0.9660928846 2.341805152e-38
0.00389642 0.03596730385 -0.1999324615 0.1552395769 -0.1131560385 0.9113526154 2.341805152e-38
0.0187907125 0.048388475 -0.200684 0.131352 -0.1831105937 0.9051122188 2.341805152e-38
-0.00372218875 0.04841994583 -0.2023112083 -0.3278513333 0.323062375 0.838409 2.341805152e-38
-0.01860808333 0.0007802748167 -0.199707 0 0 1 2.341805152e-38
0.02394467143 0.04323614762 -0.2050373333 0.523326381 -0.437579619 0.6991376667 2.341805152e-38
0.02307385 0.04413856667 -0.203735 0.4079593333 -0.4076996667 0.7989118333 2.341805152e-38
0.00392119 0.03317769444 -0.2003040556 0.1513346111 -0.03366905556 0.9249256667 2.341805152e-38
-0.0280304 -0.01666730769 -0.203735 -0.5213035385 0.1212009231 0.7732578462 2.341805152e-38
-0.0005628582333 0.04777426 -0.200684 -0.2450346 0.2446744667 0.882721 2.341805152e-38
0.021717524 0.048183592 -0.20189924 0.24727844 -0.21786912 0.8765754 2.341805152e-38
0.02646536 0.04836221667 -0.2032144667 0.2183369667 -0.3400679333 0.8153284333 2.341805152e-38
0.0157074 0.03635256 -0.203735 0.4672042 -0.3249738 0.7837662 2.341805152e-38
-0.00720215 0.04953 -0.204712 -0.44183 0.438378 0.782695 2.341805152e-38
-0.006189596522 0.04822307391 -0.2033106522 -0.3662517391 0.3886218261 0.8076730435 2.341805152e-38
-0.01600954 0.02088928 -0.199707 0 0 1 2.341805152e-38
0.003854752 0.04335021667 -0.199707 0 0 1 2.341805152e-38
-0.007842254 0.04775392 -0.203735 -0.430551 0.2904358 0.8212406 2.341805152e-38
-0.006145478 -0.00184133648 -0.2019774 0.442874 0 0.8043922 2.341805152e-38
0.013975212 0.038415524 -0.20240728 0.31395948 -0.23305176 0.85020976 2.341805152e-38
-0.00377922 -0.004262314 -0.2033446 0.43084248 0 0.8175792 2.341805152e-38
0.003854752 0.04595336 -0.199707 -0.0993652 0.04149172 0.95872748 2.341805152e-38
0.01379526897 0.04580267931 -0.2002460345 0.2694864138 -0.2219421379 0.8645043103 2.341805152e-38
-0.01073075 0.04749553333 -0.205688 -0.2665238333 0.1356028333 0.875507 2.341805152e-38
-0.001117545717 0.04570924 -0.200684 -0.03743363333 0.0369742 0.9840181 2.341805152e-38
0.01615309565 0.04577106957 -0.200684 0.1249710435 -0.093653 0.9373113913 2.341805152e-38
0.01905653704 0.0458520963 -0.201782 0.1544035556 -0.1858957778 0.9045334074 2.341805152e-38
0.01677495455 0.03301724545 -0.2068758182 0.5723398182 -0.4636465455 0.6540153636 2.341805152e-38
0.0279541 0.0471191 -0.204712 0.2994835 -0.1450625 0.8731845 2.341805152e-38
-0.01281993333 0.04676306667 -0.206787 -0.3636366667 0.6409866667 0.6091426667 2.341805152e-38
-0.0121689 0.0470886 -0.206787 -0.345834 0.691669 0.634029 2.341805152e-38
0.02637081905 0.04565575714 -0.2050373333 0.3639665238 -0.5763506667 0.6761288571 2.341805152e-38
-0.0234604 0.013385 -0.200684 -0.2601031 0.0145768 0.89485 2.341805152e-38
-0.01600954 -0.01931762 -0.199707 0 0 1 2.341805152e-38
0.002325438 0.01760254 -0.206787 0.6465768 -0.406982 0.6029076 2.341805152e-38
-0.008521739615 -0.01662063846 -0.2006464231 0.08172838462 0.04086419231 0.9522110385 2.341805152e-38
0.006458283333 0.04335021667 -0.199707 0 0 1 2.341805152e-38
0.0114385 0.04340819667 -0.1999675333 0.241428 -0.1553093333 0.8627045333 2.341805152e-38
-0.001182962112 0.02087088529 -0.2026152353 0.3269104412 -0.2870125294 0.8233562941 2.341805152e-38
-0.006179967917 0.043588 -0.201782 -0.074704625 0.1911735417 0.922317625 2.341805152e-38
0.01385956 0.04333496 -0.200684 0.09001836 -0.0964198 0.941551 2.341805152e-38
0.0155849375 0.0437507625 -0.200684 0.382581375 -0.2902 0.792623125 2.341805152e-38
0.01874949333 0.04341634667 -0.2022705 0.2658225 -0.2653387333 0.8647423333 2.341805152e-38
0.02464803333 0.04484046667 -0.204712 0.504653 -0.4993793333 0.7042276667 2.341805152e-38
0.02860587143 0.04501777143 -0.2072057143 0.4788614286 -0.5898888571 0.5785132857 2.341805152e-38
-0.0085473628 0.043166508 -0.20221184 -0.35917916 0.3565714 0.83284636 2.341805152e-38
0.0212488 0.043388668 -0.20322748 0.37247452 -0.32242012 0.80228412 2.341805152e-38
0.02733356667 0.04480996667 -0.206787 0.5270256667 -0.5270256667 0.6665066667 2.341805152e-38
-0.01860808333 -0.02405092 -0.199707 0 0 1 2.341805152e-38
0.003240585 0.0195618 -0.205688 0.3595925 -0.683674 0.5867675 2.341805152e-38
0.0232413 0.04147338571 -0.2055485714 0.606748 -0.5174498571 0.5753487143 2.341805152e-38
-0.00234032 -0.00933648 -0.203735 0.72496625 0.09452475 0.65834075 2.341805152e-38
-0.0118103 0.0441895 -0.204712 -0.4993305 0.357178 0.7833595 2.341805152e-38
0.02573901667 0.04409281667 -0.205688 0.5212508333 -0.5226346667 0.6744221667 2.341805152e-38
-0.01600954 0.02325438 -0.199707 0 0 1 2.341805152e-38
0.01836502857 0.03638567143 -0.2055485714 0.5190072857 -0.5190072857 0.6788037143 2.341805152e-38
0.02662877619 0.04314168571 -0.2072521905 0.5309384286 -0.5023412381 0.6735316667 2.341805152e-38
0.0302429 0.0445862 -0.20874 0.381714 -0.787286 0.484226 2.341805152e-38
-0.00515747 0.0423889 -0.200684 -0.481828 0.483771 0.730621 2.341805152e-38
0.03048092 0.04359128 -0.209717 0.4100094 -0.1704454 0.571378 2.341805152e-38
0.01318031429 0.04142978571 -0.200684 0.4381021429 -0.33346 0.7619671429 2.341805152e-38
0.0146446 0.0421143 -0.201782 0.273851 -0.6776625 0.6075435 2.341805152e-38
-0.02125854 0.01832223667 -0.2000978 -0.2688592 0.0038745 0.8902704 2.341805152e-38
0.00155315292 -0.0068244936 -0.20799816 0.47899732 -0.01204172 0.77870808 2.341805152e-38
-0.01364898 -0.009155268333 -0.199707 0 0 1 2.341805152e-38
-0.01335969583 0.04091899167 -0.203125 -0.2922739583 0.2475709583 0.8362284583 2.341805152e-38
-0.00111199329 0.03084004333 -0.1998372667 0.1558337667 -0.1106675 0.9137180667 2.341805152e-38
-0.01092371042 0.04073334583 -0.2022297917 -0.30857725 0.2809188333 0.8462075833 2.341805152e-38
0.01409148571 0.04057530952 -0.2018285238 0.2567904762 -0.2639519048 0.8492249048 2.341805152e-38
0.0164067 0.04075506154 -0.2024207692 0.307115 -0.3372220385 0.8284795769 2.341805152e-38
0.01881198276 0.04078937241 -0.2032638276 0.294263 -0.3488911379 0.8292508276 2.341805152e-38
0.02071635556 0.04151406667 -0.203735 0.4380083333 -0.3641788889 0.7911402222 2.341805152e-38
-0.01364898 -0.02168274 -0.199707 0 0 1 2.341805152e-38
-0.02085875 0.030538175 -0.2022705 -0.3667564 0.3242526 0.8102915 2.341805152e-38
0.02411820556 0.04063584444 -0.2072211667 0.5421779444 -0.5064658889 0.6567418889 2.341805152e-38
0.027771 0.0415955 -0.20874 0.493169 -0.493169 0.716637 2.341805152e-38
0.02858323846 0.04100388462 -0.209717 0.1551253077 -0.1532581538 0.8501752308 2.341805152e-38
0.003854752 0.03838502 -0.199707 0 0 1 2.341805152e-38
0.006393553125 0.03830434375 -0.1999817812 0.1589175625 -0.2328126562 0.8812006563 2.341805152e-38
0.01100628462 0.03883480769 -0.200684 0.3298508462 -0.2721054615 0.8258363077 2.341805152e-38
0.0124969 0.0397339 -0.201782 0.549043 -0.536175 0.641146 2.341805152e-38
-0.01600954 0.02585603333 -0.199707 -0.0553687 0.0096777 0.9789406667 2.341805152e-38
-0.013748772 0.038457024 -0.20260268 -0.25948332 0.25738212 0.87207576 2.341805152e-38
0.027005 0.04021604 -0.209717 0.5085398 -0.5121976 0.6868408 2.341805152e-38
0.0015472185 0.025864925 -0.20202625 0.3302874167 -0.330612 0.8326266667 2.341805152e-38
-0.016271205 0.03828279 -0.2029542 -0.09623335 0.2933726 0.881911 2.341805152e-38
0.02101592 0.03904114 -0.2055904 0.5171669 -0.5171787 0.6816845 2.341805152e-38
0.0225983 0.0397339 -0.206787 0.605879 -0.605879 0.515579 2.341805152e-38
0.001410623583 0.018423075 -0.2052406667 0.565587625 -0.4294018333 0.67286 2.341805152e-38
0.02443086 0.03784791 -0.2098268 0.5065289 -0.5033699 0.6996677 2.341805152e-38
0.00255775 0.013240825 -0.209717 0.6456835 -0.12278275 0.7175145 2.341805152e-38
-0.002202717143 -0.02426362857 -0.203735 0.4947747143 0.09427328571 0.7714818571 2.341805152e-38
0.01875250357 0.0334309 -0.2081124643 0.4713272143 -0.4752283214 0.72273175 2.341805152e-38
-0.01858225769 0.03580651154 -0.202759 -0.06532019231 0.039094 0.9745817692 2.341805152e-38
-0.01196898 0.03666992 -0.201782 -0.2572414 0.396056 0.814295 2.341805152e-38
-0.0109384212 0.035565172 -0.20064492 -0.19837852 0.22514212 0.9008516 2.341805152e-38
0.008312736 0.03604327333 -0.200684 0.2751442667 -0.2744321333 0.8447356667 2.341805152e-38
0.009467055333 0.03558146 -0.201782 0.2748166667 -0.2742957333 0.8449884 2.341805152e-38
-0.0299988 -0.0147171 -0.204712 0 0 1 2.341805152e-38
0.01160062069 0.03578975862 -0.2022536552 0.3120972414 -0.2413158621 0.8516735862 2.341805152e-38
0.01400204483 0.03597601724 -0.2032638276 0.3538306552 -0.3376455517 0.8055588966 2.341805152e-38
0.01903584667 0.03555298 -0.2071126667 0.578139 -0.4525841333 0.6374539333 2.341805152e-38
0.021112672 0.035931388 -0.20831052 0.47690868 -0.39682752 0.74480948 2.341805152e-38
0.02580772222 0.03628877778 -0.210815 0.1255597778 -0.079224 0.9585573333 2.341805152e-38
-0.001858133286 0.01616559286 -0.203735 0.4589813571 -0.2560028571 0.7919715 2.341805152e-38
0.0266571 0.0366821 -0.211792 0.58811 -0.570812 0.572975 2.341805152e-38
0.00366317 0.0312856 -0.200684 0.3196295556 -0.29727 0.764155 2.341805152e-38
-0.01364898 -0.0309219 -0.199707 0 0 1 2.341805152e-38
-0.01861223636 0.03336681818 -0.2023149091 -0.3069503182 0.2392251818 0.8343030455 2.341805152e-38
-0.01637267368 0.03372193684 -0.201782 -0.2213775789 0.1826106842 0.9003118421 2.341805152e-38
0.0039018236 0.028310572 -0.20209464 0.32529644 -0.26930868 0.83956184 2.341805152e-38
-0.001111965483 0.03317872 -0.199707 0 0 1 2.341805152e-38
0.005988227778 0.03353374444 -0.200684 0.2408982222 -0.1995405556 0.8713685556 2.341805152e-38
0.008821231 0.03344422667 -0.2019122667 0.2029339333 -0.2303985667 0.8767553667 2.341805152e-38
0.01139017667 0.03326314333 -0.2030517667 0.3785684 -0.3574232 0.8134542333 2.341805152e-38
0.022304525 0.0352173 -0.209717 0.48593225 -0.3240785 0.7715885 2.341805152e-38
-0.02049379167 0.03311919167 -0.202759 -0.023021 0.02455575 0.9928998333 2.341805152e-38
0.006966184286 0.03304182857 -0.201782 0.438457 -0.3304181429 0.7626065714 2.341805152e-38
-0.005396098889 -0.02658078889 -0.201782 0.4107091111 0.07744955556 0.7916338889 2.341805152e-38
0.02067313333 0.03385416667 -0.20874 0.3976846667 -0.3992528333 0.8098011667 2.341805152e-38
-0.01600954 0.01828765 -0.199707 0 0 1 2.341805152e-38
-0.01865602 0.03097778 -0.201782 -0.20584356 0.14909668 0.91167256 2.341805152e-38
-0.01600911304 0.03090434348 -0.2006415217 -0.241856087 0.1800381304 0.8951793478 2.341805152e-38
-0.006080626 0.0308197 -0.199707 0 0 1 2.341805152e-38
0.00530243 0.0319214 -0.200684 0.539596 -0.546123 0.64077 2.341805152e-38
0.00504303 0.01770785 -0.209717 0.6392375 -0.3506685 0.651732 2.341805152e-38
0.01621784444 0.0309357963 -0.2077275556 0.5058725185 -0.4846986296 0.6598596667 2.341805152e-38
0.01803586667 0.03154503333 -0.20874 0.6358236667 -0.196456 0.6707003333 2.341805152e-38
0.01151547143 0.03024183571 -0.2049211429 0.4319390714 -0.5427788571 0.6919438571 2.341805152e-38
0.01433373333 0.0303116 -0.20703125 0.4938646667 -0.5488616667 0.6598155833 2.341805152e-38
0.0193367 0.031085975 -0.2103575 0.5270274167 -0.56019575 0.5442879167 2.341805152e-38
0.0205383 0.03151956667 -0.210815 0.4219396667 -0.4999846667 0.6729833333 2.341805152e-38
-0.01364898 0.02845764 -0.199707 0 0 1 2.341805152e-38
-0.0061433412 -0.0090106208 -0.20189924 0.32662532 0.03989712 0.8475596 2.341805152e-38
-0.006080626 0.02845764 -0.199707 0 0 1 2.341805152e-38
0.001247952857 0.02864365714 -0.200684 0.2229568571 -0.1865165714 0.8840182381 2.341805152e-38
0.00292397 0.0295563 -0.200684 0.539775 -0.544128 0.642313 2.341805152e-38
-0.01939775 0.028862025 -0.201782 -0.50238375 0.32062075 0.760653 2.341805152e-38
0.006358441724 0.02825244138 -0.2030955517 0.3048185172 -0.3055713448 0.8520644483 2.341805152e-38
0.004438782 0.02287444 -0.2048096 0.5032612 -0.5040666 0.7018805 2.341805152e-38
-0.0299988 -0.0164139 -0.204712 0 0 1 2.341805152e-38
0.01094717333 0.02863363333 -0.2054928 0.5147155333 -0.5128349333 0.6866243333 2.341805152e-38
0.013709096 0.028424688 -0.20795896 0.4969752 -0.5198812 0.65807128 2.341805152e-38
0.0169678 0.029892 -0.209717 0.740255 -0.358912 0.568511 2.341805152e-38
-0.0277176 0.02138515 -0.2022705 -0.3401455 0.5997425 0.5833735 2.341805152e-38
0.01188151667 0.02785618333 -0.20703125 0.5354413333 -0.5351691667 0.6489634167 2.341805152e-38
0.01573306667 0.02891796667 -0.20874 0.3785718333 -0.5033456667 0.7393566667 2.341805152e-38
0.01665327778 0.02814654444 -0.209961 0.4381199444 -0.4194527222 0.7163442222 2.341805152e-38
0.01826037143 0.02817427143 -0.210815 0.1800898571 -0.05447671429 0.9026288571 2.341805152e-38
-0.008445738 0.02585603333 -0.199707 0 0 1 2.341805152e-38
-0.003899074762 0.0260504 -0.2000791905 0.3341067619 -0.06243352381 0.8310025714 2.341805152e-38
0.008783264 0.023500364 -0.207998 0.523632 -0.5243782 0.66486876 2.341805152e-38
0.004591197778 0.02021788889 -0.2068955556 0.5972476667 -0.4597853333 0.6267962222 2.341805152e-38
-0.02524238571 0.02641517143 -0.202759 0 0 0.8571428571 2.341805152e-38
-0.02016027778 0.02548048889 -0.200684 -0.3930202222 0.231551 0.8174367778 2.341805152e-38
-0.018443584 0.025710464 -0.20041044 -0.26188656 0.18021688 0.88935812 2.341805152e-38
0.000546455 0.0267029 -0.200684 0.539458 -0.543537 0.64308 2.341805152e-38
0.005779265 0.02608106667 -0.2036536667 0.4414455 -0.3831959167 0.782788 2.341805152e-38
0.0148112 0.02756756667 -0.209717 0.4256303333 -0.4284723333 0.7815733333 2.341805152e-38
-0.023517456 0.023507716 -0.20182108 -0.23307588 0.2213992 0.8846068 2.341805152e-38
0.006800242143 0.02552469286 -0.2049211429 0.5250022143 -0.4829689286 0.6919177857 2.341805152e-38
0.008588315625 0.0262022 -0.205444 0.46846725 -0.50584925 0.6628859375 2.341805152e-38
-0.0004594727556 0.02528888889 -0.201782 0.2589786667 -0.3477781111 0.806542 2.341805152e-38
0.0140918619 0.02590217143 -0.2102921429 0.3397488571 -0.5579045238 0.685412 2.341805152e-38
0.01641161579 0.02629009474 -0.2107572105 0.09937805263 -0.2098179474 0.8781525263 2.341805152e-38
-0.01848855926 0.02321538889 -0.1998155556 -0.1777885556 0.1271454815 0.9237532593 2.341805152e-38
-0.01364898 0.02325438 -0.199707 0 0 1 2.341805152e-38
-0.008445738 0.02325438 -0.199707 0 0 1 2.341805152e-38
0.006063938125 0.02367400625 -0.205383 0.57691525 -0.4637033125 0.646786375 2.341805152e-38
0.01062266667 0.02413943333 -0.20874 0.4947993333 -0.492301 0.716099 2.341805152e-38
0.01153644211 0.02349612632 -0.2104104737 0.5349462632 -0.5358057368 0.6430515789 2.341805152e-38
0.01322173333 0.02436826667 -0.210815 0.4947116667 -0.4921203333 0.7161433333 2.341805152e-38
-0.0277863 0.02263896667 -0.202759 -0.146215 0.1509316667 0.9254173333 2.341805152e-38
-0.006616974 0.01867573333 -0.200684 0.3311005333 -0.1783567333 0.8309854 2.341805152e-38
0.014078775 0.02369309167 -0.211792 0.1715344167 -0.1718461667 0.9154740833 2.341805152e-38
0.015625 0.0241547 -0.211792 0 0 1 2.341805152e-38
0.003287315 -0.0224228 -0.20874 0.13500825 0.0672445 0.9493765 2.341805152e-38
-0.0227509 0.0224152 -0.200684 -0.483865 0.483865 0.729211 2.341805152e-38
-0.02606332609 0.02078112174 -0.201782 -0.07546256522 0.1342906522 0.9359827826 2.341805152e-38
-0.021288444 0.020958244 -0.20037136 -0.27043728 0.10831468 0.88786088 2.341805152e-38
-0.01860808333 0.02088928 -0.199707 -0.009717866667 0.009717866667 0.9970350333 2.341805152e-38
0.009844483333 0.02259826667 -0.209717 0.5985353333 -0.5924336667 0.5391976667 2.341805152e-38
0.012113575 0.02251815 -0.211792 0.52280125 -0.52424 0.63653525 2.341805152e-38
0.003758581053 0.02118241579 -0.2052256842 0.5275132632 -0.4269755789 0.6882835789 2.341805152e-38
0.006369676364 0.02088304091 -0.2080744091 0.5811674545 -0.4716981364 0.6310470455 2.341805152e-38
0.008145653333 0.02166746667 -0.20874 0.4925013333 -0.4912723333 0.7183793333 2.341805152e-38
0.009108396667 0.02091399524 -0.2102398571 0.5322679048 -0.4358540952 0.6995520952 2.341805152e-38
-0.0110511825 -0.01672448611 -0.1997884167 0.1529145 0.05618347222 0.9209424722 2.341805152e-38
-0.02453615 0.003416442 -0.201782 -0.3558904 0 0.8512007 2.341805152e-38
-0.01860808333 0.01828765 -0.199707 0 0 1 2.341805152e-38
-0.01364898 0.01828765 -0.199707 0 0 1 2.341805152e-38
-0.01104736833 0.01828765 -0.199707 0.03212322222 -0.03212322222 0.9852038333 2.341805152e-38
-0.02600738947 0.01805195789 -0.201782 0 0 1 2.341805152e-38
-0.02453615 0.01822816 -0.201782 -0.3560156 0 0.8510731 2.341805152e-38
-0.005662098571 0.01805769286 -0.201782 0.3220079286 -0.2138983571 0.8372505 2.341805152e-38
-0.001246632267 0.01845805556 -0.2033373704 0.4054607037 -0.2731786296 0.8093695926 2.341805152e-38
0.006006876667 0.01919556667 -0.20874 0.2925176667 -0.693265 0.6004546667 2.341805152e-38
0.00911330625 0.0184650375 -0.21203625 0.35137525 -0.396102 0.56846925 2.341805152e-38
-8.916853333e-05 0.01769506667 -0.204712 0.503609 -0.5020033333 0.7031033333 2.341805152e-38
-0.02616880833 0.015820475 -0.201782 -0.07943416667 -0.01489866667 0.9665897917 2.341805152e-38
-0.02456327778 0.01594625556 -0.201782 -0.4056045556 0.09041733333 0.8251216667 2.341805152e-38
-0.023283025 0.0157013125 -0.200684 -0.229917 0.0505376875 0.9001559375 2.341805152e-38
-0.021267084 0.015722056 -0.20017596 -0.2752414 0.06546744 0.88338312 2.341805152e-38
-0.01860808333 0.01568604 -0.199707 0 0 1 2.341805152e-38
-0.01600954 0.01568604 -0.199707 0 0 1 2.341805152e-38
-0.01364898 0.01568604 -0.199707 0.10183396 -0.01287732 0.95615396 2.341805152e-38
-0.007061 0.0167084 -0.200684 0.542652 -0.538345 0.644758 2.341805152e-38
-0.0037717432 0.015928028 -0.20287612 0.28294532 -0.1970352 0.86609144 2.341805152e-38
-0.0005972719048 0.0156355381 -0.2049908571 0.6054881905 -0.3178459524 0.6814198571 2.341805152e-38
0.0070981975 0.017246275 -0.211792 0.53370675 -0.53786975 0.61891775 2.341805152e-38
-0.0299988 -0.0273285 -0.204712 0 0 1 2.341805152e-38
0.0006819955 0.016273525 -0.205688 0.6668265 -0.36619925 0.610327 2.341805152e-38
0.001713253143 0.01568531429 -0.2075311905 0.6477906667 -0.421659 0.5791456667 2.341805152e-38
0.004334342778 0.01581360556 -0.210205 0.6169915 -0.4067975556 0.6265881667 2.341805152e-38
0.005732216667 0.01687623333 -0.210815 0.5956006667 -0.5945756667 0.540066 2.341805152e-38
-0.00757599 0.00914764 -0.201782 0.7771 0.38855 0.495121 2.341805152e-38
-0.02790455 0.015558225 -0.202759 -0.598589 -0.09019575 0.420818 2.341805152e-38
-0.007694245 0.0152435 -0.201782 0.54956525 -0.3552745 0.7011075 2.341805152e-38
0.00814056 0.0167084 -0.212769 0.58186 -0.58186 0.568223 2.341805152e-38
-0.02861171429 0.0132791381 -0.2029449048 -0.1080489524 -0.05871614286 0.9511852857 2.341805152e-38
-0.026241456 0.013466796 -0.20201648 -0.267947 -0.06065232 0.88464688 2.341805152e-38
-0.01860808333 0.01331634 -0.199707 0 0 1 2.341805152e-38
-0.01600954 0.01331634 -0.199707 0 0 1 2.341805152e-38
-0.01364898 0.01331634 -0.199707 0.05173228 0.01095804 0.97835408 2.341805152e-38
-0.00920105 0.013385 -0.200684 0.3670053 0.0295242 0.8301796 2.341805152e-38
-0.006151582 0.013478084 -0.2021728 0.2898298 0 0.87567784 2.341805152e-38
-0.00234032 0.01430895 -0.203735 0.6089125 -0.250582 0.701595 2.341805152e-38
-0.00283623 0.0121994 -0.204712 0.501115 -0.500128 0.706226 2.341805152e-38
-0.021296988 -0.02414612 -0.20044952 -0.28208428 0.06365844 0.88399724 2.341805152e-38
-0.001476830714 0.01321957143 -0.2051767619 0.6501105714 -0.2198378095 0.6766882857 2.341805152e-38
0.003656386875 0.013685225 -0.21040325 0.58998675 -0.156532125 0.6977284375 2.341805152e-38
0.00508881 0.0146255 -0.211792 0.37935 -0.755826 0.533686 2.341805152e-38
0.00458908 0.0136185 -0.211792 0.578945 -0.583399 0.569621 2.341805152e-38
7.31945e-05 -0.004333878 -0.206787 0.7469096 0 0.6649256 2.341805152e-38
-0.02624407586 0.01088319207 -0.2021525862 -0.3521546207 0.001522034483 0.8644964138 2.341805152e-38
-0.02366003333 0.010986325 -0.200684 -0.2997043333 0.0357685 0.8781536667 2.341805152e-38
-0.02120972 0.01094818 -0.199707 -0.13502348 0 0.94754196 2.341805152e-38
-0.01600954 0.01094818 -0.199707 0 0 1 2.341805152e-38
-0.01364898 0.01094818 -0.199707 0 0 1 2.341805152e-38
-0.01106211667 0.01096598333 -0.2000001 0.2202419333 0.1272070333 0.8752952333 2.341805152e-38
