# .PCD v0.7 - Point Cloud Data file format
VERSION 0.7
FIELDS x y z normal_x normal_y normal_z rgb
SIZE 4 4 4 4 4 4 4
TYPE F F F F F F F
COUNT 1 1 1 1 1 1 1
WIDTH 668
HEIGHT 1
VIEWPOINT 0 0 0 1 0 0 0
POINTS 668
DATA ascii
22.41114 0.9492365 33.04233 0.549869 -6.102021 -1.237295 2.350988562e-38
41.14649 70.48801 19.14117 3.964964 2.214171 -0.3113319 2.350988562e-38
2.831443 30.92757 74.27403 -3.173462 1.844326 2.485639 2.350988562e-38
38.92466 11.26235 40.28994 5.538091 -2.939844 -0.1258565 2.350988562e-38
13.21954 61.00358 1.397521 -1.7015 1.427894 -4.397018 2.350988562e-38
14.86975 40.36386 47.42349 -0.8696886 3.01364 0.4659931 2.350988562e-38
36.58783 61.02715 7.622406 3.620173 1.444832 -3.024934 2.350988562e-38
38.23277 71.67274 9.983299 3.298052 2.266045 -2.040817 2.350988562e-38
33.30832 8.906393 81.2 0.1471863 -0.1366253 3.286968 2.350988562e-38
24.82495 41.76414 40.75826 0.6609668 0.04235127 3.06842 2.350988562e-38
13.66422 4.935033 24.43125 -2.106165 -5.344801 -2.470083 2.350988562e-38
34.27308 35.97091 63.59056 3.028276 3.346757 1.707903 2.350988562e-38
12.66104 9.910181 16.97766 -2.410971 -4.564088 -3.532623 2.350988562e-38
35.88271 34.40976 56.65343 3.791 3.354468 1.181435 2.350988562e-38
6.028493 76.11703 6.09297 -2.508948 2.604604 -2.477954 2.350988562e-38
32.125 37.62194 53.43449 2.565959 3.725666 0.9602042 2.350988562e-38
0.6581253 15.59596 71.78493 -3.754498 -0.9263579 2.284317 2.350988562e-38
8.729749 3.786758 55.38511 -2.946917 -4.232985 0.9994558 2.350988562e-38
41.1715 62.08603 19.66965 4.632176 1.584088 -0.1670015 2.350988562e-38
37.61279 32.38822 39.35047 5.187935 3.4505 0.7210469 2.350988562e-38
38.76116 40.98442 30.29977 5.571617 0.09457902 2.890687 2.350988562e-38
15.66265 0.6887282 39.15386 -1.493983 -6.071022 -0.3537355 2.350988562e-38
40.52038 81.2 15.84521 2.9588 3.00468 -0.692551 2.350988562e-38
7.813375 46.25179 36.71005 -3.678341 0.463196 4.585735 2.350988562e-38
6.491842 76.70687 5.594717 -2.404377 2.650431 -2.522405 2.350988562e-38
29.07102 1.853538 61.75319 1.948249 -4.228735 1.488186 2.350988562e-38
0.9598596 64.9176 14.54963 -4.21652 1.764026 -1.281619 2.350988562e-38
22.82552 58.20648 41.06047 0.3103325 1.273786 3.118258 2.350988562e-38
12.248 47.92425 39.41623 -1.236101 0.5045137 2.883784 2.350988562e-38
38.52172 17.11469 81.2 1.030555 -0.247157 3.20139 2.350988562e-38
40.05127 28.62558 16.93622 5.919033 -0.9454559 -1.829779 2.350988562e-38
31.45346 4.642072 81.2 1.046181 -1.770477 3.10267 2.350988562e-38
18.508 81.2 1.204704 -0.1909474 3.08833 -2.186568 2.350988562e-38
0.4238261 16.54677 51.28266 -5.367255 -1.117722 0.7345916 2.350988562e-38
5.726162 34.83801 67.35238 -3.01496 2.952394 1.969306 2.350988562e-38
34.1803 47.23106 5.120809 3.789254 0.3731773 -4.390391 2.350988562e-38
26.73691 1.008259 39.9898 1.894214 -5.96035 -0.2517449 2.350988562e-38
28.91352 76.09839 39.40914 1.256712 2.613428 2.864984 2.350988562e-38
24.58208 0.4116152 71.29778 0.7215171 -3.839257 2.225571 2.350988562e-38
15.74741 39.41389 81.2 -0.4709955 2.066379 3.095688 2.350988562e-38
3.672742 13.84534 24.08559 -5.147094 -3.020791 -1.883639 2.350988562e-38
39.32723 29.13706 73.95699 3.379076 1.505417 2.460863 2.350988562e-38
4.294983 42.4415 8.027089 -4.96653 0.03532644 -3.676985 2.350988562e-38
1.510832 45.23507 12.87599 -5.500479 0.2538212 -2.295799 2.350988562e-38
11.67868 18.15611 9.594074 -2.709522 -3.321403 -4.552422 2.350988562e-38
24.11581 35.92774 0.6780899 1.068332 -0.7964088 -6.111958 2.350988562e-38
9.56723 71.78839 3.244601 -2.057063 2.267161 -3.275227 2.350988562e-38
12.79447 17.9363 9.127481 -2.370415 -3.399236 -4.685295 2.350988562e-38
35.78061 75.77283 6.748774 2.621523 2.577743 -2.396454 2.350988562e-38
13.91909 45.25574 1.127854 -1.971142 0.2017305 -5.618113 2.350988562e-38
39.87841 44.39757 13.34601 5.649765 0.198322 -2.092828 2.350988562e-38
37.15773 77.73131 32.78948 2.742247 2.74002 2.009486 2.350988562e-38
37.67941 32.10879 71.51756 3.248794 2.146105 2.278216 2.350988562e-38
0.9928666 14.29575 60.81997 -4.49519 -1.483508 1.446571 2.350988562e-38
2.628973 10.62288 52.04714 -4.738259 -2.631692 0.7787134 2.350988562e-38
10.29897 46.95313 38.42917 -2.309941 0.4560673 3.858557 2.350988562e-38
1.254159 34.68435 29.26342 -5.896862 1.006077 1.868448 2.350988562e-38
1.997758 62.54832 11.82082 -4.149501 1.574487 -1.972342 2.350988562e-38
7.905465 15.64503 14.75488 -3.857121 -3.42527 -3.540073 2.350988562e-38
21.75918 0.05234599 73.79814 0.1820271 -3.706771 2.419506 2.350988562e-38
31.45022 71.90189 38.07119 1.648639 2.298539 2.65964 2.350988562e-38
15.12009 36.86939 81.2 -0.02540561 0.111461 3.295544 2.350988562e-38
41.0165 57.24245 18.00507 4.967494 1.202029 -0.6937835 2.350988562e-38
39.47383 80.63658 28.75454 2.91048 2.953918 1.259379 2.350988562e-38
10.38627 52.24288 2.755732 -2.705572 0.7551216 -4.677404 2.350988562e-38
34.40703 35.8421 65.89291 2.924617 3.195212 1.876244 2.350988562e-38
23.51946 40.96568 41.30537 0.4593465 3.104617 0.008468824 2.350988562e-38
2.077114 11.59778 48.37512 -5.194931 -2.379386 0.5029964 2.350988562e-38
27.3799 81.2 1.351077 0.9946029 3.008301 -2.823022 2.350988562e-38
8.909209 47.70725 37.55901 -3.217397 0.2808745 4.768489 2.350988562e-38
2.237022 50.14124 11.28476 -4.990213 0.6293947 -2.480247 2.350988562e-38
1.524263 51.14074 12.84537 -5.069151 0.7040762 -2.122207 2.350988562e-38
11.81044 45.89364 39.22937 -1.341147 0.3518806 2.837223 2.350988562e-38
40.91237 53.9446 23.7653 5.214314 0.9659482 0.7770209 2.350988562e-38
36.41564 39.83657 33.89845 4.823492 0.7473738 3.934634 2.350988562e-38
0.1614501 69.55456 22.82843 -4.025029 2.12537 0.3644585 2.350988562e-38
27.76891 46.49816 39.88054 1.102485 0.3976493 2.936718 2.350988562e-38
35.33762 67.62756 34.94273 3.023863 2.004609 2.907969 2.350988562e-38
38.88008 19.06931 20.87654 5.560396 -2.122786 -1.950089 2.350988562e-38
39.00272 67.43385 11.42266 3.773145 1.946672 -1.866307 2.350988562e-38
3.876947 38.8545 32.943 -5.099765 0.9919475 3.515433 2.350988562e-38
30.83076 70.28042 38.43149 1.553673 2.177358 2.715209 2.350988562e-38
37.78928 66.63935 9.33821 3.548781 1.879701 -2.375665 2.350988562e-38
39.21326 11.78897 60.09953 4.362432 -1.981872 1.389621 2.350988562e-38
40.03704 52.97092 27.37236 5.068018 0.8874793 1.71601 2.350988562e-38
29.89938 2.276343 79.95561 1.456524 -2.87497 2.899385 2.350988562e-38
5.249872 38.5797 34.84466 -4.681734 1.589295 3.860979 2.350988562e-38
21.65684 63.61855 41.14164 0.1392605 1.678964 3.129064 2.350988562e-38
18.20612 0.158265 46.16014 -0.7225121 -5.837662 0.2680271 2.350988562e-38
13.73112 40.0134 56.34444 -1.02711 2.962424 1.134406 2.350988562e-38
15.42797 55.0918 0.6833057 -1.252704 0.9664892 -5.026779 2.350988562e-38
22.5976 20.35093 5.824415 0.6064807 -3.159092 -5.360548 2.350988562e-38
24.97577 7.368993 18.59603 1.328598 -5.079254 -3.394061 2.350988562e-38
36.32604 7.334203 64.49818 3.417079 -2.836765 1.714328 2.350988562e-38
14.0575 61.00377 1.079522 -1.545776 1.426604 -4.456139 2.350988562e-38
20.60899 57.72239 0.00023932 0.00328857 1.16493 -4.977916 2.350988562e-38
0.5819355 15.89419 66.0509 -4.205566 -0.9816723 1.850935 2.350988562e-38
6.816405 35.87238 61.54101 -3.139686 3.463754 1.557165 2.350988562e-38
16.67204 35.12914 0.8577073 -1.192585 -0.913728 -6.071633 2.350988562e-38
0.1611238 18.15766 45.45786 -5.911438 -0.6107786 0.3090474 2.350988562e-38
40.27182 57.64825 26.63284 4.759851 1.245104 1.469963 2.350988562e-38
28.12122 3.578126 28.36784 2.284009 -5.515493 -1.881281 2.350988562e-38
19.77455 0.03172486 44.75976 -0.1464012 -5.992028 0.160759 2.350988562e-38
5.777152 10.89282 23.91058 -4.505243 -3.78099 -2.156876 2.350988562e-38
1.595983 64.26846 12.68183 -4.099678 1.705146 -1.759886 2.350988562e-38
19.38411 46.31971 0.04493469 -0.3894225 0.2814511 -5.857653 2.350988562e-38
33.48306 5.209955 34.38471 3.91449 -4.797347 -0.9097264 2.350988562e-38
21.9901 2.06379 28.57244 0.4220345 -5.939596 -1.916515 2.350988562e-38
32.68797 75.57271 37.23557 2.122512 2.585873 2.870257 2.350988562e-38
0.1536874 22.99275 63.37329 -4.506738 0.4765366 1.656891 2.350988562e-38
6.639673 24.71231 9.553272 -4.242525 -2.127212 -4.074275 2.350988562e-38
37.53294 9.853768 33.54579 5.148827 -3.456042 -0.8469286 2.350988562e-38
0.3949272 62.14559 24.47919 -4.557205 1.578623 0.803777 2.350988562e-38
31.62441 37.96438 46.46822 2.616468 3.941969 0.4454694 2.350988562e-38
25.74073 40.52825 59.27505 0.7899123 3.033542 1.353624 2.350988562e-38
38.79875 48.3955 10.97544 5.066335 0.4918623 -2.631763 2.350988562e-38
30.06895 22.27075 7.244454 2.875958 -2.70786 -4.857659 2.350988562e-38
38.03606 32.02909 38.10639 5.31669 3.148966 1.047015 2.350988562e-38
13.66981 38.9872 1.301443 -2.121489 -0.3681611 -5.879648 2.350988562e-38
16.95217 61.6582 40.86405 -0.5638052 1.532361 3.083202 2.350988562e-38
8.796502 29.64476 5.586816 -3.585969 -1.583018 -4.876449 2.350988562e-38
27.01482 32.23211 2.070755 1.94791 -1.327512 -5.792503 2.350988562e-38
40.97255 23.64738 60.08282 4.74614 0.679651 1.408172 2.350988562e-38
41.11096 22.44638 42.52289 6.151701 0.5142912 0.09515347 2.350988562e-38
28.90724 4.059052 28.07257 2.522893 -5.391798 -1.908177 2.350988562e-38
12.37312 67.60457 39.4491 -1.265695 1.977593 2.864653 2.350988562e-38
34.41821 50.55282 5.329514 3.69638 0.6288234 -4.126369 2.350988562e-38
39.60956 28.39575 80.25182 2.960723 1.212318 2.925325 2.350988562e-38
40.54996 25.53609 56.52939 4.920375 1.216443 1.168029 2.350988562e-38
24.80672 3.879504 81.20001 0.02734959 -0.1244717 3.294281 2.350988562e-38
6.164718 34.49297 6.598294 -4.387183 -0.8510686 -4.381463 2.350988562e-38
2.838409 31.00142 41.86737 -5.368357 3.151828 0.09211306 2.350988562e-38
38.71867 10.88515 75.59425 3.136697 -1.69891 2.567356 2.350988562e-38
26.66059 0.9498352 62.96712 1.342658 -4.357476 1.578906 2.350988562e-38
31.46081 38.06837 53.93277 2.299083 3.537094 0.9883336 2.350988562e-38
4.769224 58.37856 7.44429 -3.746746 1.243851 -3.195387 2.350988562e-38
21.50064 20.09722 5.870136 0.273431 -3.205146 -5.365996 2.350988562e-38
19.3111 0.04159706 58.66164 -0.2144674 -4.89798 1.242116 2.350988562e-38
38.39779 10.55535 37.18716 5.412781 -3.118936 -0.4145407 2.350988562e-38
1.831941 80.33391 12.22402 -2.915668 2.928858 -1.303236 2.350988562e-38
40.69669 39.92249 16.18651 6.127764 -0.08790309 -1.329208 2.350988562e-38
3.350064 31.83198 55.12135 -4.381265 2.768353 1.061118 2.350988562e-38
9.088835 38.49236 38.9067 -3.511703 3.936818 3.381416 2.350988562e-38
6.86206 8.293286 26.87701 -4.174792 -4.272656 -1.855837 2.350988562e-38
29.59697 39.10989 45.9506 1.38538 2.814569 0.3557125 2.350988562e-38
33.78417 43.41101 36.38612 3.887387 0.2530878 4.704616 2.350988562e-38
5.264636 6.863038 46.3425 -4.414074 -3.871532 0.313785 2.350988562e-38
24.89664 42.06008 0.4838944 1.317645 -0.04596073 -6.063114 2.350988562e-38
20.56104 0.05280522 74.44481 -0.0001965314 -3.65588 2.469808 2.350988562e-38
10.2789 79.06334 2.837471 -1.655892 2.829643 -2.845728 2.350988562e-38
19.6652 39.55003 81.2 -0.04477675 1.703094 3.136964 2.350988562e-38
40.0157 79.24168 27.35843 3.099764 2.849706 1.073933 2.350988562e-38
0.2812823 42.27647 23.84223 -6.121404 0.1023656 0.9344462 2.350988562e-38
36.29498 63.38493 33.91856 3.41461 1.696042 2.978937 2.350988562e-38
26.27911 48.5813 40.38767 0.8403562 0.5527543 3.02287 2.350988562e-38
4.905577 24.31874 11.80295 -4.770967 -2.017688 -3.513102 2.350988562e-38
20.39056 0.04389846 61.90244 -0.01544207 -4.642937 1.494201 2.350988562e-38
40.71159 19.85674 28.28991 6.122029 -1.139781 -0.6925387 2.350988562e-38
2.414781 30.20224 75.62047 -3.145356 1.680672 2.585076 2.350988562e-38
0.01754409 36.96896 20.88317 -6.26879 -0.01801598 -0.05537515 2.350988562e-38
31.93657 7.46089 24.20616 3.443884 -4.670173 -2.352606 2.350988562e-38
14.96455 0.7971729 43.55768 -1.735558 -5.834372 0.07083081 2.350988562e-38
39.77599 13.22139 78.18364 3.137087 -1.209125 2.766788 2.350988562e-38
12.93731 37.02978 81.2 -0.354635 0.9035726 3.210624 2.350988562e-38
40.23514 21.58213 23.03551 5.975512 -1.37594 -1.274443 2.350988562e-38
27.28754 40.05388 67.41928 1.007304 2.964182 1.963811 2.350988562e-38
35.51853 78.21649 34.72875 2.440504 2.777231 2.308868 2.350988562e-38
7.699738 4.540112 72.44808 -2.416286 -2.958936 2.32043 2.350988562e-38
15.41679 45.11917 40.51752 -0.7799066 0.2935231 3.038885 2.350988562e-38
41.17792 43.61213 20.7163 6.087337 0.181556 0.04092987 2.350988562e-38
0.3910008 24.64799 39.56456 -6.157133 1.197504 0.1099377 2.350988562e-38
40.98978 23.49793 58.07174 4.907466 0.6572763 1.257859 2.350988562e-38
4.212304 8.175918 69.75649 -3.195327 -2.450183 2.117057 2.350988562e-38
39.2026 22.97829 18.10072 5.659034 -1.667435 -2.1141 2.350988562e-38
0.8772762 14.66539 52.17494 -5.191808 -1.538431 0.7891462 2.350988562e-38
2.04242 23.61204 17.50051 -5.645246 -1.623602 -2.186709 2.350988562e-38
1.091118 27.15497 54.63829 -4.927274 1.723869 1.032688 2.350988562e-38
7.155494 5.912497 33.20115 -4.085421 -4.62605 -1.048546 2.350988562e-38
38.03881 31.48236 80.29023 2.714354 1.690449 2.928233 2.350988562e-38
35.07343 46.54085 35.22533 4.17549 0.4639324 4.107989 2.350988562e-38
9.428356 4.76396 81.20001 -1.218388 -1.672274 3.100803 2.350988562e-38
22.95393 0.1535581 45.32641 0.7203533 -5.90402 0.2029577 2.350988562e-38
12.1436 39.36364 56.58078 -1.307897 2.847985 1.151864 2.350988562e-38
2.284195 11.23911 73.47297 -3.345082 -1.661961 2.407578 2.350988562e-38
0.2054194 70.87926 17.98499 -3.904159 2.218454 -0.5195056 2.350988562e-38
9.753232 36.99512 81.2 -1.219619 2.025274 3.070524 2.350988562e-38
37.05481 21.57299 14.74641 5.002883 -2.240851 -3.024183 2.350988562e-38
14.59475 42.59797 0.895828 -1.838207 -0.008251263 -5.885264 2.350988562e-38
36.2986 36.22292 35.88336 4.787858 2.770323 2.957896 2.350988562e-38
40.22684 14.35468 52.124 5.158669 -1.656636 0.7841454 2.350988562e-38
24.15014 52.70659 40.88196 0.5526178 0.8618795 3.087228 2.350988562e-38
5.951279 39.53375 6.183477 -4.470209 -0.2498915 -4.387562 2.350988562e-38
36.88599 39.69069 8.053679 4.993732 -0.2040119 -3.784828 2.350988562e-38
25.84827 0.6828083 49.15417 1.536322 -5.435627 0.5055663 2.350988562e-38
36.86783 23.27758 13.24507 4.945808 -2.074707 -3.236984 2.350988562e-38
1.377192 62.51754 13.19832 -4.300801 1.575016 -1.63452 2.350988562e-38
0.05743718 22.68019 29.77521 -6.255847 -0.3138772 -0.1872761 2.350988562e-38
11.65168 39.1349 47.41256 -1.383052 2.81524 0.4657989 2.350988562e-38
0.02033805 21.109 62.31509 -4.612047 0.1686789 1.576751 2.350988562e-38
20.56885 41.14671 78.20726 -0.005006537 3.125291 3.005895 2.350988562e-38
27.36459 40.01855 75.70129 1.024862 2.955515 2.584098 2.350988562e-38
37.7055 9.32617 38.16086 5.206146 -3.460142 -0.345994 2.350988562e-38
11.88701 39.02351 2.038793 -2.63489 -0.354058 -5.667183 2.350988562e-38
24.28711 76.34647 0.3690678 0.6400274 2.617483 -3.450165 2.350988562e-38
30.32957 2.451622 56.04513 2.335318 -4.541372 1.045923 2.350988562e-38
7.523359 38.98011 4.770892 -3.970135 -0.324866 -4.837952 2.350988562e-38
12.0494 39.33262 46.68457 -1.330863 2.84104 0.4107592 2.350988562e-38
2.286453 72.30021 29.92928 -3.412977 2.341136 1.730287 2.350988562e-38
40.2296 26.82352 66.06257 4.104095 1.357372 1.872454 2.350988562e-38
10.576 81.2 5.839458 -0.3207051 3.233375 -0.665415 2.350988562e-38
40.86528 66.58919 23.99648 4.222985 1.907297 0.667446 2.350988562e-38
34.38002 49.97038 35.88935 3.668006 0.7272813 4.216665 2.350988562e-38
3.418809 9.241518 57.46323 -4.193621 -2.717037 1.178641 2.350988562e-38
5.348825 6.764452 65.33851 -3.270059 -2.911098 1.775627 2.350988562e-38
38.3714 47.252 31.00772 4.959152 0.4769627 3.015224 2.350988562e-38
22.26113 0.0719385 60.01866 0.4387223 -4.776256 1.3455 2.350988562e-38
26.95583 51.34798 40.19408 1.012909 0.7606518 2.969608 2.350988562e-38
18.02878 41.00211 58.47231 -0.3850215 3.109549 1.294203 2.350988562e-38
22.71163 1.22653 31.84153 0.6411021 -6.05535 -1.417754 2.350988562e-38
14.47099 45.84771 40.26657 -0.906745 0.3481909 3.005061 2.350988562e-38
1.73283 59.89392 28.80304 -4.381062 1.427391 1.974242 2.350988562e-38
6.229641 35.32663 62.21511 -3.193595 3.341226 1.606633 2.350988562e-38
40.8313 53.35139 24.37704 5.244808 0.9240275 0.8954716 2.350988562e-38
0.451357 46.43857 16.37652 -5.756172 0.367897 -1.127832 2.350988562e-38
33.7032 38.83401 4.796353 3.977378 -0.3401027 -4.830897 2.350988562e-38
9.698492 38.03002 62.13216 -1.633073 2.66894 1.570689 2.350988562e-38
35.75309 25.0194 10.73338 4.605924 -1.984513 -3.742713 2.350988562e-38
12.74023 1.576368 56.71432 -1.931923 -4.665813 1.095785 2.350988562e-38
8.627263 81.2 34.44717 -0.7512659 3.19651 0.8103031 2.350988562e-38
11.83558 24.23731 5.848463 -2.661839 -2.448781 -5.103274 2.350988562e-38
13.58499 80.42505 39.91525 -1.068419 2.937196 2.937238 2.350988562e-38
16.1858 0.9170299 35.54118 -1.3399 -6.046988 -0.8513497 2.350988562e-38
15.35898 46.15822 0.6899841 -1.422737 0.272157 -5.70931 2.350988562e-38
3.894872 31.641 10.02862 -5.079291 -1.072856 -3.497331 2.350988562e-38
40.34275 26.42717 72.52297 3.666222 1.049274 2.351954 2.350988562e-38
3.760566 81.2 27.61113 -0.9628987 3.204331 0.3655192 2.350988562e-38
0.7582031 25.9841 80.13727 -3.096601 0.8465208 2.91548 2.350988562e-38
2.731136 59.16376 10.35413 -4.23675 1.308124 -2.392371 2.350988562e-38
2.442894 12.06251 33.05392 -5.522805 -2.841389 -0.7875327 2.350988562e-38
35.90415 34.37854 66.10349 3.252105 2.842045 1.893822 2.350988562e-38
40.28821 14.54038 45.63972 5.673174 -1.727829 0.2893729 2.350988562e-38
22.8102 2.002619 29.01251 0.6710323 -5.936275 -1.845786 2.350988562e-38
0.5339426 53.99942 15.94218 -5.137753 0.9375811 -1.179447 2.350988562e-38
19.33706 41.14505 79.35725 -0.1929533 3.124821 3.001483 2.350988562e-38
7.849569 36.77768 47.98159 -3.595954 4.468464 0.3599367 2.350988562e-38
0.01146317 20.75771 80.95263 -3.15061 0.02504904 2.976873 2.350988562e-38
0.5766037 16.37304 35.74751 -6.094792 -1.442026 -0.3165667 2.350988562e-38
36.16628 7.144468 69.13055 3.108272 -2.638529 2.069642 2.350988562e-38
3.910149 81.2 16.47123 -0.08688221 3.298063 -0.01985484 2.350988562e-38
2.126181 29.70072 76.22637 -3.148122 1.580345 2.629904 2.350988562e-38
25.70466 0.6468551 53.08329 1.404723 -5.151207 0.8102918 2.350988562e-38
36.67565 33.95133 38.42422 4.902656 3.649109 1.391596 2.350988562e-38
40.40583 14.96639 41.9768 5.98604 -1.671867 0.01840242 2.350988562e-38
17.48445 51.24697 40.96162 -0.4864709 0.7525176 3.100394 2.350988562e-38
41.06838 22.78461 27.94901 6.232515 -0.5229546 -0.3815974 2.350988562e-38
18.03055 3.718788 81.2 -0.00639433 -0.02800499 3.304089 2.350988562e-38
5.528996 62.18509 6.604867 -3.387012 1.532695 -3.145189 2.350988562e-38
26.42505 74.98326 40.34946 0.8886017 2.529788 3.004064 2.350988562e-38
41.15448 25.29856 26.54714 6.259597 -0.2352156 -0.2174083 2.350988562e-38
36.33963 40.78357 33.88223 4.791562 0.220792 4.040287 2.350988562e-38
7.061346 61.98755 5.088906 -2.999547 1.513291 -3.539653 2.350988562e-38
40.29995 14.58291 77.95992 3.24257 -0.9793183 2.75041 2.350988562e-38
30.39647 2.483871 52.05681 2.504763 -4.80653 0.7363784 2.350988562e-38
33.32575 4.410633 79.37145 2.016711 -2.58054 2.853972 2.350988562e-38
4.239905 8.152429 74.62257 -2.892344 -2.215101 2.490244 2.350988562e-38
12.72963 1.580601 71.99161 -1.498074 -3.549516 2.281581 2.350988562e-38
40.21809 19.15702 25.97816 5.970273 -1.556512 -1.076158 2.350988562e-38
3.502967 75.43795 32.00414 -2.975983 2.572296 1.98787 2.350988562e-38
0.1361884 51.38563 22.66083 -5.459014 0.7701533 0.377962 2.350988562e-38
40.64212 59.95295 15.84372 4.652321 1.388462 -1.195658 2.350988562e-38
38.48634 30.7989 45.74269 5.147923 2.923126 0.3696219 2.350988562e-38
35.55724 34.75482 54.99231 3.723234 3.620161 1.008033 2.350988562e-38
4.526525 72.75372 7.719537 -2.944151 2.346821 -2.396786 2.350988562e-38
39.06095 29.72943 71.83654 3.452677 1.743452 2.296539 2.350988562e-38
32.4549 3.800469 69.66628 2.313153 -3.303651 2.10375 2.350988562e-38
14.8487 40.32961 76.77251 -0.8710635 3.002468 2.663658 2.350988562e-38
37.30352 8.566435 67.3434 3.391346 -2.509478 1.93286 2.350988562e-38
4.991443 53.82541 34.02886 -3.95379 0.9994224 3.50631 2.350988562e-38
40.07692 73.49373 27.18786 3.5406 2.422584 1.182799 2.350988562e-38
37.3439 78.46582 8.69079 2.722187 2.785149 -1.935497 2.350988562e-38
4.99831 67.43943 7.18678 -3.165451 1.936235 -2.775329 2.350988562e-38
3.158071 78.39207 9.715961 -2.818649 2.779166 -1.801358 2.350988562e-38
19.81861 3.798437 24.04249 -0.2372287 -5.68065 -2.605928 2.350988562e-38
39.45378 15.65673 27.87127 5.735967 -2.223206 -1.166037 2.350988562e-38
22.99552 41.04014 53.67648 0.4052168 3.108577 0.9347771 2.350988562e-38
36.67883 7.751555 53.54745 4.143295 -3.310136 0.8743758 2.350988562e-38
18.80518 81.2 37.9032 -0.04660423 3.27589 0.3093495 2.350988562e-38
41.04456 18.206 41.05951 6.24427 -0.6445451 -0.01611097 2.350988562e-38
33.34187 56.74701 36.72622 3.159789 1.220181 3.940383 2.350988562e-38
0.8712398 23.46185 21.62458 -6.004269 -1.197596 -1.317598 2.350988562e-38
36.68637 50.58366 33.46707 4.357211 0.573875 3.414843 2.350988562e-38
27.21008 72.60011 1.113105 1.251147 2.327542 -3.592643 2.350988562e-38
35.91022 13.2816 21.23743 4.653829 -3.400619 -2.434637 2.350988562e-38
38.74319 15.13656 25.76938 5.518551 -2.543132 -1.508731 2.350988562e-38
27.70565 39.69829 81.2 1.044159 2.760416 3.013802 2.350988562e-38
3.032941 57.46351 31.32793 -4.235303 1.237885 2.653592 2.350988562e-38
34.06777 46.21399 5.022094 3.803644 0.2950727 -4.48325 2.350988562e-38
40.89724 22.48815 26.21664 6.179369 -0.8072683 -0.647365 2.350988562e-38
27.19906 1.116379 55.07894 1.653368 -4.906679 0.9666353 2.350988562e-38
40.4551 38.37086 15.36504 6.043737 -0.1820495 -1.642458 2.350988562e-38
32.5883 32.77913 4.846838 3.642207 -1.147511 -4.955945 2.350988562e-38
26.22248 56.17986 40.4025 0.8430431 1.121756 3.020261 2.350988562e-38
40.75443 48.92939 16.40856 5.564682 0.5566986 -1.084642 2.350988562e-38
41.15079 73.39359 21.91514 3.740172 2.443569 0.2540477 2.350988562e-38
6.319311 5.808644 63.5017 -3.127506 -3.261331 1.633463 2.350988562e-38
37.14613 8.347696 54.01845 4.197203 -3.181171 0.910256 2.350988562e-38
41.13247 77.01903 18.96537 3.447503 2.713044 -0.3441199 2.350988562e-38
3.967303 32.69086 81.00419 -2.541514 1.848693 2.980545 2.350988562e-38
5.633186 10.48694 25.03041 -4.549135 -3.806392 -2.002098 2.350988562e-38
2.510556 13.44076 81.2 -2.054008 -0.7118495 3.090441 2.350988562e-38
34.76814 9.190941 25.81198 4.305815 -4.092667 -1.96758 2.350988562e-38
3.040656 9.928883 77.27358 -2.955328 -1.743256 2.696181 2.350988562e-38
34.68559 35.55882 78.5426 2.285268 2.427347 2.800975 2.350988562e-38
40.16084 29.58782 16.8472 5.95269 -0.8388873 -1.760527 2.350988562e-38
2.370843 11.08903 51.21618 -4.944666 -2.368975 0.7186637 2.350988562e-38
23.8063 40.91354 58.18565 0.5216428 3.089369 1.272354 2.350988562e-38
1.232545 27.54328 58.45496 -4.616048 1.698015 1.315965 2.350988562e-38
30.34863 38.72353 65.96481 1.48987 2.756142 1.853975 2.350988562e-38
40.06253 32.11728 15.46539 5.922491 -0.6796002 -1.932139 2.350988562e-38
30.07574 2.320347 49.26769 2.527281 -5.041223 0.5205004 2.350988562e-38
3.916709 8.571911 80.83754 -2.560115 -1.846184 2.966673 2.350988562e-38
31.89274 60.41964 3.386467 2.54904 1.387624 -4.024476 2.350988562e-38
18.68941 9.02731 15.6553 -0.5800623 -4.876231 -3.871629 2.350988562e-38
37.53115 30.71189 10.69015 5.148281 -1.152254 -3.366612 2.350988562e-38
3.403748 81.07898 9.355619 -2.622285 2.984896 -1.716754 2.350988562e-38
26.07964 18.43034 7.762927 1.663826 -3.397605 -4.98936 2.350988562e-38
33.30611 77.66166 36.74236 2.110811 2.737392 2.669154 2.350988562e-38
18.46226 63.81675 0.1371869 -0.4272032 1.642911 -4.47339 2.350988562e-38
35.6953 34.61711 74.9025 2.645855 2.482473 2.514519 2.350988562e-38
0.8372 26.33021 78.21645 -3.227001 0.950008 2.773499 2.350988562e-38
37.19117 37.17303 33.8105 5.059613 1.777675 3.24955 2.350988562e-38
29.78983 38.99371 68.12622 1.409556 2.794191 2.016085 2.350988562e-38
12.65928 13.77626 12.67938 -2.411503 -4.000234 -4.159436 2.350988562e-38
16.46709 0.4298452 68.14735 -0.7813566 -4.081111 1.980546 2.350988562e-38
41.04347 25.51932 31.82479 6.228303 0.6019518 0.3559062 2.350988562e-38
40.09298 14.71984 34.97356 5.931844 -1.964715 -0.4625541 2.350988562e-38
36.18331 34.06184 42.85156 4.71859 3.943575 0.1967679 2.350988562e-38
0.2854544 23.99678 47.87146 -5.66904 0.9717309 0.4895907 2.350988562e-38
0.05752189 75.69265 22.13611 -3.557564 2.583056 0.246453 2.350988562e-38
39.57071 28.53436 68.89294 3.787289 1.558453 2.086478 2.350988562e-38
8.843486 65.52051 37.51222 -2.509406 1.790106 3.566926 2.350988562e-38
23.81126 3.840117 81.2 0.001226948 -0.01642177 3.305301 2.350988562e-38
3.457549 32.00646 45.09365 -5.033267 3.216447 0.3107536 2.350988562e-38
30.46394 69.85768 2.562411 1.940822 2.117111 -3.518197 2.350988562e-38
40.59911 47.86361 25.50299 5.577088 0.5009719 1.414623 2.350988562e-38
14.72073 40.30535 65.87742 -0.8829512 3.003094 1.847825 2.350988562e-38
29.0077 5.835047 23.90763 2.553427 -5.128074 -2.507898 2.350988562e-38
5.407554 34.50993 70.85976 -2.937889 2.633458 2.237725 2.350988562e-38
32.52643 43.30399 3.821923 3.607967 0.06566738 -4.930575 2.350988562e-38
0.04994228 71.19518 19.21149 -3.91125 2.233978 -0.2371843 2.350988562e-38
37.57447 61.82624 9.020766 3.825227 1.511136 -2.642746 2.350988562e-38
41.10151 72.70274 22.42146 3.780633 2.386145 0.4049276 2.350988562e-38
29.93562 6.152312 24.2078 2.835437 -5.022366 -2.435379 2.350988562e-38
33.63344 59.20227 36.4836 3.090076 1.397491 3.747631 2.350988562e-38
29.35269 44.03185 1.95933 2.51804 0.1083542 -5.504051 2.350988562e-38
41.16516 37.05893 20.12508 6.262957 -0.04944555 -0.2751088 2.350988562e-38
0.5852311 20.41102 26.504 -6.092128 -1.21681 -0.8598741 2.350988562e-38
36.95609 65.1487 33.10958 3.518846 1.796752 2.62964 2.350988562e-38
12.77294 39.64174 73.81596 -1.196957 2.894279 2.442919 2.350988562e-38
4.142052 8.227253 49.83533 -4.440374 -3.40494 0.5889961 2.350988562e-38
1.721665 12.42041 50.31679 -5.119616 -2.16367 0.6503768 2.350988562e-38
16.87063 0.3707631 69.36557 -0.7056074 -3.995513 2.075213 2.350988562e-38
11.81049 59.93355 1.975368 -2.011769 1.343377 -4.361291 2.350988562e-38
8.496361 37.21043 80.34598 -1.839158 2.527437 2.930449 2.350988562e-38
12.57901 37.95166 81.2 -0.6844962 1.744024 3.121037 2.350988562e-38
35.39769 6.276345 52.19032 3.816737 -3.836945 0.7630533 2.350988562e-38
3.479869 74.73129 9.243971 -2.986906 2.498742 -2.06222 2.350988562e-38
32.84732 46.8984 37.15588 3.546865 0.5083784 4.627304 2.350988562e-38
34.37575 47.4184 35.89307 3.795896 0.5420509 4.371737 2.350988562e-38
21.32414 66.02234 0.0341707 0.1991998 1.81471 -4.316354 2.350988562e-38
40.18517 65.23139 14.35316 4.175966 1.784881 -1.330337 2.350988562e-38
4.007473 29.29013 10.67726 -5.04492 -1.347888 -3.453048 2.350988562e-38
39.45692 28.85532 59.9999 4.421723 1.861827 1.429861 2.350988562e-38
23.45339 75.19107 0.208016 0.4739987 2.527087 -3.571549 2.350988562e-38
41.17254 21.2872 51.69618 5.446048 0.2279169 0.774358 2.350988562e-38
0.1235223 18.69437 55.69781 -5.115671 -0.438439 1.081138 2.350988562e-38
22.73845 0.1281723 63.41404 0.5195127 -4.496636 1.611426 2.350988562e-38
41.1048 66.5112 18.70021 4.261694 1.911673 -0.4842268 2.350988562e-38
2.347278 38.58712 11.22354 -5.552761 -0.2720786 -2.884912 2.350988562e-38
0.04313634 23.16071 33.06099 -6.261725 0.2100456 0.1056884 2.350988562e-38
7.967185 80.75607 4.398857 -1.942603 2.96105 -2.491516 2.350988562e-38
7.65266 7.292838 81.2 -0.9553209 -0.9228624 3.174677 2.350988562e-38
12.34334 1.756941 43.99772 -2.399477 -5.549013 0.1096091 2.350988562e-38
0.7081323 52.58434 25.90835 -5.187631 0.8529909 1.430325 2.350988562e-38
40.043 31.01006 31.78173 5.926318 1.499791 1.384526 2.350988562e-38
7.135943 81.2 5.798905 -1.77686 3.047729 -1.914929 2.350988562e-38
31.58012 7.443299 81.2 0.03959617 -0.06859247 3.299079 2.350988562e-38
17.6495 0.2246651 49.28709 -0.8217851 -5.576834 0.5132079 2.350988562e-38
2.814547 31.92548 36.86042 -5.422969 2.851077 1.336761 2.350988562e-38
1.409088 27.9466 76.54605 -3.259804 1.250165 2.651524 2.350988562e-38
30.94757 73.30991 2.845356 1.880167 2.384459 -3.239367 2.350988562e-38
8.402316 37.14631 77.90834 -1.850123 2.520098 2.748497 2.350988562e-38
0.5196584 23.67424 23.22048 -6.11238 -0.9676296 -0.9895185 2.350988562e-38
25.83745 1.211291 34.77876 1.590271 -5.975857 -0.959981 2.350988562e-38
7.357428 21.45272 10.68298 -4.023917 -2.60683 -4.027151 2.350988562e-38
40.54586 36.90343 26.24785 6.078526 0.4298329 1.46389 2.350988562e-38
20.47486 75.51941 41.19334 -0.01624188 2.836581 3.132977 2.350988562e-38
40.79194 24.54232 56.05506 4.999017 1.045593 1.129739 2.350988562e-38
21.81115 72.71387 0.0795284 0.2342464 2.335154 -3.785394 2.350988562e-38
40.13168 14.07005 47.68977 5.451518 -1.875887 0.4489182 2.350988562e-38
20.33273 78.56506 0.01654086 -0.05611632 2.790966 -3.336826 2.350988562e-38
22.44451 24.7257 3.587555 0.5599948 -2.49694 -5.701833 2.350988562e-38
20.40998 41.19289 42.49647 -0.02591078 3.138414 2.847073 2.350988562e-38
25.66349 76.5767 0.6833052 0.8447165 2.635484 -3.384876 2.350988562e-38
40.73032 66.26924 16.27508 4.2186 1.867708 -0.860224 2.350988562e-38
19.18229 4.396762 22.86071 -0.4304202 -5.585296 -2.782835 2.350988562e-38
32.40828 52.47877 3.732974 3.153404 0.7747838 -4.369994 2.350988562e-38
1.860251 21.95392 19.39534 -5.701041 -1.719755 -1.940307 2.350988562e-38
3.423236 9.234743 49.68249 -4.691893 -3.072654 0.5811596 2.350988562e-38
14.65635 39.34084 81.2 -0.6441676 2.259052 3.072565 2.350988562e-38
10.10594 75.1696 2.935319 -1.839111 2.528602 -3.093794 2.350988562e-38
25.60251 24.88629 4.091341 1.518929 -2.440544 -5.552871 2.350988562e-38
11.14215 3.190815 33.00177 -2.872584 -5.438324 -1.172807 2.350988562e-38
14.11399 40.10236 77.22041 -0.9833524 2.96769 2.697551 2.350988562e-38
1.137234 13.88327 57.90501 -4.664536 -1.692131 1.227046 2.350988562e-38
10.85179 38.72375 54.33225 -1.474795 2.767084 0.9859083 2.350988562e-38
39.80246 19.23014 23.83992 5.842764 -1.773572 -1.401975 2.350988562e-38
13.02731 37.35867 1.655939 -2.300439 -0.575309 -5.793412 2.350988562e-38
32.29498 37.49066 77.06136 1.87671 2.70263 2.690125 2.350988562e-38
40.73906 70.01337 16.3235 3.930742 2.151407 -0.795332 2.350988562e-38
13.69775 40.82644 1.219127 -2.12853 -0.1559549 -5.896519 2.350988562e-38
13.08868 55.15417 1.43983 -1.889114 0.9738755 -4.81825 2.350988562e-38
32.55514 3.886362 80.0354 1.869962 -2.617319 2.905515 2.350988562e-38
5.725773 6.35482 59.21774 -3.448868 -3.423356 1.303822 2.350988562e-38
15.70912 20.82794 6.098066 -1.485024 -3.050265 -5.255507 2.350988562e-38
16.59918 43.39174 40.79935 -0.6258371 0.1642391 3.074915 2.350988562e-38
38.73241 68.46518 10.86479 3.658854 2.025038 -1.916228 2.350988562e-38
0.2188053 45.36776 17.66356 -5.885621 0.2971542 -0.8695963 2.350988562e-38
31.37369 14.56162 13.95487 3.272718 -3.724379 -3.811433 2.350988562e-38
37.13346 32.84029 59.03356 3.88279 2.9445 1.37623 2.350988562e-38
6.367779 8.894384 81.2 -0.9028275 -0.7983958 3.186836 2.350988562e-38
11.63481 75.13287 2.053647 -1.573568 2.524183 -3.248304 2.350988562e-38
33.05326 54.99237 4.218535 3.168095 0.9724479 -4.109099 2.350988562e-38
31.59682 3.208376 65.49522 2.366853 -3.66469 1.78145 2.350988562e-38
5.855141 73.87984 6.275555 -2.664144 2.432383 -2.569786 2.350988562e-38
30.84554 23.49547 7.109864 3.11211 -2.496626 -4.814066 2.350988562e-38
31.2796 56.44457 3.023381 2.597525 1.078968 -4.358162 2.350988562e-38
5.204153 34.36567 40.09926 -4.695662 4.107468 0.6679901 2.350988562e-38
1.251409 13.60362 61.22531 -4.404143 -1.63922 1.478905 2.350988562e-38
3.275599 31.7111 48.49376 -4.840086 3.018039 0.5702503 2.350988562e-38
37.86348 77.74879 31.75431 2.848603 2.741041 1.851002 2.350988562e-38
3.810806 8.699578 78.59313 -2.714091 -1.936763 2.794492 2.350988562e-38
9.066721 37.59929 71.46236 -1.741056 2.594808 2.26724 2.350988562e-38
15.88054 77.55301 40.59876 -0.719753 2.722432 3.041669 2.350988562e-38
34.93394 61.46426 5.813841 3.305604 1.477094 -3.315088 2.350988562e-38
0.6486137 26.18418 37.05367 -6.080196 1.460192 0.4169983 2.350988562e-38
22.35432 0.08291761 55.91192 0.4944534 -5.094479 1.025843 2.350988562e-38
40.9299 71.57556 17.56225 3.839785 2.283946 -0.5964998 2.350988562e-38
1.845557 13.33372 32.9713 -5.705541 -2.477349 -0.7301046 2.350988562e-38
29.11546 81.2 38.97741 1.182225 3.023631 2.587345 2.350988562e-38
39.94881 40.4291 13.56186 5.910149 -0.09052008 -2.105566 2.350988562e-38
18.71286 0.09856565 50.4874 -0.5702937 -5.514524 0.6036411 2.350988562e-38
1.068156 58.27068 14.17751 -4.697886 1.260129 -1.498111 2.350988562e-38
0.8436499 14.78718 58.49391 -4.726447 -1.355008 1.2724 2.350988562e-38
14.95043 1.059711 36.8942 -1.720475 -5.979711 -0.6478336 2.350988562e-38
29.34259 41.85239 1.954933 2.586156 -0.06095189 -5.661207 2.350988562e-38
5.276797 20.98079 13.48945 -4.657792 -2.465258 -3.372423 2.350988562e-38
21.09081 41.18164 45.17938 0.06741098 3.13671 2.435042 2.350988562e-38
6.678842 66.05142 35.77296 -2.971359 1.891335 3.140427 2.350988562e-38
4.897013 7.332488 76.39288 -2.683295 -2.253539 2.626386 2.350988562e-38
12.15914 3.006468 31.77361 -2.563502 -5.536471 -1.365049 2.350988562e-38
41.19065 39.64088 20.18661 6.272258 -0.02842743 -0.1336615 2.350988562e-38
33.36764 36.76443 49.01524 3.532332 4.425786 0.5347154 2.350988562e-38
39.33965 14.0453 30.75225 5.701009 -2.420013 -0.9335629 2.350988562e-38
41.19144 47.52171 20.23839 5.781826 0.481053 -0.05197294 2.350988562e-38
1.697732 28.70322 70.47655 -3.660476 1.539735 2.2043 2.350988562e-38
31.35254 33.18327 3.926752 3.266287 -1.120138 -5.215064 2.350988562e-38
27.45943 1.202362 51.03497 1.835682 -5.178513 0.6531754 2.350988562e-38
41.1542 19.59962 45.64034 5.917749 -0.345895 0.3277323 2.350988562e-38
40.73032 56.65276 16.2751 4.962441 1.140047 -1.000429 2.350988562e-38
25.66574 15.63032 9.742792 1.538124 -3.824647 -4.705461 2.350988562e-38
37.97829 29.84048 81.2 2.13575 1.028452 3.071721 2.350988562e-38
27.85962 1.334929 55.77303 1.802886 -4.796653 1.021577 2.350988562e-38
22.12181 13.58021 10.74963 0.4620241 -4.190311 -4.619867 2.350988562e-38
34.46634 5.436035 74.66658 2.461749 -2.679674 2.492602 2.350988562e-38
24.56633 0.3963808 50.88158 1.01384 -5.417439 0.635936 2.350988562e-38
7.773653 59.77136 4.517044 -2.999473 1.34189 -3.762951 2.350988562e-38
0.5336386 32.05317 17.72347 -6.108062 -0.5120736 -1.310893 2.350988562e-38
25.77705 47.65857 0.6810758 1.374988 0.389486 -5.598725 2.350988562e-38
37.75851 9.217222 73.40733 3.139488 -2.038732 2.400477 2.350988562e-38
40.7967 24.44912 68.96456 4.007618 0.8139042 2.088377 2.350988562e-38
3.135911 45.03979 9.683081 -5.008476 0.2314317 -3.257272 2.350988562e-38
9.483064 13.10964 15.73948 -3.377099 -3.905218 -3.53737 2.350988562e-38
41.19614 20.54159 80.58852 3.180403 -0.0126866 2.949633 2.350988562e-38
30.14507 2.374407 64.76746 2.010551 -3.935502 1.722046 2.350988562e-38
40.38347 41.75455 26.31809 5.978445 0.05979488 1.766024 2.350988562e-38
40.78417 64.84002 24.60655 4.34394 1.777839 0.7943871 2.350988562e-38
17.73886 0.2133131 42.9945 -0.8559638 -6.071179 0.02279171 2.350988562e-38
40.21113 63.87653 14.4333 4.281487 1.682162 -1.350449 2.350988562e-38
41.14104 19.44942 47.79691 5.746391 -0.3577145 0.489432 2.350988562e-38
41.08404 18.91803 38.08855 6.237453 -0.5827109 -0.08750527 2.350988562e-38
15.79166 2.425363 29.15155 -1.459962 -5.808074 -1.8047 2.350988562e-38
37.18347 71.91487 32.76608 3.121833 2.311021 2.266928 2.350988562e-38
27.79125 1.312581 63.07285 1.576753 -4.269875 1.588057 2.350988562e-38
14.24907 58.44506 40.19181 -1.004248 1.291987 2.970718 2.350988562e-38
25.15672 40.68956 46.83477 0.7329996 3.052066 0.4220375 2.350988562e-38
0.007907731 20.31253 65.06073 -4.399009 -0.129616 1.784965 2.350988562e-38
39.94008 67.95511 27.65231 3.93453 2.009802 1.386895 2.350988562e-38
1.167449 33.60683 29.62795 -5.92315 1.114776 1.719148 2.350988562e-38
35.3405 51.54021 34.95036 3.941262 0.8300759 3.782891 2.350988562e-38
36.58642 75.50639 7.620798 2.763088 2.556837 -2.274275 2.350988562e-38
32.21346 37.65421 40.48973 3.279716 4.571043 0.9260473 2.350988562e-38
2.152236 12.83701 32.24606 -5.611657 -2.6611 -0.8398803 2.350988562e-38
0.1902357 23.32448 41.71087 -6.190256 0.7640507 -0.003084502 2.350988562e-38
40.18954 14.24313 60.62254 4.502456 -1.509898 1.431971 2.350988562e-38
32.30367 64.85808 3.654222 2.551339 1.731853 -3.604932 2.350988562e-38
0.01353774 20.15176 57.46375 -4.994659 -0.1942134 1.215149 2.350988562e-38
20.14972 0.03393 47.865 -0.07425392 -5.747653 0.4022997 2.350988562e-38
21.20807 66.99388 0.02675885 0.1758247 1.890365 -4.241405 2.350988562e-38
1.88114 81.2 12.31544 -2.789817 3.0023 -1.234681 2.350988562e-38
34.42732 41.45859 35.85679 4.099739 0.1098175 4.730193 2.350988562e-38
22.51323 0.1016383 71.23653 0.4024374 -3.891909 2.220167 2.350988562e-38
41.01317 18.06575 77.55303 3.390982 -0.4043903 2.721872 2.350988562e-38
34.37376 72.92822 5.295243 2.499758 2.357666 -2.835945 2.350988562e-38
3.448524 9.255902 39.91148 -5.212182 -3.480062 -0.1815012 2.350988562e-38
37.4776 8.80724 77.19238 2.813086 -1.989839 2.688442 2.350988562e-38
41.17406 46.76417 20.9438 5.839567 0.4238782 0.08269209 2.350988562e-38
35.25175 78.01996 6.183064 2.411604 2.750985 -2.362478 2.350988562e-38
4.671916 44.5165 33.65651 -4.644321 0.2510864 3.825175 2.350988562e-38
0.3931441 16.72974 40.47033 -6.148138 -1.246587 -0.06828936 2.350988562e-38
28.99196 31.98714 2.9263 2.54864 -1.335301 -5.551391 2.350988562e-38
1.727565 76.23345 28.76328 -3.220316 2.630178 1.415846 2.350988562e-38
13.62357 40.28186 40.36656 -1.511319 2.692347 2.440851 2.350988562e-38
0.007989679 41.37427 20.08018 -6.262659 -0.01422906 -0.1076204 2.350988562e-38
34.00377 10.03817 22.75845 4.073014 -4.090513 -2.421269 2.350988562e-38
1.065697 27.08517 46.95963 -5.501436 1.914739 0.4650472 2.350988562e-38
6.242758 81.2 32.29377 -1.078609 3.175416 0.7611874 2.350988562e-38
21.44788 41.14984 76.03075 0.1291251 3.126144 3.013856 2.350988562e-38
39.74817 52.44801 13.01051 4.992869 0.8035325 -2.041434 2.350988562e-38
0.02991687 35.28253 20.61417 -6.264504 -0.07362185 -0.2502739 2.350988562e-38
30.99536 2.818955 41.90951 3.163602 -5.355741 -0.05252697 2.350988562e-38
2.386173 66.32127 11.02676 -3.823 1.861561 -1.96483 2.350988562e-38
0.9667536 14.37385 66.49306 -4.079189 -1.322055 1.877779 2.350988562e-38
27.04223 40.11663 76.66886 0.976474 2.970055 2.656501 2.350988562e-38
5.8405 63.18191 34.92713 -3.284196 1.680791 3.142901 2.350988562e-38
3.378464 9.310724 65.49313 -3.688669 -2.33451 1.796006 2.350988562e-38
0.7473148 31.65284 29.39732 -6.050381 1.029654 1.279508 2.350988562e-38
14.45407 17.42575 8.776013 -1.86623 -3.528555 -4.810205 2.350988562e-38
15.68706 74.98806 0.6443641 -0.8580067 2.512847 -3.51035 2.350988562e-38
3.592024 22.21645 15.24962 -5.171733 -2.085585 -2.841944 2.350988562e-38
0.8553671 27.20673 18.86627 -6.009144 -0.9436357 -1.490259 2.350988562e-38
11.90304 76.17455 1.93767 -1.467497 2.60496 -3.205337 2.350988562e-38
19.49212 0.3723167 36.11076 -0.3342926 -6.200934 -0.7759299 2.350988562e-38
40.46271 74.90609 15.28159 3.492706 2.518301 -0.9590074 2.350988562e-38
37.62785 31.88483 10.43862 5.1778 -1.018597 -3.367618 2.350988562e-38
0.9764296 61.93782 14.49059 -4.439013 1.538759 -1.356713 2.350988562e-38
38.63137 30.48318 70.29449 3.489367 1.924399 2.188129 2.350988562e-38
6.942811 81.2 6.66404 -1.492371 3.09099 -1.581097 2.350988562e-38
30.70518 38.54027 51.04486 1.504163 2.753562 0.7370173 2.350988562e-38
38.58837 40.6204 10.60325 5.500633 -0.1100264 -3.016567 2.350988562e-38
22.52835 34.54261 0.6781116 0.5854594 -1.008686 -6.141421 2.350988562e-38
16.37267 0.4879177 40.1613 -1.262785 -6.134563 -0.2420044 2.350988562e-38
28.17727 29.18581 3.318837 2.301043 -1.759788 -5.549856 2.350988562e-38
1.034747 61.58582 26.95924 -4.452828 1.534173 1.411031 2.350988562e-38
26.95956 40.18532 45.7348 0.9421126 2.9928 0.3397104 2.350988562e-38
31.44467 32.35587 4.167583 3.294303 -1.234791 -5.172633 2.350988562e-38
23.43607 0.2103597 43.33881 0.8473423 -6.045013 0.04954083 2.350988562e-38
32.5331 22.82331 8.683806 3.625411 -2.508007 -4.438985 2.350988562e-38
24.68942 7.783957 17.88152 1.241642 -5.024685 -3.506692 2.350988562e-38
14.34847 79.22231 40.21576 -0.9546672 2.847163 2.982339 2.350988562e-38
17.416 0.265022 52.8987 -0.8151215 -5.290251 0.7941945 2.350988562e-38
34.87861 70.57677 35.42592 2.779879 2.218967 2.828273 2.350988562e-38
41.13255 19.67464 78.9612 3.298529 -0.1528347 2.827546 2.350988562e-38
10.66636 10.14883 18.27667 -3.017262 -4.408368 -3.252553 2.350988562e-38
0.7460788 16.77287 32.30803 -6.042715 -1.556225 -0.5596911 2.350988562e-38
0.01058439 20.86489 44.2307 -6.038216 0.1456992 0.2143759 2.350988562e-38
4.535955 33.43971 47.8479 -4.505114 3.57812 0.5593801 2.350988562e-38
34.41312 35.87377 43.78972 4.106284 4.475681 0.2478088 2.350988562e-38
29.36094 61.88496 1.962923 1.940892 1.495382 -4.22477 2.350988562e-38
41.19597 20.29718 58.9677 4.878034 -0.1630674 1.327859 2.350988562e-38
18.70556 18.41467 7.028036 -0.575158 -3.45377 -5.179328 2.350988562e-38
20.09644 0.03570116 50.35913 -0.0810158 -5.551371 0.5963057 2.350988562e-38
39.56658 67.68739 12.59645 3.842341 1.966291 -1.676303 2.350988562e-38
16.6808 40.78589 75.88197 -0.5860055 3.073034 2.596789 2.350988562e-38
30.55861 71.8948 38.58597 1.512479 2.298316 2.738292 2.350988562e-38
36.82111 11.4681 26.25045 4.931547 -3.453575 -1.736592 2.350988562e-38
40.92491 72.35025 23.59354 3.781865 2.346057 0.563288 2.350988562e-38
37.39982 81.2 25.34493 0.3202337 3.272733 0.125755 2.350988562e-38
37.30459 42.02346 8.595006 5.068984 -0.002913997 -3.587478 2.350988562e-38
3.385366 31.88928 42.12018 -5.24655 3.316085 0.09187715 2.350988562e-38
30.61628 72.76324 38.55125 1.521483 2.363314 2.732708 2.350988562e-38
36.30928 29.29568 9.490826 4.775494 -1.418867 -3.787568 2.350988562e-38
40.73058 17.78296 32.91357 6.127894 -1.226187 -0.4406342 2.350988562e-38
11.73805 2.031667 42.20066 -2.609614 -5.611567 -0.02858509 2.350988562e-38
38.9632 29.91844 53.35817 4.723215 2.449212 0.8948082 2.350988562e-38
0.7730541 15.04284 53.06353 -5.157648 -1.394884 0.8637474 2.350988562e-38
13.60174 58.99069 39.93736 -1.101482 1.332833 2.932348 2.350988562e-38
16.81996 40.81733 50.3699 -0.5190523 3.091849 0.6878874 2.350988562e-38
17.21766 68.51129 40.91272 -0.5200898 2.045632 3.090286 2.350988562e-38
39.62032 39.99323 12.78289 5.779934 -0.1379961 -2.424688 2.350988562e-38
36.6615 7.76463 68.77561 3.205544 -2.561432 2.04255 2.350988562e-38
32.34544 59.18687 3.685667 2.825891 1.29337 -3.956397 2.350988562e-38
3.785584 32.48836 48.51037 -4.593357 3.382668 0.6055802 2.350988562e-38
9.090887 79.09015 37.67899 -1.797216 2.837902 2.667348 2.350988562e-38
40.69586 24.9605 51.69701 5.317022 1.194479 0.807431 2.350988562e-38
21.89322 14.20727 10.17778 0.392621 -4.097574 -4.709416 2.350988562e-38
4.776095 60.49787 33.7812 -3.609845 1.480569 3.102001 2.350988562e-38
34.39553 64.01023 5.309623 2.970943 1.668759 -3.355488 2.350988562e-38
31.23166 3.016919 39.94328 3.249026 -5.353824 -0.2427336 2.350988562e-38
31.37529 44.58393 3.074416 3.095499 0.1618074 -5.148388 2.350988562e-38
17.946 0.1904602 56.6221 -0.6907946 -5.012485 1.0837 2.350988562e-38
2.470662 10.91614 75.64289 -3.159662 -1.644087 2.572289 2.350988562e-38
7.001648 36.05812 46.61792 -3.889086 4.368278 0.4036979 2.350988562e-38
8.235944 37.66912 39.06296 -3.771758 4.288137 2.597791 2.350988562e-38
5.634057 6.446495 51.31647 -3.962637 -3.78546 0.6950753 2.350988562e-38
4.892866 7.298379 45.709 -4.538113 -3.800771 0.2690394 2.350988562e-38
0.01342164 37.77921 20.57242 -6.269928 -0.01815007 -0.1033095 2.350988562e-38
6.549159 35.64045 53.36932 -3.61442 3.902508 0.9597546 2.350988562e-38
13.80321 66.06889 1.176282 -1.467286 1.821186 -4.060424 2.350988562e-38
2.219529 33.93073 12.24474 -5.591085 -0.6910557 -2.740555 2.350988562e-38
25.56029 47.95621 40.57589 0.7579955 0.5059913 3.043649 2.350988562e-38
0.04079466 67.83428 20.89891 -4.17743 1.984617 0.03613507 2.350988562e-38
40.59441 77.99571 25.48832 3.281603 2.756564 0.8176234 2.350988562e-38
3.954788 81.2 30.17078 -1.686036 3.116198 0.9028852 2.350988562e-38
37.2053 30.9628 81.2 1.96715 1.141683 3.080388 2.350988562e-38
11.12842 73.18707 2.343973 -1.764184 2.375401 -3.317226 2.350988562e-38
24.19009 40.84063 73.68405 0.5570163 3.078346 2.432793 2.350988562e-38
41.18265 19.95884 40.32304 6.269041 -0.2691221 -0.0186855 2.350988562e-38
2.856028 39.47389 31.17637 -5.41035 0.5323325 3.123456 2.350988562e-38
35.16134 81.2 33.27681 1.522019 3.108275 1.29073 2.350988562e-38
1.552722 15.89123 81.2 -2.254011 -0.4952803 3.077027 2.350988562e-38
40.2965 26.6336 43.08045 5.847909 1.842023 0.1683134 2.350988562e-38
15.83905 56.58588 40.61954 -0.7358671 1.152226 3.046136 2.350988562e-38
28.93772 29.7472 3.501026 2.532154 -1.661976 -5.471565 2.350988562e-38
38.58266 72.15834 10.56845 3.373079 2.305905 -1.838188 2.350988562e-38
3.175479 31.52994 71.88888 -3.283333 2.030233 2.309804 2.350988562e-38
41.16681 58.59731 19.54138 4.904593 1.314148 -0.2067919 2.350988562e-38
40.34312 26.44524 53.78757 5.098687 1.405832 0.9649533 2.350988562e-38
24.48848 81.20001 1.749574 0.4311901 3.111536 -1.907004 2.350988562e-38
36.56424 54.83857 7.595646 3.981655 0.969492 -3.351129 2.350988562e-38
37.41325 8.712515 54.82951 4.223929 -3.039432 0.9713746 2.350988562e-38
26.58734 80.98114 40.30444 0.9113021 2.978926 2.996601 2.350988562e-38
3.058145 37.14324 32.22656 -5.348869 1.328323 2.984314 2.350988562e-38
40.16714 14.17613 53.20342 5.051569 -1.706414 0.8677625 2.350988562e-38
10.28872 16.54671 11.78907 -3.132098 -3.477774 -4.146012 2.350988562e-38
41.12621 20.49047 33.88401 6.250704 -0.4003495 -0.1504087 2.350988562e-38
1.197273 51.03043 27.47143 -5.206762 0.7455529 1.781156 2.350988562e-38
40.23092 14.36689 61.82549 4.429736 -1.431043 1.522536 2.350988562e-38
0.03904218 48.98907 21.36907 -5.660928 0.5772724 0.1440737 2.350988562e-38
41.01279 17.97272 67.02962 4.216235 -0.4881842 1.931029 2.350988562e-38
19.60761 0.04454899 62.81852 -0.1554252 -4.570844 1.565458 2.350988562e-38
31.28712 59.9433 3.029391 2.45719 1.349588 -4.121242 2.350988562e-38
0.1454705 81.2 19.38466 -3.04582 3.003677 -0.1900287 2.350988562e-38
5.429698 49.39472 34.50784 -4.14179 0.6759914 3.81725 2.350988562e-38
25.07883 40.70103 79.46915 0.6833931 3.05717 2.865903 2.350988562e-38
40.76275 41.91211 16.45459 6.10914 0.02608094 -1.177163 2.350988562e-38
5.768112 40.9754 34.86467 -4.559251 0.1667293 4.308447 2.350988562e-38
33.6984 69.75607 36.43049 2.56834 2.16351 3.100612 2.350988562e-38
10.62988 32.97743 3.496809 -3.028353 -1.167698 -5.34804 2.350988562e-38
13.97014 7.453166 19.63803 -2.013232 -4.987424 -3.184459 2.350988562e-38
40.3584 43.97768 26.41285 5.80089 0.2285068 1.75179 2.350988562e-38
9.865937 13.75492 14.72858 -3.260668 -3.841903 -3.7039 2.350988562e-38
30.14405 41.45888 2.347502 2.996121 -0.08232225 -5.490659 2.350988562e-38
15.55893 40.54527 79.21779 -0.7645291 3.034335 2.846437 2.350988562e-38
5.415023 71.52631 34.45359 -2.867389 2.289685 2.624596 2.350988562e-38
7.097773 15.84958 15.48863 -4.103002 -3.318099 -3.362928 2.350988562e-38
31.77116 38.22132 39.7248 3.40803 4.719779 2.323415 2.350988562e-38
38.77792 30.1572 13.05216 5.529166 -1.073348 -2.736032 2.350988562e-38
34.82679 5.773114 77.15158 2.382229 -2.486506 2.683833 2.350988562e-38
40.87819 17.06433 67.21557 4.158496 -0.7721437 1.938618 2.350988562e-38
8.552958 3.913938 43.34921 -3.548216 -4.966887 0.0687873 2.350988562e-38
20.89617 41.14874 76.79898 0.04494379 3.125837 3.010981 2.350988562e-38
4.988793 75.66266 7.21264 -2.693567 2.568615 -2.331464 2.350988562e-38
19.53578 77.14763 0.07438787 -0.1857116 2.680518 -3.439011 2.350988562e-38
37.11684 32.87374 41.47411 4.976023 3.792857 0.09192456 2.350988562e-38
20.53999 55.50001 41.1968 -0.00778895 3.001938 3.135431 2.350988562e-38
11.35389 2.258235 81.2 -1.404488 -2.785953 2.99632 2.350988562e-38
22.68568 22.52093 4.657052 0.6332189 -2.829382 -5.536289 2.350988562e-38
