# .PCD v0.7 - Point Cloud Data file format
VERSION 0.7
FIELDS x y z normal_x normal_y normal_z rgb
SIZE 4 4 4 4 4 4 4
TYPE F F F F F F F
COUNT 1 1 1 1 1 1 1
WIDTH 519
HEIGHT 1
VIEWPOINT 0 0 0 1 0 0 0
POINTS 519
DATA ascii
-0.00226307 0.06281533333 -0.335205 0.1336286166 0.1925169277 0.9721525731 1.362902886e-41
-0.0144844 0.05300903333 -0.333252 -0.1595253936 -0.02061331854 0.9869785914 1.362902886e-41
0.0006259093636 0.06311311818 -0.336182 0.2229390841 0.1503774892 0.9631639401 1.398776127e-41
-0.02465988889 0.05793254444 -0.3373751111 -0.4280556311 0.3173848753 0.8461886419 1.434649368e-41
0.003306071111 0.06305947778 -0.3362904444 0.2290265281 0.1064625073 0.9675807894 1.398776127e-41
-0.01957094 0.0575989 -0.335205 -0.2903850396 0.300215228 0.9085963601 1.362902886e-41
-0.0283356 0.0643311 -0.343262 -0.5094065092 0.372877453 0.7755433021 1.649888812e-41
0.0057106 0.06323243333 -0.337158 0.216190669 0.04432717251 0.9753443989 1.434649368e-41
0.008193969091 0.06303822727 -0.3376909091 0.2968889137 0.02210887253 0.9546560484 1.470522608e-41
0.028066 0.03298947778 -0.3468423333 0.3239388302 -0.395558997 0.8594164963 1.757508534e-41
-0.002311388889 0.03822156667 -0.3423937778 -0.07651358553 -0.731134837 0.6779288468 1.614015571e-41
0.0113678 0.0643921 -0.339111 0.2725257494 0.01193903721 0.9620744126 1.506395849e-41
0.0178477 0.0645752 -0.340088 -0.1777265662 -0.1697594916 -0.9693270772 1.028132683e-41
0.01039746182 0.05536443636 -0.336182 0.07064678924 0.2813616091 0.9569977409 1.398776127e-41
-0.05514525 0.0380961 -0.356201 -0.441974111 0.03972575774 0.8961477274 1.972747978e-41
0.02066346 0.018457 -0.358398 0.09760274353 0.7076160474 -0.6998237163 2.008621219e-41
0.023262 0.0211639 -0.355225 -0.1792297483 -0.687115285 0.7040946545 1.936874737e-41
-0.03429568 0.06467284 -0.3475588 0.5421287688 -0.3215310007 -0.7763467097 1.757508534e-41
0.02764131667 0.03553261667 -0.3450521667 0.3935941667 -0.4299435499 0.8125467223 1.721635293e-41
-0.0309601 0.0646973 -0.345215 -0.5144494071 0.3538209727 0.7811226068 1.721635293e-41
0.0412292 0.0403951 -0.354248 0.530352825 0.157712272 0.8329782232 1.936874737e-41
0.00728607 0.0534668 -0.336182 -0.04663967946 0.2250730916 0.9732249708 1.398776127e-41
-0.02714285 0.06300861667 -0.3419596667 -0.4977106525 0.4449151476 0.7445365121 1.614015571e-41
-0.02949693333 0.04790582222 -0.3398708889 -0.4173868533 -0.2857205779 0.8626424323 1.54226909e-41
-0.02547203333 0.06370033333 -0.341309 -0.5094391942 0.3897969167 0.7671571359 1.578142331e-41
-0.05163575 0.0523071 -0.355225 0.4733866815 -0.1161370512 -0.8731650675 1.936874737e-41
0.0113678 0.0635986 -0.339111 0.2559772583 0.05212826631 0.965276275 1.470522608e-41
-0.03681438333 0.0582733 -0.3465166667 -0.4001400988 0.4185213661 0.815308388 1.721635293e-41
-0.000675201 0.0620422 -0.335205 0.188138841 0.1358775359 0.9726978317 1.362902886e-41
-0.0473022 0.04338583333 -0.351318 -0.6166044847 0.01303074922 0.7871652362 1.865128256e-41
-0.0326843 0.06365965 -0.346191 -0.547828935 0.3302667726 0.7686399137 1.721635293e-41
0.01297506667 0.062795 -0.339111 0.219250556 0.1369605339 0.966007767 1.506395849e-41
-0.031311 0.05089313333 -0.340088 0.5238957002 0.09445441991 -0.8465291831 1.54226909e-41
0.0302022 0.04564413333 -0.343262 0.4367421611 -0.04420511069 0.8984999682 1.649888812e-41
0.02953086667 0.03851316667 -0.3448893333 0.5450287851 -0.3165533603 0.7763617671 1.721635293e-41
0.01540376667 0.06285603333 -0.3394366667 0.1526038627 0.2595015243 0.9536094693 1.506395849e-41
0.0177478875 0.06287765 -0.340088 0.1717882278 0.2566210566 0.951122725 1.54226909e-41
-0.0347595 0.022460925 -0.359375 0.02292060696 -0.6156929804 0.7876527152 2.008621219e-41
0.0235596 0.0445862 -0.341309 0.3597199356 -0.2394395304 0.9018149917 1.578142331e-41
-0.03151375714 0.06291417143 -0.3449358571 -0.5597055234 0.3334465388 0.758645591 1.721635293e-41
-0.03481037778 0.04805501111 -0.3430448889 -0.4596637558 -0.08704485845 0.8838169631 1.649888812e-41
-0.0305939 0.0469971 -0.341309 -0.4286754711 -0.2679381503 0.8628131246 1.578142331e-41
-0.0300446 0.0637207 -0.344238 -0.5301047943 0.3688658682 0.7634964822 1.685762053e-41
-0.05196805556 0.04801092222 -0.3546822222 -0.5324454629 0.1004811077 0.8404792538 1.936874737e-41
-0.02931216 0.06287232 -0.343262 -0.5271380287 0.4168347747 0.7405229701 1.649888812e-41
-0.03450928 0.06069336 -0.3463864 -0.5366775405 0.3440280698 0.7704686267 1.721635293e-41
0.02842104 0.02775572 -0.349121 0.2522404827 -0.4523729337 0.8554142083 1.829255015e-41
-0.02177936667 0.06207276667 -0.338135 -0.4274766404 0.346642843 0.8349266203 1.470522608e-41
0.0186005 0.0587769 -0.339111 0.3343659135 0.2466869201 0.9095850699 1.506395849e-41
0.010122945 0.02970125 -0.3518065 -0.2686382717 -0.783089715 0.560895692 1.865128256e-41
-0.0141754 0.0620422 -0.335205 -0.1535064371 0.2008190958 0.9675264671 1.362902886e-41
0.01985935 0.0625763 -0.340088 0.2241616112 0.2503363913 0.9418509772 1.54226909e-41
-0.034515375 0.0627098125 -0.347045875 -0.5404066455 0.2994482747 0.7863150694 1.757508534e-41
-0.007022434444 0.06041464444 -0.3349881111 -0.01324419952 0.1295847323 0.9914798981 1.362902886e-41
-0.06158445 0.03585816667 -0.359375 0.4340170313 0.0802415985 -0.8973240788 2.008621219e-41
-0.01982454444 0.06074015556 -0.3367242222 0.292335373 -0.3774706099 -0.8786671545 1.434649368e-41
-0.05200196667 0.04299926667 -0.3548993333 -0.567337042 0.05084730482 0.8219143705 1.936874737e-41
-0.0144272 0.0397339 -0.341309 -0.04435425707 -0.6890600402 0.7233456718 1.614015571e-41
-0.0150146 0.0614319 -0.336182 -0.1781786285 0.195515812 0.9643785271 1.398776127e-41
-0.01668801667 0.048289 -0.335205 -0.178067784 -0.4976168834 0.8489224356 1.362902886e-41
-0.05149333333 0.02845256667 -0.355225 -0.1705068639 -0.3141853721 0.9339244944 1.936874737e-41
-0.01407625 0.06035615 -0.335205 -0.1200719257 0.2052938319 0.9713069418 1.362902886e-41
-0.03681437778 0.0378825 -0.3465166667 -0.3053130228 -0.3626901568 0.8804770345 1.721635293e-41
0.005707208889 0.06078084444 -0.3369411111 0.2152900788 0.032847244 0.9759975617 1.434649368e-41
-0.01178996667 0.06045533333 -0.335205 -0.09530976149 0.1569359746 0.9829990586 1.362902886e-41
0.0300998375 0.047985075 -0.343262 0.447541194 0.08223840352 0.8904738764 1.649888812e-41
-0.0521049875 0.025556575 -0.356323125 0.007672461765 0.4263077292 -0.9045456613 1.972747978e-41
-0.034980775 0.0300273875 -0.351928625 -0.02179651097 -0.7030157617 0.7108401726 1.865128256e-41
-0.009407043333 0.06045533333 -0.335205 -0.05400659492 0.1378879525 0.9889743173 1.362902886e-41
0.0170441 0.0387878 -0.340088 0.1849126149 -0.4309694328 0.8832172286 1.54226909e-41
-0.004642275556 0.06041464444 -0.3349881111 0.01636454676 0.1355573445 0.9906343462 1.362902886e-41
-0.00226307 0.06045533333 -0.335205 0.1653501578 0.1300195509 0.9776268417 1.362902886e-41
1.9490625e-05 0.06035615 -0.335205 0.2240331241 0.06172975557 0.9726245918 1.362902886e-41
0.00151276925 0.0608368 -0.336182 0.2316894422 0.05938312247 0.9709756162 1.398776127e-41
-0.01918706667 0.04275853333 -0.3395452222 -0.1729281951 -0.5617235767 0.8090503462 1.506395849e-41
-0.002323786667 0.0368042 -0.344238 -0.07456105532 -0.6825912289 0.7269868384 1.685762053e-41
0.03829955 0.0244598 -0.354248 0.1129149328 -0.3044245257 0.9458202398 1.936874737e-41
-0.0297255 0.05051769091 -0.3395550909 -0.4765847505 -0.1535403496 0.8656167377 1.506395849e-41
0.0235596 0.0579071 -0.341309 -0.5393917616 -0.09092063266 -0.8371319884 1.578142331e-41
0.0033048 0.06063843333 -0.336182 0.2579558809 0.01612351916 0.9660221507 1.398776127e-41
0.0435791 0.04316203333 -0.356201 0.5330320232 0.1150912935 0.8382307895 1.972747978e-41
0.008004324286 0.0606733 -0.3375767143 -0.2085717784 -0.150077814 -0.9664235422 1.434649368e-41
-0.02700041667 0.06026711667 -0.3399251667 -0.5259536127 0.4063279196 0.7471749588 1.54226909e-41
-0.03986613333 0.0222473 -0.359375 0.009457125506 -0.5763995002 0.8171133207 2.008621219e-41
-0.02507018333 0.06068418333 -0.3392738333 -0.4401786058 0.451976311 0.7758609471 1.506395849e-41
-0.01476796667 0.03265383333 -0.349121 0.1150895603 -0.6469344166 0.7538104893 1.829255015e-41
-0.02229055 0.06054686667 -0.3378093333 -0.3785318881 0.3985603296 0.8353821122 1.470522608e-41
-0.03533935 0.0555725 -0.344238 -0.4762142002 0.3870492913 0.7895649952 1.685762053e-41
-0.03888811429 0.05093818571 -0.345215 -0.5035986734 0.01729519407 0.8637645816 1.721635293e-41
-0.04223631429 0.02523151429 -0.3566197143 -0.1413498726 -0.6868709993 0.7129014265 1.972747978e-41
0.01065064571 0.06043787143 -0.338135 0.1737622957 0.2702703293 0.9469744525 1.470522608e-41
0.01282502857 0.05998447143 -0.338135 0.1361281869 0.3215246618 0.9370651037 1.470522608e-41
0.01057094556 0.0403205 -0.3393281111 0.07454034973 -0.5457933171 0.8345977422 1.506395849e-41
0.020607 0.05556233333 -0.339111 0.4882621665 0.1000868513 0.8669386823 1.506395849e-41
0.01791 0.0605316 -0.33935525 0.2020708059 0.2956906829 0.9336671834 1.506395849e-41
0.019455 0.0412292 -0.340088 0.3160637172 -0.3327913265 0.8884557725 1.54226909e-41
0.0200261 0.06042478571 -0.3399484286 -0.3551869269 -0.2380287949 -0.9039825992 1.54226909e-41
0.0153427 0.05981445 -0.338135 0.1581403912 0.3343678468 0.929080061 1.470522608e-41
-0.02698408571 0.02285765714 -0.359375 0.1258222573 -0.4874674879 0.8640278976 2.008621219e-41
-0.03196968333 0.06076558333 -0.3444008333 -0.5838668433 0.3403531492 0.7370612207 1.685762053e-41
-0.02431485 0.05981445 -0.338135 -0.3824980951 0.3752031785 0.8443445873 1.470522608e-41
-0.0323638875 0.0552826 -0.341919125 -0.5744679561 0.2884188737 0.7660294516 1.614015571e-41
-0.01615905 0.0596619 -0.335205 -0.1342192014 0.2834972767 0.949533833 1.362902886e-41
0.005748402727 0.0504289 -0.335205 -0.03226694961 0.1023806286 0.9942218318 1.362902886e-41
-0.0391693 0.0613403 -0.349121 0.3205159249 -0.4567250261 -0.8298625141 1.829255015e-41
0.00805664 0.0505371 -0.335205 0.009750769588 0.06458144588 0.9978648001 1.362902886e-41
0.026947 0.0550079 -0.343262 -0.5237643722 -0.1317373747 -0.841615201 1.649888812e-41
-0.0173035 0.0291595 -0.350342 -0.08731525744 0.6203110805 -0.7794807305 1.829255015e-41
0.0235596 0.0534668 -0.341309 0.5293142525 0.08488663858 0.8441686329 1.578142331e-41
-0.0370331 0.0603408875 -0.347534375 -0.4082777064 0.4142823715 0.8134368022 1.757508534e-41
0.03530884286 0.04308211429 -0.3477262857 0.6987566088 -0.2511074014 0.6698389916 1.793381775e-41
-0.01977104286 0.03332084286 -0.3478658571 0.04123126086 -0.6781600276 0.7337567445 1.793381775e-41
-0.0333862 0.06022645 -0.345215 -0.5480095654 0.3640043793 0.7531177385 1.721635293e-41
0.0262146 0.0368042 -0.344238 0.3154278574 -0.4225147892 0.8496978991 1.685762053e-41
-0.03118135 0.05989075 -0.343262 -0.594485943 0.3599396694 0.7190479108 1.649888812e-41
-0.02219815556 0.0583191 -0.3365073333 -0.366916455 0.356285743 0.8593211183 1.398776127e-41
0.020607 0.05315143333 -0.339111 0.5003307904 0.03550597973 0.8651060199 1.506395849e-41
-0.022777525 0.052474975 -0.336182 -0.3954603377 -0.1493869125 0.9062530947 1.398776127e-41
-0.019989 0.05885315 -0.336182 -0.2953840789 0.3490032687 0.8893508669 1.398776127e-41
-0.05198501111 0.03794013333 -0.3547907778 -0.499924733 0.04526565612 0.8648851263 1.936874737e-41
-0.01705653636 0.05813322727 -0.3351162727 -0.1968083866 0.3126304431 0.9292624306 1.362902886e-41
-0.01431581 0.05793458 -0.3348146 -0.0640827904 0.305237221 0.9501176953 1.362902886e-41
0.04530843333 0.02774046667 -0.353271 0.06459630786 -0.1359672845 -0.9886051864 1.901001497e-41
-0.01177554444 0.05800714444 -0.3347712222 -0.03973826529 0.3121587778 0.949198487 1.362902886e-41
-0.009385855556 0.05795627778 -0.3344458889 -0.04824690558 0.2635540959 0.9634373226 1.362902886e-41
-0.02464293333 0.05044556667 -0.3371581111 -0.4066484622 -0.2172581713 0.887375859 1.434649368e-41
0.0285543 0.0348409 -0.346191 0.4266963855 -0.3918044185 0.8151193117 1.721635293e-41
-0.054557775 0.050163275 -0.35644525 0.5253688569 -0.0449241867 -0.8496878142 1.972747978e-41
-0.007006326667 0.05792236667 -0.334229 -0.02874902256 0.2562336865 0.9661872446 1.362902886e-41
-0.02486166667 0.04322815 -0.340088 -0.2281839803 -0.4503761179 0.8631879422 1.54226909e-41
-0.004675548333 0.04286703333 -0.3373210833 -0.04416247777 -0.6370232846 0.7695784628 1.434649368e-41
-0.004631676667 0.05792236667 -0.334229 0.06384808271 0.248820218 0.966442922 1.362902886e-41
0.0500488 0.03778075 -0.357178 -0.2553239745 -0.11199408 -0.9603473299 1.972747978e-41
-0.00225692 0.05793932222 -0.3343374444 0.2132583947 0.1359264082 0.9674941181 1.362902886e-41
-0.00992204 0.0419006 -0.339111 -0.04494105258 -0.6372711507 0.7693281369 1.506395849e-41
0.00171185 0.05825806667 -0.336182 0.2794450332 0.05887338411 0.958355048 1.398776127e-41
0.0468445 0.0259857 -0.352295 0.1491258811 0.07409244698 -0.9860384277 1.865128256e-41
0.030868525 0.016027425 -0.358093 -0.2294881308 -0.6677616884 0.7081168867 2.008621219e-41
-0.03459822857 0.04575894286 -0.343262 -0.4180452923 -0.1402760594 0.8975303676 1.649888812e-41
-0.02934702857 0.03739275714 -0.344238 -0.1420323676 -0.4908948986 0.8595632642 1.685762053e-41
0.003385544 0.05811463 -0.3362796 0.2272547416 0.04595839961 0.9727502804 1.398776127e-41
0.005709328333 0.05801645833 -0.3370766667 0.1198259358 0.1321418381 0.9839615235 1.434649368e-41
0.03079223333 0.02830505556 -0.349935 0.3598151973 -0.3929462169 0.8462424561 1.829255015e-41
0.008104706 0.05827027 -0.337158 0.09295762231 0.1957778798 0.9762325042 1.434649368e-41
0.0169373 0.0594177 -0.338135 0.2077765879 0.2958538241 0.932362271 1.470522608e-41
-0.03926595 0.05579121667 -0.3463538333 -0.4167108263 0.3014463328 0.8576025861 1.721635293e-41
-0.03929444 0.0598389 -0.348145 0.3170254612 -0.4143848675 -0.8531002511 1.793381775e-41
-0.042175275 0.0356063875 -0.349273625 -0.3392979905 -0.3648726761 0.8670321815 1.829255015e-41
-0.0274582 0.0238953 -0.358398 0.1229932051 -0.5323065076 0.8375693723 2.008621219e-41
-0.03012698 0.0581848 -0.3415042 -0.603836094 0.3343975296 0.7235746428 1.578142331e-41
-0.03167213333 0.0285797 -0.353271 0.1061364285 -0.7208231893 0.6849445147 1.936874737e-41
0.0321411 0.04308472 -0.3448242 -0.5493306752 0.312834416 -0.7748357487 1.721635293e-41
-0.0288849 0.05814616667 -0.340088 -0.5699037086 0.3317107648 0.7517830348 1.54226909e-41
-0.03520203333 0.04306031667 -0.344238 -0.3638803978 -0.2152701044 0.9062283587 1.685762053e-41
-0.0277008 0.05817262 -0.3393064 -0.5442834657 0.3145992951 0.7776778205 1.506395849e-41
-0.026519775 0.057601925 -0.338135 -0.4978707647 0.2502954528 0.8303474501 1.470522608e-41
0.0176410875 0.0577011125 -0.338135 0.2849225779 0.230994778 0.9303013153 1.470522608e-41
0.02021451111 0.05799357778 -0.3392195556 0.45115413 0.1673274501 0.8766193447 1.506395849e-41
0.0419617 0.0369263 -0.353271 0.4327123475 0.1137615399 0.8943256322 1.901001497e-41
-0.0351257 0.0591736 -0.346191 -0.4879967561 0.3804177962 0.7855835197 1.721635293e-41
0.00567627 0.0461731 -0.335205 0.01723172932 -0.2437965482 0.9696733009 1.362902886e-41
0.0499268 0.03303525 -0.356201 -0.3030143274 -0.2313316217 -0.924482557 1.972747978e-41
0.0313721 0.0544128 -0.347168 -0.5886446185 -0.3864633206 -0.7100307141 1.757508534e-41
-0.03415791429 0.05808801429 -0.3446567143 -0.5326421453 0.3924777124 0.7498357089 1.685762053e-41
-0.03211757143 0.05765641429 -0.3428432857 -0.5700772967 0.3772232865 0.7298729122 1.649888812e-41
-0.0394821375 0.0578308 -0.347290125 0.3451981647 -0.4274530461 -0.8355370252 1.757508534e-41
0.0187073 0.0397339 -0.341309 0.2716058681 -0.3642141419 0.8908301248 1.578142331e-41
0.0322876 0.0359955 -0.348145 0.5854314158 -0.2443347712 0.7730268928 1.793381775e-41
-0.054718 0.0483169875 -0.356811625 0.4949669401 -0.01241181119 -0.8688231553 1.972747978e-41
-0.025589 0.0475159 -0.339111 -0.3202933256 -0.3343676905 0.8863466777 1.506395849e-41
0.030155175 0.05324555 -0.34497075 0.5653063582 0.318241331 0.7610198267 1.721635293e-41
-0.0119324 0.0419006 -0.339111 -0.06685437154 -0.6272265685 0.7759621928 1.506395849e-41
-0.02453307 0.05533143 -0.3367676 -0.475004428 0.1017226796 0.8740842578 1.434649368e-41
0.0412292 0.04291786667 -0.354248 0.6012419766 0.05810065674 0.7969519429 1.936874737e-41
-0.02281796 0.05571288 -0.336182 -0.4006066814 0.1571616306 0.9026707643 1.398776127e-41
0.0193481 0.05539956667 -0.338135 0.370276176 0.08821014705 0.9247240256 1.470522608e-41
0.02281841429 0.02016557143 -0.3566197143 -0.132247021 -0.6907825215 0.7108658336 1.972747978e-41
-0.0216339 0.05553588 -0.335205 -0.3714185565 0.1391795187 0.9179745735 1.362902886e-41
-0.01969571111 0.05560978889 -0.3346627778 -0.2917064043 0.118114327 0.9491872204 1.362902886e-41
-0.0537415 0.03798423333 -0.355225 -0.4395990197 0.04399542844 0.8971159926 1.936874737e-41
-0.0449341 0.05048216 -0.3496094 -0.6704758707 0.05418551534 0.7399500231 1.829255015e-41
0.02285764 0.0333313 -0.345215 0.1615136856 -0.5414762056 0.8250556636 1.721635293e-41
-0.0172933 0.05554196667 -0.334229 -0.1880981097 0.2439774565 0.9513643371 1.362902886e-41
-0.0117569 0.0563354 -0.334229 -0.06036654985 0.2982468323 0.9525779268 1.362902886e-41
-0.0469564 0.02828726667 -0.3548993333 -0.1174504778 -0.584107033 0.8031340855 1.936874737e-41
0.02487945 0.0219421 -0.354248 -0.1819264446 -0.7053584495 0.6851074562 1.936874737e-41
-0.01017 0.0563354 -0.334229 -0.03282887152 0.3025742798 0.9525602713 1.362902886e-41
-0.005345663333 0.0348409 -0.346191 0.1788632154 0.6790537118 -0.7119648915 1.721635293e-41
-0.05695192 0.04313966 -0.357422 0.3714610906 -0.07927497609 -0.9250579097 1.972747978e-41
-0.0295156 0.04071045 -0.3427735 -0.2301360053 -0.3592394414 0.9044249238 1.649888812e-41
-0.0092525575 0.0552596875 -0.333252 -0.02877029197 0.2436919029 0.9694258748 1.362902886e-41
-0.007083415 0.0552596875 -0.333252 0.0008219002456 0.2208696806 0.975302983 1.362902886e-41
0.008132933333 0.0409851 -0.338135 0.08223305701 -0.5600431322 0.8243721334 1.470522608e-41
-0.00621414 0.0563354 -0.334229 0.02467577335 0.261348524 0.9649290415 1.362902886e-41
-0.004631676667 0.0563354 -0.334229 0.09640933068 0.2326419243 0.9677721715 1.362902886e-41
0.03328453333 0.03080242222 -0.3500706667 0.4455689453 -0.222097691 0.8672605898 1.829255015e-41
-0.00215744625 0.05564115 -0.334229 0.2729141798 0.1575121778 0.9490562493 1.362902886e-41
-0.03918458333 0.03585816667 -0.348145 -0.2821859928 -0.4015825135 0.871264914 1.793381775e-41
-0.0274600875 0.04285815 -0.341309 -0.256323643 -0.4052067077 0.8775566729 1.578142331e-41
0.0004075228182 0.05562243636 -0.335205 0.3768897394 0.1011283615 0.9207210103 1.362902886e-41
-0.0022584575 0.04805501667 -0.3345543333 0.1049303657 -0.3199378032 0.9416100151 1.362902886e-41
0.00171185 0.0566711 -0.336182 0.2971410256 0.08597071226 0.9509554393 1.398776127e-41
0.003232436364 0.05536443636 -0.336182 0.1548147061 0.1186252761 0.9807958252 1.398776127e-41
0.04044934444 0.02280851111 -0.3546822222 -0.04279862696 -0.2453396165 0.968491998 1.936874737e-41
0.008082304545 0.05536443636 -0.336182 -0.01062183005 0.2730148533 0.9619511768 1.398776127e-41
-0.03974 0.04506228 -0.346191 -0.4821298953 -0.07624303354 0.8727758956 1.721635293e-41
-0.0358582 0.057373 -0.345215 -0.472467574 0.4035080282 0.783553229 1.721635293e-41
-0.009574886667 0.0397339 -0.341309 0.005884731522 -0.7834196419 0.6214652321 1.614015571e-41
0.03061218 0.01494444 -0.3595704 0.2413526532 0.6723214802 -0.6998090626 2.008621219e-41
-0.0305939 0.0562897 -0.341309 -0.5748557991 0.3121480361 0.7563758416 1.578142331e-41
-0.0046501175 0.0383873125 -0.342895625 -0.09403863629 -0.7295581842 0.6774227563 1.649888812e-41
-0.0518913375 0.0504570125 -0.354858625 -0.5083549015 0.09678314468 0.8556917185 1.936874737e-41
0.02517243 0.05540772 -0.3422853 -0.5708639049 -0.06941933702 -0.8181047352 1.614015571e-41
-0.04669527778 0.03275552222 -0.3522948889 -0.3673986385 -0.3374126979 0.8667011663 1.865128256e-41
-0.03665772 0.05569458 -0.3450196 -0.4296372585 0.3932783222 0.8128616041 1.721635293e-41
-0.02944074286 0.0555725 -0.3398088571 -0.5656521583 0.231980867 0.7913422225 1.54226909e-41
0.0152969 0.05523683333 -0.337158 0.2361008035 0.1067134754 0.965851254 1.434649368e-41
-0.02671815 0.05539956667 -0.338135 -0.4971464806 0.1005637901 0.8618191811 1.470522608e-41
-0.009463920909 0.04796531818 -0.3346726364 -0.08778332823 -0.5288760249 0.8441470474 1.362902886e-41
0.008215332 0.05283816 -0.335205 0.05323791369 -0.1949153305 -0.9793741565 1.362902886e-41
-0.01424712 0.0547241 -0.333252 -0.09871390813 0.172285301 0.9800884345 1.362902886e-41
-0.00461642 0.05300903333 -0.333252 0.1229669558 0.07570053469 0.9895193565 1.362902886e-41
-0.0117213 0.05496215 -0.333252 -0.06323802064 0.2063984406 0.9764223658 1.362902886e-41
-0.03941853333 0.0262146 -0.355225 -0.02620363568 -0.6795153051 0.7331932348 1.936874737e-41
-0.00461642 0.05496215 -0.333252 0.08562097045 0.154246069 0.9843155996 1.362902886e-41
0.0183487 0.0278778 -0.3497315 -0.1720277411 -0.7265874511 0.6651895461 1.829255015e-41
0.0374451 0.04326373333 -0.350342 0.7387076946 -0.1516483769 0.6567447843 1.829255015e-41
0.0056928 0.05507406667 -0.336182 0.01381009691 0.1803079459 0.9835132566 1.398776127e-41
-0.0281677 0.0445862 -0.341309 -0.3377479283 -0.3460518242 0.8753139276 1.578142331e-41
0.01286911111 0.05510797778 -0.3363988889 0.19185305 0.2049551407 0.9597842453 1.398776127e-41
-0.04470445 0.0455665625 -0.349578875 -0.5909737863 -0.007756848436 0.8066534666 1.829255015e-41
-0.029449475 0.022460925 -0.359375 0.07756356274 -0.5589990679 0.8255325165 2.008621219e-41
0.02228545 0.05573526667 -0.340088 0.5338571009 0.09356416803 0.8403822596 1.54226909e-41
0.005787533333 0.03776555 -0.341797 -0.09739716288 -0.7789831341 0.6194344755 1.614015571e-41
0.0252533 0.0568542 -0.342285 -0.5640139644 -0.05787601111 -0.8237345539 1.614015571e-41
0.0349731 0.0316467 -0.350342 0.4405513155 -0.1584257064 0.8836378409 1.829255015e-41
-0.00704829 0.045105 -0.336182 -0.0952317999 -0.5498108699 0.8298427029 1.398776127e-41
-0.0375977 0.05630495 -0.346191 -0.3996671839 0.3969384489 0.8262602556 1.721635293e-41
-0.03697205 0.04822793333 -0.344238 -0.4915068694 -0.05657775981 0.8690339202 1.685762053e-41
-0.034202575 0.05516815 -0.34301775 -0.5368841674 0.2759458926 0.7972510615 1.649888812e-41
0.04552543333 0.03290813333 -0.3548993333 0.3586866998 0.1912349106 0.9136591598 1.936874737e-41
-0.00303841 0.0545654 -0.333252 0.2190931477 0.1345211355 0.9663861841 1.362902886e-41
-0.02171325 0.05331423333 -0.335205 -0.352249464 -0.06503529147 0.9336437897 1.362902886e-41
0.0445862 0.02236175 -0.354248 0.2258032578 0.2559882736 -0.9399377067 1.936874737e-41
0.01342228571 0.03083582857 -0.3477262857 -0.2605317478 -0.7494842278 0.6086021695 1.793381775e-41
-0.01969571111 0.05322945556 -0.3346627778 -0.3048361985 -0.07046408014 0.9497945596 1.362902886e-41
-0.03931343333 0.04038153333 -0.3467337778 -0.3877361034 -0.2253297742 0.8938049043 1.757508534e-41
-0.0117213 0.05300903333 -0.333252 -0.08948494017 0.09492563623 0.9914542698 1.362902886e-41
0.0349731 0.0357971 -0.350342 0.5189985508 -0.1206038576 0.8462240919 1.829255015e-41
-0.006979623333 0.05297173333 -0.3330348889 -0.001901264324 0.09733000205 0.9952503484 1.362902886e-41
-0.00812531 0.0339355 -0.348145 0.0853525284 0.7445978168 -0.662034015 1.793381775e-41
-0.00303841 0.05300903333 -0.333252 0.2286440483 0.09207254228 0.9691462976 1.362902886e-41
-0.001860615 0.05316163333 -0.334229 0.3041186783 0.0748075755 0.9496924008 1.362902886e-41
0.000516296 0.05327608333 -0.334961 0.3625853754 0.09614478479 0.9269778994 1.362902886e-41
-0.02948675556 0.02550762222 -0.3570964444 0.1613286554 -0.6559555884 0.7373569902 1.972747978e-41
-0.0382996 0.0549011 -0.345215 -0.4489369199 0.262263586 0.8542092562 1.721635293e-41
-0.031311 0.05330403333 -0.340088 -0.5171213135 0.1104662516 0.8487536476 1.54226909e-41
-0.02964273333 0.0532023 -0.3394366667 -0.5027775863 0.09278483735 0.8594217083 1.506395849e-41
0.020446775 0.032909375 -0.34497075 0.102447561 -0.5839278673 0.8053153066 1.721635293e-41
0.0100891 0.02494814 -0.3563964 0.4454205295 0.5554153982 -0.7022209676 1.972747978e-41
-0.01724753333 0.0323792 -0.349121 0.0748729319 -0.6394980332 0.7651380984 1.829255015e-41
-0.0246175 0.05278184444 -0.3368326667 -0.4781196252 -0.063470291 0.8759983711 1.434649368e-41
0.003532411429 0.05278668571 -0.336182 0.07734438638 0.137206649 0.9875181929 1.398776127e-41
0.005374908 0.05299072 -0.336182 -0.03957895556 0.1892850102 0.9811241976 1.398776127e-41
0.01043701667 0.0529175 -0.335205 0.09239161344 0.1528852988 0.9839155834 1.362902886e-41
0.01286063333 0.05029296667 -0.336182 0.322470443 -0.05755460588 0.9448281752 1.398776127e-41
0.02278307778 0.04058496667 -0.3417427778 0.2690915002 -0.2576060459 0.9280241859 1.614015571e-41
-0.04892983333 0.02009073333 -0.361328 0.009012728126 0.4849311052 -0.8745059142 2.044494459e-41
0.0152969 0.0528361 -0.337158 0.3066478778 0.02337471926 0.9515359697 1.434649368e-41
0.02244785714 0.05316597143 -0.3399484286 0.5469752456 0.04897963214 0.8357147099 1.54226909e-41
-0.032135 0.0323792 -0.349121 -0.04393534429 -0.7488804146 0.6612471627 1.829255015e-41
0.01530198889 0.04805162222 -0.3372665556 0.2889942091 -0.1200868193 0.949769184 1.434649368e-41
-0.03935894286 0.05340141429 -0.345215 0.4777783776 -0.1895307373 -0.8577913042 1.721635293e-41
-0.0372963 0.0530433625 -0.344360125 -0.4746289023 0.138277598 0.8692564127 1.685762053e-41
0.0005187839375 0.0428467 -0.33715825 -0.05440405576 -0.5765798043 0.8152275314 1.434649368e-41
-0.0348002 0.05291747778 -0.3429363333 -0.5785007621 0.08303042307 0.8114448947 1.649888812e-41
-0.032608 0.05266316667 -0.341309 -0.5850634042 0.08496858999 0.8065241173 1.578142331e-41
0.02522786667 0.0527649 -0.3419596667 0.5429946087 0.1404031548 0.8279153393 1.614015571e-41
0.02748106667 0.05280558333 -0.3430991667 0.5131229828 0.1957246226 0.8357013083 1.649888812e-41
-0.04144798333 0.05236306667 -0.3463538333 -0.5080191381 0.01967308493 0.8611210862 1.721635293e-41
-0.0213165 0.05133055 -0.335205 -0.349399964 -0.1692027839 0.9215693588 1.398776127e-41
-0.00856018 0.0490417 -0.333252 -0.04564227459 -0.3971224994 0.9166299707 1.362902886e-41
0.003372826667 0.0367126 -0.343262 -0.0983955742 -0.7946318159 0.5990647612 1.649888812e-41
0.01522825714 0.04360528571 -0.338135 0.2196239897 -0.3314677016 0.9175480728 1.470522608e-41
-0.01965194545 0.05063142727 -0.3351162727 -0.276720544 -0.2450387959 0.9291833668 1.362902886e-41
-0.01731236667 0.05043539167 -0.3345543333 -0.212485936 -0.3541983202 0.9107103145 1.362902886e-41
-0.03437974444 0.03543767778 -0.3467337778 -0.2595958648 -0.5463298477 0.7963251123 1.757508534e-41
0.0226644 0.04788886667 -0.3397623333 0.4413664353 -0.08001477086 0.8937523741 1.54226909e-41
-0.0141878 0.0509262125 -0.333252 -0.1499563126 -0.2752277223 0.9496119235 1.362902886e-41
-0.0117213 0.05062866667 -0.333252 -0.118039094 -0.224598036 0.967275811 1.362902886e-41
-0.002708435 0.0397339 -0.341309 -0.09655848312 -0.7899487033 0.6055225062 1.614015571e-41
-0.0463257 0.04574583333 -0.350342 -0.6292738524 0.01533609549 0.7770323178 1.829255015e-41
-0.0417786 0.05024211111 -0.3468423333 -0.5599957754 -0.05334737575 0.8267761421 1.757508534e-41
-0.009351106667 0.05062866667 -0.333252 -0.04962090263 -0.1830022461 0.9818594319 1.362902886e-41
-0.00698471 0.05062866667 -0.333252 0.06313029013 -0.2142232167 0.9747425198 1.362902886e-41
-0.00461642 0.05062866667 -0.333252 0.145152508 -0.178108121 0.9732462415 1.362902886e-41
-0.05705771667 0.04544576667 -0.3575846667 0.3869164622 -0.07193505557 -0.919304628 1.972747978e-41
-0.00303841 0.0514221 -0.333252 0.2492385247 -0.1102499339 0.9621460959 1.362902886e-41
0.02523634444 0.04305351111 -0.3420681111 0.3227557679 -0.1946779201 0.9262446878 1.614015571e-41
-0.00215744625 0.0506820875 -0.334229 0.2676776029 -0.1136853091 0.9567781098 1.362902886e-41
-0.0348002 0.05047606667 -0.3429363333 -0.5298412827 -0.02169897205 0.8478191846 1.649888812e-41
0.00311809 0.05022853333 -0.335205 0.04318272841 0.06419844935 0.9970024128 1.362902886e-41
0.0289764 0.0162506 -0.358398 0.2383852238 0.6850723225 -0.6883664707 2.008621219e-41
0.01043701667 0.0505371 -0.335205 0.1170235285 0.03339426977 0.9925675375 1.362902886e-41
0.0120316 0.0517273 -0.335205 0.2706649363 0.02074149708 0.9624501455 1.362902886e-41
0.0312805 0.0534363 -0.346191 0.5684040518 0.3453561365 0.7467569704 1.721635293e-41
0.03268433333 0.03804013333 -0.3479821667 0.6114999537 -0.2962119679 0.7337072146 1.793381775e-41
0.0331344375 0.052886975 -0.347290125 -0.5644856359 -0.4100473817 -0.7163917306 1.757508534e-41
-0.0472641 0.052734375 -0.35253875 0.656203467 -0.1899863166 -0.7302754339 1.901001497e-41
-0.03450775 0.031440725 -0.350342 -0.04941629806 -0.7200972958 0.6921112007 1.829255015e-41
-0.0484009 0.05284626667 -0.353271 -0.5685086149 0.1680864385 0.805322857 1.901001497e-41
-0.02228355 0.0502128625 -0.336304 -0.3599247037 -0.2758593328 0.8912664227 1.398776127e-41
-0.015121475 0.050186175 -0.334229 -0.156254887 -0.3212064479 0.9340293508 1.362902886e-41
0.0152969 0.05044556667 -0.337158 0.3151509477 -0.06318700932 0.9469357328 1.434649368e-41
0.0193481 0.05059813333 -0.338135 0.3482051681 -0.03388740671 0.9368056386 1.470522608e-41
0.020607 0.05074056667 -0.339111 0.4279741165 0.02474363425 0.9034522169 1.506395849e-41
-0.0342916 0.04376223333 -0.343262 -0.3637522821 -0.2177103356 0.905696686 1.649888812e-41
0.03781125 0.048172 -0.3497315 0.7813405089 0.05356754705 0.6218018391 1.829255015e-41
0.02274115455 0.0505593 -0.3398215455 0.4884516317 0.09485994217 0.8674195034 1.54226909e-41
-0.0435791 0.0520935 -0.348145 -0.5924265198 -0.07231055002 0.8023727332 1.793381775e-41
-0.03697205 0.05067953333 -0.344238 -0.5043492511 -0.01553920308 0.8633599285 1.685762053e-41
-0.0324358 0.0501273 -0.341309 -0.5235428011 -0.1453779367 0.8395047295 1.578142331e-41
0.03764998571 0.02546474286 -0.353271 0.1903978875 -0.2767655334 0.9418861311 1.901001497e-41
0.02519395556 0.05027262222 -0.3415258889 0.4715828194 0.1006478321 0.8760591637 1.578142331e-41
0.010425565 0.0374985 -0.341309 -0.04041529088 -0.7036341787 0.7094121136 1.578142331e-41
0.0130539 0.0372925 -0.341309 -0.03215422292 -0.6579653326 0.7523614338 1.578142331e-41
0.02772011111 0.05044215556 -0.3427192222 0.463185923 0.166784592 0.8704261603 1.614015571e-41
0.03053938571 0.05081612857 -0.3443775714 0.5143328142 0.3236373788 0.794179201 1.685762053e-41
0.0347595 0.0520935 -0.348145 -0.564111815 -0.3636113177 -0.7413262911 1.793381775e-41
-0.0611572 0.0392761 -0.359375 0.4362373031 -0.006646840469 -0.8998071098 2.008621219e-41
-0.0468567 0.05076904 -0.3517088 0.6741950419 -0.1327032817 -0.726533471 1.865128256e-41
-0.0435791 0.05044556667 -0.348145 0.6181689939 0.01576422529 -0.785887132 1.793381775e-41
-0.0400696 0.0501404 -0.346191 -0.510239766 -0.04758747077 0.8587146289 1.721635293e-41
-0.0279999 0.0499268 -0.339111 -0.4212280717 -0.1967522263 0.8853561278 1.506395849e-41
0.03549193333 0.04535928889 -0.347168 0.7131484192 -0.1087484997 0.6925266031 1.757508534e-41
-0.0205841 0.0494995 -0.336182 -0.308525717 -0.3337683953 0.8907359543 1.398776127e-41
-0.01177343333 0.04808045 -0.334717 -0.1149141561 -0.5527184105 0.82540723 1.362902886e-41
-0.00698471 0.0490417 -0.333252 0.03497440905 -0.3423712038 0.9389136007 1.362902886e-41
0.0293884 0.0501251 -0.343262 0.4607898673 0.2011047955 0.8644244093 1.649888812e-41
0.02086386667 0.0266724 -0.350342 -0.14584198 -0.725618865 0.6724636641 1.829255015e-41
-0.050018275 0.050674425 -0.354248 -0.5616402528 0.1661783804 0.81052142 1.936874737e-41
0.00600052 0.028656 -0.354248 -0.1978019533 -0.7778770707 0.5964743499 0
-0.04871828 0.05013428 -0.3530758 -0.5828617055 0.1495440666 0.7986919334 1.901001497e-41
-0.02738952222 0.04807874444 -0.3392195556 -0.3868591072 -0.2950810772 0.8736516406 1.506395849e-41
0.0281423 0.03060913333 -0.3478193333 0.2969438705 -0.3734058889 0.8788585665 1.793381775e-41
0.00805664 0.04776003333 -0.335205 -0.09521710021 0.1569225606 -0.9830101799 1.362902886e-41
-0.02224393333 0.04803806667 -0.3371581111 -0.3145373568 -0.4107032133 0.8557973602 1.434649368e-41
-0.0189362 0.0485535 -0.335205 -0.2452973499 -0.3645990582 0.8982743105 1.362902886e-41
-0.0519511 0.035397 -0.3545736667 -0.45905555 -0.03521811307 0.8877092353 1.936874737e-41
-0.047073375 0.029705025 -0.354248 -0.2298565708 -0.4761600358 0.8487859431 1.936874737e-41
-0.007013108889 0.0476583 -0.3345543333 -0.0330446161 -0.4868704319 0.8728489193 1.362902886e-41
-0.044559475 0.03588865 -0.350189375 -0.4312651304 -0.2633568079 0.8629331255 1.829255015e-41
0.00051581925 0.04776003333 -0.335205 0.1287053178 -0.1438424113 0.9811953434 1.362902886e-41
-0.031867975 0.0253639375 -0.356567375 0.1071274029 -0.6932455192 0.712695145 1.972747978e-41
0.003294626667 0.04776003333 -0.335205 0.003576065968 -0.1093361604 0.9939983983 1.362902886e-41
-0.056793225 0.030803675 -0.357178 0.5200873029 0.057155922 -0.8521985672 1.972747978e-41
0.03039211111 0.02030436667 -0.3548993333 -0.02223903936 -0.6522615629 0.7576676571 1.936874737e-41
0.00567627 0.04776003333 -0.335205 -0.03411764511 -0.06713365515 0.9971604979 1.362902886e-41
-0.01693309091 0.04569591818 -0.3369806364 -0.1354573776 -0.5586464151 0.8182698098 1.434649368e-41
-0.03221131667 0.0312195 -0.3501385 0.01376934874 -0.7496669306 0.6616720473 1.829255015e-41
0.01286487778 0.04792616667 -0.3362904444 0.3253157588 -0.1480970384 0.9339362528 1.398776127e-41
-0.0435791 0.04797363333 -0.348145 -0.5810459934 -0.009953398138 0.813809857 1.793381775e-41
0.0177409 0.04818726667 -0.338135 0.3121172959 -0.1107128521 0.9435705898 1.470522608e-41
0.0193481 0.048584 -0.338135 0.3240890924 -0.08883033142 0.94184682 1.470522608e-41
-0.03215898571 0.02967398571 -0.3521552857 0.05058988782 -0.730920443 0.6805850199 1.865128256e-41
0.02043588571 0.04821341429 -0.339111 0.3254350109 -0.07954529118 0.9422126089 1.506395849e-41
0.0373535 0.05018615 -0.349121 0.6711206519 0.1598088129 0.7239186515 1.829255015e-41
-0.03224691111 0.0478753 -0.3417427778 -0.4937719742 -0.1770956833 0.8513673452 1.578142331e-41
-0.01726278333 0.0473836 -0.336182 -0.1674593174 -0.4847074059 0.8584964226 1.398776127e-41
-0.01438011667 0.04079691667 -0.3399251667 -0.07314948489 -0.6479225037 0.7581857174 1.54226909e-41
-0.05247501667 0.02769216667 -0.356201 -0.1525412614 -0.2841759356 0.9465596659 1.972747978e-41
-0.04700142857 0.03570558571 -0.3517367143 -0.4350381223 -0.2301355071 0.8705053018 1.865128256e-41
0.024292 0.0480652 -0.340088 0.4263035798 -0.04693424009 0.9033617409 1.54226909e-41
0.043548575 0.03305815 -0.354248 0.3774705728 0.1182037535 0.918446427 1.936874737e-41
0.03012275 0.04073335 -0.344604375 0.5543655529 -0.289232425 0.7803995375 1.685762053e-41
-0.04898944286 0.0328631 -0.3531315714 -0.4130656798 -0.2238390627 0.882764305 1.901001497e-41
0.02540805714 0.04769461429 -0.341309 0.4642477934 -0.0841612881 0.8816977168 1.578142331e-41
-0.04153445 0.0262146 -0.355225 -0.08722304891 -0.6828148081 0.725366168 1.936874737e-41
-0.0473022 0.04838056667 -0.351318 -0.6518176475 0.09663601704 0.7521936151 1.865128256e-41
0.0312805 0.0399017 -0.346191 0.5791138728 -0.3187577749 0.7503469886 1.721635293e-41
0.02767095556 0.04793634444 -0.3421765556 0.4488709605 0.04894339347 0.8922552354 1.614015571e-41
0.0311127 0.0490417 -0.344238 0.5099659545 0.2283263019 0.829338185 1.685762053e-41
-0.03720093333 0.0316467 -0.350342 0.1568437914 0.6108354551 -0.7760670537 1.829255015e-41
0.032680525 0.0481987 -0.3447265 0.5888001774 0.1411810002 0.7958531751 1.721635293e-41
-0.0463257 0.0482483 -0.350342 -0.652796644 0.05858334131 0.7552645455 1.829255015e-41
-0.01184252222 0.04556952222 -0.3366157778 -0.1080523411 -0.5584283429 0.8224855485 1.398776127e-41
-0.00944179 0.04553562222 -0.3363988889 -0.1169450075 -0.5769578984 0.8083584902 1.398776127e-41
-0.04182943333 0.04784477778 -0.3472765556 -0.5615557766 -0.05755541596 0.8254347242 1.757508534e-41
-0.0400696 0.04769896667 -0.346191 -0.5054483423 -0.06039695918 0.8607404839 1.721635293e-41
-0.0142161 0.0471191 -0.336182 0.1321370545 0.529515997 -0.8379454682 1.398776127e-41
-0.0463257 0.0391235 -0.350342 -0.5668372276 -0.113388432 0.8159893509 1.829255015e-41
0.03549193333 0.04783121111 -0.347168 0.6822654925 0.1021605718 0.7239316372 1.757508534e-41
-0.0502319 0.0487976 -0.354248 -0.5770530741 0.1263102344 0.8068800867 1.936874737e-41
-0.04909515 0.04766845 -0.352905 -0.6115098953 0.09060097607 0.7860325128 1.901001497e-41
-0.02709807 0.04561158 -0.3397949 -0.3425642837 -0.3520519533 0.8710391115 1.54226909e-41
-0.0239105 0.0465698 -0.338135 -0.2588748437 -0.3982881974 0.8799717763 1.470522608e-41
-0.01971741 0.045636 -0.3376465 -0.2094193379 -0.5186497386 0.8289426938 1.434649368e-41
0.008349525556 0.03303017778 -0.3472765556 -0.203668185 -0.8028332336 0.5603374604 1.757508534e-41
-0.04966226667 0.0271301 -0.356201 -0.04057276084 -0.4980062889 0.8662237513 1.972747978e-41
-0.03939476667 0.02060782222 -0.3602434444 0.0595054554 -0.5388244874 0.8403137941 2.044494459e-41
-0.01424492222 0.04560343333 -0.3368326667 -0.09306294795 -0.5512772934 0.8291155731 1.434649368e-41
-0.007026673333 0.0461731 -0.335205 -0.08728078216 -0.5349967558 0.8403335864 1.362902886e-41
0.0205027 0.0343628 -0.344238 0.1485657459 -0.546508606 0.8241702268 1.685762053e-41
-0.004645666667 0.04577635 -0.335205 -0.0518651107 -0.5312407642 0.8456318707 1.362902886e-41
-0.00226307 0.04577635 -0.335205 0.01001284988 -0.461800507 0.8869272995 1.362902886e-41
-0.03384398571 0.0381862 -0.3450754286 -0.3248324139 -0.3960737078 0.858841965 1.721635293e-41
0.00051581925 0.04577635 -0.335205 0.01590155761 -0.3206975272 0.9470481701 1.362902886e-41
0.00313568 0.0458557 -0.335205 -0.02229856797 -0.3012854527 0.9532732294 1.362902886e-41
-0.04199215 0.0222473 -0.359375 -0.07117621173 -0.5354930788 0.8415349722 2.008621219e-41
0.00805664 0.0461731 -0.335205 0.09839578156 -0.2689518047 0.9581143966 1.362902886e-41
0.01047005667 0.04550173333 -0.336182 0.176335406 -0.3646499696 0.9142954797 1.398776127e-41
0.01288606667 0.04560343333 -0.3368326667 0.2379271929 -0.2979206488 0.9244641355 1.434649368e-41
-0.0213089 0.0274353 -0.3547365 0.256774459 0.7662139568 -0.5890526713 1.936874737e-41
-0.0450287 0.04320271667 -0.3497315 -0.5775243957 -0.006322273573 0.8163489457 1.829255015e-41
0.0454673625 0.0353660625 -0.355225 0.4092698458 0.1195956444 0.9045413618 1.936874737e-41
0.0176410875 0.04587555 -0.338135 0.3097255789 -0.2113184105 0.9270461667 1.470522608e-41
-0.0571856 0.04061892857 -0.357178 -0.4259278869 0.07482853025 0.9016574329 1.972747978e-41
0.02021281667 0.04552715 -0.3391924167 0.352872143 -0.2496225473 0.9017592997 1.506395849e-41
0.02249315556 0.04548815556 -0.3398708889 0.3663252717 -0.2585052909 0.8938572648 1.54226909e-41
-0.03857423333 0.04578146667 -0.345215 -0.4874568386 -0.06312939367 0.8708619352 1.721635293e-41
-0.03706578571 0.04558454286 -0.3445171429 -0.4618028889 -0.08287870981 0.883102039 1.685762053e-41
-0.03001624286 0.045275 -0.341309 -0.3853928783 -0.3053821497 0.8707548863 1.578142331e-41
0.003319103333 0.0413208 -0.3376465 -0.02313991346 -0.545487097 0.8377997203 1.470522608e-41
-0.041828175 0.0381584 -0.348145 -0.3916303324 -0.24128674 0.8879225145 1.793381775e-41
-0.0288849 0.0456543 -0.340088 -0.3834515385 -0.3050355614 0.8717328857 1.54226909e-41
0.0056928 0.045105 -0.336182 0.03497139569 -0.3960295247 0.9175715869 1.398776127e-41
0.008082073333 0.045105 -0.336182 0.104696835 -0.3916041696 0.9141579443 1.398776127e-41
0.01522826667 0.0244598 -0.354248 0.2062759047 0.492048587 -0.8457768259 1.936874737e-41
-0.0382996 0.04264323333 -0.345215 -0.4258085741 -0.1728210671 0.8881553564 1.721635293e-41
0.02519395556 0.04541693333 -0.3415258889 0.4167322039 -0.1391162614 0.8983211764 1.578142331e-41
0.0276896 0.04552545556 -0.3423935556 0.3986906951 -0.08669137963 0.9129788247 1.614015571e-41
-0.026474 0.0436401 -0.340088 -0.2711870875 -0.3934631763 0.8784328617 1.54226909e-41
-0.057251 0.0473226 -0.3579913333 0.3955474988 -0.009643837365 -0.9183948892 2.008621219e-41
-0.002270063333 0.0447083 -0.336182 0.002656918392 -0.4594948308 0.8881764696 1.398776127e-41
-0.0435791 0.0463257 -0.348145 -0.5708782537 -0.02597877138 0.8206236183 1.793381775e-41
-0.03703308333 0.02504223333 -0.3565266667 0.0300253219 -0.7107806571 0.7027726073 1.972747978e-41
-0.04184976667 0.04539996667 -0.3474936667 -0.5506930538 -0.04532758042 0.833476197 1.757508534e-41
-0.0357361 0.0453644 -0.344238 -0.4234427203 -0.1494758154 0.8935061518 1.685762053e-41
0.0402527 0.03773668889 -0.3529456667 0.4683211529 0.1354283977 0.8731176592 1.901001497e-41
-0.0299988 0.0285797 -0.353271 0.167181904 -0.7328223962 0.6595616321 1.936874737e-41
-0.02224475 0.044576 -0.339111 -0.2216435009 -0.4776340581 0.8501410854 1.506395849e-41
-0.004658383333 0.0447083 -0.336182 -0.06225594914 -0.506084862 0.8602338689 1.398776127e-41
-0.016849525 0.0426025375 -0.339111 -0.1282305308 -0.5746263617 0.8083077851 1.506395849e-41
0.0005173245 0.0447083 -0.336182 0.01285116103 -0.4210667117 0.9069386264 1.398776127e-41
-0.0592855 0.0357666 -0.358398 -0.4603354425 -0.07090748144 0.8849087012 2.008621219e-41
0.008579255 0.0259018 -0.3566895 0.3282261642 0.6802754368 -0.6553570898 1.972747978e-41
0.0183309 0.044576 -0.339111 0.2954547289 -0.2553003539 0.9206129656 1.506395849e-41
-0.0396576 0.0427653 -0.346191 -0.436422242 -0.138260952 0.8890554177 1.721635293e-41
-0.0473022 0.04089356667 -0.351318 -0.6136968576 -0.01892779454 0.789314833 1.865128256e-41
0.03781125 0.04568481667 -0.3497315 0.7700015994 -0.1078911084 0.6288537554 1.829255015e-41
0.0398102 0.0469208 -0.352783 0.7596164416 -0.08406805611 0.6449150515 1.901001497e-41
0.0412292 0.0471191 -0.354248 0.6724893625 -0.008806014642 0.7400543977 1.936874737e-41
-0.009535478333 0.04075625 -0.3395995 -0.01553918312 -0.7356790019 0.6771520804 1.54226909e-41
-0.0584412 0.046814 -0.358398 0.4070626446 -0.06468346981 -0.9111070475 2.008621219e-41
-0.05200196667 0.04552543333 -0.3548993333 -0.5734519193 0.02566232178 0.8188371887 1.936874737e-41
-0.04915363333 0.04522025556 -0.3526203333 -0.6253718772 0.02952900065 0.7797679484 1.865128256e-41
0.0201626125 0.0429267875 -0.340088 0.324773191 -0.3499468719 0.878669199 1.54226909e-41
-0.05700685 0.03313193333 -0.357178 0.511627938 0.03275002155 -0.8585827212 1.972747978e-41
-0.0199585 0.0443115 -0.339111 -0.2023791875 -0.5320885537 0.8221462373 1.506395849e-41
-0.01870725 0.0441895 -0.338135 -0.1553166114 -0.5234002923 0.8378119624 1.470522608e-41
-0.0165024 0.0439835 -0.338135 -0.1355120768 -0.5200998657 0.8432867879 1.470522608e-41
-0.007079441667 0.042907725 -0.3376465 -0.08319749822 -0.6465316176 0.7583370252 1.434649368e-41
-0.009398657 0.04314576 -0.3376465 -0.1014662857 -0.5818574111 0.8069365192 1.434649368e-41
-0.02204895 0.03501895 -0.3466795 0.03177321573 -0.7074546639 0.7060441638 1.757508534e-41
-0.002276739167 0.0428467 -0.33715825 -0.050134302 -0.616184671 0.7860044548 1.434649368e-41
0.003309884444 0.04318916667 -0.3367242222 0.01696708345 -0.480409146 0.8768803627 1.434649368e-41
0.03544786667 0.02031114444 -0.3550078889 0.01662815629 -0.4598316132 0.8878504333 1.936874737e-41
0.005781346364 0.0429438 -0.3370694545 0.03852289823 -0.507285451 0.860916638 1.434649368e-41
0.010391226 0.03093264 -0.3496094 -0.2909691508 -0.7785209303 0.5560954184 1.829255015e-41
0.008106231667 0.0428467 -0.33715825 0.09116943578 -0.5004172964 0.8609707681 1.434649368e-41
0.010517125 0.04289755833 -0.3375650833 0.1631281751 -0.4556446527 0.8750869379 1.434649368e-41
0.01285622727 0.04304644545 -0.3378685455 0.1762654203 -0.4298702632 0.8855179605 1.470522608e-41
-0.0435791 0.0430298 -0.348145 -0.5498841774 -0.02545692639 0.8348528831 1.793381775e-41
-0.0435791 0.04052733333 -0.348145 -0.4891549521 -0.1361026406 0.8615123354 1.793381775e-41
0.02042644444 0.035848 -0.3429363333 0.1345859055 -0.4751942424 0.8695269208 1.649888812e-41
0.02324928333 0.01511255 -0.3614908333 0.08129050547 0.6725125686 -0.7356077072 2.044494459e-41
0.0169373 0.0441895 -0.338135 0.2567686822 -0.2798434129 0.9250716232 1.470522608e-41
0.0412292 0.0454305 -0.354248 -0.6518174361 0.01215843715 -0.7582784465 1.936874737e-41
-0.02974446667 0.0316467 -0.350342 0.03684119392 -0.7700312267 0.6369416271 1.829255015e-41
-0.058654825 0.044891375 -0.358398 -0.379125524 0.0788041592 0.9219835907 2.008621219e-41
-0.03698295714 0.04282488571 -0.3447962857 -0.4069844948 -0.18173448 0.8951738378 1.721635293e-41
-0.05700685 0.03566486667 -0.357178 -0.4984186045 -0.03055402654 0.8663979144 1.972747978e-41
-0.02984617778 0.04303994444 -0.3419596667 -0.3606698383 -0.3035976685 0.8818989304 1.614015571e-41
0.0218811 0.0436401 -0.340088 0.3486898675 -0.2599539014 0.9004661823 1.54226909e-41
-0.06144203333 0.03387453333 -0.359375 0.4121482223 0.06051322945 -0.90910505 2.008621219e-41
0.0228519625 0.04285815 -0.341309 0.3490896854 -0.2672089806 0.8981846983 1.578142331e-41
0.02773028889 0.04315185556 -0.3428277778 0.3663624381 -0.1605933758 0.9165087733 1.649888812e-41
0.03760783333 0.03815035556 -0.3516436667 0.4993907624 -0.03517706619 0.8656624287 1.865128256e-41
-0.004707655 0.04075625 -0.3395995 -0.02802866188 -0.7757145716 0.6304611785 1.54226909e-41
0.029590575 0.0434189 -0.343262 0.4216339511 -0.2298865308 0.8771413764 1.649888812e-41
0.03085328333 0.04294841667 -0.3444008333 0.5016668527 -0.2716489317 0.8213021532 1.685762053e-41
0.0233002 0.01343155 -0.362305 0.08727035103 0.6338541622 -0.7685133616 2.0803677e-41
0.0435791 0.0452728 -0.356201 -0.5510164012 -0.01196604348 -0.8344086166 1.972747978e-41
0.00674057 0.0323792 -0.349121 -0.1705104874 -0.8234223924 0.5412039703 1.829255015e-41
-0.01450348 0.042218 -0.339111 -0.07893513298 -0.5919021169 0.8021353557 1.506395849e-41
0.01554872 0.042218 -0.339111 0.228106302 -0.3493133386 0.9088166517 1.506395849e-41
0.03344116 0.04262694 -0.3463864 0.6285387707 -0.3390463366 0.6999904252 1.721635293e-41
0.038421625 0.042999275 -0.35156225 0.715211563 -0.1102999322 0.6901495092 1.865128256e-41
0.0210266 0.01537778 -0.3617188 0.04696826548 0.6693127188 -0.7414947515 2.044494459e-41
0.0001220106667 0.0368042 -0.344238 0.03431014252 0.7281483993 -0.6845602404 1.685762053e-41
-0.04918754444 0.04274156667 -0.3528372222 -0.6221214384 0.01034478677 0.7828524134 1.901001497e-41
-0.02493286667 0.0421448 -0.341309 -0.2045588827 -0.4756727132 0.8555063608 1.578142331e-41
-0.0573196625 0.0383148125 -0.357178 0.4485361148 -0.02293046796 -0.8934705073 1.972747978e-41
0.02534992222 0.0232137 -0.3524032222 -0.1149368431 -0.681279049 0.7229442437 1.865128256e-41
0.0055227275 0.04115295 -0.33789075 0.0159787082 -0.5450004479 0.8382834799 1.470522608e-41
0.01302848333 0.02312213333 -0.355225 0.2856722407 0.4270690933 -0.8579063821 1.936874737e-41
0.0137787 0.0419006 -0.339111 0.1306402645 -0.3798723104 0.9157675191 1.506395849e-41
0.0211334 0.0421448 -0.341309 0.3027531604 -0.2982721697 0.9051929278 1.578142331e-41
0.0365753 0.04278565 -0.3497315 0.6915339746 -0.2875162477 0.6626576562 1.829255015e-41
0.025665275 0.03284835 -0.34643525 0.1637314341 -0.4454929703 0.8801863615 1.721635293e-41
0.0452813 0.0252126 -0.3530541111 0.1914055376 0.1230738197 -0.9737642195 1.901001497e-41
0.0248947 0.024894675 -0.35156225 -0.1207149134 -0.6871236517 0.7164419006 1.865128256e-41
-0.01225026667 0.0339355 -0.348145 0.09204191487 -0.7420931975 0.6639472661 1.793381775e-41
0.04282226 0.02080382 -0.3548342 0.1243884921 0.1894865277 -0.9739724631 1.936874737e-41
0.03983053333 0.04275513333 -0.3529456667 0.6941814529 -0.02462842462 0.7193785868 1.901001497e-41
0.0422058 0.04303996667 -0.355225 0.553216409 0.09970713826 0.827049026 1.936874737e-41
0.0456733625 0.0431327875 -0.356811625 -0.3900989031 -0.1868954195 -0.9016057608 1.972747978e-41
-0.05886845 0.042984 -0.358398 0.3759217269 -0.06307182671 -0.9245024607 2.008621219e-41
-0.03434500833 0.04071809167 -0.34448225 -0.352713814 -0.2774416413 0.8936549116 1.685762053e-41
