# .PCD v0.7 - Point Cloud Data file format
VERSION 0.7
FIELDS x y z normal_x normal_y normal_z rgb
SIZE 4 4 4 4 4 4 4
TYPE F F F F F F F
COUNT 1 1 1 1 1 1 1
WIDTH 569
HEIGHT 1
VIEWPOINT 0 0 0 1 0 0 0
POINTS 569
DATA ascii
0.03099411538 0.02123083846 -0.253906 0.05463184615 0.1638109231 0.9375812308 1.805592689e-38
-0.0156097 -0.0162099 -0.254883 0.5780613333 -0.1436443333 0.7699716667 1.805592689e-38
-0.009434304286 0.03126745714 -0.255859 -0.03466814286 0.50931 0.8044088571 1.805592689e-38
0.02925875 0.0175323 -0.253906 -0.1803265 -0.6931825 0.6673855 1.805592689e-38
-0.01116945 -0.01329802 -0.256836 0.639124 0 0.7690982 1.805592689e-38
0.004109385 0.0384216 -0.260986 0 0 1 1.805592689e-38
-0.00987243 0.02454375 -0.254883 -0.27051725 0 0.91812225 1.805592689e-38
0.02810770667 0.01663308 -0.254883 -0.0536822 -0.07036693333 0.9624184 1.805592689e-38
-0.014127725 -0.038316725 -0.255371 0.3126614375 0.1561510625 0.8469041875 1.805592689e-38
-0.02656935 -0.018177025 -0.25293 0 0 1 1.805592689e-38
0.0034647 0.035675 -0.258789 0.089495 0.63751625 0.74117075 1.805592689e-38
0.0307668 0.0175323 -0.253906 0.1411813333 -0.5772796667 0.7711633333 1.805592689e-38
-0.02186205 -0.03990175 -0.253906 0 0 1 1.805592689e-38
0.01581256667 0.006256103333 -0.2603353333 0.01487975 -0.7191525 0.6805356667 1.805592689e-38
-0.01403234375 0.0039962525 -0.253723 0.435610125 -0.0712924375 0.834326 1.805592689e-38
0.000987958675 0.01655580625 -0.2528689375 0.10322525 -0.1851856875 0.929506875 1.805592689e-38
0.013072975 0.026962275 -0.254883 0 0.14925275 0.95055825 1.805592689e-38
0.0185051 0.0157928 -0.254883 -0.059558 -0.60894675 0.779969 1.805592689e-38
-0.01379903333 -0.003230095 -0.254883 0.40204525 -0.07870941667 0.8524566667 1.805592689e-38
0.0058019175 0.0166234875 -0.253845 0.11456575 -0.194782 0.92142625 1.805592689e-38
-0.00487137 -0.00487137 -0.261963 0 0 1 1.805592689e-38
-0.016644295 0.009352872 -0.25239265 0.27265215 -0.14122975 0.89221015 1.805592689e-38
-0.004197900455 0.009024882273 -0.2553266364 0.1965025455 -0.4581678636 0.8225611364 1.805592689e-38
0.01842881875 0.038940425 -0.262451 0.127145875 0.27144225 0.888710125 1.805592689e-38
-0.01416015263 -0.02824963158 -0.2550884737 0.3006590526 0.03162957895 0.883568 1.805592689e-38
0.020637525 0.00745392 -0.258789 0 -0.71413675 0.7000045 1.805592689e-38
0.008244322 0.03222654 -0.256836 0.037781 0.4576882 0.860701 1.805592689e-38
-0.01927014444 0.02142164444 -0.2536891111 0.03109666667 0.4657794444 0.8376695 1.805592689e-38
-0.0116892 0.004017235625 -0.255005 0.395333375 -0.113932625 0.8489811875 1.805592689e-38
-0.00142490775 0.03131105 -0.255859 0 0.294206 0.9042805 1.805592689e-38
-0.0091590775 0.01649665 -0.251953 0.0009735625 0.037238875 0.978564625 1.805592689e-38
0.021003725 0.02933979375 -0.255859 0.086866 0.2855165625 0.89118275 1.805592689e-38
-0.02407455 -0.01094815 -0.251953 0.0005661875 -0.000559 0.9916865 1.805592689e-38
-0.0126419 -0.035980225 -0.255859 0.641662 0 0.766987 1.805592689e-38
-0.001430152 0.00800323 -0.256836 0.154073 -0.6091835 0.7477315 1.805592689e-38
-0.01420671053 0.01180386842 -0.2526214737 0.2099548421 -0.2443987368 0.8974681579 1.805592689e-38
0.0034251225 0.009791066667 -0.255859 0 -0.4269355833 0.8453583333 1.805592689e-38
0.0109062125 0.0384216 -0.260986 0.12469575 0.1209845 0.92976025 1.805592689e-38
0.0307045 0.02857973333 -0.255859 0.01786425 0.28358375 0.9081781667 1.805592689e-38
-0.01665346 0.006668396 -0.2525392 0.2616608 0 0.90254516 1.805592689e-38
0.01322840625 0.0089473725 -0.25781275 0.064073625 -0.614757875 0.768916 1.805592689e-38
0.0276031 0.00259399 -0.263916 -0.546688 -0.546688 0.634243 1.805592689e-38
9.13143e-05 0.0355225 -0.257813 0 0 0 1.805592689e-38
-0.0365162125 -0.000817283825 -0.255432 -0.3030399375 -0.110589375 0.8812674375 1.805592689e-38
0.0009913603125 0.01420974375 -0.253662 0.1580690625 -0.2801264375 0.887894375 1.805592689e-38
-0.0068171025 0.02441216875 -0.25354 -0.3076935625 0.270414 0.8730241875 1.805592689e-38
-0.009694433333 -0.01061122917 -0.2581383333 0.7197966667 0 0.6687536667 1.805592689e-38
-0.009272576875 0.029390325 -0.255005 -0.0662771875 0.21384225 0.9248255 1.805592689e-38
-0.004066690588 0.006327909412 -0.2571808235 0.2251340588 -0.5497493529 0.7686980588 1.805592689e-38
-0.0108643 -0.0032558425 -0.256836 0.6388935 0 0.76929525 1.805592689e-38
-0.03643521818 -0.02346801818 -0.2573689091 -0.4965864545 0.1818405455 0.7883451818 1.805592689e-38
-0.01937865 -0.0056018825 -0.25293 0 0 1 1.805592689e-38
-0.0314789 -0.011035925 -0.253906 -0.2151489375 0.0307943125 0.9319964375 1.805592689e-38
-0.0237427 0.02879841667 -0.256836 -0.10002175 0.02019841667 0.9727645 1.805592689e-38
0.03093803889 0.01153268333 -0.2572159444 0.08712733333 -0.4824867778 0.8280642222 1.805592689e-38
0.008272381667 0.02427673889 -0.2538517778 0.08768294444 0.1175742222 0.9406565 1.805592689e-38
0.00847244 0.0022649775 -0.262085 -0.083563125 -0.201016 0.865582625 1.805592689e-38
-0.009351337 0.009832748 -0.253906 0.0956489 -0.2879855 0.8944652 1.805592689e-38
-0.011775975 0.0323486 -0.256836 0 0.58798875 0.80886875 1.805592689e-38
-0.006829369444 -0.005801942778 -0.260498 0.4893566667 0.1452377222 0.7279135556 1.805592689e-38
-0.008671568 0.003620146 -0.256836 0.516043 -0.260672 0.7813026 1.805592689e-38
0.01834412 0.0107422 -0.256836 0.0247257 -0.4716777 0.8324192 1.805592689e-38
-0.028965025 -0.0056018825 -0.25293 -0.1001999375 -0.065817375 0.95305975 1.805592689e-38
-0.02900696667 0.02124025556 -0.255859 -0.2788288889 0.2802086667 0.8780471111 1.805592689e-38
-0.0126419 -0.0383911 -0.255859 0.6028445 0 0.7934385 1.805592689e-38
0.003331130588 0.01904207647 -0.2528725294 0.1197452941 -0.08238441176 0.9527906471 1.805592689e-38
0.01572544167 0.0338033 -0.2587076667 0.07107125 0.4622385833 0.823343 1.805592689e-38
-0.0116295875 0.00940370375 -0.253723 0.1715304375 -0.292172125 0.8725585625 1.805592689e-38
-0.02627565 0.0231323 -0.255859 -0.1999375 0.501449 0.8112325 1.805592689e-38
-0.03645326 0.01445539 -0.2579106 -0.1661775 -0.1186245 0.9005548 1.805592689e-38
0.01079464562 0.03403474375 -0.2581179375 0.1291278125 0.5721718125 0.769644125 1.805592689e-38
-0.01929855 0.006652832 -0.251953 0 0 1 1.805592689e-38
0.00341439375 0.029403675 -0.255127 0 0.445501875 0.853344375 1.805592689e-38
-0.00788116 -0.0005213808667 -0.258789 0.7185526667 -0.2168106667 0.597277 1.805592689e-38
-0.01423184 0.01649665 -0.251953 0 0 1 1.805592689e-38
-0.03587846667 -0.01334761667 -0.255859 -0.357362 -0.1796365 0.8577058333 1.805592689e-38
-0.0383911 -0.0057125075 -0.257813 -0.78097075 -0.06344975 0.61137275 1.805592689e-38
-0.0351868 -0.02090455 -0.256836 -0.7939995 0 0.607919 1.805592689e-38
-0.007650586667 -0.02320862222 -0.2604437778 0.7521095556 0.02103444444 0.6339072222 1.805592689e-38
-0.0385437 -0.03547014286 -0.258789 0 0 0.8571428571 1.805592689e-38
-0.03230793333 0.009348555 -0.254883 -0.6122351667 0.1203251667 0.7542295 1.805592689e-38
-0.024180425 0.0165643875 -0.252991 -0.2500331875 0.1372601875 0.9128549375 1.805592689e-38
0.02076466667 0.006262780833 -0.2605793333 0.05266791667 -0.7102926667 0.6617470833 1.805592689e-38
0.02057458125 0.00895691 -0.258057 0.0414255 -0.47812775 0.8275666875 1.805592689e-38
-0.01949953846 -0.01120522308 -0.2530050769 0.1538276154 -0.001239230769 0.9453486923 1.805592689e-38
0.01318593846 0.03385104615 -0.2583385385 0.1181496154 0.5206657692 0.7911736154 1.805592689e-38
0.03479765 0.031463625 -0.25708025 -0.2896985 0.39489575 0.74800125 1.805592689e-38
-0.01580806667 -0.03804523333 -0.254883 0.3935098333 0.1432505 0.834684 1.805592689e-38
0.0058727275 0.0323486 -0.256836 0 0.58789775 0.80893525 1.805592689e-38
0.00583148 0.0118742125 -0.255066 0.12852425 -0.328985125 0.87558325 1.805592689e-38
-0.007369301818 -0.03356655455 -0.2606310909 0.6405692727 -0.006246 0.7373053636 1.805592689e-38
0.018253325 0.0351868 -0.26001 0.0332695 0.691444 0.71572775 1.805592689e-38
0.01577376875 0.01213885 -0.255859 0.0422606875 -0.202531125 0.9251421875 1.805592689e-38
-0.01177598 0.03344726 -0.256836 0.0514023 0.0514023 0.8686703 1.805592689e-38
0.008379617333 0.008866373333 -0.2572268 0.1423266667 -0.5663868 0.7800824 1.805592689e-38
-0.03671265 0.009045192857 -0.256836 -0.1642407857 0.1136815 0.9389561429 1.805592689e-38
-0.0115599375 0.0141291375 -0.2522583125 0.116648125 -0.319142875 0.87404775 1.805592689e-38
-0.03834023333 -0.0377299 -0.258789 0 0 0.3333333333 1.805592689e-38
-0.009601901538 -0.03078518462 -0.2581883846 0.7032654615 -0.002214307692 0.6896724615 1.805592689e-38
0.000999809525 0.03131105 -0.255859 0 0.294194625 0.904289 1.805592689e-38
-0.004756926667 0.00736618 -0.255859 0.144614 -0.5686653333 0.7776996667 1.805592689e-38
0.0184326 0.019035325 -0.253906 0 0 1 1.805592689e-38
-0.01399515 0.00937891125 -0.253052 0.2133289375 -0.1316835 0.915438375 1.805592689e-38
-0.03384396667 -0.025672925 -0.255859 -0.2285384167 -0.03248108333 0.9224418333 1.805592689e-38
-0.00623067 0.0357768 -0.2581383333 0 0.3802683333 0.85045 1.805592689e-38
0.003566048182 0.03700396364 -0.2602761818 0.02304309091 0.5631981818 0.7871801818 1.805592689e-38
-0.036506675 0.001603127625 -0.255371 -0.352882875 0.05145325 0.8829163125 1.805592689e-38
-0.0329895 -0.01194 -0.253906 -0.413879 0.419118 0.808112 1.805592689e-38
-0.006756305 0.0216712875 -0.25268575 -0.312345875 0.1558043125 0.882139875 1.805592689e-38
-0.01929855 0.0093364675 -0.251953 0 0 1 1.805592689e-38
-0.014946 -0.0032176975 -0.253906 0.649302 0 0.7605305 1.805592689e-38
-0.009223936364 0.02101132727 -0.2530187273 -0.2250404545 0.123725 0.8854449091 1.805592689e-38
0.01602745 0.0259552 -0.253906 -0.105047 0.55365975 0.80225775 1.805592689e-38
0.0034375175 0.0323486 -0.256836 0 0.58798875 0.808869 1.805592689e-38
0.03009795 0.0128174 -0.255859 0.2099545 -0.528161 0.7871435 1.805592689e-38
-0.0380859 -0.0005153811667 -0.255859 -0.5235156667 -0.1069106667 0.8167693333 1.805592689e-38
-0.029052725 -0.0206394125 -0.253662 -0.3023195625 0.042790625 0.8974344375 1.805592689e-38
-0.040863 -0.02100116667 -0.261963 -0.776114 0 0.630593 1.805592689e-38
-0.02646635 -0.000805437 -0.251953 0 0 1 1.805592689e-38
0.0084691025 0.0274887 -0.254883 0.13635275 0.272751125 0.889115625 1.805592689e-38
-0.02917152857 0.02416992143 -0.2572547143 -0.1419909286 0.3513185714 0.8774522857 1.805592689e-38
-0.024269125 -0.0356903 -0.253906 0 0 1 1.805592689e-38
-0.001864514333 0.01226744167 -0.253906 0.0791315 -0.34854475 0.8720569167 1.805592689e-38
0.03330230625 0.03147125625 -0.2571413125 -0.0139195625 0.3004485625 0.8964374375 1.805592689e-38
-0.02417375 -0.02327272 -0.25293 0 0 1 1.805592689e-38
-0.0335897 0.0015935885 -0.253906 -0.1990820833 0 0.9340193333 1.805592689e-38
0.0157299 0.00745392 -0.258789 0 -0.71413525 0.700007 1.805592689e-38
0.02836174286 0.009235381429 -0.2585101429 0 -0.6634942143 0.7464300714 1.805592689e-38
-0.0248566 0.0250397 -0.256836 -0.399875 0.399875 0.824742 1.805592689e-38
-0.01668245 0.0015868192 -0.2529299 0.36108005 -0.19714325 0.8557619 1.805592689e-38
-0.028965025 -0.013389575 -0.25293 -0.15241825 -0.020046625 0.9436141875 1.805592689e-38
-0.028995525 -0.0157995375 -0.253174 -0.291774 -0.033667375 0.8985406875 1.805592689e-38
-0.0329895 -0.00261593 -0.253906 -0.617113 -0.163488 0.7492525 1.805592689e-38
-0.03184626154 0.01194587692 -0.2551082308 -0.4929131538 0.2171070769 0.8128433846 1.805592689e-38
0.01337815 0.0050354 -0.260986 0 -0.62608525 0.77975475 1.805592689e-38
0.03270177143 0.03632028571 -0.2605677143 0 0.6136051429 0.7332794286 1.805592689e-38
-0.00648117 0.005812072 -0.256836 0.2603092 -0.5141754 0.7830524 1.805592689e-38
0.020839675 0.01722715 -0.253906 0 -0.32456025 0.880342 1.805592689e-38
0.005803682 0.002452086 -0.2621582 0 -0.2426402 0.8925434 1.805592689e-38
-0.038810725 0.0083312975 -0.25756875 -0.394012 0 0.307822 1.805592689e-38
0.010616305 0.02414856 -0.253906 0.01112385 0.0518938 0.98357225 1.805592689e-38
0.02354175833 0.01105438333 -0.25708025 0.09109266667 -0.57007975 0.7884788333 1.805592689e-38
-0.006915598824 -0.01065646588 -0.2606989412 0.4306918235 -0.1427807059 0.8153242353 1.805592689e-38
0.02334405 0.02636625 -0.254944 0.0538001875 0.1822294375 0.929278125 1.805592689e-38
0.003385692308 0.00672766 -0.2581883846 0.1008992308 -0.6782414615 0.6838199231 1.805592689e-38
-0.02981567143 0.02217755714 -0.256836 -0.2326944286 0.2331257143 0.8858124286 1.805592689e-38
-0.02407455 -0.000805437 -0.251953 0 0 1 1.805592689e-38
-0.01691435 0.01649665 -0.251953 0 0 1 1.805592689e-38
-0.0382385 -0.010253925 -0.256836 0 0 0.5 1.805592689e-38
0.0207862875 0.036235825 -0.260864 -0.123521 0.5767925 0.777007125 1.805592689e-38
-0.004237991429 0.03157263571 -0.255859 -0.007303357143 0.2078589286 0.9238043571 1.805592689e-38
-0.0126419 -0.0335388 -0.255859 0.64166775 0 0.7669765 1.805592689e-38
-0.01423184 0.01411245 -0.251953 0.04847185 -0.0807613 0.96973545 1.805592689e-38
0.0009879773 0.02435305 -0.25293 0.0278453125 0.1312674375 0.9580400625 1.805592689e-38
0.01336623125 0.0368271 -0.260742 0.0733463125 0.437207375 0.8425523125 1.805592689e-38
-0.019133745 -0.02604751 -0.253662 0.2229023 -0.15657985 0.91188135 1.805592689e-38
-0.00937938625 -0.00327038625 -0.25793475 0.68967675 -0.0434885 0.675795375 1.805592689e-38
-0.034576425 -0.040355675 -0.257202375 -0.48072275 -0.09240625 0.824332875 1.805592689e-38
-0.03419058571 0.006524766429 -0.2551618571 -0.459124 0.2492992143 0.8238942857 1.805592689e-38
0.0184326 0.01692706667 -0.253906 0.02643366667 -0.2264865 0.90278475 1.805592689e-38
0.02092265625 0.0389499625 -0.262512 -0.0600395 0.3215441875 0.8996601875 1.805592689e-38
-0.01116945 -0.00812435 -0.256836 0.590861625 -0.0313425 0.789490125 1.805592689e-38
-0.02680969333 0.02426656667 -0.256836 -0.1858791333 0.305584 0.8941701333 1.805592689e-38
-0.007314046667 -0.015646 -0.2606606667 0.7131471667 0 0.6751181667 1.805592689e-38
0.02332632857 0.03667995714 -0.2606374286 -0.1812875714 0.4376698571 0.8300077857 1.805592689e-38
0.0306348625 0.00657057875 -0.260559 -0.1109655 -0.299501625 0.87108825 1.805592689e-38
-0.004402875625 0.024347325 -0.2528689375 -0.0630138125 0.3186085625 0.884742 1.805592689e-38
0.02836937143 0.03383092143 -0.2585798571 -0.032919 0.5680157143 0.8002833571 1.805592689e-38
0.0033845925 0.02435305 -0.25293 0 0.150422375 0.9496825 1.805592689e-38
-0.02646635 0.006652832 -0.251953 -0.15638505 0.0164189 0.94088645 1.805592689e-38
-0.00928067875 0.006439446875 -0.255249 0.3028691875 -0.3027680625 0.8769128125 1.805592689e-38
-0.02646635 0.00158107225 -0.251953 -0.0907293125 0.0154685 0.970874625 1.805592689e-38
-0.02417375 -0.0283661 -0.25293 0.087896625 -0.0001320625 0.97008375 1.805592689e-38
-0.0323944125 0.019485475 -0.256836 -0.317234 0.170819 0.887073125 1.805592689e-38
-0.007369301818 -0.02829950909 -0.2606310909 0.7072345455 0.02721472727 0.6761282727 1.805592689e-38
-0.001645885 0.00479253 -0.258789 0.1579585 -0.6178478333 0.7287931667 1.805592689e-38
0.00643158 0.0278625 -0.254883 0.1628865 0.624794 0.743175 1.805592689e-38
-0.01929855 0.01172445 -0.251953 0 0 1 1.805592689e-38
0.02845678333 0.01913620556 -0.253906 -0.0454555 -0.09489194444 0.9549742222 1.805592689e-38
-0.01415734211 -0.008303591579 -0.2550371053 0.3437288421 -0.07227863158 0.8716665789 1.805592689e-38
-0.02169035 0.0039677625 -0.251953 0 0 1 1.805592689e-38
-0.007072793636 0.006759642727 -0.255859 0.2742666364 -0.3892980909 0.8509438182 1.805592689e-38
-0.02654645 -0.0109825 -0.25268575 -0.2894146875 0.02647125 0.899677125 1.805592689e-38
0.0244293 0.0299072 -0.256836 0.31968 0.639361 0.699301 1.805592689e-38
-0.028183 -0.03990175 -0.253906 -0.6445385 0 0.761877 1.805592689e-38
-0.0408325 0.000702381 -0.257813 0 0 0 1.805592689e-38
-0.00548935 -0.01107536667 -0.261963 0.6910536667 0.002680333333 0.665059 1.805592689e-38
0.028167725 0.02454375 -0.254883 0 0.30056525 0.899575375 1.805592689e-38
-0.013974 0.03112796 -0.255859 -0.2089184 0.4436834 0.8408872 1.805592689e-38
0.020839675 0.019035325 -0.253906 0 0 1 1.805592689e-38
0.0131068375 0.02945709375 -0.255554 0.0040130625 0.4386259375 0.8518253125 1.805592689e-38
0.025753025 0.02454375 -0.254883 0 0.3007505 0.8994355 1.805592689e-38
-0.03844196667 0.01171366667 -0.2581383333 -0.1649163333 0.3162493333 0.8688363333 1.805592689e-38
-0.02417375 -0.02057645 -0.25293 0 0 1 1.805592689e-38
-0.0362854 -0.010820022 -0.255859 -0.203538 0.02982233333 0.9280732 1.805592689e-38
0.02582073125 0.0143184625 -0.255554 0.0844845 -0.325595875 0.8785804375 1.805592689e-38
0.01071676733 0.01421967333 -0.254883 0.06263453333 -0.2346629333 0.9142251333 1.805592689e-38
-0.009522588571 -0.01315524286 -0.2582312857 0.6816887857 0.04065128571 0.7102706429 1.805592689e-38
-0.01934431875 0.01892566875 -0.2525025625 -0.0424960625 0.3201575 0.89410375 1.805592689e-38
-0.00852966 -0.01068115 -0.26001 0.655425 -0.12103325 0.70818575 1.805592689e-38
0.006279945 0.013525 -0.254883 0.28024125 -0.4418965 0.81903125 1.805592689e-38
-0.02927113125 0.0191574 -0.255493 -0.29213425 0.2553280625 0.89574675 1.805592689e-38
-0.003725816 0.003293226 -0.26001 0.3536476 -0.6514862 0.6080798 1.805592689e-38
0.02367146667 0.00567627 -0.261963 0.137648 -0.5527333333 0.79202 1.805592689e-38
0.01334636667 0.006256103333 -0.2603353333 0.057863 -0.6446993333 0.7451525 1.805592689e-38
-0.00433858 -0.03543768889 -0.2631561111 0.4147626667 -0.05643077778 0.7070313333 1.805592689e-38
-0.00170454905 0.01653824 -0.25258805 0.10539865 -0.33371075 0.8715095 1.805592689e-38
-0.0332336 0.014033 -0.255859 -0.5186166667 0.1322673333 0.819205 1.805592689e-38
0.030929575 0.0335235875 -0.258301 0 0.531901 0.79452675 1.805592689e-38
0.01589062727 0.03856588182 -0.2620517273 0.04745254545 0.2016356364 0.8380756364 1.805592689e-38
-0.016712195 -0.00081031929 -0.2533692 0.2672089 -0.1050245 0.8966937 1.805592689e-38
0.010616305 0.01662825 -0.253906 0.0587675 -0.1404444375 0.948338625 1.805592689e-38
-0.02907561875 -0.02847385 -0.253845 -0.13398325 -0.0666121875 0.9470025 1.805592689e-38
0.0109482 0.0391846 -0.261963 0.248272 0.2423605 0.360031 1.805592689e-38
0.01343345 0.03886415 -0.261963 0.06611425 0.2733145 0.90456875 1.805592689e-38
0.0226959 0.03845824 -0.2621582 -0.0490534 0.469196 0.8295522 1.805592689e-38
0.02567231538 0.009086609231 -0.2584136154 0.1489743846 -0.5902150769 0.7542542308 1.805592689e-38
-0.0305786 -0.0299835 -0.253906 -0.633824 -0.318931 0.704663 1.805592689e-38
0.0346375 0.0128174 -0.255859 0 -0.641662 0.766987 1.805592689e-38
-0.00725729 0.001817268545 -0.2584340909 0.5968431818 -0.4170669091 0.6393638182 1.805592689e-38
0.005963325 0.0384216 -0.260986 0 0 1 1.805592689e-38
0.0084352525 0.0384216 -0.260986 -0.0218225 0.25653425 0.88149225 1.805592689e-38
-0.02417375 -0.02597045 -0.25293 0 0 1 1.805592689e-38
0.005946875625 0.0367508 -0.260254 0.022318875 0.45603875 0.837656125 1.805592689e-38
0.01088142812 0.036769875 -0.260376 0.0983346875 0.4366761875 0.8366335625 1.805592689e-38
0.02820294615 0.03653658462 -0.2602352308 0.06709853846 0.2597443846 0.9051198462 1.805592689e-38
0.03054045 0.03665815714 -0.260498 0.08115507143 0.3335677143 0.8750615714 1.805592689e-38
-0.001987266 0.03591922 -0.2580082 0 0.2925914 0.8707046 1.805592689e-38
0.01583418333 0.0365092 -0.2606606667 0.04345916667 0.5711600833 0.8115863333 1.805592689e-38
0.018390675 0.037323 -0.261963 0.07794675 0.592135 0.788976 1.805592689e-38
0.020877825 0.037323 -0.261963 -0.1036755 0.5379685 0.813956 1.805592689e-38
0.02549935 0.0361976625 -0.260132 0 0.16136475 0.934999 1.805592689e-38
-0.035675 -0.00475693 -0.255859 -0.645059 -0.324048 0.69202 1.805592689e-38
0.0255051 0.00134945 -0.264893 -0.1738345 -0.769463 0.582743 1.805592689e-38
-0.009205340625 0.0117864625 -0.253235 0.1151380625 -0.317226625 0.876205 1.805592689e-38
-0.009293620667 0.03386230667 -0.2572268 0.0884752 0.3145322 0.8778592667 1.805592689e-38
-0.0041759485 0.033929445 -0.25727565 0.00485905 0.4072719 0.864001 1.805592689e-38
-0.001432149187 0.03391265625 -0.2571413125 -0.0406714375 0.31314375 0.8797803125 1.805592689e-38
0.003450633125 0.03398896875 -0.2577516875 0.053357125 0.56954 0.7991859375 1.805592689e-38
0.0058951375 0.0339966 -0.25781275 0.01130575 0.643830625 0.750855375 1.805592689e-38
0.008338211875 0.0339966 -0.25781275 0 0.6478815625 0.74714925 1.805592689e-38
-0.0217647625 0.0189495125 -0.252807875 -0.1786699375 0.293107125 0.8959153125 1.805592689e-38
0.01363883333 0.0351868 -0.26001 0.11538 0.6756043333 0.7071506667 1.805592689e-38
0.01579095 0.0351868 -0.26001 0 0.664193 0.747561 1.805592689e-38
0.020717625 0.0351868 -0.26001 -0.03829125 0.799107 0.5936755 1.805592689e-38
0.023181925 0.0351868 -0.26001 0 0.6640215 0.74771175 1.805592689e-38
0.030570975 0.0351868 -0.26001 0 0.272371 0.91299275 1.805592689e-38
0.03240965 0.0351868 -0.26001 0 0 1 1.805592689e-38
0.02317222308 0.03371959231 -0.2584136154 0 0.6117200769 0.7897729231 1.805592689e-38
0.02571613333 0.0337728 -0.2584636667 0.02624158333 0.6173664167 0.779778 1.805592689e-38
-0.02408695 -0.0133437875 -0.252075125 0.180801875 -0.213738375 0.884204125 1.805592689e-38
-0.03935022857 -0.02262661429 -0.2602888571 -0.426999 0.2626658571 0.6081602857 1.805592689e-38
-0.0166931 0.033050575 -0.25756875 -0.19458075 0.55984025 0.6969805 1.805592689e-38
-0.01421165 0.032959 -0.256836 0 0 1 1.805592689e-38
-0.01662034615 0.03164436923 -0.256836 -0.06886138462 0.3285314615 0.8986321538 1.805592689e-38
-0.01434217143 0.03208704286 -0.256836 -0.09147814286 0.3434474286 0.884486 1.805592689e-38
-0.00964355 0.0323486 -0.256836 0 0.5409423333 0.8374766667 1.805592689e-38
-0.00295258 0.0323486 -0.256836 0.326398 0.649735 0.686519 1.805592689e-38
-0.001430152 0.0323486 -0.256836 0 0.5879315 0.80891075 1.805592689e-38
0.001003951675 0.0323486 -0.256836 0 0.5879545 0.808894 1.805592689e-38
0.01074029 0.03204345 -0.256836 0.13467075 0.489222625 0.821037 1.805592689e-38
0.01319375 0.03177896667 -0.2571616667 0.07141741667 0.5839018333 0.795798 1.805592689e-38
0.01837629231 0.03179462308 -0.2572869231 -0.1178760769 0.5151895385 0.7996448462 1.805592689e-38
0.02345454706 0.03152286471 -0.2571233529 0.043637 0.3997187647 0.866683 1.805592689e-38
0.028441425 0.03148651875 -0.2572634375 -0.00862925 0.328748 0.885899875 1.805592689e-38
0.03086853125 0.0314788875 -0.257202375 -0.0536649375 0.3029773125 0.8935968125 1.805592689e-38
-0.006766127 0.02643432 -0.253906 -0.1954537 0.2595892 0.8897197 1.805592689e-38
-0.0117302 0.03131105 -0.255859 0 0.29417725 0.904301375 1.805592689e-38
-0.006879805 0.03131105 -0.255859 0.0277295 0.570681125 0.81092775 1.805592689e-38
0.0034251225 0.03131105 -0.255859 0 0.2941775 0.904301375 1.805592689e-38
0.0058498375 0.03131105 -0.255859 0 0.29422325 0.90426825 1.805592689e-38
0.00831822 0.03126745714 -0.255859 0.02922342857 0.3393852857 0.8587774286 1.805592689e-38
0.0056527475 0.01447614167 -0.253906 0.1147066667 -0.22241175 0.9142315833 1.805592689e-38
0.0106983275 0.0310059 -0.255859 0.1351195 0.56300275 0.796842 1.805592689e-38
-0.01901872941 0.02897375882 -0.255859 0.04339611765 0.09235370588 0.9614300588 1.805592689e-38
-0.0166502 0.02933311875 -0.255798 -0.163795625 0.3041680625 0.8749538125 1.805592689e-38
-0.01413918125 0.02945709375 -0.255554 -0.095493 0.318123 0.8935141875 1.805592689e-38
-0.006854055 0.029376975 -0.254883 0.02065 0.1521070625 0.9434524375 1.805592689e-38
-0.004354027647 0.02946201765 -0.2551700588 0.01799670588 0.4281535882 0.8548347647 1.805592689e-38
-0.001659042789 0.02935147368 -0.2550884737 0 0.4377338947 0.8558821053 1.805592689e-38
0.005832671875 0.029403675 -0.255127 0.01390525 0.36110075 0.882284 1.805592689e-38
0.01575738824 0.02929328824 -0.2555145294 -0.01361188235 0.414674 0.7868472941 1.805592689e-38
-0.0345459 -0.001041664262 -0.254883 -0.273164625 -0.134747 0.889528 1.805592689e-38
0.003487268333 0.0044117 -0.2606606667 0.15367375 -0.62048675 0.73085625 1.805592689e-38
-0.0220642 0.02954406 -0.256836 -0.3426842 0.4486214 0.7490768 1.805592689e-38
-0.02117921818 0.02863521818 -0.255859 -0.2113577273 0.1697006364 0.9121902727 1.805592689e-38
0.02336934667 0.02882386667 -0.255859 0.05015806667 0.2589250667 0.9110084 1.805592689e-38
0.0259552 0.0299072 -0.256836 0 0.59219625 0.80579325 1.805592689e-38
0.0283928 0.0299072 -0.256836 0 0.59256825 0.805519 1.805592689e-38
0.03082275 0.0299072 -0.256836 0 0.59219625 0.80579325 1.805592689e-38
0.03326415 0.0299072 -0.256836 0.05454225 0.5500365 0.824263 1.805592689e-38
0.03496296667 0.02950033333 -0.256836 0.1840183333 0.1794176667 0.5456013333 1.805592689e-38
-0.02646635 -0.0031914725 -0.251953 0 0 1 1.805592689e-38
0.008325054545 0.01392227273 -0.254883 0.06243845455 -0.2386480909 0.9103089091 1.805592689e-38
-0.03400674444 0.009072203333 -0.2555336667 -0.4619198333 0.1805776667 0.8355321111 1.805592689e-38
-0.0310608 0.009290305 -0.253906 -0.3252833 0.1457876 0.8935289 1.805592689e-38
0.02577781875 0.026386275 -0.255127 0 0.298506125 0.901115625 1.805592689e-38
0.0258522 0.02857973333 -0.255859 0 0.1976463333 0.93508225 1.805592689e-38
0.023246775 0.019035325 -0.253906 0.01546125 -0.0563216875 0.981077375 1.805592689e-38
0.028278375 0.02857973333 -0.255859 -0.023679 0.27613175 0.9139144167 1.805592689e-38
0.0331192 0.02857973333 -0.255859 0.02660441667 0.2009361667 0.92681775 1.805592689e-38
0.03484093333 0.02817283333 -0.255859 0.1312553333 0.1312553333 0.9435333333 1.805592689e-38
-0.02648925 0.0281982 -0.257813 -0.172683 0 0.9307775 1.805592689e-38
-0.011684425 0.02666016 -0.254883 0 0 1 1.805592689e-38
-0.009315488421 0.02672376316 -0.254883 -0.1144770526 0.081445 0.9595633158 1.805592689e-38
-0.006954826667 0.02766416667 -0.254883 -0.1118943333 0.4231363333 0.860983 1.805592689e-38
-0.004359818 0.02678831333 -0.2538409333 -0.1146125333 0.3548397333 0.8746653333 1.805592689e-38
-0.0017127285 0.02683409 -0.2537108 -0.00547345 0.4175015 0.8552195 1.805592689e-38
0.0033974625 0.02685545 -0.253906 0 0.2996163125 0.9002853125 1.805592689e-38
0.02097982 0.02686157333 -0.254883 0.1342861333 0.2749793333 0.8929453333 1.805592689e-38
0.0057811725 0.01895905 -0.25293 0.059399 -0.141278625 0.9476035 1.805592689e-38
-0.00761795 -0.03753665 -0.260498 0.7967745 0.197316 0.5323385 1.805592689e-38
0.02092119091 0.01226946364 -0.255859 0.08361018182 -0.2588952727 0.9068104545 1.805592689e-38
-0.02886610769 0.01415134615 -0.2538309231 -0.3821334615 0.1989161538 0.8657857692 1.805592689e-38
-0.02848983333 0.02643498889 -0.257813 -0.02637222222 0.02637222222 0.9935535556 1.805592689e-38
-0.026455875 0.026638975 -0.2575076875 -0.242257125 0.242257125 0.88696375 1.805592689e-38
-0.021427175 0.026462575 -0.255859 -0.1075186875 0.107580375 0.9529931875 1.805592689e-38
-0.0189781125 0.02643015 -0.255554 -0.1469705 0.295196375 0.894390125 1.805592689e-38
0.0079822525 0.0263290375 -0.253906 0.136594625 0.272707375 0.889016375 1.805592689e-38
0.0306014875 0.026372925 -0.255005 0.0444328125 0.216626875 0.9112205 1.805592689e-38
0.03489905714 0.02659172857 -0.255859 0 0 1 1.805592689e-38
-0.003216426667 0.0009202953333 -0.261963 0.416874 -0.515459 0.737168 1.805592689e-38
9.23872e-05 0.00256538 -0.260986 0.423298 -0.42285 0.80126 1.805592689e-38
-0.02318724 0.02603762 -0.255859 -0.3296132 0.207089 0.8776184 1.805592689e-38
0.0184326 0.0259552 -0.253906 0 0.597009 0.80223325 1.805592689e-38
0.0199432 0.0259552 -0.253906 0.322491 0.644981 0.692819 1.805592689e-38
0.00579023375 0.02438833125 -0.253296 0.1826094375 0.2378349375 0.874231375 1.805592689e-38
0.01332092 0.02414856 -0.253906 0 0.1194022 0.9604466 1.805592689e-38
0.01602745 0.02414856 -0.253906 -0.01260265 0.0124451 0.9967578 1.805592689e-38
0.0184326 0.02414856 -0.253906 0 0 1 1.805592689e-38
0.03564792222 0.009285818889 -0.2586805556 0.05169344444 -0.5051617778 0.7732453333 1.805592689e-38
-0.033367175 -0.000586450175 -0.253906 -0.272185125 -0.134483 0.8900395 1.805592689e-38
-0.02152591667 0.02389103889 -0.2550456667 -0.1738942222 0.3743393333 0.8641799444 1.805592689e-38
-0.02410380667 0.02396342 -0.2557288667 -0.2615281333 0.3826738667 0.8537749333 1.805592689e-38
-0.018928525 0.02394105 -0.254883 -0.0009234375 0.118309875 0.9624983125 1.805592689e-38
-0.0165138 0.02394105 -0.254883 0 0 1 1.805592689e-38
-0.01138306667 0.02454375 -0.254883 0 0 1 1.805592689e-38
0.03071592857 0.02402715 -0.254883 0.09200192857 0.06950742857 0.9606472857 1.805592689e-38
0.03316582778 0.02388001667 -0.2549372222 0.1058218889 0.1362725556 0.9359057222 1.805592689e-38
0.03479006667 0.02430726667 -0.2555336667 0.1824763333 0.1824763333 0.5443213333 1.805592689e-38
0.008400814444 0.004623625556 -0.260986 0.001770444444 -0.5646706667 0.806554 1.805592689e-38
-0.016448975 -0.013442975 -0.253906 0.16712625 0.022279125 0.9295406875 1.805592689e-38
0.02316423636 0.02349437273 -0.253906 0.06921090909 0.1932429091 0.9301880909 1.805592689e-38
0.025650025 0.02324675 -0.253906 0 0.3007505 0.8994355 1.805592689e-38
0.02835692 0.02324675 -0.253906 0.0922404 0.3120688 0.8787037 1.805592689e-38
-0.0093746175 -0.005712508125 -0.25781275 0.6919679375 -0.0070689375 0.6842665625 1.805592689e-38
-0.0156097 -0.025569925 -0.254883 0.5950345 -0.1060575 0.76891275 1.805592689e-38
-0.004384995 0.02186965 -0.251953 -0.0427753125 0.1232081875 0.9588098125 1.805592689e-38
-0.001700591 0.02186965 -0.251953 -0.001212 0.1258948 0.9592997 1.805592689e-38
0.0009856369875 0.02189159375 -0.25219725 0.155340375 0.245194 0.8813175 1.805592689e-38
0.003431422632 0.02171324737 -0.2528785789 0.1196920526 0.05694147368 0.9462135263 1.805592689e-38
0.0057811725 0.02165526 -0.25293 0 0 1 1.805592689e-38
-0.03141953333 0.02146064444 -0.256836 -0.09767122222 0.09711311111 0.9675514444 1.805592689e-38
-0.0268488 0.02157784375 -0.255493 -0.2806933125 0.3938876875 0.844440625 1.805592689e-38
-0.02461245556 0.02196927778 -0.2549914444 -0.2682982222 0.4680061111 0.8147388889 1.805592689e-38
-0.02178956667 0.02136840667 -0.2537758667 -0.1129071333 0.3951198667 0.8612638667 1.805592689e-38
-0.0165138 0.0224304 -0.254883 0 0.6013125 0.7990135 1.805592689e-38
-0.01470565 0.0224304 -0.254883 -0.2035935 0.504345 0.8082135 1.805592689e-38
-0.01395796429 0.02130998571 -0.253906 -0.04650142857 0.3429375 0.8848547857 1.805592689e-38
-0.01172083636 0.02113757273 -0.253906 -0.1530610909 0.2487077273 0.8676969091 1.805592689e-38
0.01332092 0.0214386 -0.253906 0 0 1 1.805592689e-38
0.01602745 0.0214386 -0.253906 0 0 1 1.805592689e-38
0.020839675 0.0214386 -0.253906 0 0 1 1.805592689e-38
0.025650025 0.0214386 -0.253906 0 0 1 1.805592689e-38
0.02835692 0.0214386 -0.253906 0 0 1 1.805592689e-38
0.03118895 0.0224304 -0.254883 0.1606835 0.6205665 0.748312 1.805592689e-38
0.03372193 0.02194519 -0.254883 0.2131549 0.2685531 0.8561732 1.805592689e-38
-0.01141704545 -0.01854638182 -0.256836 0.4679987273 -0.06092627273 0.8291985455 1.805592689e-38
-0.02396721429 0.02088054286 -0.253906 -0.2760295714 0.3640645714 0.8682314286 1.805592689e-38
-0.02169035 0.01411245 -0.251953 -0.0153978125 0.0153978125 0.9960838125 1.805592689e-38
-0.0316848875 0.014315125 -0.255493 -0.405267875 0.1461355 0.859285125 1.805592689e-38
-0.006716198333 0.01907348889 -0.2522786667 -0.2449488889 0.1388577778 0.8781615 1.805592689e-38
-0.004384995 0.0191803 -0.251953 0 0 1 1.805592689e-38
-0.001700591 0.0191803 -0.251953 0 0 1 1.805592689e-38
0.00098523155 0.019191745 -0.25209955 0.2065909 -0.175245 0.91659205 1.805592689e-38
-0.03120425 0.018957125 -0.255859 -0.283136 0.2095565 0.89577575 1.805592689e-38
-0.0273372 0.01941352857 -0.254883 -0.4310432857 0.3440914286 0.8193477143 1.805592689e-38
-0.02623833333 0.01880051111 -0.253906 -0.255259 0.1881775556 0.9047824444 1.805592689e-38
-0.01678636667 0.01899126111 -0.2524957778 0.02544677778 0.3895083889 0.8691633889 1.805592689e-38
-0.01158665 0.0189495125 -0.252807875 0.056299875 0.379285375 0.857835125 1.805592689e-38
-0.00918722375 0.01894474375 -0.2527468125 -0.0825150625 0.2738370625 0.903292375 1.805592689e-38
0.00818920125 0.01898860625 -0.253357 0.1575178125 -0.32131525 0.8722811875 1.805592689e-38
0.01061106437 0.0190238875 -0.253784 0.125441375 -0.127439125 0.925902 1.805592689e-38
0.01332092 0.019035325 -0.253906 0 0 1 1.805592689e-38
0.01602745 0.019035325 -0.253906 0 0 1 1.805592689e-38
0.02559000667 0.01909585333 -0.253906 0.04526306667 -0.1749818667 0.9340108667 1.805592689e-38
0.031063075 0.019035325 -0.253906 0.0582063125 -0.0571396875 0.9795415625 1.805592689e-38
0.033905025 0.0183563 -0.254883 0.273862 -0.432163 0.82696425 1.805592689e-38
-0.03419058571 -0.003320285 -0.2551618571 -0.4291516429 -0.1906877143 0.8269727143 1.805592689e-38
0.0266571 0.0182037 -0.254883 0.425481 -0.420163 0.801517 1.805592689e-38
0.027565 0.0182037 -0.254883 -0.1847235 -0.687922 0.670237 1.805592689e-38
-0.0383911 0.006669616 -0.2570314 -0.2737236 0 0.8859674 1.805592689e-38
-0.03413743077 0.016922 -0.2572117692 -0.5165580769 0.01838607692 0.7179599231 1.805592689e-38
-0.0327759 0.01743315 -0.256836 -0.4945055 0.1978825 0.8174955 1.805592689e-38
-0.03158571429 0.0166626 -0.2557195714 -0.3903012143 0.1360932857 0.8675767857 1.805592689e-38
-0.02951048182 0.01689147273 -0.2549717273 -0.3931806364 0.2859621818 0.8511124545 1.805592689e-38
-0.0217018 0.0165042875 -0.252075125 -0.2214053125 0.106988 0.9193739375 1.805592689e-38
-0.01929855 0.01649665 -0.251953 0 0 1 1.805592689e-38
-0.004387140625 0.016503325 -0.252075125 0.1154371875 -0.2384203125 0.9040645625 1.805592689e-38
0.0228241 0.01728818 -0.253906 0.2211924 -0.3500988 0.8581408 1.805592689e-38
0.02353044545 0.01639207273 -0.254883 0.1230310909 -0.2419746364 0.9072074545 1.805592689e-38
0.025753025 0.0166931 -0.254883 0.0158415625 -0.137995 0.9503601875 1.805592689e-38
-0.02842104 0.01620788 -0.253906 -0.3284054 0.2101616 0.8769724 1.805592689e-38
0.030586225 0.016393 -0.254883 0.02090708333 -0.2366293333 0.914892 1.805592689e-38
0.02118937778 0.01084307778 -0.256836 0.07355444444 -0.5703711111 0.7927545556 1.805592689e-38
-0.0141177125 -0.0207653 -0.255188 0.3407143125 0.09017125 0.8615489375 1.805592689e-38
0.0158662625 0.0160159625 -0.254883 0.041466125 -0.432001875 0.82631725 1.805592689e-38
0.0209198 0.01609035 -0.254883 0.084461375 -0.331042625 0.87494575 1.805592689e-38
-0.0301056 0.01458233333 -0.254883 -0.533808 0.1343223333 0.808061 1.805592689e-38
-0.024117475 0.01413725625 -0.2523804375 -0.2898031875 0.2146535625 0.8902455625 1.805592689e-38
-0.01929855 0.01411245 -0.251953 0 0 1 1.805592689e-38
-0.00918054125 0.014145825 -0.252563625 0.1157466875 -0.319450875 0.8742059375 1.805592689e-38
-0.0067996975 0.014167775 -0.25293 0.045663125 -0.089954125 0.967860125 1.805592689e-38
-0.0017091268 0.014186465 -0.2532716 0.12659265 -0.2887283 0.8865028 1.805592689e-38
0.0033974625 0.014225 -0.253906 0.03200775 -0.1132680625 0.9614680625 1.805592689e-38
0.008027648 0.01500856 -0.253906 0.137384 -0.5251522 0.8024412 1.805592689e-38
0.00971222 0.0151291 -0.253906 0.43311 -0.430386 0.791949 1.805592689e-38
0.0130763125 0.0142836625 -0.254944 0.085076875 -0.205942 0.9220068125 1.805592689e-38
0.0185146375 0.014287 -0.255005 -0.01731425 -0.2423520625 0.894198625 1.805592689e-38
0.02337838125 0.0143036875 -0.25531 0.043151375 -0.334615125 0.8822618125 1.805592689e-38
0.0282507125 0.014322275 -0.255615 0 -0.32268775 0.881930125 1.805592689e-38
0.03067493125 0.014322275 -0.255615 0.041529125 -0.4046505625 0.8512834375 1.805592689e-38
0.03310394375 0.01432895 -0.255737 -0.006913 -0.380199625 0.841146125 1.805592689e-38
0.0352224 0.014326725 -0.2556963333 -0.009425666667 -0.3312443333 0.8762836667 1.805592689e-38
0.0181169625 0.008949756875 -0.2578738125 0.0679780625 -0.5841225625 0.78658375 1.805592689e-38
-0.01412105 -0.015933975 -0.255249 0.38268425 -0.101011625 0.859008375 1.805592689e-38
-0.0102158 0.001909256667 -0.255859 0.5710256667 -0.1444716667 0.7758003333 1.805592689e-38
-0.03677690526 0.01162438947 -0.2575558947 -0.2537663158 0.2170815263 0.8875574211 1.805592689e-38
-0.03358238571 0.01160867143 -0.255859 -0.4558595714 0.2057832857 0.8358338571 1.805592689e-38
-0.029025075 0.01179505 -0.253418 -0.36410475 0.1782329375 0.87372475 1.805592689e-38
-0.02407455 0.01172445 -0.251953 -0.0558921875 0.056608375 0.98068 1.805592689e-38
-0.01683042941 0.0116743 -0.2520104706 0.08025517647 -0.04162876471 0.9682515882 1.805592689e-38
-0.01159285 0.01177215 -0.25293 0.0762796875 -0.07631125 0.97315925 1.805592689e-38
-0.006816148125 0.011800775 -0.25354 0.0874154375 -0.330012 0.875018625 1.805592689e-38
-0.004418373125 0.011812225 -0.253784 0.1305586875 -0.3724079375 0.85818725 1.805592689e-38
0.003096896667 0.0127182 -0.253906 0.1453643333 -0.5761236667 0.7710696667 1.805592689e-38
0.003480325385 0.01165655385 -0.254883 0.05297923077 -0.3996889231 0.852126 1.805592689e-38
0.013122575 0.0119114 -0.255859 0.0157765625 -0.29615525 0.8941159375 1.805592689e-38
0.018577575 0.01221466667 -0.255859 -0.02008391667 -0.3072308333 0.8898874167 1.805592689e-38
0.0258522 0.0128174 -0.255859 0 -0.6420775 0.76663875 1.805592689e-38
0.028278375 0.0128174 -0.255859 0 -0.64166375 0.76698425 1.805592689e-38
0.03331299 0.0116684 -0.2572268 -0.0183247 -0.51530535 0.80624615 1.805592689e-38
0.013278975 0.00745392 -0.258789 0.04063025 -0.73028075 0.6764705 1.805592689e-38
0.00111677728 0.01144258 -0.254883 0.0690312 -0.5192179 0.8080405 1.805592689e-38
0.0259819 0.011358275 -0.25708025 0.041676375 -0.481037875 0.825229375 1.805592689e-38
-0.00149500475 0.0111847 -0.254883 0.172996875 -0.413881 0.84197325 1.805592689e-38
0.01574054286 0.0106986 -0.256836 0.09638985714 -0.369718 0.863474 1.805592689e-38
-0.0289879 0.00938177 -0.253113 -0.3116820625 0.0824881875 0.895399375 1.805592689e-38
-0.02407455 0.0093364675 -0.251953 0 0 1 1.805592689e-38
-0.02169035 0.0093364675 -0.251953 0 0 1 1.805592689e-38
-0.007006836 0.010194364 -0.253906 0.139239 -0.5244008 0.8030656 1.805592689e-38
-0.001590358167 0.009537593889 -0.2554794444 0.1530680556 -0.4730325556 0.8224395556 1.805592689e-38
0.005748747778 0.009992825556 -0.255859 0.1031716667 -0.3875671111 0.8603937778 1.805592689e-38
0.010093705 0.0103989 -0.255859 0.212673 -0.5340175 0.782892 1.805592689e-38
0.01134875 0.010437 -0.256836 0.214262 -0.532103 0.783308 1.805592689e-38
-0.0305786 -0.02336428 -0.253906 -0.5922726 0 0.805736 1.805592689e-38
-0.0042190525 -0.03326415833 -0.2632646667 0.486254 -0.02817641667 0.7199803333 1.805592689e-38
-0.0351868 0.00982666 -0.256836 -0.402539 0.405071 0.820902 1.805592689e-38
0.01076032125 0.008930205 -0.2573245 0.0954968125 -0.5670515 0.788904125 1.805592689e-38
0.0156703 0.0089473725 -0.25781275 0 -0.635535125 0.77207025 1.805592689e-38
0.02320861111 0.009030661667 -0.2582467778 0.06181188889 -0.5335386667 0.7968608889 1.805592689e-38
0.031036375 0.009280521667 -0.258545 0.08921016667 -0.59183725 0.7686655833 1.805592689e-38
0.0335083 0.009290056667 -0.258789 0 -0.4504205833 0.82356425 1.805592689e-38
0.005962025455 0.008564342727 -0.2571024545 0.1496342727 -0.5967375455 0.7576469091 1.805592689e-38
0.0034375175 0.00830841 -0.256836 0 -0.635559375 0.77205125 1.805592689e-38
-0.02407455 0.0039677625 -0.251953 0 0 1 1.805592689e-38
0.03037513333 0.0050354 -0.260986 -0.184209 -0.184209 0.8746213333 1.805592689e-38
-0.03142508947 0.006641188421 -0.2538546316 -0.2900043158 0.1037854737 0.8996450526 1.805592689e-38
-0.028965025 0.006678772 -0.25293 -0.2733832 0.00118715 0.9111653 1.805592689e-38
-0.014023185 0.0066957485 -0.2535644 0.3455637 -0.11811605 0.86925035 1.805592689e-38
-0.01199479091 0.007142153636 -0.253906 0.2887071818 -0.2306636364 0.8806709091 1.805592689e-38
0.0281067 0.00809479 -0.26001 0 -0.71451175 0.69962275 1.805592689e-38
0.030570975 0.00809479 -0.26001 0 -0.714883 0.6992445 1.805592689e-38
0.03302 0.00809479 -0.26001 0 -0.7141475 0.6999935 1.805592689e-38
0.03549195 0.00809479 -0.26001 0 -0.73915275 0.67062425 1.805592689e-38
-0.0372467125 0.0067090975 -0.256836 -0.319748875 0.173473 0.884825625 1.805592689e-38
-0.01124912222 0.006195915556 -0.254883 0.3035726667 -0.2322046667 0.8787601111 1.805592689e-38
-0.001434593375 0.006501913125 -0.2576906875 0.18427675 -0.568389375 0.7676630625 1.805592689e-38
0.005910555 0.00682958 -0.2584636667 0.06425575 -0.6739041667 0.71328875 1.805592689e-38
0.0108241875 0.007146835 -0.258789 0.087245625 -0.6563725 0.72543325 1.805592689e-38
0.018184675 0.00745392 -0.258789 0 -0.71376775 0.7003815 1.805592689e-38
0.022171 0.00745392 -0.258789 0.476396 -0.474912 0.739936 1.805592689e-38
0.023217525 0.006721816667 -0.2604166667 0.1549176667 -0.6921273333 0.6509276667 1.805592689e-38
0.02570853333 0.006882986667 -0.2606606667 0.06707633333 -0.6684230833 0.7102975 1.805592689e-38
0.02825223846 0.006788401538 -0.2606856923 -0.06081638462 -0.5625236923 0.7881553846 1.805592689e-38
0.0330543375 0.0065622325 -0.260254 -0.044921 -0.3662151875 0.81965875 1.805592689e-38
0.03519898 0.006867218 -0.2601076 0 -0.1228211 0.944769 1.805592689e-38
-0.00487137 -0.0131429 -0.261963 0.516117 0.1152706667 0.7173993333 1.805592689e-38
0.01827748333 0.006256103333 -0.2603353333 0.04827 -0.71815375 0.66267275 1.805592689e-38
-0.009370325625 -0.0008248535875 -0.2576906875 0.644868125 -0.1669615 0.7040194375 1.805592689e-38
-0.0329895 0.005804065 -0.253906 -0.4959905 0.2049215 0.813277 1.805592689e-38
0.008534568571 0.005897521429 -0.26001 0.09948514286 -0.6819485714 0.687887 1.805592689e-38
0.010881425 0.00594854125 -0.260376 0.12522225 -0.68883975 0.650238375 1.805592689e-38
0.003786086667 0.00563431 -0.26001 0.2165023333 -0.657011 0.6801116667 1.805592689e-38
0.0258446 0.00567627 -0.261963 0.0045605 -0.69085625 0.704373 1.805592689e-38
-0.038835 0.003967285455 -0.2571024545 -0.5403633636 0.03007181818 0.7947127273 1.805592689e-38
-0.03647505714 0.004029139286 -0.2557195714 -0.444709 0.1435146429 0.826055 1.805592689e-38
-0.03466361429 0.004144942857 -0.254883 -0.540825 0.1149661429 0.8091471429 1.805592689e-38
-0.031448375 0.003995418125 -0.253662 -0.2973955625 0 0.90193825 1.805592689e-38
-0.028965025 0.003983975 -0.25293 -0.052648125 0.015212375 0.9837996875 1.805592689e-38
-0.026486375 0.003971100625 -0.2521361875 -0.249695125 0.0324655625 0.9057031875 1.805592689e-38
-0.01929855 0.0039677625 -0.251953 0 0 1 1.805592689e-38
-0.009607504545 0.004223910909 -0.255859 0.3895513636 -0.2740119091 0.8507809091 1.805592689e-38
-0.006925820625 0.004056455625 -0.257507625 0.440162375 -0.4400326875 0.7805475 1.805592689e-38
-0.004357145333 0.004336295333 -0.2583986 0.2868227333 -0.5883480667 0.7045761333 1.805592689e-38
0.00039821845 0.00499725 -0.258789 0.2427445 -0.598234 0.715188 1.805592689e-38
0.001041064154 0.004030521538 -0.2605355385 0.2107784615 -0.6360826923 0.6841810769 1.805592689e-38
0.01070021667 0.004829406667 -0.260986 0.1396225 -0.5569378333 0.788422 1.805592689e-38
0.0149307 0.0050354 -0.260986 0.415365 -0.417929 0.807965 1.805592689e-38
0.01599069333 0.004067227333 -0.2622232667 0.04412833333 -0.5009074 0.8233937333 1.805592689e-38
0.01840974375 0.00412893 -0.262207 0 -0.4672358125 0.8366738125 1.805592689e-38
0.02091884375 0.00413238875 -0.262451 0.1662673125 -0.55325125 0.774748125 1.805592689e-38
0.023435575 0.004137515 -0.262817125 0.0770264375 -0.552898625 0.7877536875 1.805592689e-38
-0.01233675 -0.028099075 -0.255859 0.320831 0 0.8834935 1.805592689e-38
-0.0109024 -0.0396118 -0.257813 0.743872 0 0.668322 1.805592689e-38
-0.0013262749 0.003668212 -0.2604004 0.1718209 -0.647928 0.6873929 1.805592689e-38
0.01107408 0.003691862 -0.261963 0.0906561 -0.2779309 0.9027391 1.805592689e-38
0.0298767 0.00443649 -0.261963 -0.549117 -0.555896 0.624059 1.805592689e-38
0.005986215 0.003505705 -0.261963 0.083407 -0.317287 0.885661 1.805592689e-38
0.00195313 0.00319481 -0.261963 0.42217 -0.422821 0.80187 1.805592689e-38
0.003505705 0.00319481 -0.261963 0 -0.6226905 0.78246825 1.805592689e-38
-0.0314331125 0.001591503 -0.25354 -0.30589825 0.08187475 0.895010625 1.805592689e-38
-0.02407455 0.00158107225 -0.251953 0 0 1 1.805592689e-38
-0.01930331875 0.001581251063 -0.2520140625 0.1294328125 -0.087868125 0.9479544375 1.805592689e-38
-0.01417214286 0.001679487286 -0.253906 0.2993857143 -0.06776071429 0.8898874286 1.805592689e-38
-0.009139425385 0.001543705538 -0.2571366154 0.5561349231 -0.2892791538 0.7466334615 1.805592689e-38
-0.004087592308 0.001802076462 -0.2607607692 0.3441890769 -0.4810409231 0.7832650769 1.805592689e-38
0.00108602976 0.001582210267 -0.2620931333 0.1754174667 -0.3477294667 0.8517915333 1.805592689e-38
0.01603361111 0.00217194 -0.2633732222 0.1151424444 -0.4956457778 0.6568526667 1.805592689e-38
0.02120666 0.002466962 -0.2637206 0.3555868 -0.4557528 0.6600648 1.805592689e-38
0.02347414 0.002468868 -0.263916 -0.007348 -0.6251644 0.7411554 1.805592689e-38
-0.0380859 0.001303038667 -0.255859 -0.3020336667 0.1348556667 0.8950406667 1.805592689e-38
0.02394105 0.00181937 -0.264893 -0.00970825 -0.533575 0.72796475 1.805592689e-38
-0.0131912 0.0009961125 -0.254883 0.542787 -0.2181965 0.7741465 1.805592689e-38
-0.03916931 -0.00082156631 -0.2569337 -0.2322923 -0.0536624 0.812948 1.805592689e-38
-0.03141785 -0.000810310525 -0.253418 -0.2985055 0 0.9011165 1.805592689e-38
-0.02169035 -0.000805437 -0.251953 0.0161965625 -0.0161706875 0.9956586875 1.805592689e-38
-0.01454418889 -0.0007117057111 -0.253906 0.2981955556 -0.154365 0.8840323333 1.805592689e-38
-0.0134528 -0.0009445620143 -0.254883 0.3756134286 -0.09944328571 0.858171 1.805592689e-38
-0.01184191429 -0.0007310082286 -0.2555104286 0.5556507143 -0.142325 0.7844442857 1.805592689e-38
-0.0386963 -0.01558247143 -0.2586495714 -0.2250182857 -0.1799834286 0.4565845714 1.805592689e-38
-0.00548935 -0.001147904 -0.261963 0.5588373333 -0.141371 0.786588 1.805592689e-38
-0.0108643 -0.001430035 -0.256836 0.535415 -0.216797 0.7800385 1.805592689e-38
-0.033793125 -0.01836395833 -0.2554523333 -0.5826945833 -0.1019029167 0.7893489167 1.805592689e-38
-0.03628234 -0.002939793 -0.255859 -0.2591095 -0.2047947 0.867322 1.805592689e-38
-0.03144074375 -0.003213881875 -0.253601 -0.349623375 -0.081693875 0.875242625 1.805592689e-38
-0.0289230625 -0.0032001725 -0.252563625 -0.284323 -0.0614579375 0.8877248125 1.805592689e-38
-0.0216998875 -0.00319349875 -0.252075125 0.2364235 -0.071208125 0.9062145 1.805592689e-38
-0.01673279 -0.003214645 -0.253662 0.2658003 -0.0692068 0.89870995 1.805592689e-38
-0.01202965 -0.003241695833 -0.2557776667 0.4683451667 -0.09382091667 0.8227688333 1.805592689e-38
-0.007219755385 -0.003374537692 -0.2606856923 0.6434565385 0.03555730769 0.6813410769 1.805592689e-38
-0.01406321176 -0.01100339471 -0.2551700588 0.3409647647 0 0.8755817059 1.805592689e-38
-0.0295003 -0.03824615 -0.254883 -0.2021586667 -0.02611808333 0.9260743333 1.805592689e-38
-0.03722128333 -0.003763515 -0.256836 -0.2756088333 -0.2213855 0.8495266667 1.805592689e-38
-0.028980275 -0.01099871875 -0.253052 -0.217558 0.0677114375 0.9221385625 1.805592689e-38
-0.03401746316 -0.008308008421 -0.2551912105 -0.4532697368 0.08271642105 0.8495103158 1.805592689e-38
-0.03677368667 -0.005750528 -0.256836 -0.2995044667 -0.006681 0.8964588667 1.805592689e-38
-0.0265064 -0.005588293125 -0.252319375 -0.2287916875 -0.1934945625 0.87537225 1.805592689e-38
-0.02407455 -0.005578995 -0.251953 0 0 1 1.805592689e-38
-0.02171419375 -0.0055861475 -0.2522583125 0.3302724375 -0.0071188125 0.8704955625 1.805592689e-38
-0.014946 -0.005322773333 -0.253906 0.578019 -0.144994 0.769688 1.805592689e-38
-0.01389195385 -0.005714416154 -0.254883 0.4010368462 -0.05290661538 0.8510408462 1.805592689e-38
-0.01098636 -0.005872344 -0.256836 0.5196568 -0.13603 0.8073308 1.805592689e-38
-0.03827665 -0.0081310275 -0.25708025 -0.16084125 0.1998635 0.89331475 1.805592689e-38
-0.03722127778 -0.008023154444 -0.256836 -0.3678563333 0.1738225556 0.8744527778 1.805592689e-38
-0.0314789 -0.008329772 -0.253906 -0.1470985 0 0.9521436 1.805592689e-38
-0.029001625 -0.0083059305 -0.2532228 -0.29654595 -0.0195354 0.8936666 1.805592689e-38
-0.02656019 -0.008292579 -0.2528323 -0.21141205 -0.01057385 0.9179557 1.805592689e-38
-0.021709425 -0.0082708355 -0.25219725 0.3241159 0.0300187 0.87230245 1.805592689e-38
