# .PCD v0.7 - Point Cloud Data file format
VERSION 0.7
FIELDS x y z normal_x normal_y normal_z rgb
SIZE 4 4 4 4 4 4 4
TYPE F F F F F F F
COUNT 1 1 1 1 1 1 1
WIDTH 511
HEIGHT 1
VIEWPOINT 0 0 0 1 0 0 0
POINTS 511
DATA ascii
0.0053997025 0.0361023 -0.298096 -0.2897950924 -0.02784008896 0.9566837167 7.640720007e-41
-0.04011028333 -0.02197773333 -0.303955 -0.2225222733 -0.4128175007 0.8832131957 5.506444355e-40
0.01252468182 -0.01868093636 -0.305176 -0.3271859297 0.4025563659 -0.8549255755 1.085082854e-39
0.007843016667 0.0359802 -0.297119 -0.1265346001 0.01915235476 0.9917772846 7.425480562e-41
0.01030733 0.0359802 -0.297119 0.1020963456 0.01686225494 0.9946315904 7.425480562e-41
0.01795088571 -0.009019585 -0.3048096429 0.491670523 -0.3045746961 0.8157783714 1.193483099e-39
0.01278686667 0.0360209 -0.2974446667 0.220730361 0.06712769479 0.9730220862 7.497227044e-41
-0.00242448 -0.0255947375 -0.305664 -0.249553779 0.4386439171 -0.8633159476 1.560819479e-39
-0.00483704 -0.006248473333 -0.298096 -0.01734053951 0.1374721196 0.9903538368 7.640720007e-41
-0.00343704 -0.00272751 -0.299072 -0.1057490446 0.2074709815 0.9725085765 7.891832691e-41
0.01507416 0.03603211 -0.298096 0.2975816218 0.04221952419 0.9537623866 7.676593247e-41
0.0164032 0.03657535 -0.299072 0.3317866279 0.03039843812 0.9428645547 7.891832691e-41
-0.04185105 -0.025905625 -0.306152 0.3458569704 0.3921555741 -0.8524065707 1.836321763e-39
0.01785276667 0.01359557778 -0.2997233333 0.4005842946 -0.06362923904 0.9140478887 8.107072136e-41
0.0218582 0.03611755 -0.301025 0.5414337684 0.01059188923 0.8406766836 8.573424264e-41
-0.0323982125 -0.0236149 -0.305908 0.125516809 -0.6317262246 0.7649624225 1.74448907e-39
0.02335032857 0.03613717143 -0.3024207143 0.60641326 0.03206848503 0.7945027189 8.932156671e-41
0.0178121 0.03375245 -0.299072 0.3683481017 0.06038181575 0.9277250198 7.891832691e-41
-0.00666733 0.03600464 -0.3041992 0.5102377548 0.2410252887 -0.8255690424 7.343126252e-40
0.0245209 0.03600053333 -0.302979 0.6197623196 0.009646410534 0.784730281 9.075649634e-41
-0.03495785 -0.00627009 -0.299072 -0.02104869388 0.1350151129 0.9906199431 7.891832691e-41
0.02571865 0.0361786 -0.3045655 0.5732377175 -0.005317898968 0.8193718565 9.179808149e-40
0.02768552 0.03615114 -0.305664 -0.5735198154 0.0009791025687 -0.8191911027 1.560819479e-39
0.01286469 0.02110594 -0.2976075 0.3002458768 -0.001134764975 0.9538611669 7.533100285e-41
0.0291138 0.03563433333 -0.306152 -0.4886366112 -0.01107316171 -0.8724171292 1.836321763e-39
0.01267394 0.00624771 -0.298096 0.2745801237 -0.004818919224 0.9615521482 7.640720007e-41
-0.00922394 0.00513077 -0.302979 -0.3347525008 0.4213293375 0.8428655602 9.075649634e-41
-0.00565338 0.0354004 -0.303955 0.5177451453 0.228310639 -0.8245084697 5.506444355e-40
-0.02190653333 0.007649736667 -0.308105 -0.06634021468 0.6450451642 0.7612592936 3.030164997e-39
0.0167847 -0.0158386 -0.306152 -0.4316811242 0.1981921998 -0.8799836697 0
0.0001762687 0.03360596 -0.2996582 -0.5207274514 -0.05478691291 0.8519632125 8.071198895e-41
-0.0267029 0.0103912 -0.310059 -0.1109415204 -0.6374077101 -0.7624981247 3.85667185e-39
0.00223128 0.03375245 -0.299072 -0.3998706413 -0.01484597163 0.9164513448 7.891832691e-41
0.00363541 0.03364565 -0.298096 -0.3242242982 -0.01783256881 0.9458121399 7.640720007e-41
-0.002603912 -0.01785892 -0.301025 0.1034954247 -0.4748099529 0.8739818108 8.609297505e-41
0.02002973333 0.02109654167 -0.3003743333 0.4389225 -0.04314532311 0.8974884512 8.32231158e-41
-0.02208862 0.004144284 -0.3041992 -0.01771076641 -0.7275526 -0.6858232593 7.343126252e-40
0.0053997025 0.03364565 -0.298096 -0.2900005707 0.009705814175 0.9569772548 7.640720007e-41
0.007843016667 0.03352355 -0.297119 -0.140602721 -5.20413388e-05 0.9900660948 7.425480562e-41
0.01277923333 0.0335439 -0.2972818333 0.1514912392 0.00751560797 0.9884300279 7.461353803e-41
0.0152855 0.03364565 -0.298096 0.3180540317 0.04424391949 0.9470396552 7.712466488e-41
0.01486899091 0.02385366364 -0.298096 0.3245569098 -0.01935606512 0.9456680998 7.640720007e-41
0.007872266667 0.011047345 -0.298096 -0.01670804485 -0.07200153905 0.9972645685 7.640720007e-41
-0.01208495 0.010482825 -0.307373 0.2027625779 -0.5288387538 -0.8241461699 2.570994522e-39
-0.03495785 -0.0087480525 -0.299072 -0.004302227095 0.04397486445 0.9990233742 7.891832691e-41
0.01990815 0.03360596 -0.2996582 0.4509823345 0.04643579358 0.8913240999 8.071198895e-41
-0.02996824286 -0.02193122857 -0.3043038571 -0.0580658665 -0.681132249 0.729854242 7.343126252e-40
-0.00675773875 0.0337066625 -0.305145375 0.5266350519 0.181462892 -0.8304978874 1.285317194e-39
-0.01725937778 0.00589837 -0.3056097778 -0.1309066807 0.6325556706 0.7633719699 1.560819479e-39
-0.00455856 0.0187683 -0.302979 -0.5837302435 -0.03333148688 0.8112632216 9.075649634e-41
0.000811577 0.00292969 -0.298096 -0.1986359551 0.07876823359 0.9769029239 7.640720007e-41
-0.00419998 0.0345764 -0.302979 -0.5958207919 -0.1777550668 0.7831990297 9.075649634e-41
-0.03482053333 -0.01938375556 -0.3022191111 0.02459727965 -0.5088854126 0.8604827777 8.896283431e-41
-0.003170558571 0.03359112857 -0.3025602857 -0.6080939819 -0.1057241957 0.7867935584 8.968029912e-41
-0.00167656 0.0336202 -0.301025 -0.5620917999 -0.06107232012 0.8248169374 8.573424264e-41
0.0218582 0.0336202 -0.301025 0.5558890504 0.02463719622 0.8308913119 8.573424264e-41
0.02339175 0.03376768333 -0.3023276667 0.596073895 0.04122562605 0.8018705378 8.896283431e-41
0.02466432 0.03327028 -0.302979 0.6114338293 0.05370498095 0.7894709921 9.075649634e-41
0.0253601 0.0185051 -0.3045655 -0.5318583717 0.1226979124 -0.8378973056 9.179808149e-40
0.0257372 0.03376551429 -0.3041294286 0.5785629623 0.07137801472 0.8125085093 6.424785303e-40
0.0159454 -0.00997925 -0.303955 0.471711257 -0.3606793269 0.8046110322 5.506444355e-40
0.02744138 0.03372802 -0.3053712 -0.5710541772 -0.06024127429 -0.8186990384 1.377151289e-39
0.01033083417 0.01350466667 -0.2977703333 0.04751776776 -0.1490151007 0.987692544 7.604846766e-41
0.01960246667 0.006408058333 -0.301025 0.4846517714 -0.07231150938 0.871713087 8.573424264e-41
-0.01713053333 -0.01228968333 -0.299072 -0.02604838562 -0.2100334896 0.9773471312 7.891832691e-41
0.0291138 0.0341797 -0.306152 -0.4947033837 -0.06698341609 -0.8664766495 1.836321763e-39
-0.00675774 0.0297394 -0.305176 0.595964147 -0.05940009166 -0.8008110667 1.285317194e-39
-0.04945375 -0.001318773333 -0.301025 0.09717788181 -0.3074008759 -0.9466050712 8.573424264e-41
0.01736146 -0.01388475 -0.306152 -0.4146392023 0.2809230545 -0.8655383119 1.836321763e-39
0.0001047253333 0.03102494167 -0.3000486667 -0.5321431444 -0.01332792727 0.8465494907 8.214691858e-41
0.00223128 0.03092195 -0.299072 -0.4149430731 -0.02686593369 0.9094506406 7.891832691e-41
-0.02970276 0.0003921866 -0.301025 -0.05934284363 0.508165328 0.8592126781 8.573424264e-41
0.01028443364 -0.006207899091 -0.2991608182 0.3181413447 -0.239554626 0.9172784015 7.927705932e-41
0.00363541 0.03116863333 -0.298096 -0.3474792256 -0.02057193464 0.9374619903 7.640720007e-41
0.0214996 0.021144875 -0.301025 0.5006742233 -0.04523618447 0.8644530119 8.573424264e-41
0.02252079231 0.006399302308 -0.3028286923 0.4098458945 -0.1985716035 0.8902784177 9.039776393e-41
-0.007686615556 0.003844792222 -0.3021105556 -0.3367730781 0.3986149307 0.8530474963 8.788663709e-41
0.0053997025 0.03116863333 -0.298096 -0.30369247 0.01243822441 0.9526889179 7.640720007e-41
0.007843016667 0.0310669 -0.297119 -0.1381349013 0.006400919889 0.9903927389 7.425480562e-41
0.01030733 0.0310669 -0.297119 0.04041166907 -0.004651265302 0.9991722888 7.425480562e-41
0.01493326667 0.0262299 -0.298096 0.2975077318 -0.07062616533 0.9521035103 7.640720007e-41
0.01277668889 0.03107876667 -0.2972275556 0.1464668085 -0.003786746862 0.9892083373 7.461353803e-41
-0.03946227 -0.0238205 -0.3041992 -0.08592971792 -0.4488890869 0.8894462723 7.343126252e-40
-0.01736194167 0.00848198 -0.307373 -0.2330982119 0.5355455167 0.8116995892 2.570994522e-39
0.0152855 0.03116863333 -0.298096 0.3087497102 -0.02148507084 0.95090063 7.676593247e-41
0.01493326667 0.020931225 -0.298096 0.3315309055 0.006787629817 0.9434199419 7.640720007e-41
0.02296588182 0.0211362 -0.3022684545 0.5506356578 -0.08445958321 0.8304618902 8.896283431e-41
-0.01487226667 0.0004635155 -0.301025 -0.006882918231 0.4973517709 0.8675216662 8.573424264e-41
0.01787637273 0.03095454545 -0.299072 0.3558493622 -0.02349005351 0.934248066 7.891832691e-41
0.01997375 0.03097028333 -0.2995605 0.4382525641 -0.0263788554 0.8984647161 8.071198895e-41
0.01030733 0.0159378 -0.297119 0.03708539451 -0.1248407778 0.9914834611 7.425480562e-41
0.0218582 0.031131725 -0.301025 0.5412249657 0.01341505574 0.8407708206 8.573424264e-41
0.02336125 0.031230925 -0.302002 0.5881664635 0.04253680921 0.8076204747 8.824536949e-41
0.01030733 0.02368165 -0.297119 0.04910727465 -0.003147267582 0.9987885513 7.425480562e-41
-0.007132214444 0.03123644444 -0.3057182222 0.5298859913 0.07166717746 -0.8450352962 1.560819479e-39
-0.00494215 0.03112624444 -0.3044976667 0.6097956031 0.01923313758 -0.7923253175 9.179808149e-40
-0.004879423333 0.00366783 -0.3005912222 -0.3985627012 0.2733180159 0.8754684663 8.35818482e-41
0.02487945 0.03097023333 -0.302979 0.5863973155 0.05034131742 0.8084577541 9.075649634e-41
-0.01725005 -0.01406096667 -0.299072 -0.02934350152 -0.3196915597 0.9470671917 7.891832691e-41
-0.01972453333 -0.01406096667 -0.299072 -0.01249605755 -0.3080310748 0.9512942266 7.891832691e-41
0.0170441 0.0304718 -0.298096 0.3094255913 -0.04284816642 0.9499578086 7.640720007e-41
0.005394935 0.02867791875 -0.29785175 -0.2621098483 0.01394291569 0.9649373153 7.604846766e-41
0.007843016667 0.028606425 -0.297119 -0.1114518743 0.0100685595 0.9937188253 7.425480562e-41
-0.01942275556 0.008214313333 -0.3079965556 -0.2154613021 0.5940443007 0.7750405126 2.938330902e-39
0.01030733 0.028606425 -0.297119 -0.01907648856 -0.005691431062 0.999801828 7.425480562e-41
-0.0296669 -0.017894775 -0.301025 -0.09374799309 -0.4189547476 0.903154601 8.645170746e-41
0.01278686667 0.028639475 -0.2974446667 0.2080538795 -0.05281345355 0.9766904947 7.497227044e-41
0.02269615833 0.008708316667 -0.3025719167 0.3330432029 -0.1874042939 0.9241005657 8.968029912e-41
-0.006551103333 0.00319799 -0.301025 -0.3424765897 0.3774581925 0.860369164 8.573424264e-41
0.002089692 0.01122895 -0.299072 -0.284775324 0.04374084421 0.9575958194 7.891832691e-41
0.00363541 0.0184631 -0.298096 -0.3256714711 0.005145429602 0.9454689934 7.640720007e-41
-0.03709411667 0.000344634 -0.301025 -0.06601570973 0.4605848148 0.8851573614 8.573424264e-41
0.01521505333 0.02877194 -0.298096 0.3067819024 -0.04796541264 0.9505704517 7.676593247e-41
-0.04227338571 0.006095885 -0.3051585 -0.1759210119 -0.5574345275 -0.8113683166 1.285317194e-39
-0.005081174 0.02937316 -0.3041992 0.5578689181 -0.1627787797 -0.813809154 7.343126252e-40
-0.002758663333 0.02876282222 -0.3023276667 -0.5765193564 0.1121863612 0.8093451996 8.896283431e-41
-0.04743446667 -0.0200653 -0.303955 -0.04826987859 -0.6929058297 0.7194105434 5.506444355e-40
-0.00131989 0.02863566667 -0.301025 -0.5124016339 0.04379307537 0.8576285513 8.573424264e-41
-0.03745116 0.008553060667 -0.3073242 -0.03141465771 -0.475900881 -0.8789376944 2.479160428e-39
0.0001052551111 0.02856104444 -0.3002657778 -0.5141830243 0.03279032686 0.8570534476 8.286438339e-41
0.0053997025 -0.001306372667 -0.298096 0.0001830683088 -0.00459876452 0.9999894089 7.640720007e-41
0.002489003636 0.02838273636 -0.299072 -0.423378665 0.009488420247 0.9059031272 7.891832691e-41
0.0178121 0.02844746667 -0.299072 0.3501637005 -0.07509255441 0.9336736534 7.891832691e-41
0.01997035556 0.02848814444 -0.2995062222 0.4157726603 -0.07901601243 0.9060295606 8.035325654e-41
-0.0296630625 -0.0235042875 -0.305664 -0.1357957347 -0.6316439314 0.7632728623 1.560819479e-39
-0.01229095 -0.0126419 -0.299072 0.008224857579 -0.1691500655 0.9855559888 7.891832691e-41
0.02336125 0.0287323 -0.302002 0.566021767 -0.007825767764 0.8243531505 8.824536949e-41
0.0135651 0.00931549 -0.299072 0.2666562811 -0.05378761267 0.962289624 7.891832691e-41
-0.022209175 -0.01406096667 -0.299072 -0.04077490479 -0.2857520624 0.9574357242 7.891832691e-41
0.02487945 0.028465275 -0.302979 0.553288513 0.01282050139 0.8328910229 9.075649634e-41
0.0260315 0.028560625 -0.303955 -0.5541309861 -0.01485462489 -0.8322969364 5.506444355e-40
0.0001052416667 0.01358032222 -0.2993976667 -0.3482575935 0.03685274498 0.9366741823 7.999452413e-41
-0.004486844 0.02796326 -0.302979 0.5689170317 -0.1777839207 -0.8029484969 9.075649634e-41
0.0001053212222 0.01855638889 -0.2996147778 -0.4701043541 0.02603832898 0.8822266725 8.071198895e-41
0.0053997025 -0.006248473333 -0.298096 0.07159526685 -0.1410468241 0.9874107105 7.640720007e-41
-0.01460048571 0.007667541429 -0.306152 -0.1217038466 0.5365668678 0.8350354304 1.836321763e-39
0.0274486375 0.0281677125 -0.304718125 -0.5290766484 -0.03427561208 -0.8478815262 1.00981491e-39
0.007843016667 0.0261383 -0.297119 -0.1039486229 -0.001220057555 0.9945819198 7.425480562e-41
0.0103416375 0.008577983333 -0.298096 0.1422740018 0.01461033463 0.9897194787 7.640720007e-41
-0.003232316667 0.02646128333 -0.302002 -0.4894696769 0.148682674 0.8592513589 8.824536949e-41
-0.0322304 -0.0141093 -0.300049 -0.00172342637 -0.3032755693 0.9529013374 8.214691858e-41
-0.02227987333 -0.008724464667 -0.299072 -0.1053047335 0.03102380404 0.9939559531 7.855959451e-41
-0.001890564 0.02599642 -0.301025 -0.4522219461 0.08673563448 0.8876780053 8.573424264e-41
0.002433777143 0.02606416429 -0.299072 -0.4211492244 0.03020336967 0.9064883272 7.891832691e-41
0.0114365 -0.00166416 -0.299072 0.2531484884 -0.1274868429 0.9589905879 7.891832691e-41
0.0218582 0.026138325 -0.301025 0.506790339 -0.05550201177 0.860280814 8.573424264e-41
0.002484458571 -0.008899687143 -0.299072 0.01234043688 -0.1691042583 0.9855209097 7.891832691e-41
0.005394935 0.026207 -0.29785175 -0.2609284418 0.01268800406 0.9652747603 7.604846766e-41
0.01030733 0.0261383 -0.297119 0.04431250981 -0.001175978247 0.9990170262 7.425480562e-41
0.0164032 0.0259628 -0.299072 0.3285574196 -0.08443513837 0.9407022533 7.891832691e-41
-0.004754382222 0.02114528889 -0.3027618889 -0.5483089866 -0.07871384974 0.8325631418 9.003903153e-41
0.01781718333 0.02596915833 -0.2991534167 0.363042609 -0.07568995013 0.9286932192 7.927705932e-41
0.007865484444 0.01350996667 -0.2978788889 -0.04875762315 -0.07509137915 0.9959839251 7.604846766e-41
-0.03729526364 0.005969656364 -0.3058858182 0.02719385871 0.5910058366 0.8062087789 1.652653574e-39
0.0200081 0.026050575 -0.3000489167 0.4155922926 -0.07345589261 0.9065799899 8.214691858e-41
0.0103416375 0.011047345 -0.298096 0.08054605073 -0.07289657935 0.9940816981 7.640720007e-41
0.02336125 0.026222225 -0.302002 0.5356151168 -0.05358539101 0.8427603767 8.824536949e-41
0.0244751 -0.00443649 -0.307129 -0.4754230527 0.2427167275 -0.8456130978 2.387326333e-39
-0.004816055 0.0257968875 -0.30224625 0.4956803815 -0.130160491 -0.8586962245 8.896283431e-41
-0.0247573875 0.0007309695 -0.300903 -0.01175198285 0.5297942047 0.8480448052 8.537551024e-41
0.02487945 0.0259552 -0.302979 0.5163125217 -0.008523610718 0.8563578271 9.075649634e-41
0.01783243333 0.02102659167 -0.2993976667 0.3917468763 -0.02316341403 0.9197814094 7.999452413e-41
-0.04467772 0.0003921866 -0.301025 -0.03780618037 0.4078225014 0.9122781923 8.573424264e-41
0.0260315 0.02603656667 -0.303955 -0.4928156614 -0.009383603015 -0.8700831408 5.506444355e-40
-0.0472819 0.00513458 -0.302979 -0.04871726945 -0.3424919731 -0.9382568284 9.075649634e-41
-0.00704829 -0.019928 -0.302002 0.07999307165 -0.4931378072 0.8662656703 8.824536949e-41
0.0274257625 0.026067725 -0.304412875 -0.5221085557 -0.0185538516 -0.8526772019 8.2614672e-40
0.01030733 0.0212097 -0.297119 0.1152265015 -0.007801318498 0.993308609 7.425480562e-41
-0.0123053 0.00817108125 -0.306152 -0.1870776494 0.5178770125 0.8347486766 1.836321763e-39
0.00363541 0.025528 -0.298096 -0.3433150043 0.02409254418 0.9389112616 7.640720007e-41
-0.00635529 0.025238 -0.302979 0.5421328114 -0.0993492145 -0.8343990342 9.075649634e-41
0.02718812 0.003873062 -0.3057616 -0.3122782528 0.340726389 -0.886785104 1.652653574e-39
0.0053997025 0.011047345 -0.298096 -0.1198577418 0.03081822826 0.9923126314 7.640720007e-41
0.003494266 0.02354738 -0.298096 -0.3544542836 0.04794272195 0.933843486 7.640720007e-41
0.01279068333 0.02371344167 -0.2975260833 0.2479475512 -0.02964091377 0.9683198997 7.533100285e-41
-0.00347137 0.02371726667 -0.302002 -0.4814910393 -0.02305532968 0.8761477221 8.824536949e-41
-0.002032703333 0.02363248889 -0.3009165556 -0.4602697489 0.001329681137 0.8877781199 8.573424264e-41
-0.00238120625 0.006145240625 -0.29986575 -0.3862943667 0.1411207263 0.9115161013 8.142945376e-41
-0.0173645 0.0004635155 -0.301025 -0.03522478914 0.5025643372 0.8638219152 8.573424264e-41
-0.02720386667 -0.02575431667 -0.306152 0.2134333349 0.5226765263 -0.8253820088 1.836321763e-39
0.0021427875 0.0235710375 -0.299072 -0.394296458 0.04801823918 0.9177279291 7.891832691e-41
0.02539617273 0.006135767273 -0.304177 0.3478960786 -0.3454233742 0.8715796068 6.424785303e-40
0.01782565556 0.02350025556 -0.2992891111 0.3784675757 -0.01733278893 0.9254522508 7.999452413e-41
0.02002973333 0.0235901 -0.3003743333 0.4180988264 -0.0562048739 0.9066611183 8.32231158e-41
0.0214996 0.02364096667 -0.301025 0.4809469877 -0.03417224058 0.8760834738 8.573424264e-41
-0.032221 0.005969656364 -0.3058858182 0.03225179722 0.6086939882 0.7927492985 1.652653574e-39
0.0231125 0.02360841 -0.3023928 0.509582488 -0.05700284706 0.8585315157 8.932156671e-41
0.02487945 0.023445125 -0.302979 0.5054165987 -0.05385056701 0.8611934616 9.075649634e-41
0.0260315 0.0235176 -0.303955 -0.481498162 0.03201780166 -0.8758620784 5.506444355e-40
-0.014918 0.001896385 -0.302002 -0.03412909353 0.5483340501 0.8355626694 8.824536949e-41
0.02748106667 0.0235176 -0.303955 -0.4612992457 0.01664411713 -0.8870884845 5.506444355e-40
0.02279106364 0.01867536364 -0.3025349091 0.5744208432 -0.06576631868 0.8159138963 8.968029912e-41
0.007843016667 0.00608635 -0.297119 0.03096238223 -0.008531753148 0.999484137 7.425480562e-41
-0.0121638 -0.02660285556 -0.304769 0.1117436417 0.4020934779 -0.9087541986 1.00981491e-39
0.00845337 -0.01468403333 -0.302002 0.3592318848 -0.4364345676 0.8249104928 8.824536949e-41
-0.009823736154 0.006433633077 -0.3044246154 -0.3866062295 0.4025611115 0.8297470547 8.2614672e-40
0.02061973333 0.005950926667 -0.302002 0.503676914 -0.1230517624 0.8550835223 8.824536949e-41
-0.00635529 0.0223694 -0.302979 0.5114872546 0.1356143683 -0.8485219688 9.075649634e-41
-0.00671387 0.008720396667 -0.302979 -0.5320837755 0.2296198302 0.8149610969 9.075649634e-41
-0.001890564 0.02128754 -0.301025 -0.5168492911 -0.02606371321 0.8556795505 8.573424264e-41
0.000105361 0.02104948333 -0.2997233333 -0.4755603571 0.01896155106 0.8794787129 8.107072136e-41
0.00187731 0.0210037 -0.299072 -0.3969019406 -0.01354595844 0.9177610563 7.891832691e-41
0.0226898 0.0112171125 -0.3024905 0.3289402076 -0.01999899742 0.9441389622 8.968029912e-41
0.000105917 -0.00697708 -0.299072 0.06558613309 -0.08757797939 0.9939962559 7.891832691e-41
0.005290712857 0.02105057143 -0.2976772857 -0.2971927154 -0.01248245868 0.9547359206 7.533100285e-41
0.007843016667 0.0212097 -0.297119 -0.1426254318 -0.01347760292 0.9896849703 7.425480562e-41
-0.0272687 -0.01624551667 -0.3001303333 -0.1160057555 -0.3631651372 0.9244748497 8.250565098e-41
0.0164032 0.0210037 -0.299072 0.3790832041 -0.001671119496 0.9253610818 7.891832691e-41
-0.00483704 -0.00448418 -0.298096 -0.07153072751 0.1402310323 0.9875315755 7.640720007e-41
-0.007103392222 0.02101645556 -0.304362 0.5224223293 0.1257113324 -0.8433691782 8.2614672e-40
-0.0487061 0.00513458 -0.302979 -0.08448296107 -0.3054134306 -0.9484646887 9.075649634e-41
-0.03211975 -0.00627009 -0.299072 -0.01868704845 0.09043672238 0.9957268669 7.891832691e-41
0.0245209 0.0212784 -0.302979 0.5267475727 -0.1188643844 0.8416699191 9.075649634e-41
0.00223128 0.0185191 -0.299072 -0.3655419553 -0.02436141806 0.9304760073 7.891832691e-41
0.02551922857 0.02089364286 -0.303955 -0.5029980912 0.1480797061 -0.8515076752 5.506444355e-40
0.0274467375 0.0211258125 -0.304718125 -0.488329366 0.1530978511 -0.8591248328 1.00981491e-39
-0.042279575 -0.001316863333 -0.3006996667 0.03533499718 0.3522308547 0.9352458837 8.465804542e-41
-0.044906625 -0.0200653 -0.303955 -0.1028416935 -0.6248461124 0.773945038 5.506444355e-40
0.02711921429 0.006189617143 -0.3046527143 -0.3289438773 0.3733059784 -0.8674321714 1.00981491e-39
-0.03483076667 0.0004635155 -0.301025 -0.03930368077 0.4633384993 0.885309356 8.573424264e-41
-0.00565338 0.0202789 -0.303955 -0.5456906405 -0.04925465989 0.836537927 5.506444355e-40
0.005493708571 0.01864185714 -0.2977470714 -0.2548373412 -0.02530700612 0.966652722 7.568973525e-41
1.74865e-05 0.0037367325 -0.299072 -0.2796196257 0.07745735862 0.9569813073 7.891832691e-41
0.007843016667 0.01875305 -0.297119 -0.1047453619 -0.03805482619 0.9937707177 7.425480562e-41
-0.03211975 -0.0087480525 -0.299072 -0.002204447558 0.03420750202 0.9994123209 7.891832691e-41
-0.0496521 -0.00877762 -0.300049 0.1523108182 0.01428699063 -0.9882293745 8.214691858e-41
0.01030733 0.01875305 -0.297119 0.05942765741 -0.02380194515 0.9979488068 7.425480562e-41
-0.0197957 -0.01624043333 -0.300049 0.02036823549 -0.3847088245 0.9228132288 8.214691858e-41
-0.007045401818 0.01861156364 -0.304732 0.5829849364 0.07053100342 -0.8094158026 1.00981491e-39
-0.00565338 0.01883443333 -0.303955 0.5767879047 0.06130387394 -0.8145904173 5.506444355e-40
-0.000251502 -0.0207062 -0.302979 0.1619798894 -0.5711423908 0.8047104354 9.075649634e-41
-0.00329208 0.01888655 -0.302002 -0.5647801612 -0.02016677031 0.8249949521 8.824536949e-41
-0.0019428725 0.018541325 -0.300781 -0.5328685959 0.08793137037 0.8416169756 8.501677783e-41
0.01473125714 0.01856337143 -0.298096 0.3343679364 -0.005899222828 0.942424152 7.640720007e-41
0.01611632 0.0183777 -0.299072 0.3849129581 -0.02388132334 0.9226438625 7.891832691e-41
0.02004668889 0.01861911111 -0.3005912222 0.4576645466 -0.03750479375 0.8883335822 8.429931302e-41
0.0214996 0.0193634 -0.301025 0.5085218316 -0.05423809621 0.8593391506 8.573424264e-41
-0.0423889 0.00442886 -0.303955 0.1610010622 0.546994119 0.8215084246 5.506444355e-40
-0.022209175 -0.0037894225 -0.299072 0.03186555286 0.1855447836 0.9821189947 7.891832691e-41
0.0001052715 0.016068125 -0.2994790833 -0.4115528228 0.04423152267 0.9103119501 8.035325654e-41
0.027605675 0.01855850833 -0.3055826667 -0.5053547299 0.1504279017 -0.8496987957 1.56082088e-39
-0.0048236825 0.016693125 -0.30273475 -0.619671281 0.06980834751 0.7817507903 9.003903153e-41
0.00152302 0.0061273575 -0.299072 -0.263590524 0.1009602392 0.9593367843 7.891832691e-41
-0.02726746667 0.00442886 -0.303955 0.02241529888 0.6736122991 0.7387448984 5.506444355e-40
0.02251501818 -0.003779844545 -0.3060632727 0.5239378074 -0.2737646054 0.8065619101 1.744487669e-39
0.02046355 -0.004007148 -0.3047852 0.5362441705 -0.2729021244 0.7987281266 1.00981491e-39
-0.00347137 0.01691435 -0.302002 -0.5916923587 0.07067366763 0.8030600135 8.824536949e-41
-0.002095655455 0.01629152727 -0.3005813636 -0.4989718366 0.1077665274 0.8598915524 8.394058061e-41
-0.04731496667 -0.02161154167 -0.3057453333 -0.08519131739 -0.6452718565 0.7591881655 1.560819479e-39
0.00223128 0.0160446 -0.299072 -0.3260889374 -0.005172727614 0.945324943 7.891832691e-41
0.007843016667 0.0159378 -0.297119 -0.07455999086 -0.1031910635 0.9918631015 7.425480562e-41
0.012797675 0.01596705833 -0.2976889167 0.2394825233 -0.06509867692 0.9687157908 7.568973525e-41
-0.02697753333 0.0096283 -0.309082 -0.1192619196 -0.6297586425 -0.767581036 3.489335471e-39
0.01469758889 0.01610652222 -0.298096 0.3341661809 -0.06715757067 0.9401185161 7.640720007e-41
-0.04447935 -0.0230865 -0.306152 -0.2568462321 -0.5091937414 0.8214327403 1.836321763e-39
-0.04222412 -0.003728231333 -0.2998536 0.02169211987 0.2862061909 0.9579224751 8.142945376e-41
0.01609582857 0.0158931 -0.299072 0.3735523917 -0.06779266232 0.925128513 7.891832691e-41
-0.03232727 0.0016834282 -0.3022951 -0.01037520334 0.561889353 0.8271473328 8.896283431e-41
0.02005516667 0.016135525 -0.3006996667 0.4647957019 -0.04248593577 0.8843980443 8.465804542e-41
0.0226898 0.0162315375 -0.3024905 0.5602471172 0.004381243521 0.8283139334 8.968029912e-41
0.004998342857 -0.01609477143 -0.301025 0.2137507701 -0.4990618927 0.8397903522 8.573424264e-41
-0.0496521 -0.01126606667 -0.300049 0.1647462253 0.08769164211 -0.9824300775 8.214691858e-41
0.02737171667 0.01627223333 -0.305664 -0.5984259582 0.0207690338 -0.8009088711 1.560819479e-39
-0.02972715 0.005828859 -0.3057616 0.04435649452 0.6382129521 0.7685809841 1.652653574e-39
-0.02741495556 0.00590261 -0.3058266667 0.05912635279 0.6942921674 0.7172603855 1.652653574e-39
-0.01981096667 -0.001315381444 -0.3002658889 0.05487296678 0.4521432432 0.8902558313 8.286438339e-41
-0.0020289425 0.013624175 -0.300293 -0.45564273 0.05026056094 0.8887426954 6.26870868e-41
0.002633175 -0.02153778333 -0.3045655 0.1620221069 -0.559313345 0.8129682767 9.179808149e-40
0.00223128 0.01356506667 -0.299072 -0.2874717765 0.0167516726 0.9576426051 7.891832691e-41
-0.01727295714 0.001846044286 -0.3021415714 -0.0190468306 0.5610023006 0.8275950924 8.86041019e-41
0.0053997025 0.01352183333 -0.298096 -0.1655316421 -0.02128799623 0.9859746937 7.640720007e-41
0.0193634 0.00224686 -0.301025 0.5153390086 -0.1727800751 0.8393883201 8.573424264e-41
-0.009530821111 0.008540682222 -0.3052572222 -0.5224628013 0.317472236 0.791355799 1.285317194e-39
0.0233917 -0.00498199 -0.307129 -0.4754230527 0.2427167275 -0.8456130978 2.387326333e-39
0.01281483333 0.01352183333 -0.298096 0.1861855061 -0.144406962 0.9718444251 7.640720007e-41
0.014404275 0.013698575 -0.298096 0.271523736 -0.1316883766 0.9533797943 7.640720007e-41
0.015779475 0.013476375 -0.299072 0.3341929271 -0.09304005326 0.9379011867 7.891832691e-41
0.0255534 0.0133133 -0.303955 -0.4279594883 -0.2040681352 -0.880458331 5.506444355e-40
0.0245209 0.00728607 -0.302979 0.3142412239 -0.2512668072 0.9154875449 9.075649634e-41
0.02005516667 0.01364305556 -0.3006996667 0.4591312243 -0.03412113016 0.887712942 8.465804542e-41
0.0226898 0.01372528333 -0.3024905 0.4899709091 0.05083539237 0.8702552908 8.968029912e-41
-0.0462341 0.000106871 -0.301025 -0.05591599468 0.375754515 0.9250307811 8.573424264e-41
-0.03257748333 0.000344634 -0.301025 0.01437015267 0.4839739788 0.8749643916 8.573424264e-41
-0.002158251818 0.01077755455 -0.3003151818 -0.4262079547 0.05229152592 0.9031126041 8.32231158e-41
-0.04240114 0.0002495288 -0.301025 0.0404875693 0.3958548767 0.9174201182 8.573424264e-41
-0.03746201111 -0.006274328889 -0.2992891111 0.001646051539 0.162678571 0.9866777453 7.963579173e-41
0.0001056391667 0.01109441667 -0.2992348333 -0.3481139235 0.03528691569 0.9367878788 7.927705932e-41
0.00340017 0.01081211 -0.298096 -0.2008772499 0.05561092625 0.978036684 7.640720007e-41
-0.03231811667 0.004071868333 -0.3041585 0.007802137976 0.6128525386 0.7901587768 6.424785303e-40
0.015336975 0.011087425 -0.299072 0.3097721263 -0.0609336479 0.9488563223 7.927705932e-41
0.02517283636 0.01113820909 -0.302979 -0.2401735903 -0.03593974473 -0.9700644212 9.075649634e-41
-0.02468105 0.010576225 -0.310059 -0.05457640015 -0.6187471921 -0.7836921135 3.85667185e-39
0.005170608889 -0.02158778889 -0.3053928889 -0.1890826946 0.5533952434 -0.8111728788 1.377151289e-39
-0.02251282 0.01053922 -0.310059 0.02587298506 -0.5833932025 -0.8117776542 3.85667185e-39
-0.007573446667 0.01067096667 -0.303955 -0.558218707 0.1756867364 0.8108797974 5.506444355e-40
-0.006594343333 0.0103963 -0.302979 -0.578945382 0.1499412451 0.8014610831 9.075649634e-41
-0.004906973333 0.01049423333 -0.3023276667 -0.5616947393 0.1042663481 0.8207481638 8.896283431e-41
-0.01967873333 0.01037086667 -0.3094076667 0.2654054327 -0.4915564512 -0.82941679 3.581169566e-39
-0.0397339 0.00297928 -0.302979 0.01777603449 0.5901881507 0.8070699842 9.003903153e-41
-0.01495866667 0.01031243333 -0.3077796667 0.2050833037 -0.4942539335 -0.8447803784 2.846496807e-39
0.0135651 0.010025 -0.299072 0.2521337899 -0.05237109404 0.9662741953 7.891832691e-41
-0.01727008125 -0.00379323875 -0.299438375 0.01083309379 0.3012938871 0.9534697886 7.999452413e-41
0.0266724 0.0101547 -0.302979 -0.2932351091 0.0622305212 -0.9540128579 9.075649634e-41
0.02024007273 0.001084551364 -0.3025349091 0.582679913 -0.2031688412 0.7868967791 8.968029912e-41
-0.03482394444 0.00860172 -0.3073458889 0.03636881936 -0.4855213064 -0.8734680132 2.570994522e-39
-0.02730149231 0.008237398462 -0.3076545385 0.1311722583 0.6477524713 0.7504735669 2.754662712e-39
-0.03471375 0.00297928 -0.302979 0.009321539522 0.6298432643 0.7766663192 8.824536949e-41
0.0053997025 -0.003777505 -0.298096 0.03862937394 -0.02633663947 0.9989064786 7.640720007e-41
0.02192996 0.003839872 -0.302979 0.5294442711 -0.1750928682 0.8300790633 9.075649634e-41
-0.0495626 0.001252704733 -0.3020671333 0.06105059784 -0.3236916456 -0.9441909463 8.824536949e-41
-0.0223938 0.009054562 -0.3094728 0.02200988448 -0.5878710005 -0.8086552119 3.673003661e-39
-0.00660133 -0.00448418 -0.298096 -0.07804457412 0.1759048147 0.9813085858 7.640720007e-41
-0.01492137778 0.009079827778 -0.307129 0.1813624069 -0.5046644137 -0.8440506542 2.387326333e-39
0.00292969 0.006106375 -0.298096 -0.2329981559 0.05085638478 0.9711464809 7.640720007e-41
-0.0078125 0.008748373333 -0.303955 -0.540865938 0.2426746003 0.8053403476 5.506444355e-40
-0.005265556667 0.008702596667 -0.3023276667 -0.5346395983 0.1501269663 0.8316383793 8.896283431e-41
-0.00417328 0.00866445 -0.301025 -0.5117898524 0.1565572805 0.8447253784 8.573424264e-41
-0.01697694 0.003266144 -0.302979 -0.05956381663 0.6378356343 0.7678657795 8.968029912e-41
-0.002386013333 0.008648554167 -0.3004556667 -0.4230826025 0.04290169198 0.9050748899 8.35818482e-41
-0.02481080769 -0.02609606154 -0.3060018462 0.1809192808 0.4160534544 -0.8911608928 1.744487669e-39
-0.0296529 -0.011583325 -0.299072 -0.04932080334 -0.1877821445 0.9809716227 7.891832691e-41
0.0001057716667 0.008609347778 -0.2991805556 -0.3455219779 0.04467421063 0.9373466689 7.927705932e-41
-0.0271797375 -0.003790615 -0.299194125 -0.0804539845 0.2015638643 0.9761655418 7.927705932e-41
0.001700165 0.00878334 -0.299072 -0.2947257193 0.064502843 0.9534023986 7.891832691e-41
0.003017905 0.00848961 -0.298096 -0.2137296979 0.06544915555 0.9746979144 7.640720007e-41
-0.00981139 -0.01406096667 -0.299072 0.001481230517 -0.2955970385 0.9553115705 7.891832691e-41
-0.002640193333 -0.01103294444 -0.298096 0.1546982954 -0.1300329993 0.9793670693 7.640720007e-41
0.005398113333 0.00857544 -0.2980145833 -0.1391822754 0.04865333968 0.9890708502 7.640720007e-41
-0.0458374 0.00513458 -0.302979 -0.1237334754 -0.4121697809 -0.9026661059 9.075649634e-41
0.015336975 0.008605956667 -0.299072 0.3201353973 -0.03707610591 0.9466460213 7.963579173e-41
-0.0412598 -0.0177155 -0.301025 -0.06222397583 -0.4277373941 0.9017587807 8.573424264e-41
-0.01194 -0.00768661 -0.299072 -0.08432739744 0.1108424182 0.9902539313 7.640720007e-41
0.0178731 0.008636473333 -0.300049 0.3620152737 -0.06181374355 0.9301204238 8.214691858e-41
0.019987125 0.0087537775 -0.301025 0.4786708422 -0.09304360205 0.8730504642 8.573424264e-41
-0.04477365714 0.006234577857 -0.3041294286 -0.1850119624 -0.5078409336 -0.841349012 6.424785303e-40
-0.007242586 -0.02612612 -0.3041992 -0.09694512971 0.3810467804 -0.9194590763 7.343126252e-40
0.02523803333 0.008720396667 -0.302979 -0.2788811316 0.09963470409 -0.955143047 9.075649634e-41
0.02299498571 0.001087045429 -0.3046527143 0.5319590418 -0.2180210071 0.8182214971 1.00981491e-39
0.0266724 0.00907898 -0.302979 -0.2527748322 0.1020449627 -0.9621287387 9.075649634e-41
-0.0413513 0.00883484 -0.307129 -0.1401374411 -0.4808678363 -0.8655215893 2.387326333e-39
-0.037289925 -0.0162811 -0.3006996667 0.004394662824 -0.3519415913 0.936011647 8.465804542e-41
-0.02965165 0.00820827625 -0.307373 -0.113941539 -0.6318733677 -0.7666507502 2.570994522e-39
-0.0415802 0.00771904 -0.306152 -0.157120504 -0.5222231155 -0.8382100959 1.836321763e-39
-0.034924825 -0.02373124167 -0.3050334167 0.2212839554 -0.5586628101 0.7993305172 1.193483099e-39
0.00328255 -0.00765991 -0.298096 0.003001275262 -0.1517805333 0.9884096631 7.891832691e-41
-0.0399475 0.007538795 -0.306152 -0.06496708751 -0.5612429903 -0.8250973175 1.836321763e-39
-0.03495276667 0.001896385 -0.302002 -0.0006244251485 0.5539595214 0.8325433675 8.824536949e-41
-0.02468873333 0.00776672 -0.3079423333 0.05592359345 0.6587269765 0.750300821 2.938330902e-39
-0.04224743636 -0.01898334545 -0.3025349091 -0.118837122 -0.5811263344 0.8050900086 9.039776393e-41
0.0208588 0.00798035 -0.302002 0.4324305581 -0.1153300471 0.8942610316 8.824536949e-41
-0.027206425 -0.01408195 -0.2994790833 -0.1034303652 -0.2698574302 0.9573291633 8.035325654e-41
0.0267639 0.00802612 -0.303955 -0.2970803222 0.3303143525 -0.8958993865 5.506444355e-40
-0.0343323 0.00735855 -0.306152 -0.01399874675 -0.5707181152 -0.8210267158 1.836321763e-39
-0.02716065 -0.02105456667 -0.3028161667 -0.08120996524 -0.6217645714 0.7789825154 9.039776393e-41
-0.03215025 0.00735855 -0.306152 0.03798647094 0.5768307454 0.8159799747 1.836321763e-39
0.007872266667 0.001165018 -0.298096 0.04391323497 -0.02647358641 0.9986845233 7.640720007e-41
-0.0303497 0.00735855 -0.306152 0.02315184384 0.6068185881 0.7945031109 1.836321763e-39
-0.03730631818 -0.01417403636 -0.300049 -0.006970281925 -0.3022552393 0.9532015451 8.214691858e-41
0.005064646667 -0.01123046667 -0.299072 0.1050154158 -0.2971225835 0.9490468549 7.891832691e-41
-0.00543976 0.0067262625 -0.302002 -0.4756324794 0.2368608919 0.8471544502 8.824536949e-41
-0.00461912375 0.00590276875 -0.301025 -0.4704466727 0.2274504064 0.8526114242 8.573424264e-41
-0.0510559 -0.01126606667 -0.300049 0.1359343322 0.08728985263 -0.9868649041 8.214691858e-41
0.02530586667 0.001476387889 -0.3059351111 -0.4767810134 0.2484223467 -0.8431881184 1.744487669e-39
0.0001060366667 0.0061273575 -0.299072 -0.323369238 0.08074094494 0.9428219533 7.891832691e-41
0.002600989167 -0.01629001667 -0.3008623333 0.1345347398 -0.4731464387 0.8706508205 8.501677783e-41
0.0053901675 0.0060963625 -0.2976075 -0.1314725589 0.01173532671 0.991250346 7.533100285e-41
0.01789343333 0.006155651667 -0.3003743333 0.4144691153 -0.06690604695 0.9076006464 8.32231158e-41
0.005085945 -0.01376535 -0.300293 0.2131589673 -0.3578942394 0.9091066868 8.32231158e-41
-0.04729002 0.006159212 -0.303955 -0.09812847362 -0.301234814 -0.9484874219 5.506444355e-40
-0.002378385 0.003653365 -0.2994790833 -0.3050713768 0.1246506159 0.9441364727 8.035325654e-41
-0.03972031111 0.00590261 -0.3058266667 0.07180693275 0.586958407 0.8064264336 1.652653574e-39
-0.03478699 0.005828859 -0.3057616 -0.03070422086 0.6003411099 0.7991544298 1.652653574e-39
-0.0246226 0.00665665 -0.307129 0.09420872315 0.7053055071 0.7026157258 2.387326333e-39
-0.01989365 0.00665665 -0.307129 -0.1431073281 0.6428176774 0.7525328738 2.387326333e-39
0.0001063412222 -0.01408385556 -0.2995062222 0.1098087619 -0.3451948421 0.9320850588 8.035325654e-41
-0.01471201667 0.005892435 -0.3051960833 -0.1211747396 0.5839523604 0.8026931688 1.285317194e-39
0.007872266667 -0.001306372667 -0.298096 0.1075307724 -0.02334180716 0.9939277102 7.640720007e-41
-0.019796375 0.005537035 -0.305664 -0.09404746365 0.6928432902 0.7149288425 1.560819479e-39
0.0135651 0.00541878 -0.299072 0.3086120489 -0.01029806969 0.9511322479 7.891832691e-41
-0.039871225 0.004069325 -0.303955 0.06153094722 0.592590213 0.8031505351 5.506444355e-40
0.0133877 0.003470895 -0.299072 0.3038628815 -0.0699696443 0.9501429356 7.891832691e-41
-0.0196635 -0.01083755 -0.298096 -0.08579232158 -0.07906867594 0.9931705906 7.640720007e-41
0.02364093333 0.005390166667 -0.303955 0.3987606683 -0.2886640296 0.8704383995 5.506444355e-40
-0.0495186125 0.003427505 -0.302979 0.01728446451 -0.2966460736 -0.9548310606 8.968029912e-41
0.0218658 -0.00786591 -0.306152 -0.4988347999 0.2228057374 -0.8375687708 2.387326333e-39
-0.04477485455 0.003630376364 -0.3028901818 0.09108780584 0.4754319814 0.8750242526 8.968029912e-41
-0.02486166667 -0.0222168 -0.303955 -0.04763786822 -0.5766733776 0.8155847283 5.506444355e-40
-0.03734333333 0.004069325 -0.303955 -0.01629164849 0.608648015 0.7932730778 5.506444355e-40
-0.009543101667 -0.006483711667 -0.298096 -0.1255361404 0.1452950158 0.981391887 7.640720007e-41
-0.03482055 0.004069325 -0.303955 -0.00134433516 0.6152262663 0.7883494365 5.506444355e-40
-0.03964741667 -0.01923116667 -0.3023276667 -0.07657824904 -0.4963976125 0.8647110397 8.896283431e-41
-0.02993991429 0.004120687143 -0.303955 -0.02253805503 0.6219504138 0.782732214 5.506444355e-40
-0.01971435 0.00407314 -0.30426025 -0.03269583374 0.7032578911 0.710182597 7.343126252e-40
-0.0123749 0.0004635155 -0.301025 -0.0602428705 0.5099017748 0.8581206072 8.573424264e-41
-0.0113754 -0.0228577 -0.302979 -0.02750287186 -0.4435864043 0.8958095188 9.075649634e-41
-0.0173569 0.0042490925 -0.303955 -0.08859347553 0.648412069 0.7561170445 5.506444355e-40
0.0194855 -0.003123285 -0.302979 0.5869269844 -0.2872101469 0.7569854995 9.075649634e-41
-0.0128555 0.00442886 -0.303955 -0.1241765794 0.5660474503 0.8149665399 5.506444355e-40
-0.0120077 0.003606795 -0.302979 -0.1270586376 0.5591734981 0.8192564322 8.968029912e-41
-0.00992754 0.003691988889 -0.3025447778 -0.2118271378 0.5014541899 0.8388521676 8.968029912e-41
0.0025765925 0.00363541 -0.298096 -0.1869759173 0.03133104766 0.9818647421 7.640720007e-41
0.010339095 0.003634138333 -0.2980145833 0.1410159415 -0.04659431684 0.9889102456 7.640720007e-41
0.005294036 -0.01977234 -0.303955 0.1966350206 -0.5621201901 0.803340252 5.506444355e-40
0.01239164 0.003776554 -0.298096 0.2230085585 -0.07580138863 0.9718648735 7.640720007e-41
-0.002374648125 0.001169280375 -0.2991330625 -0.2624405132 0.1568281483 0.9521186423 7.927705932e-41
0.02338734286 0.003609248571 -0.3043038571 0.4649122568 -0.2622636449 0.8456207034 7.343126252e-40
-0.02249296 0.0006774787 -0.3009274 0.05615091311 0.5466720188 0.8354620152 8.537551024e-41
0.02541097778 0.003722296667 -0.3052844444 0.4415036115 -0.3033474157 0.8444257851 1.377151289e-39
-0.0422465 0.00333786 -0.302979 0.1471468337 0.5568445474 0.8174790269 8.968029912e-41
-0.02947082 0.003122712 -0.302979 -0.05149383998 0.6509618372 0.7573619155 8.968029912e-41
-0.0147233125 -0.0263004375 -0.305481 0.1463818073 0.3745920197 -0.9155616775 1.468985384e-39
-0.004865008889 -0.01622856667 -0.2998318889 0.06360984452 -0.3964387126 0.9158548656 8.142945376e-41
-0.02466585 0.00333786 -0.302979 0.01213593902 0.6821300561 0.7311301564 8.968029912e-41
-0.0223274 0.00315857 -0.302979 0.05549551485 0.6875883385 0.7239768812 8.896283431e-41
-0.03218583333 0.00297928 -0.302979 -0.003251777949 0.6559791368 0.7547720173 9.075649634e-41
-0.01963045 0.00297928 -0.302979 -0.01044610146 0.6717751571 0.7406814547 9.003903153e-41
-0.00421524 -0.0222168 -0.303955 0.1920935066 -0.4632043568 0.865183107 5.506444355e-40
0.0103931575 -0.0186577 -0.304718125 0.2452991639 -0.5261210488 0.8142634477 8.034582966e-40
-0.04718290909 0.001278348273 -0.302002 -0.03857008993 0.376128772 0.9257642762 8.824536949e-41
-0.0446167 0.0016817122 -0.302002 0.02621342911 0.4239079955 0.905325835 8.824536949e-41
-0.0420150875 0.001628044 -0.302002 0.04500223416 0.5003887345 0.8646305068 8.824536949e-41
-0.0146942 -0.02147186364 -0.3027125455 -0.05997673791 -0.5130526617 0.8562591648 9.003903153e-41
-0.03963724167 0.001540027 -0.30224625 0.005398677008 0.510669909 0.8597599073 8.896283431e-41
-0.00483704 -0.00871849 -0.298096 -0.002794152414 -0.07176253188 0.9974178321 7.640720007e-41
-0.03723581429 0.001744681571 -0.3022811429 -0.0149306473 0.5293003831 0.8483031181 8.896283431e-41
-0.03008161429 0.001744681571 -0.3022811429 -0.02457746452 0.5569638248 0.8301730218 8.896283431e-41
-0.02744295 0.001896385 -0.302002 -0.05139863856 0.5642471366 0.8240044592 8.824536949e-41
-0.009910566667 0.00225449 -0.302002 -0.2104641059 0.4986818447 0.8408455732 8.824536949e-41
-0.02511215 0.0020754375 -0.302002 -0.01173822948 0.5875529811 0.8091005552 8.824536949e-41
-0.004852293333 -0.001310188333 -0.299072 -0.1100877509 0.2807205023 0.9534551309 7.891832691e-41
-0.02219645 0.002015753333 -0.302002 0.05396558832 0.6019134757 0.7967357674 8.824536949e-41
-0.01974922857 0.001949994286 -0.3024207143 0.001868238315 0.6106525944 0.7918964065 8.932156671e-41
-0.012414925 0.001896385 -0.302002 -0.09351416315 0.5339851176 0.840306489 8.824536949e-41
-0.04726496667 -0.02393765556 -0.3076712222 -0.1253234406 -0.504366725 0.8543466755 2.754662712e-39
-0.00737214125 0.001176045875 -0.300598 -0.2470720357 0.3920098675 0.8861623288 8.429931302e-41
-0.0023655875 -0.006248473333 -0.298096 0.02421669087 0.0308584114 0.999230359 7.640720007e-41
-0.000366191 0.001404972333 -0.299072 -0.2288131917 0.09700990841 0.9686245924 7.891832691e-41
-0.0246887 -0.00627009 -0.299072 -0.02224107353 0.04805094522 0.9985972368 7.891832691e-41
0.000576238 0.000929654 -0.298096 -0.1721255102 0.09481684661 0.9805011853 7.640720007e-41
0.0025765925 0.001165018 -0.298096 -0.12951934 0.01172120092 0.9915076167 7.640720007e-41
0.0053997025 0.001165018 -0.298096 -0.003747981403 -0.02914280095 0.9995682317 7.640720007e-41
0.01087344 -0.003931043 -0.299072 0.3142560431 -0.1946715202 0.9291642151 7.891832691e-41
0.0121078 0.001518091333 -0.298096 0.2103391457 -0.08250194683 0.9741410948 7.640720007e-41
0.01309204444 0.001050731556 -0.299072 0.2888173488 -0.08335697026 0.9537484755 7.891832691e-41
0.01535988125 0.001170279 -0.2994994375 0.3790683605 -0.1412335867 0.914527338 8.071198895e-41
0.0269318 0.0022831 -0.306152 -0.3835773106 0.2974274299 -0.8743027912 1.836321763e-39
-0.007336614167 -0.001310506333 -0.2992348333 -0.09394205368 0.3192032457 0.9430186523 7.927705932e-41
-0.009869894444 0.000820101 -0.3008081111 -0.1885178597 0.4514597264 0.8721497188 8.501677783e-41
-0.027351375 0.0004635155 -0.301025 -0.0709842798 0.5164334017 0.8533802046 8.573424264e-41
-0.0446777 -0.0137539 -0.300049 -0.04499113765 -0.2957815011 0.9541955256 8.214691858e-41
-0.0398254 0.000106871 -0.301025 0.0433736182 0.42444392 0.9044147765 8.573424264e-41
0.0187073 0.000107229 -0.302002 0.5371238005 -0.2288181373 0.8118745488 8.824536949e-41
-0.04475908889 -0.00131644 -0.3005912222 -0.01860560317 0.3425292422 0.9393229209 8.429931302e-41
-0.0398254 -0.001318773333 -0.301025 0.02576972006 0.382630543 0.9235419801 8.573424264e-41
-0.024798075 -0.02371216667 -0.304769 -0.1156847122 -0.5566544649 0.8226498976 1.00981491e-39
-0.0518392 -0.0234324 -0.3074543333 -0.0161649088 0.5054516268 -0.8627035115 2.570994522e-39
-0.03476971111 -0.001316016667 -0.3004827778 -0.03890946388 0.4107495158 0.9109176082 8.35818482e-41
-0.03226725833 -0.001315593333 -0.3003743333 -0.01727256016 0.4177650133 0.9083909138 8.32231158e-41
-0.02978175556 -0.001315593333 -0.3003743333 -0.03253642646 0.4380243027 0.8983741377 8.32231158e-41
-0.02727633333 -0.0013152755 -0.3002116667 -0.06042292337 0.44145273 0.8952477632 8.286438339e-41
-0.02226891667 -0.001313686 -0.2998861667 0.05546518873 0.4563829394 0.8880530533 8.178818617e-41
-0.01732381667 -0.001315593333 -0.3003743333 0.03188331741 0.3931181876 0.9189350057 8.32231158e-41
-0.012329725 -0.001314321833 -0.2999675833 -0.07528549703 0.431764161 0.898839142 8.178818617e-41
-0.009824972222 -0.001311354333 -0.2995062222 -0.1560488797 0.3646562463 0.9179730765 8.035325654e-41
-0.000602245 -0.0009562975 -0.299072 -0.1790174999 0.1046468714 0.9782646713 7.891832691e-41
0.0003072961429 -0.001407212286 -0.298096 -0.1614289013 0.06527176696 0.9847234669 7.640720007e-41
0.0025765925 -0.001306372667 -0.298096 -0.06093627773 0.01639603846 0.9980069839 7.640720007e-41
0.010130305 -0.0012357692 -0.298096 0.1676713501 -0.09721656743 0.9810378471 7.640720007e-41
0.0151558 -0.0012422556 -0.2996582 0.4293448171 -0.1845883696 0.8840758801 8.107072136e-41
-0.0122938125 -0.00379001875 -0.2991330625 -0.07445625684 0.2268862786 0.9710709976 7.927705932e-41
0.01983386667 -0.001328152667 -0.3028161667 0.5816096092 -0.2971050862 0.7572706453 9.039776393e-41
0.0209961 -0.001332283 -0.303955 0.5494143136 -0.3011743761 0.7793830298 5.506444355e-40
0.02250332222 -0.001336945667 -0.3050131111 0.5529630249 -0.2801779372 0.7846860624 1.193483099e-39
0.02466965 -0.00125080375 -0.306152 -0.4697683393 0.2665258507 -0.8415947233 1.836321763e-39
0.01712035714 -0.006248475714 -0.3028394286 0.5642167512 -0.3350428296 0.7545897958 9.075649634e-41
-0.00201225 -0.00201225 -0.298096 -0.1305047834 0.1404517829 0.9814488261 7.640720007e-41
0.0255737 -0.00207329 -0.307129 -0.4339166893 0.2613936758 -0.8622004715 2.387326333e-39
-0.0496521 -0.0038023 -0.300049 0.01129669063 -0.1510859816 -0.9884560744 8.214691858e-41
-0.0471477625 -0.00380134625 -0.2999879375 -0.0667267623 0.2242399251 0.9722468797 8.178818617e-41
-0.04465226667 -0.003799756667 -0.2998861667 -0.04133703031 0.2675012416 0.962670419 8.178818617e-41
0.0166168 -0.00814819 -0.302979 0.5135524648 -0.3403033701 0.7876912353 5.506444355e-40
-0.009778343333 -0.00871849 -0.298096 -0.04620538642 -0.02809544032 0.9985367837 7.640720007e-41
-0.05134886 -0.004299544 -0.300049 0.06825009884 -0.09811431171 -0.9928320633 8.214691858e-41
-0.03477593846 -0.003877199231 -0.2995980769 -0.05347581106 0.2456111098 0.9678923082 8.071198895e-41
-0.032175075 -0.00379467 -0.2995605 -0.0221743001 0.2313949349 0.9726071584 8.071198895e-41
-0.0246887 -0.0037894225 -0.299072 -0.03909190168 0.1810024573 0.9827054155 7.891832691e-41
-0.0074224475 -0.02140296667 -0.3026533333 0.06712762424 -0.4415163229 0.8947386315 9.003903153e-41
-0.01735941667 -0.01842754167 -0.3009436667 -0.002876729067 -0.4738871734 0.8805808716 8.537551024e-41
0.01529120833 -0.01399295833 -0.30531825 0.4857685774 -0.2653891244 0.8328250128 1.377151289e-39
-0.00981139 -0.0037894225 -0.299072 -0.14134187 0.229045514 0.9630994903 7.891832691e-41
-0.01478766667 -0.003792761667 -0.2993976667 0.01144496722 0.2583941927 0.9659717666 7.999452413e-41
-0.004852293333 -0.00308132 -0.299072 -0.07787308528 0.2152403941 0.9734512599 7.891832691e-41
-0.00229492 -0.003848140667 -0.298096 -0.02660825897 0.09050275473 0.9955406832 7.640720007e-41
0.0001055996667 -0.003777505 -0.298096 -0.04837675673 -0.02186606742 0.9985897879 7.640720007e-41
-0.032340975 -0.0177155 -0.301025 0.02669408857 -0.4072815169 0.9129124775 8.573424264e-41
0.007872266667 -0.003777505 -0.298096 0.165019666 -0.06960351102 0.9838312157 7.640720007e-41
0.00951894 -0.003541946667 -0.298096 0.2019632493 -0.1198963579 0.9720265991 7.640720007e-41
0.012870775 -0.003794191667 -0.2993976667 0.3693184598 -0.2259402441 0.901418261 7.999452413e-41
0.0150566 -0.00380993 -0.300537 0.4181254368 -0.2567286349 0.8713561425 8.394058061e-41
0.01651 -0.003103255 -0.301025 0.5094053126 -0.2642038206 0.8189643269 8.824536949e-41
0.005002975 -0.023269625 -0.306152 -0.1560257088 0.5182195467 -0.8408950467 1.836321763e-39
0.01067096667 -0.01693726667 -0.303955 0.2961934552 -0.4246708291 0.8555256419 5.506444355e-40
0.01774243077 -0.003861792308 -0.3024529231 0.5722775348 -0.28469148 0.7690573349 8.968029912e-41
0.0240326 -0.003154755 -0.306152 0.4844659518 -0.2555214662 0.836660936 1.836321763e-39
0.0188293 -0.0049324 -0.303955 0.5570607101 -0.2858227162 0.7797363273 5.506444355e-40
-0.0514221 -0.0055809 -0.300049 0.06825009884 -0.09811431171 -0.9928320633 8.214691858e-41
-0.04953511667 -0.006053925 -0.300049 0.1373400471 -0.1112535957 -0.9842562415 8.214691858e-41
-0.04746503333 -0.006283654444 -0.2997233333 -0.1124644808 0.07426244131 0.9908767988 8.107072136e-41
-0.0448761 -0.00627009 -0.299072 -0.07701636691 0.1258895046 0.9890502069 7.891832691e-41
-0.0423889 -0.00627009 -0.299072 0.00637630757 0.1667336479 0.9859813555 7.891832691e-41
-0.03993988333 -0.006273268333 -0.2992348333 0.01267307416 0.1772772018 0.9840793601 7.927705932e-41
