# .PCD v0.7 - Point Cloud Data file format
VERSION 0.7
FIELDS x y z normal_x normal_y normal_z rgb
SIZE 4 4 4 4 4 4 4
TYPE F F F F F F F
COUNT 1 1 1 1 1 1 1
WIDTH 654
HEIGHT 1
VIEWPOINT 0 0 0 1 0 0 0
POINTS 654
DATA ascii
-0.008461 0.0129852 -0.194702 -0.241294 0.592009 0.721491 2.341805152e-38
-0.00668717 -0.0455872 -0.196655 0.368675 0 0.837753 2.341805152e-38
-0.00270824 -0.018128 -0.198262 0.553132 -0.231138 0.746598 2.341805152e-38
0.0150388 0.0018548 -0.188721 0 0 1 2.341805152e-38
0.00503311 -0.0030928 -0.190596 -0.0681409 -0.194785 0.899862 2.341805152e-38
-0.00997161 -0.00814743 -0.192749 0 0 1 2.341805152e-38
0.019817 0.0174269 -0.194702 -0.00468773 0.646165 0.74267 2.341805152e-38
0.00511551 0.0157852 -0.193726 -0.100268 0.53948 0.77209 2.341805152e-38
-0.0311432 -0.0162354 -0.196655 -0.767045 0 0.631133 2.341805152e-38
0.0400037 0.0119388 -0.189697 0 0.345067 0.850121 2.341805152e-38
-0.0233557 0.00447516 -0.196655 -0.308204 0.183645 0.863636 2.341805152e-38
0.019516 -0.0142574 -0.196655 -0.255906 -0.510271 0.722287 2.341805152e-38
0.0300535 0.00670848 -0.187736 -0.0276964 0.228797 0.883226 2.341805152e-38
0.0200015 0.0116882 -0.190674 -0.053436 0.27875 0.881171 2.341805152e-38
0.0300095 0.0117752 -0.190088 0 0.284505 0.881169 2.341805152e-38
0.0225023 0.014122 -0.192043 0 0.444599 0.806049 2.341805152e-38
-0.0108643 -0.0479431 -0.193726 0.6755 -0.050145 0.701618 2.341805152e-38
-0.022522 -0.0483093 -0.192749 0 0 1 2.341805152e-38
-0.00251469 -0.0108225 -0.194819 0.115952 -0.427201 0.813945 2.341805152e-38
0.027474 0.00675253 -0.188135 -0.202398 0.330009 0.823603 2.341805152e-38
-0.022522 -0.0457916 -0.192749 0 0 1 2.341805152e-38
-0.00804138 -0.0481384 -0.195679 0.370685 -0.0384447 0.835884 2.341805152e-38
-0.0174478 -0.0432704 -0.191713 0.0228151 0.0914735 0.844318 2.341805152e-38
0.0299777 0.0144061 -0.191702 -0.0687409 0.328006 0.855266 2.341805152e-38
-0.0115259 -0.0533011 -0.194702 0.663743 0.000934429 0.707677 2.341805152e-38
0.0299454 0.0103989 -0.189697 0 0.714815 0.699311 2.341805152e-38
0.00238724 -0.0122146 -0.195679 0 -0.350937 0.85615 2.341805152e-38
-0.0267453 -0.0205231 -0.193726 -0.39269 -0.031521 0.840409 2.341805152e-38
-0.00595856 -0.0224152 -0.195679 0.607056 -0.243424 0.704163 2.341805152e-38
0.0173207 0.0126667 -0.19165 -0.103882 0.546619 0.764556 2.341805152e-38
-0.00136185 -0.0324097 -0.201782 0.757444 0 0.652901 2.341805152e-38
-0.0318502 -0.00620588 -0.19873 -0.226278 0.224623 0.717167 2.341805152e-38
0.0274074 0.00428963 -0.187622 -0.0332589 0.0101945 0.98376 2.341805152e-38
-0.0149902 -0.0332275 -0.192705 0.0684921 -0.0975655 0.952409 2.341805152e-38
-0.027003 -0.0357056 -0.193726 -0.226912 0 0.910842 2.341805152e-38
-0.00010852 -0.0153297 -0.198451 0.319359 -0.519316 0.750303 2.341805152e-38
-0.0297165 -0.0356529 -0.195191 -0.486035 0.00253455 0.808344 2.341805152e-38
0.0374484 0.00919858 -0.188454 -0.0600336 0.322722 0.848039 2.341805152e-38
0.0350647 0.0133934 -0.190674 0 0.353555 0.853549 2.341805152e-38
-0.0279399 -0.0030008 -0.197283 -0.649629 0.147522 0.672712 2.341805152e-38
0.027476 0.0103239 -0.189697 -0.0109805 0.621275 0.746012 2.341805152e-38
-0.0248108 -0.054718 -0.192749 0 0 1 2.341805152e-38
0.0327938 0.0162978 -0.193209 -0.0981854 0.679374 0.673264 2.341805152e-38
-0.0175018 -0.0549469 -0.192749 0 0 1 2.341805152e-38
0.0280253 -0.0167084 -0.196655 0 -0.871576 0.490261 2.341805152e-38
-0.00761108 0.00187426 -0.190674 -0.0126488 0.0125954 0.995796 2.341805152e-38
-0.0107117 -0.0432892 -0.193726 0.37515 0 0.830547 2.341805152e-38
-0.00774327 -0.0382283 -0.195317 0.467917 -0.0290433 0.791954 2.341805152e-38
0.0174836 -0.0104074 -0.19296 -0.132369 -0.597921 0.710652 2.341805152e-38
-0.0269699 -0.0458396 -0.193726 -0.24093 0.0185956 0.894369 2.341805152e-38
0.00250145 -0.00811495 -0.193098 -0.0204112 -0.349857 0.851635 2.341805152e-38
-0.00428518 0.0184225 -0.197021 -0.196966 0.358185 0.809751 2.341805152e-38
-0.0273949 -0.0061089 -0.195334 -0.491399 0.244679 0.709945 2.341805152e-38
-0.00677045 -0.0134964 -0.194702 0.299451 -0.176205 0.856464 2.341805152e-38
-0.00698948 0.00644731 -0.190674 -0.366709 0.239278 0.83275 2.341805152e-38
0.00943756 0.0206757 -0.197754 0 0 0 2.341805152e-38
-0.0268602 -0.0159906 -0.193726 -0.330693 0.123297 0.860643 2.341805152e-38
-0.022516 -0.030738 -0.192688 -0.117002 -0.0313723 0.944018 2.341805152e-38
0.014956 -0.00579834 -0.190479 -0.0379736 -0.365323 0.838642 2.341805152e-38
0.0200648 -0.00577545 -0.189762 -0.0668663 -0.205466 0.898096 2.341805152e-38
-0.0124946 -0.0182068 -0.192944 0.223255 -0.0976264 0.894097 2.341805152e-38
0.0258179 0.0131683 -0.190674 -0.518291 0.518291 0.680257 2.341805152e-38
-0.00856781 -0.0153783 -0.193726 0.670507 -0.133947 0.655458 2.341805152e-38
-0.0297779 -0.00327251 -0.198679 -0.259288 0.143305 0.877667 2.341805152e-38
0.0298894 0.0197958 -0.196655 0 0.546295 0.710923 2.341805152e-38
-0.0295809 -0.0526569 -0.194852 -0.226877 0 0.894252 2.341805152e-38
0.0297628 0.0160399 -0.193125 -0.134776 0.488576 0.575549 2.341805152e-38
-0.0198158 0.00171499 -0.193726 -0.278623 0.157325 0.88074 2.341805152e-38
-0.0297234 -0.0408075 -0.195102 -0.314319 -0.0424261 0.875977 2.341805152e-38
0.0394836 -0.0114639 -0.19165 0 -0.30223 0.660702 2.341805152e-38
0.0275574 0.0162493 -0.193266 0.0709639 0.505706 0.743566 2.341805152e-38
-0.0341187 -0.0462952 -0.197754 0 0 0 2.341805152e-38
0.000708561 -0.01872 -0.201782 0.411308 -0.410346 0.797089 2.341805152e-38
-0.0298498 -0.0453976 -0.195162 -0.268963 0 0.898101 2.341805152e-38
-0.0149933 -0.0257212 -0.192749 0 0 1 2.341805152e-38
-0.0149272 -0.0106092 -0.191797 0.238688 -0.106488 0.87507 2.341805152e-38
0.0248426 0.00433491 -0.188219 -0.226287 0.270491 0.848512 2.341805152e-38
-0.024947 -0.0530599 -0.192821 -0.125191 0.0642381 0.929044 2.341805152e-38
0.0274393 0.0118281 -0.190131 0 0.289791 0.87895 2.341805152e-38
0.00740814 0.0158996 -0.193726 -0.0313481 0.452128 0.817354 2.341805152e-38
0.0249418 -0.0154038 -0.195507 0.0361346 -0.332594 0.718582 2.341805152e-38
0.0349579 -0.00326729 -0.187622 0.000654694 -0.0269005 0.988745 2.341805152e-38
0.019989 0.0161006 -0.1934 0 0.698062 0.716034 2.341805152e-38
0.0217845 0.0074056 -0.189697 0 0.557582 0.691336 2.341805152e-38
-0.00509115 0.0173082 -0.196655 0 0.141901 0.948293 2.341805152e-38
-0.0193821 0.011701 -0.198188 -0.262652 0.375495 0.796687 2.341805152e-38
-0.0078328 -0.0356489 -0.195051 0.424028 -0.0273307 0.81218 2.341805152e-38
-0.00743698 0.0116867 -0.193467 -0.107205 0.365905 0.833511 2.341805152e-38
-0.0225113 -0.028214 -0.192639 -0.193653 0.0475973 0.908706 2.341805152e-38
-0.0200134 -0.0156759 -0.192749 -0.146357 0 0.936307 2.341805152e-38
0.000224667 -0.0208088 -0.202093 0.514704 -0.208646 0.748357 2.341805152e-38
0.0123161 0.00677363 -0.189697 -0.0646553 0.0828509 0.951056 2.341805152e-38
-0.00485627 -0.0206345 -0.196894 0.559383 0 0.743602 2.341805152e-38
-0.0200134 -0.00563621 -0.192749 -0.0102385 0.0103245 0.996661 2.341805152e-38
-0.0314331 -0.0203247 -0.195679 -0.539181 0 0.84219 2.341805152e-38
-0.00856781 -0.0183563 -0.193726 0.659115 -0.00359483 0.70285 2.341805152e-38
-0.022522 -0.0257212 -0.192749 -0.00975297 0.00975297 0.996334 2.341805152e-38
0.0149803 0.0158996 -0.193726 0.0220497 0.685641 0.721932 2.341805152e-38
0.0414124 0.0112991 -0.189697 0 0.888803 0.458289 2.341805152e-38
-0.00505972 -0.0552387 -0.198105 0.690529 0.164047 0.633574 2.341805152e-38
-0.0244452 -0.00571591 -0.193726 -0.182222 0.0342425 0.925998 2.341805152e-38
-0.027003 -0.0432892 -0.193726 -0.226874 0 0.910878 2.341805152e-38
-0.0149841 -0.0282104 -0.192617 0.107663 0.13628 0.890931 2.341805152e-38
-0.0318451 -0.0122795 -0.196655 -0.253673 0.121825 0.893635 2.341805152e-38
0.03002 -0.0156163 -0.195574 -0.0598885 -0.369107 0.834255 2.341805152e-38
-0.0148595 -0.0551758 -0.1934 0.231096 -0.108677 0.896112 2.341805152e-38
-0.00506363 -0.0256079 -0.197095 0.467152 -0.0119097 0.786985 2.341805152e-38
-0.0199097 -0.0357971 -0.19165 -0.0956124 0.00329292 0.959819 2.341805152e-38
-0.0323588 -0.0257662 -0.197327 -0.408236 -0.0178768 0.80874 2.341805152e-38
-0.00316048 -0.0205469 -0.198425 0.680544 -0.0900333 0.695661 2.341805152e-38
-0.014917 -0.0081047 -0.19165 0.158988 0 0.921338 2.341805152e-38
0.0297211 -0.00667191 -0.189697 -0.135331 -0.703938 0.666947 2.341805152e-38
0.0225105 -0.0106003 -0.192642 -0.038079 -0.555399 0.756214 2.341805152e-38
-0.0100999 -0.0156521 -0.193545 0.300574 -0.0782611 0.860185 2.341805152e-38
-0.0250566 -0.0307041 -0.193292 -0.279358 0 0.889139 2.341805152e-38
-0.0225868 0.00618458 -0.196655 -0.400511 0.110314 0.801679 2.341805152e-38
-0.000879765 -0.0263138 -0.200684 0.891573 0.093666 0.431829 2.341805152e-38
-0.00246337 -0.0157906 -0.197525 0.477435 -0.332234 0.7529 2.341805152e-38
-0.0175018 -0.0531158 -0.192749 0 0 1 2.341805152e-38
-0.0250604 -0.0458494 -0.193307 -0.285627 0.0731594 0.875052 2.341805152e-38
-0.000884056 -0.0534465 -0.201782 0 0 0 2.341805152e-38
0.0199534 0.0043122 -0.188721 0 0 1 2.341805152e-38
-0.00915527 -0.0252991 -0.194702 0.743872 0 0.668322 2.341805152e-38
-0.0115204 0.0135117 -0.195679 -0.474504 0.474504 0.741412 2.341805152e-38
-0.0124449 -0.0432564 -0.193134 0.250053 0.0336287 0.874086 2.341805152e-38
0.00989625 -0.0154517 -0.19834 0.108249 -0.349779 0.837132 2.341805152e-38
-0.027003 -0.0331879 -0.193726 -0.226874 0 0.910878 2.341805152e-38
-0.00157903 -0.0432767 -0.201782 0.509258 -0.0871937 0.764939 2.341805152e-38
-0.0277809 -0.0131922 -0.194829 -0.383687 0.0902083 0.841781 2.341805152e-38
0.0337524 0.0103989 -0.189697 0 0.715441 0.698673 2.341805152e-38
-0.00495819 -0.00815964 -0.192983 0.085231 -0.284549 0.873039 2.341805152e-38
-0.0149577 -0.0306686 -0.192236 0.341498 -0.0595502 0.835646 2.341805152e-38
0.0124639 0.0141353 -0.192261 0 0.432939 0.811637 2.341805152e-38
-0.0179844 0.0100308 -0.196655 -0.456591 0.439475 0.707233 2.341805152e-38
-0.00153771 -0.0189392 -0.199707 0.654917 -0.248051 0.661317 2.341805152e-38
0.024921 0.0174917 -0.194702 -0.15519 0.692414 0.661051 2.341805152e-38
0.00742149 0.0141827 -0.192688 -0.104012 0.521393 0.764365 2.341805152e-38
0.0325971 0.00185731 -0.187308 -0.317586 0.0528372 0.739426 2.341805152e-38
6.61015e-05 0.00186775 -0.190049 -0.271973 -0.0178769 0.863333 2.341805152e-38
-0.00162729 -0.0456882 -0.201782 0.728687 -0.0524949 0.647316 2.341805152e-38
0.0175903 -0.0119247 -0.194702 -0.0751182 -0.713354 0.676805 2.341805152e-38
0.0100339 -0.0122146 -0.195679 -0.0309252 -0.706461 0.698146 2.341805152e-38
-0.00245476 -0.00956726 -0.193726 0 -0.710181 0.704019 2.341805152e-38
-0.0174304 -0.0458965 -0.192359 0.231503 -0.246863 0.855041 2.341805152e-38
0.0349579 0.00428963 -0.187622 0 0.053851 0.978912 2.341805152e-38
-0.00520778 -0.0101681 -0.193726 0.221703 -0.266519 0.877528 2.341805152e-38
0.00493653 0.0183792 -0.195679 0.0143194 0.52845 0.797274 2.341805152e-38
-0.00226377 0.00925699 -0.191687 -0.083647 0.0924523 0.931193 2.341805152e-38
-0.0128174 -0.0531425 -0.193726 0.197393 -0.0145266 0.90375 2.341805152e-38
0.0398505 0.00924493 -0.188368 0 0.1825 0.919889 2.341805152e-38
0.00745138 0.0171427 -0.194832 -0.139918 0.556501 0.761646 2.341805152e-38
0.00991769 -0.000645414 -0.189697 -0.043907 -0.0670842 0.95856 2.341805152e-38
0.0105453 0.0110901 -0.190674 -0.264782 0.407311 0.799935 2.341805152e-38
0.005042 0.0142725 -0.192974 0 0.439389 0.815077 2.341805152e-38
-0.00265675 -0.00401688 -0.19165 -0.130431 -0.696445 0.678287 2.341805152e-38
0.0350418 0.0164089 -0.193034 -0.0529817 0.335061 0.805723 2.341805152e-38
6.84238e-05 0.0142639 -0.193335 -0.031993 0.425405 0.823322 2.341805152e-38
0.0172191 0.0186373 -0.195679 -0.112299 0.280096 0.866767 2.341805152e-38
-0.0192261 0.0132523 -0.19873 0 0 1 2.341805152e-38
-0.010025 -0.01828 -0.193726 0.0425535 -0.0125668 0.982308 2.341805152e-38
0.00754115 0.0196828 -0.197168 -0.125663 0.635829 0.693622 2.341805152e-38
-0.0282898 -0.033136 -0.194702 -0.339677 0 0.866904 2.341805152e-38
0.0325512 -0.0173811 -0.196655 -0.0192249 -0.29714 0.860146 2.341805152e-38
1.9278e-05 -0.00569425 -0.191846 -0.0477012 -0.389365 0.816822 2.341805152e-38
0.0350281 0.0145976 -0.19165 0 0.48336 0.792139 2.341805152e-38
-0.0325979 -0.0275815 -0.197296 -0.218837 0.0161318 0.63701 2.341805152e-38
0.0172635 -0.00354214 -0.189697 -0.0595617 -0.144375 0.922097 2.341805152e-38
0.030011 0.00900421 -0.188721 -0.00311884 0.211808 0.90979 2.341805152e-38
0.0174584 0.00939733 -0.190052 -0.10143 0.27674 0.873942 2.341805152e-38
-0.00778504 -0.0332019 -0.195093 0.545393 -0.0123107 0.759818 2.341805152e-38
0.0371501 -0.0170746 -0.195679 0 0 0 2.341805152e-38
-0.0175018 -0.000616321 -0.192749 -0.0786302 0.0181266 0.967583 2.341805152e-38
-0.0311432 -0.0218353 -0.196655 -0.847998 0 0.529999 2.341805152e-38
-0.0316162 -0.032074 -0.196655 -0.842032 0 0.539427 2.341805152e-38
-0.00573839 0.0147171 -0.194981 -0.154642 0.589172 0.751727 2.341805152e-38
0.0374695 0.00254822 -0.187036 0 0.117634 0.761747 2.341805152e-38
0.00748126 -0.000606686 -0.189697 0 0 1 2.341805152e-38
-0.010025 -0.0205749 -0.193726 0.0833572 0.0115003 0.963292 2.341805152e-38
-0.00950546 0.0111549 -0.193433 -0.113318 0.450734 0.786079 2.341805152e-38
0.00233423 0.0195125 -0.197247 -0.0282698 0.48296 0.7482 2.341805152e-38
0.02491 0.0218353 -0.199707 0 0.859855 0.510539 2.341805152e-38
0.0375916 -0.00323519 -0.187594 -0.0150771 -0.216378 0.892074 2.341805152e-38
0.0199534 0.0018548 -0.188721 0 0 1 2.341805152e-38
-0.0282644 -0.0382589 -0.194702 -0.416305 0 0.807689 2.341805152e-38
0.012406 -0.011577 -0.194702 -0.0844612 -0.581094 0.738513 2.341805152e-38
-0.0124829 -0.0307465 -0.192749 0.126313 -0.0221182 0.942283 2.341805152e-38
-0.00165133 -0.0230491 -0.199973 0.691216 0.156864 0.616409 2.341805152e-38
0.0275091 0.017746 -0.194702 0.101485 0.665973 0.719137 2.341805152e-38
0.0324675 0.0145496 -0.19165 -0.0450591 0.465402 0.795302 2.341805152e-38
0.00993221 0.0161285 -0.193726 -0.0448753 0.47108 0.80517 2.341805152e-38
0.0200012 0.0184723 -0.195679 0.184423 0.657135 0.6981 2.341805152e-38
-0.0199743 -0.0106366 -0.192346 -0.283117 -0.0439757 0.869566 2.341805152e-38
-0.0269699 -0.0256849 -0.193726 -0.252131 0.0582065 0.895642 2.341805152e-38
-0.0280304 -0.0154856 -0.194702 -0.263147 0.127799 0.889211 2.341805152e-38
0.0130201 0.0208326 -0.197283 -0.148213 0.727175 0.592499 2.341805152e-38
-0.00996017 0.0139716 -0.195609 -0.278322 0.478119 0.79082 2.341805152e-38
-0.00512229 -0.0332212 -0.197374 0.55988 -0.0566744 0.744512 2.341805152e-38
-0.00696182 0.0159811 -0.195679 -0.225287 0.31951 0.847119 2.341805152e-38
-0.00250394 0.0118073 -0.192682 -0.115297 0.183553 0.91077 2.341805152e-38
-0.00782937 -0.040694 -0.195303 0.459085 -0.0882916 0.795996 2.341805152e-38
-0.00193495 -0.0307554 -0.199994 0.58942 -0.194525 0.671247 2.341805152e-38
-0.0149902 -0.0432837 -0.192705 0.150823 0.00930428 0.916979 2.341805152e-38
-0.0227767 6.91231e-05 -0.194702 -0.302559 0.357354 0.835875 2.341805152e-38
0.0174896 0.0161173 -0.193596 -0.143021 0.561186 0.756425 2.341805152e-38
-0.00742467 -0.00311012 -0.19165 -0.0469016 -0.0712486 0.960945 2.341805152e-38
-0.0262146 -0.0100759 -0.194702 -0.615207 0.162137 0.730991 2.341805152e-38
0.0301056 0.0131683 -0.190674 0 0.710485 0.70371 2.341805152e-38
0.0124853 0.0196102 -0.196655 -0.0196775 0.292239 0.887836 2.341805152e-38
0.0351772 -0.0102635 -0.190674 -0.0599456 -0.387054 0.828025 2.341805152e-38
0.0134735 0.00587845 -0.188721 -0.764291 0 0.644871 2.341805152e-38
0.00243366 -0.0181212 -0.201897 0.17174 -0.415945 0.814303 2.341805152e-38
-0.0284271 -0.0528809 -0.194702 -0.477731 -0.159602 0.787786 2.341805152e-38
0.0148926 -0.00330194 -0.189697 -0.00946813 -0.0922232 0.960477 2.341805152e-38
-0.00241629 0.00435861 -0.190674 0 0 1 2.341805152e-38
0.00259209 0.0156708 -0.193726 -0.12182 0.64904 0.714821 2.341805152e-38
0.0225118 0.0161006 -0.1934 0 0.698082 0.716016 2.341805152e-38
-0.0124829 -0.0232086 -0.192749 0.125429 0 0.943084 2.341805152e-38
0.0176795 -0.00751468 -0.190674 -0.0944995 -0.291512 0.857081 2.341805152e-38
-0.0314331 -0.0472107 -0.195679 0 0 0 2.341805152e-38
0.0123591 0.00958361 -0.190674 0 0.0460466 0.982739 2.341805152e-38
-0.0018472 0.0165198 -0.19526 -0.215078 0.607133 0.674398 2.341805152e-38
0.0249917 0.0117351 -0.19022 -0.102841 0.406817 0.822072 2.341805152e-38
-0.0296555 -0.0230503 -0.195679 -0.408821 -0.0376551 0.838179 2.341805152e-38
-0.0265293 -0.00334907 -0.195679 -0.428018 0.155119 0.791065 2.341805152e-38
-0.0125898 0.0139686 -0.196655 -0.151809 0.190787 0.915056 2.341805152e-38
0.0146353 0.00706318 -0.189697 -0.256981 0.658712 0.541458 2.341805152e-38
-0.00961557 -0.0432739 -0.194702 0.250271 -0.0519845 0.887502 2.341805152e-38
0.0400594 0.0107956 -0.188721 0 0.763368 0.635201 2.341805152e-38
0.0390625 0.0184174 -0.193726 0 0 0 2.341805152e-38
0.0375773 -0.00891876 -0.189697 -0.0157972 -0.351557 0.851505 2.341805152e-38
0.0374648 0.0145753 -0.191715 0.0599316 0.543286 0.755699 2.341805152e-38
0.0195838 -0.00417519 -0.189697 -0.216849 -0.365955 0.784271 2.341805152e-38
0.00748672 0.0183792 -0.195679 -0.030441 0.583533 0.768575 2.341805152e-38
0.0274138 -0.00827554 -0.190358 -0.0492792 -0.363985 0.834848 2.341805152e-38
-0.0174103 -0.010601 -0.19165 0 0 1 2.341805152e-38
0.0300751 -0.00060016 -0.187622 0 0 1 2.341805152e-38
-0.0223789 -0.010714 -0.192749 -0.132169 0.0251806 0.945536 2.341805152e-38
0.00232968 -0.0108213 -0.194959 -0.0336339 -0.550461 0.766588 2.341805152e-38
-0.00241629 -0.000610003 -0.190674 0 0 1 2.341805152e-38
-0.0050792 -0.0406675 -0.197722 0.617026 -0.11713 0.719088 2.341805152e-38
0.0122444 0.00527878 -0.189697 -0.160344 0.374432 0.797006 2.341805152e-38
-0.00936335 -0.0408464 -0.194702 0.409794 -0.070961 0.815833 2.341805152e-38
-0.00300017 -0.0482527 -0.200265 0.604236 0.0681286 0.704359 2.341805152e-38
-0.0281181 -0.0304823 -0.194702 -0.263781 0.0513023 0.891253 2.341805152e-38
-0.0174128 -0.0180939 -0.191687 0.00880913 0.0566405 0.92556 2.341805152e-38
0.0324815 -0.00330464 -0.187693 -0.0458998 -0.141471 0.922643 2.341805152e-38
-0.0174983 -0.0483012 -0.192712 0.0819905 -0.00104423 0.940745 2.341805152e-38
0.000108729 0.0191695 -0.197067 -0.0330266 0.451883 0.801022 2.341805152e-38
0.0050354 -0.00467491 -0.190674 -0.0656218 -0.348575 0.83862 2.341805152e-38
-0.00688662 -0.0529851 -0.196655 0.534441 0.0500409 0.741091 2.341805152e-38
0.0249844 0.0183792 -0.195679 -0.1716 0.692208 0.597746 2.341805152e-38
0.0376015 -0.010283 -0.190491 -0.0676776 -0.578742 0.734827 2.341805152e-38
-0.00668717 -0.0481567 -0.196655 0.448371 -0.000826333 0.80373 2.341805152e-38
0.00242001 0.0212803 -0.198425 0 0.425027 0.770732 2.341805152e-38
0.00993564 -0.00817612 -0.1922 -0.059295 -0.433713 0.799276 2.341805152e-38
0.0120494 -0.00125068 -0.189697 -0.144188 -0.257214 0.850818 2.341805152e-38
0.00987092 -0.0134659 -0.197021 0 -0.725061 0.688145 2.341805152e-38
0.0153074 -0.0152668 -0.198114 -0.0862265 -0.386058 0.815371 2.341805152e-38
-0.022522 -0.0332336 -0.192749 -0.0118538 0.0118538 0.995478 2.341805152e-38
0.00253953 0.00433805 -0.189806 -0.114327 0.154343 0.926626 2.341805152e-38
0.0123571 0.0018548 -0.188721 0 0 1 2.341805152e-38
-0.0314331 -0.0391083 -0.195679 0 0 1 2.341805152e-38
-0.0104828 -0.0407715 -0.193726 0.250959 -0.0518301 0.886924 2.341805152e-38
-0.0153465 0.00955922 -0.194919 -0.342075 0.498924 0.758963 2.341805152e-38
-0.0298176 -0.0285969 -0.19519 -0.161633 0 0.687392 2.341805152e-38
-0.000760913 -0.0202522 -0.200684 0.651731 -0.352676 0.63365 2.341805152e-38
0.0365448 0.0184174 -0.193726 0 0 1 2.341805152e-38
0.00744203 0.0213354 -0.198213 -0.0928904 0.342189 0.849627 2.341805152e-38
-0.0259329 -0.00560672 -0.194702 -0.39318 0.141839 0.826703 2.341805152e-38
0.0299708 0.0186106 -0.195679 0.0194667 0.405321 0.838075 2.341805152e-38
0.0394185 -0.0057724 -0.188721 0.00140033 -0.119732 0.941846 2.341805152e-38
-0.0200323 -0.00312881 -0.192905 -0.232878 0.086265 0.90279 2.341805152e-38
-0.00369453 -0.0356995 -0.19873 0.725206 0 0.688511 2.341805152e-38
0.0201111 -0.00299503 -0.188721 -0.0866506 -0.150785 0.909594 2.341805152e-38
0.0224091 -0.00328477 -0.188721 -0.00952307 -0.116354 0.950184 2.341805152e-38
-0.00732346 -0.0207245 -0.195093 0.445168 0 0.802267 2.341805152e-38
0.00255156 -0.00309372 -0.190674 -0.0093422 -0.018724 0.992614 2.341805152e-38
0.00740814 -0.00979613 -0.193726 -0.0273863 -0.693751 0.712859 2.341805152e-38
0.0050087 -0.000606686 -0.189697 -0.00936167 -0.0676366 0.971267 2.341805152e-38
-0.00020198 -0.0481306 -0.203224 0.510589 -0.042865 0.772499 2.341805152e-38
0.0173493 -0.0085864 -0.19165 -0.12566 -0.388605 0.805266 2.341805152e-38
0.00239496 0.0097742 -0.19165 -0.0647884 0.176903 0.912325 2.341805152e-38
-0.014917 -0.00560697 -0.19165 0.0117916 -0.0116926 0.995569 2.341805152e-38
0.0325623 -0.0155335 -0.195327 -0.058601 -0.440398 0.797725 2.341805152e-38
-0.0305939 -0.0104985 -0.196655 -0.273077 0.229826 0.848725 2.341805152e-38
0.0325317 0.0176391 -0.194702 -0.286439 0.592613 0.619561 2.341805152e-38
-0.020855 0.00231731 -0.194702 -0.378234 0.294025 0.830768 2.341805152e-38
-0.00758291 -0.0231953 -0.195099 0.477819 -0.0837185 0.787447 2.341805152e-38
-0.0114594 -0.0515747 -0.194702 0.466204 -0.470089 0.749447 2.341805152e-38
-0.00178964 -0.0208359 -0.199986 0.707527 -0.132566 0.6415 2.341805152e-38
-0.0285187 -0.0507736 -0.194702 -0.758786 0 0.623985 2.341805152e-38
0.0250183 0.021019 -0.19873 -0.1001 0.611653 0.751238 2.341805152e-38
-0.00800938 -0.0131098 -0.193726 0.252081 -0.186089 0.877543 2.341805152e-38
-0.00595856 -0.0207886 -0.195679 0.735621 0 0.677393 2.341805152e-38
0.000745058 -0.00444794 -0.190674 -0.18797 -0.739393 0.613942 2.341805152e-38
-0.0297579 -0.0157178 -0.195422 -0.43746 0.025886 0.82995 2.341805152e-38
0.0251327 0.0162354 -0.193447 -0.0540005 0.60631 0.744428 2.341805152e-38
-0.00991974 0.00438118 -0.19165 -0.0725466 0.0488364 0.969442 2.341805152e-38
0.00244192 -0.0160517 -0.200163 0.17745 -0.681513 0.663547 2.341805152e-38
-0.0116339 -0.0558472 -0.194702 0.499161 -0.0927146 0.772594 2.341805152e-38
0.0324573 0.0117679 -0.189971 -0.0706131 0.359392 0.844847 2.341805152e-38
-0.0200134 -0.0531158 -0.192749 0 0 1 2.341805152e-38
0.00749257 0.00681915 -0.18999 -0.0552591 0.295476 0.870302 2.341805152e-38
0.0300751 0.00184441 -0.187622 0 0 1 2.341805152e-38
-0.00136185 -0.040657 -0.201782 0.741517 0 0.659853 2.341805152e-38
7.0008e-05 -0.0134613 -0.196948 0.103392 -0.682397 0.682307 2.341805152e-38
-0.0124807 -0.00814616 -0.192712 0.137505 -0.111353 0.896083 2.341805152e-38
0.0342611 0.00257238 -0.186646 0 0.584711 0.651116 2.341805152e-38
-0.00164167 -0.0480296 -0.201945 0.697783 0.0574458 0.657492 2.341805152e-38
0.0198495 -0.0088817 -0.19165 -0.0941633 -0.495989 0.771025 2.341805152e-38
-0.0174103 -0.0205892 -0.19165 0 0 1 2.341805152e-38
0.0199901 0.0142277 -0.192138 -0.0122179 0.367912 0.838336 2.341805152e-38
-0.0149396 0.0138224 -0.197349 -0.320266 0.249985 0.814759 2.341805152e-38
-0.00160074 -0.0551148 -0.201782 0.35543 0.345712 0.064445 2.341805152e-38
-0.0200691 -0.0548897 -0.192749 0 0 1 2.341805152e-38
-0.0149933 -0.0457916 -0.192749 0.0112484 -0.0112484 0.995959 2.341805152e-38
0.0176871 -0.00229481 -0.188721 -0.192828 -0.489015 0.746225 2.341805152e-38
0.0322155 0.0186532 -0.195679 -0.0759651 0.371138 0.851446 2.341805152e-38
0.00748126 0.00186462 -0.189697 -0.030227 0.00126053 0.988389 2.341805152e-38
-0.0282274 -0.0281483 -0.194702 -0.294487 -0.0539502 0.878192 2.341805152e-38
-0.0199963 -0.00814011 -0.192573 -0.225732 0.138801 0.88967 2.341805152e-38
0.0316528 0.0198273 -0.196655 0 0.459321 0.77904 2.341805152e-38
0.00979119 0.00471649 -0.189697 -0.175601 0.173037 0.886059 2.341805152e-38
-0.0266927 -0.0233307 -0.193726 -0.445625 0.0624157 0.819813 2.341805152e-38
-0.000879765 -0.030365 -0.200684 0 0 0 2.341805152e-38
-0.00744843 0.0042411 -0.190674 -0.179462 0.0646115 0.920392 2.341805152e-38
0.00240625 -0.0134796 -0.197241 0.0962851 -0.755401 0.60211 2.341805152e-38
-0.00991974 -0.00311012 -0.19165 0 0 1 2.341805152e-38
-0.0124964 -0.0332764 -0.192977 0.244082 -0.0689991 0.886627 2.341805152e-38
-0.00558624 0.0161072 -0.195679 0 0.474498 0.75991 2.341805152e-38
-0.0124829 -0.0131683 -0.192749 0 0 1 2.341805152e-38
0.0109482 -0.0164795 -0.199707 0.358769 -0.717537 0.597014 2.341805152e-38
0.0125214 0.0173645 -0.194702 0.0268341 0.6789 0.726964 2.341805152e-38
0.00492001 -0.0110194 -0.195028 0 -0.705179 0.709028 2.341805152e-38
-0.0299702 -0.0207188 -0.195594 -0.280124 -0.0481393 0.885654 2.341805152e-38
-0.014973 -0.0156555 -0.192456 0.259173 -0.148089 0.867819 2.341805152e-38
6.68168e-05 0.00435543 -0.190511 -0.185907 0.137007 0.911182 2.341805152e-38
0.00494827 -0.00826965 -0.192979 -0.0668693 -0.456653 0.78513 2.341805152e-38
-0.00517257 -0.0531896 -0.198283 0.62637 -0.013732 0.715784 2.341805152e-38
-0.0175032 -0.0382653 -0.19205 0.262421 -0.114341 0.830422 2.341805152e-38
0.0276184 0.0187465 -0.195679 -0.0620403 0.72762 0.618385 2.341805152e-38
0.00769334 -0.0152668 -0.198219 -0.042858 -0.349432 0.811366 2.341805152e-38
-0.00506363 -0.0281789 -0.197095 0.600887 0 0.727628 2.341805152e-38
-0.0124553 -0.0382496 -0.193282 0.252591 -0.0236535 0.884654 2.341805152e-38
-0.0149933 -0.0483093 -0.192749 0.042306 -0.0120862 0.98237 2.341805152e-38
-0.00345993 -0.0333435 -0.19873 0.543888 -0.105542 0.768587 2.341805152e-38
0.00750453 -0.00308876 -0.190283 -0.0442791 -0.282738 0.869187 2.341805152e-38
-0.0149872 -0.0231995 -0.192661 0.168365 -0.104245 0.913509 2.341805152e-38
-0.0124829 -0.0257212 -0.192749 0.125536 0 0.942962 2.341805152e-38
-0.022522 -0.0181885 -0.192749 0 0 1 2.341805152e-38
-0.0199437 -0.0333516 -0.192016 -0.262598 0.103834 0.829072 2.341805152e-38
0.0175358 0.0115238 -0.190674 -0.037377 0.199345 0.914021 2.341805152e-38
0.00507836 0.0213376 -0.198265 -0.0212387 0.425432 0.74108 2.341805152e-38
0.00053996 0.0209478 -0.198079 0 0.201061 0.923309 2.341805152e-38
0.0205427 0.0208784 -0.197754 0.106163 0.492988 0.749217 2.341805152e-38
0.0226059 0.0208868 -0.198242 0.295229 0.374042 0.763715 2.341805152e-38
0.0272958 0.0207433 -0.197736 -0.358721 0.480063 0.58915 2.341805152e-38
0.0248718 -0.00328477 -0.188721 -0.0191837 -0.0853149 0.957483 2.341805152e-38
0.0147457 0.0205688 -0.196655 0 0 1 2.341805152e-38
0.00497426 0.0196864 -0.197204 -0.0201782 0.614234 0.690985 2.341805152e-38
0.00973703 0.0195198 -0.196655 -0.0809499 0.315555 0.855974 2.341805152e-38
0.0148714 0.0197108 -0.196655 -0.0843764 0.266707 0.887441 2.341805152e-38
0.0203362 0.0196381 -0.196655 0.0734088 0.453565 0.800109 2.341805152e-38
-0.00239393 0.0185776 -0.196733 -0.0892946 0.0948533 0.87846 2.341805152e-38
0.0223999 0.0195202 -0.197082 0.104008 0.560949 0.717185 2.341805152e-38
-0.0221405 -0.0547943 -0.192749 0 0 1 2.341805152e-38
0.0249545 0.0195674 -0.197233 -0.0889092 0.727825 0.645129 2.341805152e-38
0.0273895 0.019759 -0.19689 -0.191944 0.637507 0.696132 2.341805152e-38
-0.00503922 -0.00367753 -0.19165 -0.108451 -0.277653 0.862453 2.341805152e-38
0.0150172 0.0184949 -0.195679 -0.0671078 0.585436 0.759999 2.341805152e-38
0.0299911 0.0174217 -0.194702 0 0.657 0.686131 2.341805152e-38
-0.00306565 -0.0532067 -0.200126 0.551546 -0.0137779 0.720798 2.341805152e-38
0.00254186 0.0182215 -0.195679 -0.230532 0.574201 0.740339 2.341805152e-38
0.0100339 0.0183792 -0.195679 -0.00420258 0.645077 0.745124 2.341805152e-38
0.0125855 0.0183792 -0.195679 0 0.690732 0.72311 2.341805152e-38
0.022665 0.018261 -0.195679 -0.00188137 0.75406 0.594312 2.341805152e-38
0.0358582 0.0184174 -0.193726 0 0 1 2.341805152e-38
-0.019961 -0.0256526 -0.1922 -0.311665 0.214064 0.837097 2.341805152e-38
0.0374349 0.0167371 -0.193368 0.0501005 0.336749 0.855959 2.341805152e-38
-0.00225993 -0.0137715 -0.196655 0.239234 -0.408184 0.812925 2.341805152e-38
-0.0126824 0.0118694 -0.195313 -0.270606 0.512864 0.714858 2.341805152e-38
-0.00719134 0.0170364 -0.196655 -0.131223 0.245594 0.778395 2.341805152e-38
-0.00291223 0.0174942 -0.196655 -0.126829 0.187546 0.81615 2.341805152e-38
6.88577e-05 0.0167059 -0.195132 -0.0628254 0.563818 0.76822 2.341805152e-38
0.00233482 0.0168733 -0.195028 -0.152017 0.51575 0.780694 2.341805152e-38
0.00483149 0.0169747 -0.194835 -0.0259673 0.500302 0.79552 2.341805152e-38
0.00998751 0.0173721 -0.194783 -0.0136936 0.6983 0.683835 2.341805152e-38
0.0150566 0.0171305 -0.194702 -0.0257817 0.471649 0.798459 2.341805152e-38
0.0175903 0.0173645 -0.194702 0 0.695967 0.718072 2.341805152e-38
0.0224355 0.0173645 -0.194702 0 0.696147 0.717898 2.341805152e-38
0.0398772 0.0163375 -0.193174 -0.0129954 0.317319 0.858413 2.341805152e-38
-0.0101072 0.0162342 -0.196655 -0.0365003 0.0365003 0.980109 2.341805152e-38
0.0124573 0.0161285 -0.193726 0.0242023 0.466344 0.80291 2.341805152e-38
-0.00580343 -0.0180071 -0.195679 0.496935 -0.088224 0.77967 2.341805152e-38
-0.0115814 0.0161438 -0.196655 0 0 1 2.341805152e-38
0.0050621 0.0118728 -0.19165 0 0.149533 0.932815 2.341805152e-38
-0.00794489 0.00706482 -0.19165 -0.22035 0.188085 0.871362 2.341805152e-38
-0.0102571 0.015138 -0.196655 -0.169243 0.342648 0.84896 2.341805152e-38
-0.00758277 0.014434 -0.195136 -0.245238 0.504376 0.774493 2.341805152e-38
-0.00227793 0.0140905 -0.193319 -0.0940118 0.451709 0.794907 2.341805152e-38
0.00990479 0.0142299 -0.192446 -0.060158 0.43615 0.805911 2.341805152e-38
0.014955 0.0142411 -0.192357 0 0.442469 0.808162 2.341805152e-38
0.0175046 0.0141274 -0.192121 -0.0742432 0.389062 0.824786 2.341805152e-38
0.0149155 -0.00824814 -0.192046 -0.108663 -0.455316 0.775097 2.341805152e-38
0.0249475 0.014257 -0.19203 -0.100589 0.468273 0.785676 2.341805152e-38
0.0275123 0.0143535 -0.191841 -0.0103089 0.506459 0.772449 2.341805152e-38
0.0395569 0.0146736 -0.19209 0 0.712494 0.694567 2.341805152e-38
-0.0124607 0.00439676 -0.192352 -0.264388 0.181185 0.867821 2.341805152e-38
0.0392456 -0.0129799 -0.192627 0 -0.502878 0.778938 2.341805152e-38
-0.0249176 0.00411616 -0.196655 -0.0159336 0.0156084 0.99504 2.341805152e-38
-0.0276776 -0.00825287 -0.19521 -0.344912 0.0754892 0.861951 2.341805152e-38
-0.0174528 0.0138337 -0.198576 -0.204773 0.223486 0.829302 2.341805152e-38
-0.00478681 0.0137558 -0.193726 -0.230757 0.242275 0.882628 2.341805152e-38
-0.0107689 -0.0456352 -0.193726 0.452555 -0.0584549 0.79738 2.341805152e-38
0.0325806 0.0133934 -0.190674 -0.0853558 0.368075 0.838545 2.341805152e-38
0.0375549 0.0133934 -0.190674 -0.0340073 0.459496 0.811063 2.341805152e-38
0.0397135 0.0133684 -0.190674 0 0.647538 0.712264 2.341805152e-38
0.00766087 -0.0121574 -0.195679 -0.113423 -0.66755 0.71374 2.341805152e-38
0.0126174 0.0112316 -0.190674 -0.0589084 0.313682 0.864249 2.341805152e-38
-0.00658417 0.0133743 -0.193726 -0.241291 0.591324 0.722171 2.341805152e-38
0.0273946 0.0131683 -0.190674 0 0.709872 0.704329 2.341805152e-38
-0.016922 0.0091962 -0.195324 -0.379832 0.528473 0.687663 2.341805152e-38
-0.0175171 0.00189594 -0.192912 -0.214443 0.121669 0.904054 2.341805152e-38
-0.0102539 -0.0357056 -0.193726 0.186881 0 0.916058 2.341805152e-38
-0.00998602 0.0127919 -0.194919 -0.279387 0.489717 0.740173 2.341805152e-38
-0.00494603 0.0118128 -0.193098 -0.222324 0.251913 0.875057 2.341805152e-38
6.74511e-05 0.0118988 -0.19209 -0.17306 0.322471 0.842711 2.341805152e-38
0.00256548 0.0118751 -0.191687 -0.0460819 0.170919 0.918203 2.341805152e-38
-0.0193482 0.00343386 -0.193726 -0.422072 0.41999 0.791278 2.341805152e-38
0.00755819 0.0118728 -0.19165 -0.0116549 0.0364856 0.984475 2.341805152e-38
0.00992087 0.0120544 -0.19165 -0.0981294 0.169173 0.924552 2.341805152e-38
0.0124407 0.0123834 -0.19165 -0.0517201 0.273382 0.882151 2.341805152e-38
0.0150513 0.0125541 -0.19165 0 0.354753 0.85235 2.341805152e-38
0.0195923 0.0127792 -0.19165 -0.172158 0.640073 0.701836 2.341805152e-38
0.022406 0.0118017 -0.190511 -0.0734441 0.404715 0.822564 2.341805152e-38
-0.0311432 -0.017868 -0.196655 -0.648484 0.0717503 0.746599 2.341805152e-38
0.0349182 0.011763 -0.189892 -0.0109778 0.414222 0.827734 2.341805152e-38
0.0375321 0.0118595 -0.189842 -0.08458 0.426071 0.809691 2.341805152e-38
0.0324888 0.00908804 -0.188721 -0.00692028 0.133383 0.938621 2.341805152e-38
-0.00994201 0.00689362 -0.19209 -0.281114 0.281312 0.851484 2.341805152e-38
-0.0176171 0.0118295 -0.197695 -0.316139 0.471118 0.775145 2.341805152e-38
-0.0153451 0.012082 -0.19674 -0.357547 0.52564 0.706293 2.341805152e-38
-0.013443 0.0126495 -0.196655 -0.585029 0.292514 0.756424 2.341805152e-38
0.0149719 0.0113602 -0.190674 0 0.236748 0.901318 2.341805152e-38
-0.0147591 0.0111103 -0.195598 -0.356458 0.525647 0.738799 2.341805152e-38
0.00995728 -0.00308083 -0.189853 -0.12755 -0.207154 0.878251 2.341805152e-38
-0.0323053 -0.0433558 -0.196886 -0.434408 0.00445226 0.798097 2.341805152e-38
0.0380554 0.0107956 -0.188721 -0.176184 0.656137 0.684778 2.341805152e-38
-0.00907707 0.000180528 -0.190674 -0.509598 -0.254195 0.724696 2.341805152e-38
0.0225581 0.00184883 -0.188062 -0.282524 0.0923837 0.848835 2.341805152e-38
-0.0118612 0.0106201 -0.193726 -0.196708 0.099167 0.916832 2.341805152e-38
6.78421e-05 0.00937652 -0.19165 -0.0376745 0.0615 0.973263 2.341805152e-38
0.00491079 0.010437 -0.19165 -0.151439 0.367606 0.831767 2.341805152e-38
0.00733137 0.0103988 -0.19165 -0.118092 0.434702 0.802038 2.341805152e-38
0.00914764 0.0105133 -0.19165 -0.49956 0.503793 0.704722 2.341805152e-38
0.0100348 0.00928681 -0.190674 -0.0522672 0.105044 0.957344 2.341805152e-38
0.0149408 0.00966818 -0.190541 -0.0600573 0.212932 0.884923 2.341805152e-38
0.0200636 0.00927905 -0.189751 -0.0377699 0.15656 0.929509 2.341805152e-38
0.0225342 0.00927608 -0.189697 -0.0391496 0.0609419 0.973731 2.341805152e-38
0.0246649 0.00989295 -0.189697 -0.208952 0.293747 0.836717 2.341805152e-38
0.0319621 0.0103989 -0.189697 -0.174279 0.654194 0.687877 2.341805152e-38
0.0349485 0.00918727 -0.188615 -0.0874685 0.303147 0.855312 2.341805152e-38
-0.0192515 0.0102031 -0.197388 -0.206965 0.403202 0.716327 2.341805152e-38
-0.0136108 0.0100607 -0.194702 -0.422255 0.420572 0.790677 2.341805152e-38
-0.0124297 0.00915274 -0.193581 -0.215777 0.321527 0.85683 2.341805152e-38
0.0327492 -0.0100365 -0.190674 -0.0836391 -0.433951 0.798816 2.341805152e-38
-0.00997589 0.00919921 -0.192827 -0.200223 0.140035 0.908749 2.341805152e-38
0.0100412 -0.00531435 -0.190674 -0.066552 -0.193176 0.907779 2.341805152e-38
-0.00799506 0.00891004 -0.192121 -0.171959 0.214075 0.798864 2.341805152e-38
0.0050354 0.00887467 -0.190674 -0.0208837 0.139686 0.915669 2.341805152e-38
0.00762883 0.00901681 -0.190674 -0.0303626 0.130714 0.945314 2.341805152e-38
0.0251396 0.00873642 -0.188721 -0.194604 0.226077 0.867024 2.341805152e-38
0.02756 0.00897348 -0.188721 -0.00780141 0.147261 0.932141 2.341805152e-38
-0.0146125 0.00858634 -0.193726 -0.293102 0.39421 0.816034 2.341805152e-38
0.00289035 0.00853538 -0.190674 -0.171277 0.341811 0.820737 2.341805152e-38
0.0248788 -0.00603832 -0.189697 -0.0396927 -0.192794 0.909162 2.341805152e-38
-0.00501526 -0.0133389 -0.195171 0.354549 -0.237029 0.837463 2.341805152e-38
-0.0281982 -0.00513267 -0.196655 -0.453764 0.459357 0.681248 2.341805152e-38
-0.00438004 0.00851441 -0.19165 0.23473 0.234078 0.823849 2.341805152e-38
-0.0200134 -0.0505981 -0.192749 0 0 1 2.341805152e-38
0.0398887 -0.00866181 -0.189697 0.136063 -0.214402 0.889832 2.341805152e-38
-0.00535202 0.00819397 -0.190674 0.209817 0.210702 0.15064 2.341805152e-38
-0.0176849 0.00698471 -0.194702 -0.543751 0.546185 0.581786 2.341805152e-38
-0.0170683 0.00643786 -0.193726 -0.229901 0.190215 0.893328 2.341805152e-38
-0.0150452 0.00693802 -0.193374 -0.189486 0.332704 0.851355 2.341805152e-38
-0.0124852 0.00691579 -0.192782 -0.119008 0.142841 0.934254 2.341805152e-38
-0.00509159 0.0067036 -0.190674 0.0452754 0.0451959 0.965792 2.341805152e-38
-0.00401688 0.0077858 -0.19165 0.588879 0.586404 0.556194 2.341805152e-38
-0.00242965 0.00755883 -0.19165 0.0647645 0.140937 0.938496 2.341805152e-38
-0.000537525 0.00748317 -0.19165 -0.271122 0.391079 0.817578 2.341805152e-38
0.000257718 0.00665243 -0.190674 -0.114142 0.195472 0.910227 2.341805152e-38
0.00255035 0.00684077 -0.190609 -0.0652439 0.137789 0.938593 2.341805152e-38
0.00502548 0.00683151 -0.190322 -0.131835 0.305506 0.860734 2.341805152e-38
0.00995759 0.00681366 -0.189853 -0.0223144 0.256833 0.889275 2.341805152e-38
0.0173645 0.00748062 -0.189697 -0.0631697 0.800647 0.564635 2.341805152e-38
0.0202828 0.00759315 -0.189697 0.0793856 0.519861 0.767597 2.341805152e-38
0.0225501 0.00655968 -0.188721 0 0.140218 0.945558 2.341805152e-38
-0.0311432 -0.0274277 -0.196655 -0.265746 0 0.423532 2.341805152e-38
0.0248718 0.00677109 -0.188721 -0.0508058 0.0234403 0.97666 2.341805152e-38
0.0325012 0.00677828 -0.187876 0.0145821 0.322622 0.845998 2.341805152e-38
0.034964 0.0067365 -0.187659 -0.0617607 0.11371 0.940423 2.341805152e-38
0.0376282 0.00673523 -0.187622 0 0 1 2.341805152e-38
0.040086 0.00669494 -0.187434 -0.0857828 0.203037 0.887822 2.341805152e-38
-0.0201422 0.00638107 -0.195327 -0.2862 0.107181 0.87054 2.341805152e-38
0.0175705 0.00647354 -0.188721 -0.0426169 0.203679 0.912705 2.341805152e-38
0.0198718 0.00648707 -0.188721 0.0288355 0.189442 0.915134 2.341805152e-38
0.0414124 0.00673549 -0.187622 0.193067 0.198868 0.851836 2.341805152e-38
-0.0217133 0.00632668 -0.195679 -0.650941 0 0.755261 2.341805152e-38
-0.00231379 0.00622663 -0.190674 0.0357196 0.152582 0.902531 2.341805152e-38
0.0151782 0.00629688 -0.188721 -0.100227 0.278689 0.854283 2.341805152e-38
-0.0269699 -0.0182146 -0.193726 -0.231839 -0.0428515 0.903526 2.341805152e-38
0.010047 -0.0099678 -0.193726 -0.0404263 -0.524095 0.774544 2.341805152e-38
0.0225342 -0.00577316 -0.189697 -0.0267351 -0.169797 0.921068 2.341805152e-38
0.0371806 -0.0011629 -0.186754 -0.0768534 -0.276562 0.858781 2.341805152e-38
-0.0250885 -0.0482239 -0.19314 -0.274146 0 0.89128 2.341805152e-38
-0.0246277 0.00566101 -0.196655 0 0 0 2.341805152e-38
-0.0174805 0.00420469 -0.193335 -0.345898 0.183684 0.849191 2.341805152e-38
-0.0149933 0.00440438 -0.192749 -0.0102375 0.0103236 0.996662 2.341805152e-38
0.0104752 -0.0169525 -0.199707 0.563926 -0.554831 0.611678 2.341805152e-38
-0.00846863 0.00497131 -0.19165 -0.546706 0.260025 0.744799 2.341805152e-38
-0.00512632 0.00435861 -0.190674 0 0 1 2.341805152e-38
0.0050087 0.00433477 -0.189697 0 0 1 2.341805152e-38
0.00748126 0.00433477 -0.189697 0 0 1 2.341805152e-38
0.0150388 0.0043122 -0.188721 -0.0254748 0.000981028 0.989914 2.341805152e-38
0.0174957 0.0043122 -0.188721 0 0 1 2.341805152e-38
0.0224442 0.00427505 -0.18865 -0.0595707 0.10868 0.942924 2.341805152e-38
0.0300751 0.00428963 -0.187622 0 0 1 2.341805152e-38
0.0325134 0.00428963 -0.187622 -0.0114818 0.0110383 0.995949 2.341805152e-38
0.0376055 0.00431949 -0.187538 -0.0757006 0.0159941 0.912034 2.341805152e-38
0.0399751 0.00430753 -0.186898 -0.250204 0.0429566 0.826771 2.341805152e-38
-0.0221808 0.00407614 -0.195679 -0.389731 0.243691 0.834081 2.341805152e-38
-0.0202842 0.00436542 -0.194914 -0.408154 0.2589 0.819516 2.341805152e-38
0.0124259 0.00395159 -0.188721 -0.0647409 0.17674 0.918773 2.341805152e-38
-0.0174981 -0.0332466 -0.191983 0.219301 -0.133508 0.862012 2.341805152e-38
0.00745138 -0.0110072 -0.194832 -0.0675126 -0.558611 0.752487 2.341805152e-38
0.0249357 -0.00806808 -0.190385 -0.0293596 -0.43204 0.810301 2.341805152e-38
-0.0309397 -0.0233307 -0.196655 -0.376618 -0.0763088 0.833546 2.341805152e-38
-0.0250566 -0.0206287 -0.193292 -0.279223 0 0.889266 2.341805152e-38
0.010212 0.00355301 -0.188721 -0.210454 0.281315 0.82866 2.341805152e-38
-0.0253982 0.00236042 -0.196655 -0.357216 0.263373 0.756886 2.341805152e-38
-0.0225897 0.00191959 -0.19521 -0.355806 0.276213 0.820612 2.341805152e-38
-0.0149872 0.00189352 -0.192661 -0.192633 0.102937 0.906931 2.341805152e-38
-0.0124204 0.00188487 -0.191687 -0.110493 0.0860404 0.944714 2.341805152e-38
-0.0103169 0.00194111 -0.19165 -0.228574 0.0501318 0.901379 2.341805152e-38
-0.0091646 0.00177394 -0.190674 -0.38329 0.144455 0.824911 2.341805152e-38
-0.00512632 0.00187418 -0.190674 0 0 1 2.341805152e-38
-0.00241629 0.00187416 -0.190674 -0.0293417 0.00130123 0.98902 2.341805152e-38
0.00253852 0.00186462 -0.189697 0 0 1 2.341805152e-38
0.0050087 0.00186462 -0.189697 0 0 1 2.341805152e-38
0.00913849 0.00168495 -0.189697 -0.495705 -0.138784 0.676961 2.341805152e-38
0.0100998 0.00189951 -0.188721 -0.193408 -0.080933 0.882286 2.341805152e-38
0.0174957 0.0018548 -0.188721 0 0 1 2.341805152e-38
0.0249634 0.00184441 -0.187622 0 0 1 2.341805152e-38
0.0274074 0.00184441 -0.187622 0 0 1 2.341805152e-38
0.0400586 0.00181736 -0.186646 -0.0138793 0.0724295 0.969077 2.341805152e-38
-0.024677 0.00153131 -0.195679 -0.224192 0.230219 0.857284 2.341805152e-38
-0.0281092 0.00139729 -0.197754 0 0 0.666667 2.341805152e-38
0.00401402 -0.0176048 -0.201782 -0.244495 -0.334145 0.771679 2.341805152e-38
-0.0276508 -0.000786003 -0.197204 -0.553323 0.0325471 0.768143 2.341805152e-38
-0.0260162 0.000302643 -0.196655 -0.781978 0.180715 0.562364 2.341805152e-38
-0.0248521 -0.000662053 -0.195272 -0.39376 0.262512 0.783851 2.341805152e-38
-0.0200806 -0.000617458 -0.193368 -0.300431 0.185285 0.866562 2.341805152e-38
-0.0149373 -0.000613053 -0.191943 -0.264381 0.189398 0.866813 2.341805152e-38
-0.0124181 -0.000613045 -0.19165 0 0 1 2.341805152e-38
-0.010042 -0.000735294 -0.19165 -0.0931012 -0.0576061 0.950288 2.341805152e-38
-0.0075242 -0.000453621 -0.190674 -0.0619527 -0.12948 0.927813 2.341805152e-38
-0.00512632 -0.000610003 -0.190674 -0.00767164 -0.0154083 0.994024 2.341805152e-38
6.72618e-05 -0.000610194 -0.190609 -0.0958127 -0.095844 0.939905 2.341805152e-38
0.00254154 -0.000608884 -0.189968 -0.13363 -0.203224 0.872889 2.341805152e-38
0.0107956 0.00051403 -0.188721 -0.604806 -0.604699 0.518217 2.341805152e-38
0.0126234 -0.000145861 -0.188721 -0.107943 -0.193343 0.880714 2.341805152e-38
0.0150707 -0.000571493 -0.188721 -0.0272563 -0.117624 0.945248 2.341805152e-38
0.0174957 -0.000603408 -0.188721 0 0 1 2.341805152e-38
0.0199534 -0.000603408 -0.188721 0 0 1 2.341805152e-38
0.0225577 -0.000571321 -0.188344 -0.209175 -0.158715 0.860505 2.341805152e-38
0.0249324 -0.000636851 -0.187728 -0.0557818 -0.186496 0.901823 2.341805152e-38
0.0274074 -0.00060016 -0.187622 0 0 1 2.341805152e-38
0.0325504 -0.000564403 -0.187591 -0.0473749 -0.0232732 0.969128 2.341805152e-38
0.01754 -0.0138308 -0.196655 -0.129017 -0.624264 0.708024 2.341805152e-38
0.0348851 -0.000631282 -0.187064 -0.160518 -0.22083 0.850187 2.341805152e-38
0.0398279 -0.000588121 -0.186646 0 0 1 2.341805152e-38
-0.00331879 -0.0306813 -0.19873 0.59329 -0.0518292 0.746648 2.341805152e-38
-0.0297346 -0.00104732 -0.19873 -0.385407 -0.0173107 0.822142 2.341805152e-38
-0.0222267 -0.00114558 -0.193726 -0.208101 0.21015 0.884896 2.341805152e-38
-0.0271912 -0.0506925 -0.193726 -0.152151 0 0.94019 2.341805152e-38
-0.00514264 -0.0507146 -0.198147 0.635988 -0.0807707 0.7138 2.341805152e-38
0.000638224 -0.0162903 -0.199707 0.420904 -0.536087 0.711956 2.341805152e-38
-0.0310402 -0.00123024 -0.199707 -0.717391 0.217881 0.601839 2.341805152e-38
-0.00821876 -0.0016346 -0.19165 -0.308534 -0.471279 0.724579 2.341805152e-38
-0.0263519 -0.00178528 -0.195679 -0.474555 0.475041 0.741035 2.341805152e-38
0.0139923 -0.00172997 -0.189697 -0.38588 -0.770114 0.507958 2.341805152e-38
-0.0309219 -0.00276756 -0.199707 -0.374833 0 0.330908 2.341805152e-38
-0.0252285 -0.00301647 -0.194824 -0.517379 0.177166 0.781914 2.341805152e-38
-0.0240428 -0.0033972 -0.193726 -0.380187 0.228279 0.829327 2.341805152e-38
-0.0224152 -0.00314255 -0.193726 -0.0837578 0.0562792 0.966328 2.341805152e-38
-0.0174916 -0.00312417 -0.192602 -0.219177 0.0461585 0.8974 2.341805152e-38
-0.014917 -0.00311012 -0.19165 -0.0435705 0.013839 0.981603 2.341805152e-38
-0.0124181 -0.00311012 -0.19165 0 0 1 2.341805152e-38
-0.00479625 -0.00257214 -0.190674 -0.158654 -0.264799 0.858329 2.341805152e-38
-0.00237114 -0.0029129 -0.190674 -0.04118 -0.169574 0.91712 2.341805152e-38
6.7532e-05 -0.00309372 -0.190674 -0.011084 -0.0803468 0.966334 2.341805152e-38
-0.0100833 -0.0555365 -0.194835 0.229836 0.0507841 0.880677 2.341805152e-38
0.0124245 -0.00330194 -0.189697 -0.0184622 -0.0973009 0.954531 2.341805152e-38
0.0274913 -0.00327894 -0.188263 -0.129424 -0.231564 0.848614 2.341805152e-38
0.0300751 -0.0032401 -0.187842 -0.0406333 -0.235211 0.879912 2.341805152e-38
0.0398143 -0.00320383 -0.187361 -0.018192 -0.159059 0.695614 2.341805152e-38
-0.0318603 -0.00418472 -0.199707 0 0 0 2.341805152e-38
-0.0200006 -0.0231946 -0.192617 -0.241619 -0.0352432 0.890422 2.341805152e-38
-0.0280037 -0.0207109 -0.194702 -0.32685 -0.028418 0.877453 2.341805152e-38
-0.0321045 -0.00489426 -0.199707 0 0 0 2.341805152e-38
-0.0299458 -0.00569856 -0.197824 -0.528758 0.368144 0.685759 2.341805152e-38
-0.0223623 -0.00565249 -0.193303 -0.289343 0.174926 0.87105 2.341805152e-38
6.85096e-05 -0.00956726 -0.193726 0 -0.710173 0.704026 2.341805152e-38
-0.0174637 -0.00562244 -0.192261 -0.274328 0.191989 0.863713 2.341805152e-38
-0.0124249 -0.00561068 -0.191772 0.0908319 -0.177751 0.910885 2.341805152e-38
-0.00994364 -0.00562185 -0.192163 0.0365596 -0.256078 0.873798 2.341805152e-38
-0.00743665 -0.00561693 -0.191986 -0.0115992 -0.251766 0.877954 2.341805152e-38
-0.0223126 -0.00815353 -0.192905 -0.243261 0.0515326 0.897728 2.341805152e-38
-0.00493444 -0.00561778 -0.192016 0 -0.252806 0.883922 2.341805152e-38
-0.00243383 -0.00561778 -0.192016 -0.026709 -0.263835 0.876664 2.341805152e-38
-0.00728949 -0.0181559 -0.195039 0.426943 -0.0596042 0.805913 2.341805152e-38
0.00264835 -0.00451279 -0.190674 -0.034559 -0.618799 0.744507 2.341805152e-38
0.00754079 -0.00506453 -0.190674 -0.0373165 -0.190457 0.895602 2.341805152e-38
0.00254273 -0.00586911 -0.191764 -0.0486105 -0.386426 0.815291 2.341805152e-38
0.0124858 -0.00580279 -0.190641 -0.0569152 -0.30617 0.855476 2.341805152e-38
0.0174088 -0.00578995 -0.190185 -0.0885711 -0.274087 0.864308 2.341805152e-38
0.0252075 -0.00501585 -0.188721 -0.124116 -0.446747 0.757477 2.341805152e-38
0.0277234 -0.00529502 -0.188721 -0.0794751 -0.244064 0.876899 2.341805152e-38
0.0300532 -0.00557218 -0.188721 -0.0324213 -0.167947 0.920258 2.341805152e-38
0.0324554 -0.00574175 -0.188684 -0.0570352 -0.235721 0.883481 2.341805152e-38
0.0349391 -0.00570312 -0.18851 0.00474 -0.293673 0.855135 2.341805152e-38
0.0374167 -0.00577256 -0.188683 0.046131 -0.178619 0.913639 2.341805152e-38
0.0050621 -0.00606155 -0.19165 -0.0327913 -0.275484 0.877613 2.341805152e-38
0.032462 -0.0111636 -0.191859 -0.0832267 -0.553353 0.733419 2.341805152e-38
-0.00244722 -0.00816574 -0.19314 0 -0.285618 0.880038 2.341805152e-38
0.0291901 -0.0167084 -0.196655 -0.185048 -0.753192 0.600885 2.341805152e-38
0.00502553 -0.0132765 -0.197228 -0.012088 -0.646046 0.706026 2.341805152e-38
-0.0268873 -0.0307846 -0.193726 -0.293739 0.0689373 0.878121 2.341805152e-38
0.00752585 -0.00641959 -0.19165 -0.0596323 -0.298157 0.863772 2.341805152e-38
0.0273628 -0.00633431 -0.189697 -0.0883107 -0.297658 0.845623 2.341805152e-38
0.00990548 -0.00666872 -0.19165 -0.172251 -0.584757 0.706732 2.341805152e-38
-0.0296562 -0.0257195 -0.195435 -0.576453 0.105929 0.762205 2.341805152e-38
-0.0321073 -0.00818062 -0.198109 -0.267381 0.250795 0.787833 2.341805152e-38
-0.0299918 -0.00806843 -0.196855 -0.577681 0.130582 0.688029 2.341805152e-38
-0.0260111 -0.0081287 -0.194702 -0.390638 0.0876266 0.840345 2.341805152e-38
-0.0245296 -0.00823248 -0.193726 -0.215083 0.0522554 0.913693 2.341805152e-38
-0.0174138 -0.00810598 -0.191687 -0.0825087 0.0575314 0.95911 2.341805152e-38
-0.00746345 -0.00814743 -0.192749 0.0376344 -0.0378623 0.983224 2.341805152e-38
6.83809e-05 -0.00816574 -0.19314 0 -0.285618 0.880038 2.341805152e-38
0.00745901 -0.00808405 -0.192383 -0.040829 -0.433971 0.777881 2.341805152e-38
0.0124961 -0.00807244 -0.192043 -0.0199068 -0.464542 0.794935 2.341805152e-38
0.0156479 -0.00716019 -0.190674 -0.191283 -0.73941 0.610561 2.341805152e-38
0.0200153 -0.00776206 -0.190674 -0.0526714 -0.304821 0.863744 2.341805152e-38
0.0224518 -0.00787628 -0.190518 -0.0684306 -0.453957 0.78938 2.341805152e-38
