# .PCD v0.7 - Point Cloud Data file format
VERSION 0.7
FIELDS x y z normal_x normal_y normal_z rgb
SIZE 4 4 4 4 4 4 4
TYPE F F F F F F F
COUNT 1 1 1 1 1 1 1
WIDTH 530
HEIGHT 1
VIEWPOINT 0 0 0 1 0 0 0
POINTS 530
DATA ascii
-0.01545320741 0.005157329259 -0.1972655556 -0.2824764815 -0.0493002963 0.8673697407 1.362886771e-38
-0.05054078 -0.0095654392 -0.1893066 0.1227736 -0.5511998 0.7530308 1.362886771e-38
-0.04750330588 0.01276981176 -0.1838882353 0.6121921765 0.1322498235 0.6341081765 1.362886771e-38
-0.030603012 -0.0073672492 -0.19618652 0.32189496 -0.10100268 0.84109644 1.362886771e-38
0.009499253143 0.01256386571 -0.184692 -0.1000001429 -0.0695818 0.9383277143 1.362886771e-38
-0.0005183326545 0.005322427879 -0.189697 -0.1168160303 -0.07640139394 0.929123303 1.362886771e-38
-0.04749146 0.0178314 -0.185669 0.3910984667 0.1874198667 0.7489832667 1.362886771e-38
-0.0076547625 -0.0043125155 -0.194702 -0.16083315 -0.20639515 0.87362195 1.362886771e-38
-0.056633 0.0060586925 -0.177612 0.76776475 -0.40014975 0.357769925 1.362886771e-38
-0.003252559444 -0.007655885556 -0.195679 -0.03554338889 -0.3871949444 0.8324015556 1.362886771e-38
-0.055481 0.00931549 -0.177612 0.642978 0.654669 0.397477 1.362886771e-38
-0.00920105 0.0153656 -0.195679 -0.660074 0.0963382 0.7134984 1.362886771e-38
-0.04310709333 0.002722676667 -0.1869062667 0.4215377667 -0.0591422 0.7732125667 1.362886771e-38
-0.0363464 0.0118294 -0.194702 0.687897 0.353325 0.6025805 1.362886771e-38
-0.04830934 -0.0136261 -0.192749 0.1068366 -0.6703166 0.698924 1.362886771e-38
-0.003063202917 0.0176010125 -0.19104 -0.4257038333 0.08384716667 0.79784975 1.362886771e-38
0.00587845 0.00408936 -0.188721 -0.621473 -0.623243 0.474699 1.362886771e-38
-0.01057434833 -0.014122 -0.199707 -0.01452977778 -0.3364007222 0.8661128889 1.362886771e-38
-0.018089612 -0.01713378 -0.20186016 -0.05275052 -0.33260228 0.85080592 1.362886771e-38
-0.0278997375 -0.02258584375 -0.2040403125 0.0927459375 -0.6356593125 0.7382599375 1.362886771e-38
-0.01812692667 -0.01222381 -0.1996093 -0.0498613 -0.2160308333 0.9073222 1.362886771e-38
-0.00811119 -0.009748829333 -0.1973876667 -0.0342756 -0.3211104667 0.851487 1.362886771e-38
-0.01579285714 -0.02634758571 -0.2092982857 -0.1893895714 -0.4950622857 0.714643 1.362886771e-38
-0.005732264286 -0.002290862143 -0.193726 -0.06472028571 -0.08793578571 0.9454937143 1.362886771e-38
-0.04966225833 0.01821518333 -0.18396 0.71741325 0.2484524167 0.5425251667 1.362886771e-38
-0.0668335 -0.00649643 -0.184692 0 0 1 1.362886771e-38
-0.01297785667 -0.004822793333 -0.1966591 -0.1208108333 -0.0986809 0.9212477333 1.362886771e-38
-0.04234731818 -0.007939770909 -0.190674 0.4695307273 -0.4002676364 0.7471836364 1.362886771e-38
-0.033279425 -0.0188446 -0.199707 0.1253525 -0.636261 0.72533925 1.362886771e-38
-0.055806884 0.0030730432 -0.17951216 0.34331504 -0.33955244 0.71336636 1.362886771e-38
-0.02578825294 -0.01440026471 -0.199707 0.2075783529 -0.2435137647 0.8699253529 1.362886771e-38
-0.02812398667 0.009963982667 -0.2040606667 0.2379067333 0.1944324667 0.7107016 1.362886771e-38
-0.04341702414 0.01260743103 -0.1872181379 0.4889484483 0.1993351034 0.7025252759 1.362886771e-38
-0.04610278261 0.0003318579739 -0.184692 0.354653913 -0.1360989565 0.8052486087 1.362886771e-38
-0.02052970435 0.00529032 -0.2018831304 -0.4304426522 0.2822094783 0.6743693913 1.362886771e-38
-0.05806571515 -0.007280059394 -0.1863793939 0.1193109697 -0.6756855758 0.6770146061 1.362886771e-38
-0.05071786538 0.0005635570577 -0.1825419231 0.2520803462 -0.2455764231 0.8191687692 1.362886771e-38
0.00233002 -0.0106628 -0.19873 0.270415 -0.6429186 0.6762814 1.362886771e-38
0.006255254444 -0.01476878889 -0.2042777778 0.08188211111 -0.6663654444 0.6536216667 1.362886771e-38
-0.0218964 -0.0283813 -0.210815 0 0 0 1.362886771e-38
-0.052124 0.02327725 -0.186646 0 0 1 1.362886771e-38
-0.05768378182 0.004641792727 -0.178589 0 -0.04610845455 0.8056210909 1.362886771e-38
0.01183868889 -0.001906818889 -0.1923826667 0.1404968333 -0.6424385556 0.7006792222 1.362886771e-38
-0.0395508 -0.010788 -0.193726 0.4652013333 -0.4652013333 0.733994 1.362886771e-38
-0.0446167 0.0161591 -0.188721 0.838198 0.415517 0.353229 1.362886771e-38
0.01413576 -0.007041676667 -0.1992510667 0.1985237333 -0.6011399333 0.6044390667 1.362886771e-38
-0.06521810667 -0.005339050667 -0.1840413333 0.06278473333 -0.5510348 0.6867803333 1.362886771e-38
-0.0031981648 -0.009735096 -0.1970946 -0.02678912 -0.43274436 0.80711812 1.362886771e-38
-0.04539870938 -0.0074485525 -0.189087 0.2355169375 -0.3722060312 0.810909875 1.362886771e-38
-0.02060953333 -0.01466828 -0.200684 -0.008617566667 -0.2094266333 0.9119629333 1.362886771e-38
-0.0415458625 0.00290036125 -0.187622 0.544603125 -0.1211745 0.6881745 1.362886771e-38
-0.03306272 0.002600416 -0.1943116 0.3334055667 0.03320393333 0.8305996667 1.362886771e-38
-0.02839053 0.0075943005 -0.2023133 0.5414849 0.4602846 0.6025226 1.362886771e-38
-0.04306030588 -0.01419111765 -0.1945871765 0.09669376471 -0.5733106471 0.7432780588 1.362886771e-38
-0.0106793156 -0.02240906 -0.2063474 -0.00832976 -0.41725808 0.8326116 1.362886771e-38
-0.0012424464 0.02228697 -0.190674 -0.1388155 0 0.8435645 1.362886771e-38
-0.008476019375 -0.005377530625 -0.195679 -0.1709780625 -0.23395475 0.8542588125 1.362886771e-38
0.01895360714 0.007154737857 -0.1869945714 0.4429493571 -0.1998260714 0.7729754286 1.362886771e-38
0.01192117333 -0.004107156667 -0.1944417333 0.3184920667 -0.5805145333 0.7042456 1.362886771e-38
0.000510693 0.0151825 -0.187622 -0.6996236667 0.04114066667 0.586299 1.362886771e-38
-0.03876647 0.0149948 -0.1945068 0.7109892 0.370744 0.5379127 1.362886771e-38
-0.038032216 -0.01480072 -0.19614748 0.26398048 -0.46369516 0.78519116 1.362886771e-38
-0.02320011111 0.00613234 -0.203735 -0.09378555556 0.3751803333 0.8203932222 1.362886771e-38
-0.0301361 0.00560521875 -0.198852125 0.46968525 0.420663 0.633046125 1.362886771e-38
0.00198429875 -0.007763625 -0.195923 0.1716616875 -0.616453375 0.72193175 1.362886771e-38
-0.02265626 -0.01305236 -0.200684 0.2651224 -0.4019926 0.8042748 1.362886771e-38
0.02432111818 0.0001937827727 -0.193726 0.04977895455 -0.0830015 0.9643939545 1.362886771e-38
-0.01556575333 7.005944667e-05 -0.1970579667 -0.2527020333 0.05574486667 0.8858542667 1.362886771e-38
-0.0004687514565 -0.01467432174 -0.2019256087 0.2389868696 -0.6766871304 0.6456151739 1.362886771e-38
-0.03288027895 0.00749307 -0.1971242105 0.4289881579 0.3923486316 0.6581470526 1.362886771e-38
0.012078844 -4.1766048e-05 -0.19090824 0.11078872 -0.5262462 0.76938568 1.362886771e-38
-0.0461629 -0.00615692 -0.187622 0.1918926667 -0.6997563333 0.6250996667 1.362886771e-38
0.0129089 -0.00848389 -0.200684 0.47541 -0.471607 0.742679 1.362886771e-38
-0.03815816333 -0.004908370333 -0.1909668 0.3002923333 -0.2686998333 0.8317609667 1.362886771e-38
-0.034526825 0.0049471875 -0.193848 0.662078375 0.20295225 0.586546375 1.362886771e-38
-0.0006069759133 0.007687124 -0.1892740667 -0.2135776667 -0.1469151667 0.8656673 1.362886771e-38
0.01005046 0.010489155 -0.184692 -0.2512408333 -0.2509673333 0.8307213333 1.362886771e-38
-0.03488158 0.01467896 -0.1989254 0.704096 0.3737506 0.5043886 1.362886771e-38
-0.0460129 0.002686309 -0.184448 0.61920625 -0.02799725 0.6556012 1.362886771e-38
-0.04064069286 -0.009827745714 -0.192435 0.3043645 -0.3581483214 0.8056715357 1.362886771e-38
-0.03791504 0.002554447667 -0.1908692 0.4871350333 0 0.7502845 1.362886771e-38
-0.013134148 -0.012190556 -0.19908172 -0.0495278 -0.26665084 0.88462372 1.362886771e-38
-0.0347595 0.013485 -0.19873 0.7916395 0.2009865 0.5349915 1.362886771e-38
0.006663712593 0.01236555556 -0.1857051852 -0.1916073704 -0.1808567778 0.8591751852 1.362886771e-38
-0.0584412 0.004901885 -0.177612 0 0 0 1.362886771e-38
-0.02309825667 -0.004894194333 -0.1996744333 0.1762252667 0.008003666667 0.9073644 1.362886771e-38
-0.033099364 -0.014884968 -0.19727044 0.21021188 -0.38440152 0.81160228 1.362886771e-38
-0.01042853778 0.007594921852 -0.1945574074 -0.4347062963 0.01789481481 0.816230963 1.362886771e-38
0.004323642333 0.002754974333 -0.1892415333 -0.1293382667 -0.2681689667 0.8505520667 1.362886771e-38
-0.0004173123077 0.01752530385 -0.189209 -0.5069001538 0.2029683462 0.7520001154 1.362886771e-38
-0.005221558 0.01688997 -0.1925292 -0.6156745 0.1200093 0.6944918 1.362886771e-38
-0.04701995 0.00484991 -0.183716 0.667597875 -0.12559025 0.600836875 1.362886771e-38
0.00518799 -0.0160065 -0.205688 0.2794845 -0.714915 0.552926 1.362886771e-38
0.01451493333 0.00362396 -0.187622 0.08708516667 -0.7408345 0.6295171667 1.362886771e-38
-0.04333603214 -0.002184971071 -0.1873431429 0.4530658929 -0.2398598929 0.7482450357 1.362886771e-38
-0.02052757778 -0.01723564444 -0.2018181852 0.07701 -0.2883794444 0.8731095185 1.362886771e-38
-0.033078005 -0.02504274 -0.20585285 -0.04935865 -0.4290077 0.82270215 1.362886771e-38
-0.03568419667 6.839039333e-05 -0.1923460333 0.364572 0.05936333333 0.8003073 1.362886771e-38
-0.01817052353 -0.0217079 -0.2045970588 0.1204978235 -0.5568898235 0.7724370588 1.362886771e-38
0.01446154444 0.005158106667 -0.1869713333 0.03252916667 -0.3872865833 0.8245386111 1.362886771e-38
-0.04223024 0.01276702 -0.1888186 0.6674524 0.2947759 0.5874481 1.362886771e-38
-0.04046161154 -0.01245880385 -0.1939512308 0.2629992308 -0.3984627692 0.8070467308 1.362886771e-38
-0.04891358 0.01490556 -0.182617 0.6569669 0.1067149 0.6021922 1.362886771e-38
0.01219504286 -0.003011975714 -0.193726 0.1259064286 -0.7079738571 0.6647485714 1.362886771e-38
-0.01289368 -0.01889035 -0.202759 0.1091968 -0.5144447 0.7956268 1.362886771e-38
-0.0447639 0.005110125294 -0.185669 0.5648016471 0.02155894118 0.6828531765 1.362886771e-38
0.00445048 -0.0063858 -0.194702 0.08123616667 -0.6753061667 0.7051455 1.362886771e-38
-0.01546174 -0.00981444 -0.19873 -0.02245356 -0.02245356 0.98432436 1.362886771e-38
0.009538932857 -0.005825588571 -0.195679 0.2223484286 -0.7282945714 0.5907308571 1.362886771e-38
-0.02566834 -0.01220678 -0.1993487667 0.2566272667 -0.154209 0.8736108 1.362886771e-38
-0.0180537 -0.02555341667 -0.20874 0.03032416667 -0.7982098333 0.5880575 1.362886771e-38
-0.00217819 0.006134035 -0.189697 -0.6626425 -0.3319205 0.650034 1.362886771e-38
-0.0182648 -0.02043155 -0.203735 0.0304101 -0.5686545 0.7821308 1.362886771e-38
-0.000411329128 -0.017346188 -0.20428212 0.13096908 -0.44672628 0.81582552 1.362886771e-38
0.001845885 -0.0095344495 -0.1973144 0.20816975 -0.60959545 0.71062175 1.362886771e-38
0.002048859769 0.01021871731 -0.1875844615 -0.2240343077 -0.1231405 0.8585314231 1.362886771e-38
-0.0257568375 0.00957489 -0.205688 0.154452125 0.154841 0.86994625 1.362886771e-38
-0.0201789 -0.02819484444 -0.2114663333 0.1787 -0.3487718889 0.5723737778 1.362886771e-38
-0.03556518 -0.02507325 -0.2061276 -0.02953575 -0.50115925 0.780057 1.362886771e-38
0.019474025 -0.0005057952167 -0.19397 0.2105851667 -0.676449 0.6524548333 1.362886771e-38
-0.003207778 -0.0111694 -0.197754 0 -0.7018994 0.7122764 1.362886771e-38
-0.008130944783 -0.01708717826 -0.2022492609 0.125425913 -0.6048212609 0.7367287826 1.362886771e-38
-0.03798454194 -0.007187872903 -0.1921857419 0.3384293226 -0.3835097742 0.775794129 1.362886771e-38
0.007093495862 0.01519355172 -0.184692 -0.1519621034 -0.02371875862 0.9254416207 1.362886771e-38
-0.02305310952 0.00765809619 -0.2043863333 -0.1927951429 0.5250615714 0.7820553333 1.362886771e-38
-0.02910235 0.0095539025 -0.202759 0.62950325 0.391348 0.63934175 1.362886771e-38
-0.03165435 0.006978035 -0.197754 0.70556175 0.3455965 0.59365725 1.362886771e-38
-0.04558856923 -0.01724303462 -0.1973313077 -0.0957445 -0.4492143077 0.796046 1.362886771e-38
-0.01542029167 -0.01400375 -0.199707 -0.08139966667 -0.2772414167 0.8721425 1.362886771e-38
-0.05048479048 0.00756245619 -0.180896619 0.3570252857 -0.001753095238 0.7906259048 1.362886771e-38
-0.04806518214 -0.01222228571 -0.1919030714 0.1282887857 -0.57184225 0.7358601429 1.362886771e-38
-0.0209007 -0.0263519375 -0.20898425 0.38302425 -0.586639 0.622692875 1.362886771e-38
-0.04829102 -0.001836013 -0.1845456 0.3666458 -0.40475055 0.7722507 1.362886771e-38
0.004244326875 0.01010299937 -0.1869815 -0.188777375 -0.1016354375 0.8888392812 1.362886771e-38
-0.0104974175 0.000107256125 -0.1946613333 -0.2777626667 -0.08009029167 0.8711564583 1.362886771e-38
0.01435981667 0.007542422 -0.185669 0.02768913333 -0.3057163667 0.8585744667 1.362886771e-38
-0.02067818 -0.004880333667 -0.1990882333 -0.2777870333 0.007041166667 0.8865122667 1.362886771e-38
0.01917199091 0.003333354545 -0.1896082727 0.2691573636 -0.6044207273 0.6965720909 1.362886771e-38
-0.0116959 -0.0107574 -0.19873 -0.562335 -0.562335 0.606267 1.362886771e-38
-0.04334515 0.0194702 -0.1915891667 0.1016699167 0.1016699167 0.5796563333 1.362886771e-38
-0.06077795714 -0.008883884286 -0.187622 0.1790244286 -0.6709012857 0.6407101429 1.362886771e-38
-0.0008203074345 0.002388196552 -0.190674 -0.1276341379 -0.1048173448 0.9127320345 1.362886771e-38
-0.04318329091 0.007717941212 -0.1869713333 0.2514959091 0.08779830303 0.850399303 1.362886771e-38
-0.005573027419 0.01010032065 -0.1916738065 -0.5094482258 0.03463509677 0.7681596452 1.362886771e-38
-0.04777258235 -0.002911061176 -0.1857839412 0.3457853529 -0.5202157059 0.7099458235 1.362886771e-38
-0.037361125 -0.01325795 -0.195679 0.34456 -0.5146935 0.73839275 1.362886771e-38
-0.05327933571 -0.001634869286 -0.182617 0.2811 -0.4443805 0.7455960714 1.362886771e-38
0.0179443 0.00408936 -0.188721 0.520925 -0.525377 0.672768 1.362886771e-38
-0.01305250455 -0.02253723636 -0.2062874545 0.1007954091 -0.6215024091 0.7321069545 1.362886771e-38
-0.03075661905 -0.01724969524 -0.199474381 0.2210936667 -0.4484715714 0.7970312381 1.362886771e-38
-0.0580965625 -0.01222419583 -0.1918943333 -0.1520033333 -0.4796295 0.758966375 1.362886771e-38
-0.04637838182 0.01991966364 -0.1873558182 0.5468678182 0.2612794545 0.564599 1.362886771e-38
-0.00971222 0.0196381 -0.196655 0 0 0 1.362886771e-38
-0.008081875385 -0.01404923077 -0.199707 0.08460561538 -0.4572994615 0.8138570769 1.362886771e-38
-0.03225432727 -0.007557609091 -0.195679 0.3688422727 -0.1540520909 0.8157953636 1.362886771e-38
0.006969670286 0.005194963714 -0.1871479429 -0.1632033714 -0.2643130286 0.8308038286 1.362886771e-38
-0.05740735625 6.38662e-05 -0.1807250625 0.261379625 -0.5361104375 0.564582875 1.362886771e-38
-0.03553988571 -0.01897974286 -0.199707 0.1542811429 -0.5515121429 0.7599125714 1.362886771e-38
-0.04829455806 0.01013182806 -0.1824595806 0.4089238065 0.1348939677 0.7382713871 1.362886771e-38
-0.0131052 -0.01715560345 -0.2016937586 0.04374086207 -0.4863341034 0.7921858276 1.362886771e-38
-0.036438 0.0094223 -0.192749 0.7009435 0.350472 0.590586 1.362886771e-38
-0.008597565 0.01796111 -0.195679 -0.4156819 0.3958492 0.7107587 1.362886771e-38
-0.001344084 0.02027988125 -0.190674 -0.278865625 0.0498080625 0.8768018125 1.362886771e-38
-0.04870605714 0.01273600952 -0.182617 0.4846949524 0.03560504762 0.7140356667 1.362886771e-38
-0.03514752857 -0.007448287143 -0.1937724762 0.3599494762 -0.2456188571 0.8136860476 1.362886771e-38
0.00584575 0.01508225714 -0.185669 -0.6295032857 -0.09811442857 0.6912274286 1.362886771e-38
-0.0466614 0.00698853 -0.182617 0.873734 0 0.486404 1.362886771e-38
-0.0614929 -0.0111618 -0.189697 0 0 0 1.362886771e-38
-0.0132416 -0.01538085 -0.200684 0 -0.3452767 0.8616402 1.362886771e-38
-0.04550914054 -0.002440864865 -0.1863554595 0.3672904054 -0.4268215676 0.7663835676 1.362886771e-38
-0.02819061667 -0.002265547 -0.1972045 0.3996250667 0 0.8002051 1.362886771e-38
-0.05277597727 0.01508088636 -0.180664 0.04305218182 -0.04580227273 0.9747426818 1.362886771e-38
-0.024953825 -0.0150842625 -0.200684 0.36123775 -0.26507575 0.820064 1.362886771e-38
0.004517815455 -0.005279192727 -0.1940365455 0.08434318182 -0.5974522273 0.7283288182 1.362886771e-38
0.002239066667 0.001265524 -0.189697 -0.1744348333 -0.4717525 0.7484541667 1.362886771e-38
-0.05756485714 -0.01395308571 -0.192749 -0.3010137143 -0.1305348571 0.8239897143 1.362886771e-38
-0.048417665 0.02251816 -0.1874756 0.2953243 0.297356 0.7552255 1.362886771e-38
-0.03813080588 -0.01674339412 -0.1975600588 0.1780854118 -0.6317544706 0.7017814118 1.362886771e-38
-0.042945564 -0.0049960328 -0.18887716 0.36981736 -0.29745232 0.78284856 1.362886771e-38
-0.03796387273 -0.01798038182 -0.19873 0.08271809091 -0.5877790909 0.7611534545 1.362886771e-38
-0.04594753913 0.005053312609 -0.1842252174 0.5670076957 -0.1240530435 0.6655242174 1.362886771e-38
0.004109970385 0.02268101154 -0.1873216923 -0.2802108077 0.2060253077 0.7986346923 1.362886771e-38
-0.05499878 -0.005561832 -0.185669 0.2918126 -0.5878908 0.6909928 1.362886771e-38
-0.02734205556 0.0082283 -0.2038435556 0.4561993333 0.4249993333 0.6597591111 1.362886771e-38
0.01883444 0.005631256667 -0.1874268 0.4938186 -0.3997611333 0.7135753333 1.362886771e-38
-0.0063858 0.0189819 -0.194702 0 0 1 1.362886771e-38
-0.03061349286 -0.01991597857 -0.2014161071 0.1780564643 -0.5526021071 0.7489845357 1.362886771e-38
-0.05052425526 -0.002334895526 -0.1841783158 0.1666354474 -0.3418252895 0.8283178947 1.362886771e-38
-0.04765626 0.02285768 -0.188721 0.7614106 0.5583856 0.259657 1.362886771e-38
-0.02286988 -0.02691958 -0.20874 0.300608 -0.7123196 0.5659252 1.362886771e-38
-0.0469971 0.01568035 -0.185669 0.7784545 0.18376525 0.54967575 1.362886771e-38
-0.06024388571 -0.007741383571 -0.1867851429 0.02439792857 -0.5182951429 0.7534812143 1.362886771e-38
-0.04841615 0.0242004 -0.188721 0.335744 0.3300535 0.6683465 1.362886771e-38
-0.01746041429 -0.004277911429 -0.197754 -0.3809354286 -0.132007 0.806014 1.362886771e-38
-0.031662 0.0002226731333 -0.194702 0.6708803333 -0.142561 0.6671133333 1.362886771e-38
-0.02318065556 -0.0002445479167 -0.199707 0.0858795 0.2181524444 0.8880018333 1.362886771e-38
-0.0505188 -0.0107727 -0.190674 0 -0.715441 0.698673 1.362886771e-38
-0.0132574875 -0.01019666375 -0.19873 -0.1133609375 -0.1919235 0.899448375 1.362886771e-38
-0.02818298889 -0.004833114722 -0.1971434444 0.298416 0.04826183333 0.8417768611 1.362886771e-38
-0.03565978333 -0.002435605 -0.1921995 0.4160946389 -0.0006783888889 0.7833358611 1.362886771e-38
-0.05057525 -0.015686 -0.195679 0 -0.87605125 0.4822065 1.362886771e-38
-0.01573003077 -0.01521710769 -0.200684 -0.06753453846 -0.2405584615 0.8985933077 1.362886771e-38
0.0206299 0.00699425 -0.188721 0.83836 0 0.536827 1.362886771e-38
-0.05066994118 0.02444637647 -0.1872775294 0.2734397647 0.09078258824 0.8226938824 1.362886771e-38
-0.05006408571 0.01975688571 -0.184204 0.6804018571 0.3463911429 0.5453522857 1.362886771e-38
-0.035148625 -0.026557925 -0.2072755 -0.15401 -0.15401 0.62272675 1.362886771e-38
0.003696443333 0.0242259 -0.187622 -0.2368773333 0 0.8987831667 1.362886771e-38
-0.0196991 -0.0256348 -0.20874 0.316279 -0.778533 0.542084 1.362886771e-38
-0.05049754815 0.02271466667 -0.1867905185 0.1967213704 0.2753694074 0.8037376667 1.362886771e-38
-0.02010598333 0.002041498333 -0.199707 -0.6225858333 0.4029551667 0.6447023333 1.362886771e-38
0.00020192282 0.02226411 -0.189697 -0.5130554 0.0562817 0.7372202 1.362886771e-38
-0.0413246125 0.00528955625 -0.187622 0.48977225 -0.061388625 0.73455975 1.362886771e-38
-0.04626463333 0.0216624 -0.188721 0.2212733333 0.21873 0.786276 1.362886771e-38
0.009304653226 -0.002268207742 -0.1922172258 0.1174666774 -0.5761941935 0.7366804839 1.362886771e-38
-0.008577520909 -0.02183671818 -0.2059877273 0.02706363636 -0.2891803636 0.867112 1.362886771e-38
0.00244984 0.02000507895 -0.1874678947 -0.5019228947 0.2221141053 0.7585044737 1.362886771e-38
0.004363319394 0.02023639091 -0.1865866667 -0.3407016667 0.2273976667 0.836125303 1.362886771e-38
-0.04544066 0.01977234 -0.1891114 0.6406176 0.254545 0.2516826 1.362886771e-38
-5.141676842e-05 0.02001150526 -0.1895942632 -0.5389478947 0.1524907368 0.7557188947 1.362886771e-38
-0.05113874286 0.0193329 -0.1824775714 0.5566657143 0.2979275714 0.546145 1.362886771e-38
-0.02558135 -0.002282906 -0.19873 0.1390875333 -0.01046476667 0.9361188667 1.362886771e-38
-0.01560659412 -0.01910127647 -0.202759 0.04576405882 -0.4861093529 0.8062198235 1.362886771e-38
-0.04064547742 0.01005283968 -0.1891932581 0.5124342258 0.1443384839 0.7109651935 1.362886771e-38
-0.05080587097 0.01746934839 -0.1819242581 0.472057871 0.2406129032 0.6725575806 1.362886771e-38
-0.02658085 0.00679398 -0.202759 0.3257805 0.6500635 0.6640875 1.362886771e-38
-0.04483643333 0.01780192 -0.1891114 0.7735376667 0.2687859333 0.4993023333 1.362886771e-38
0.002125235529 0.01752518235 -0.1871627059 -0.4085523235 0.09684423529 0.8096192647 1.362886771e-38
0.004435614231 0.01763152692 -0.1859696154 -0.3577382308 0.06370276923 0.8385676154 1.362886771e-38
0.006034305714 0.01803368571 -0.185669 -0.4191278571 0.2486374286 0.7676948571 1.362886771e-38
-0.04294762308 0.01787333077 -0.1912418077 0.4247201538 0.3272167692 0.6919352692 1.362886771e-38
-0.04133019231 0.01743964615 -0.1922417692 0.477123 0.3086886923 0.5391851538 1.362886771e-38
-0.00684738 0.0189819 -0.194702 0 0 1 1.362886771e-38
-0.006216196154 0.01768493846 -0.1938010769 -0.4201222308 0.3265287692 0.6652294615 1.362886771e-38
-0.00162649 0.018245675 -0.190674 -0.50512825 0.3195785 0.75805675 1.362886771e-38
0.009099961667 0.01703774167 -0.1846106667 -0.148911 -0.1463435833 0.8749511667 1.362886771e-38
-0.01604158 0.009822092 -0.1989254 -0.6761797 0.1885893 0.657225 1.362886771e-38
-0.007734172 0.01736449333 -0.1945718667 -0.4944872 0.3209956 0.7365943333 1.362886771e-38
-0.04385885 0.0169754 -0.1895343333 0.5489973333 0.4279038333 0.59664 1.362886771e-38
-0.01023981231 0.01733046923 -0.1957540769 -0.1470858462 0.062061 0.9186039231 1.362886771e-38
-0.0115204 -0.00085783 -0.195679 -0.73559 -0.367273 0.569226 1.362886771e-38
-0.01755731818 0.0001553730364 -0.197754 -0.3271877273 0.003573909091 0.8730415455 1.362886771e-38
-0.05061711622 0.01515115946 -0.1811392703 0.3597407297 0.111895027 0.767778027 1.362886771e-38
-0.0393372 0.0174484 -0.195679 0.330642 0.3252215 0.186833 1.362886771e-38
-0.047850475 0.01521629643 -0.1841342857 0.5962841786 0.2083225357 0.6297553214 1.362886771e-38
-0.04550520286 0.01509816286 -0.1864782857 0.5158993714 0.2438159429 0.6850969429 1.362886771e-38
-0.039764425 0.016880025 -0.194458 0.59309475 0.573962 0.5279495 1.362886771e-38
-0.03842671667 0.01695253333 -0.196167 0.5317346667 0.3036625 0.6619473333 1.362886771e-38
0.004497858966 0.01521778276 -0.1858711379 -0.2753582759 -0.04702951724 0.8659546897 1.362886771e-38
0.009460665 0.01514393611 -0.1845564444 -0.21505475 -0.01105983333 0.8784929722 1.362886771e-38
-0.043016356 0.015156548 -0.18918948 0.57978964 0.36472052 0.61145616 1.362886771e-38
-0.04076922593 0.01502001111 -0.1917271481 0.7450025926 0.2957901111 0.5475199259 1.362886771e-38
-0.0391235 0.0166626 -0.194702 0.840303 0.416679 0.346799 1.362886771e-38
-0.002328236667 0.01489172222 -0.189697 -0.4676096667 0.143888 0.785921 1.362886771e-38
-0.0007080056727 0.01504677576 -0.1890759091 -0.4187687273 0.03865987879 0.8058813939 1.362886771e-38
0.002059618667 0.01513903 -0.187134 -0.3061234 0.0013894 0.8634336333 1.362886771e-38
0.01143342 0.01467948 -0.183716 -0.1423236 -0.01998 0.9349186667 1.362886771e-38
-0.0397072 0.0153923 -0.193848 0.609509625 0.439784875 0.540151375 1.362886771e-38
-0.0377752 0.01539577273 -0.1960339091 0.4661456818 0.2849375455 0.6944023636 1.362886771e-38
-0.01039281 0.01507314583 -0.1958823333 -0.3348564167 -0.009214083333 0.8194816667 1.362886771e-38
-0.00669861 0.0157852 -0.193726 -0.49596625 0.31726025 0.76634 1.362886771e-38
-0.005467927308 0.01500878077 -0.1922840385 -0.5178446538 0.2040349231 0.7611509615 1.362886771e-38
-0.05321078333 -0.004258366667 -0.1846377778 0.1535845 -0.4415017778 0.7846087778 1.362886771e-38
-0.0266266 -0.00882721 -0.197754 0.50864 -0.512775 0.691626 1.362886771e-38
-0.03609214 0.01466928 -0.1971028 0.5800962667 0.2282655333 0.5223752667 1.362886771e-38
-0.05305036774 0.01268080968 -0.180664 0.06931777419 0.04506916129 0.9486709355 1.362886771e-38
-0.05058507143 0.01272710952 -0.1812222857 0.379587619 -0.09142511905 0.7777798571 1.362886771e-38
-0.05806757931 -0.004884917931 -0.1842208276 0.1307726897 -0.5927662759 0.714021 1.362886771e-38
-0.045152596 0.012735904 -0.18598164 0.52237616 0.1726808 0.6922812 1.362886771e-38
-0.033943175 0.014366175 -0.19946275 0.66733725 0.401871 0.593952 1.362886771e-38
-0.0332031 0.01457215 -0.200684 0.3180585 0.246279 0.77569975 1.362886771e-38
0.002061261722 0.01270993333 -0.1872695556 -0.3634654167 -0.07547811111 0.8180281944 1.362886771e-38
0.004479471333 0.01264672667 -0.1863854667 -0.1979601667 -0.1296411333 0.8739340333 1.362886771e-38
0.01198444706 0.01248371765 -0.1840317647 -0.1848114706 -0.2181387059 0.8573825588 1.362886771e-38
-0.04123143571 0.01247950714 -0.1895575714 0.5691183571 0.2843437857 0.6486872143 1.362886771e-38
-0.04007928636 0.01279899091 -0.1913062727 0.6684442727 0.3596079545 0.5855098182 1.362886771e-38
-0.0386714875 0.012298575 -0.192611625 0.5306586875 0.3056256875 0.656254125 1.362886771e-38
-0.005649457143 0.01260396286 -0.1919466571 -0.5204088857 0.1188997714 0.7629556286 1.362886771e-38
-0.00354576 0.01271514 -0.190674 -0.3122058 0.02086433333 0.8671948 1.362886771e-38
-0.00240326 0.01264954 -0.189697 -0.3648628 0 0.8418698 1.362886771e-38
-0.0006057643667 0.01259943 -0.1889812667 -0.3895951333 0.0558848 0.8256064 1.362886771e-38
0.01424408333 0.0119858 -0.184204 0.0958785 0 0.9696605 1.362886771e-38
-0.0370178 0.013279 -0.195679 0.700157 0.3459735 0.5941895 1.362886771e-38
-0.03555768846 0.01264806538 -0.1966505769 0.7023941154 0.3321240769 0.5562350385 1.362886771e-38
-0.03347084091 0.01258294091 -0.1993517273 0.5646310909 0.2613502273 0.6592575 1.362886771e-38
-0.03248086667 0.01307424444 -0.200806 0.4259745556 0.2115266667 0.6117678889 1.362886771e-38
-0.01245180833 0.01247150833 -0.19692975 -0.3769916667 0.03126008333 0.8027368333 1.362886771e-38
-0.01079558 0.01311494 -0.1959718 -0.6046573 0.1846474 0.679768 1.362886771e-38
-0.05565238824 -0.007233226765 -0.1866743824 0.08634588235 -0.6663968824 0.6939136471 1.362886771e-38
-0.05064122941 -0.01460804706 -0.1940130588 0.06353482353 -0.7287201765 0.6417849412 1.362886771e-38
-0.0539856 0.0117645 -0.179688 0.8932585 0.3683445 0.230208 1.362886771e-38
-0.0548324625 0.0101080025 -0.179001125 0.28767725 0.2657864375 0.7387043125 1.362886771e-38
-0.05341883333 0.009757997619 -0.1794786667 0.3652294286 0.1337242381 0.750356619 1.362886771e-38
-0.052608475 0.01041219875 -0.180664 0.26921475 0.175119875 0.79920025 1.362886771e-38
-0.05056327143 0.01014691167 -0.1811525 0.2497216429 0.1152094762 0.8390570714 1.362886771e-38
-0.04715242727 0.01054521636 -0.183716 0.4594531818 0.1481326364 0.6627148182 1.362886771e-38
-0.04616479091 0.01066035455 -0.1843370909 0.7540094545 -0.04989336364 0.5720806364 1.362886771e-38
-0.03092957778 0.01182385556 -0.2020807778 0.5597411111 0.134719 0.6873086667 1.362886771e-38
-0.02976991667 0.01213583333 -0.203735 0.3401776667 0.1610961667 0.7934966667 1.362886771e-38
0.00842285 0.0114975 -0.185669 -0.619269 -0.615689 0.487271 1.362886771e-38
0.01192357308 0.01017233462 -0.1846544615 -0.04197284615 -0.1424193077 0.9217754231 1.362886771e-38
0.01425004687 0.01020241125 -0.184631 0.02301615625 -0.1371177812 0.9333536875 1.362886771e-38
-0.060514835 0.00076416235 -0.17941325 0 -0.551204 0.72177645 1.362886771e-38
-0.04502022222 0.01017506444 -0.1859946667 0.62712 -0.1995658333 0.6232087778 1.362886771e-38
-0.04311207879 0.01014502909 -0.1871783636 0.3588060909 -0.0004537878788 0.8100170606 1.362886771e-38
-0.0419312 0.01079306667 -0.188721 0.8473603333 0.137476 0.4686506667 1.362886771e-38
-0.039787325 0.01068115 -0.190674 0.892635 0.180814 0.34892675 1.362886771e-38
-0.003602265 0.01023006313 -0.190674 -0.2699486875 0.0087195625 0.872944125 1.362886771e-38
-0.002499717143 0.01017380071 -0.189697 -0.309054 0.009999 0.8542602143 1.362886771e-38
-0.0006054679222 0.0101329025 -0.1889378889 -0.2759562222 -0.04563880556 0.8711588056 1.362886771e-38
0.006897737333 0.01020761833 -0.1861249333 -0.2378857333 -0.06389616667 0.8715763667 1.362886771e-38
0.009129417222 0.009936007778 -0.185669 -0.1990552778 -0.1987239444 0.8566216667 1.362886771e-38
0.0159740375 0.0099601775 -0.184692 0 -0.171333625 0.930108 1.362886771e-38
-0.03813648125 0.009994496563 -0.191848625 0.50685125 0.260988625 0.6820189062 1.362886771e-38
-0.03598594375 0.010157115 -0.194153 0.639755875 0.40958 0.55209325 1.362886771e-38
-0.03486532667 0.01041515133 -0.1961344667 0.6838569333 0.2717486 0.506476 1.362886771e-38
-0.03363648 0.009831756 -0.1975342 0.7109080667 0.2185789333 0.5717788 1.362886771e-38
-0.03265381053 0.01030852947 -0.1988842632 0.5625650526 0.2644461579 0.6584889474 1.362886771e-38
-0.01304034444 0.0102251037 -0.1968314815 -0.4450168889 0.1863169259 0.7910831481 1.362886771e-38
-0.01125445714 0.01026698857 -0.195679 -0.4155091429 0.1926144286 0.6417492857 1.362886771e-38
-0.01009469867 0.010077924 -0.1944417333 -0.5739001333 0.1892528 0.7347836667 1.362886771e-38
-0.008539087059 0.01024314471 -0.193726 -0.2751124706 0.06454282353 0.8838595294 1.362886771e-38
-0.00740671125 0.009937275 -0.192749 -0.457795875 0.098894875 0.802297625 1.362886771e-38
-0.030612188 0.0101589932 -0.20166028 0.6739874 0.397808 0.55923428 1.362886771e-38
-0.02953086667 0.0110092 -0.203735 0.460963 0.3288966667 0.6716546667 1.362886771e-38
0.0010501856 0.009539804 -0.188721 -0.5613818 -0.265114 0.6582422 1.362886771e-38
-0.03561400588 -0.01781148235 -0.1990173529 0.1278357647 -0.6141236471 0.7386715882 1.362886771e-38
-0.0417175 0.009399413333 -0.187622 0.8475143333 0.1379896667 0.4679133333 1.362886771e-38
-0.0032314305 -0.012432495 -0.19916965 0.0942119 -0.6168659 0.74616385 1.362886771e-38
-0.0214424 -0.01312445 -0.200684 -0.24225775 -0.4845155 0.7575675 1.362886771e-38
-0.05599805556 0.007939656667 -0.177612 0.3061207222 -0.1389001111 0.8024319444 1.362886771e-38
-0.03150175 0.0094108475 -0.199707 0.74862725 0.445399 0.475598 1.362886771e-38
-0.0180625875 0.00940703875 -0.20082125 -0.466183875 0.086176375 0.771991375 1.362886771e-38
-0.0169525 0.0095291 -0.199707 -0.8175576667 0.1193893333 0.5304503333 1.362886771e-38
-0.05513848889 0.007513893333 -0.178589 0.2592419444 -0.1611181667 0.8417362222 1.362886771e-38
-0.0530403 0.007527979024 -0.179473561 0.3747576585 -0.06256970732 0.7651878293 1.362886771e-38
-0.04805501111 0.007617845833 -0.1821832222 0.3999347778 0.03935816667 0.7673579722 1.362886771e-38
-0.0469055 0.007809448 -0.183716 0.8679872 -0.0337894 0.3175614 1.362886771e-38
-0.04503008636 0.007855676818 -0.1859798636 0.593685 0.1348422273 0.6607460909 1.362886771e-38
-0.02289688571 0.009470258571 -0.205688 -0.05554071429 0.4146904286 0.7773845714 1.362886771e-38
0.004375875312 0.007760763125 -0.187256 -0.2988347813 -0.1378100938 0.838853375 1.362886771e-38
0.0069056625 0.007789400278 -0.1863203333 -0.1919871667 -0.1079623333 0.8777807778 1.362886771e-38
0.009496411143 0.007797897429 -0.1858085714 0 -0.2376634857 0.8913626 1.362886771e-38
0.01187667333 0.007694246667 -0.1858318333 -0.06889406667 -0.3652842667 0.8181113333 1.362886771e-38
0.0127487 0.00881195 -0.184692 -0.393158 -0.793213 0.465016 1.362886771e-38
0.01428223333 0.00881195 -0.184692 0.08397116667 -0.721779 0.6536105 1.362886771e-38
0.01671404444 0.00766387 -0.1858861111 0.1594131852 -0.3002638148 0.8437602593 1.362886771e-38
-0.04144592 0.00744629 -0.187622 0.3834508 0.1493734 0.7591638 1.362886771e-38
-0.040244128 0.0077511608 -0.18907236 0.48019244 0.15949312 0.72041656 1.362886771e-38
-0.03791966897 0.007802898276 -0.1912882759 0.5138784138 0.1857344483 0.6995073793 1.362886771e-38
-0.03627775833 0.00781727 -0.19247425 0.4223298333 0.1711199167 0.6591653333 1.362886771e-38
-0.0265961 0.00928497 -0.204712 0.594702 0.597815 0.537538 1.362886771e-38
-0.0115204 0.00841268 -0.195679 -0.7780483333 0.1900896667 0.5106103333 1.362886771e-38
-0.008646646667 0.007637023333 -0.193726 -0.316254 -0.01330766667 0.8709270556 1.362886771e-38
-0.005643572857 0.007594191429 -0.1917303714 -0.4916368286 0.006211371429 0.7774702 1.362886771e-38
-0.00354576 0.007746124 -0.190674 -0.2317807333 -0.018745 0.9011616667 1.362886771e-38
-0.00240326 0.007705688 -0.189697 -0.3680622 -0.0381573 0.8258657 1.362886771e-38
0.00177667413 0.007606176957 -0.188721 -0.128362 -0.09787617391 0.9178617391 1.362886771e-38
-0.039032 0.00748062 -0.189697 0.8249555 0.09788125 0.52554575 1.362886771e-38
-0.03208416667 0.008387246667 -0.19873 0.465761 0.3394516667 0.6563073333 1.362886771e-38
-0.03082188889 0.0075442 -0.1992727778 0.6402091111 0.3915647222 0.6218881667 1.362886771e-38
-0.02978364 0.007929612 -0.2010134 0.7133761 0.4497901 0.4867885 1.362886771e-38
-0.02565079 0.007696152 -0.2043212 0.2766664 0.5028797 0.7247616 1.362886771e-38
-0.0251465 0.0087204 -0.205688 0.25571325 0.5099505 0.72128625 1.362886771e-38
-0.023925775 0.0087204 -0.205688 -0.34603575 0.5484825 0.71359225 1.362886771e-38
-0.02012938 0.007156372 -0.2021728 -0.1141734 0.0559586 0.3543796 1.362886771e-38
-0.01857698462 0.007803404615 -0.2011063077 -0.7878765385 0.04969969231 0.5754618462 1.362886771e-38
-0.0161667 0.0079545975 -0.19873 -0.4372395 0 0.2425315 1.362886771e-38
-0.01496533333 0.007415519333 -0.1970946 -0.3857192 0.1869026667 0.7720008 1.362886771e-38
-0.01297161739 0.007417264348 -0.1959760435 -0.3631624783 0.108763913 0.8018241304 1.362886771e-38
-0.0554565375 0.00530815 -0.178891225 0.323946225 -0.2452521 0.78506595 1.362886771e-38
0.00319481 0.00677109 -0.188721 -0.794998 -0.397499 0.458228 1.362886771e-38
0.0215963 0.006793976667 -0.1893716667 0.4459356667 0 0.8187576667 1.362886771e-38
-0.05254292727 0.004887322727 -0.180664 0.3927924545 -0.3133017273 0.7550914545 1.362886771e-38
-0.05054232439 0.005024980976 -0.1811882439 0.287287122 -0.2265377073 0.8317906585 1.362886771e-38
-0.04816840588 0.005082749118 -0.1823586471 0.4394545294 -0.1833765882 0.7396406765 1.362886771e-38
-0.0400684 0.005144706923 -0.1889837692 0.5847034615 -0.1073997692 0.6827224615 1.362886771e-38
-0.039032 0.005233765 -0.189697 0.8242795 0 0.5661833333 1.362886771e-38
-0.03794071724 0.005227319655 -0.1908422759 0.4835761724 0.01419293103 0.7349528621 1.362886771e-38
-0.005576472581 0.005108863226 -0.1918076774 -0.4321368065 -0.1086657419 0.7875631613 1.362886771e-38
-0.003158297143 0.005197253571 -0.190674 -0.1415414643 -0.07072871429 0.9256685 1.362886771e-38
0.001856898467 0.005214055333 -0.1890463333 -0.2046043333 -0.1822684 0.8505696333 1.362886771e-38
0.004007688182 0.004820218182 -0.188721 -0.1447323182 -0.1628431818 0.8790469091 1.362886771e-38
0.004765783571 0.005781720714 -0.187622 -0.2395505 -0.2613740714 0.7929602857 1.362886771e-38
0.009369401333 0.005158106667 -0.1869713333 0.02762093333 -0.2527147 0.8846299667 1.362886771e-38
0.01180775 0.005160331667 -0.1870526667 -0.02306091667 -0.26114725 0.8737123056 1.362886771e-38
0.01687571034 0.005200352759 -0.1871171724 0.09861955172 -0.4441507241 0.7946772759 1.362886771e-38
0.01983480526 0.004937825263 -0.1888237368 0.409507 -0.4812715263 0.6917197368 1.362886771e-38
-0.03343302667 0.004832967333 -0.1946369333 0.4413046 0.3137524667 0.6890822667 1.362886771e-38
-0.03257244 0.005485024667 -0.1959392667 0.5989198 0.4140891333 0.5621882 1.362886771e-38
-0.02879472727 0.00492512 -0.1994405455 0.6250100909 0.4380556364 0.5471908182 1.362886771e-38
-0.02783923684 0.005513642632 -0.2011463158 0.4521980526 0.3980526316 0.6747955263 1.362886771e-38
-0.02563702593 0.005235175556 -0.2022841111 0.3115220741 0.4240981481 0.7156534815 1.362886771e-38
-0.0250193 0.00634766 -0.203735 0.2174613333 0.667496 0.6800993333 1.362886771e-38
-0.01292418 0.0051734908 -0.1958742 -0.41533948 -0.02544648 0.82566564 1.362886771e-38
-0.010528572 0.0051368716 -0.1945068 -0.41940012 0.0512054 0.82133012 1.362886771e-38
-0.008646646667 0.00511551 -0.193726 -0.2588485333 0.02049213333 0.8930560667 1.362886771e-38
-0.007463455 0.005088806 -0.192749 -0.3586049 0 0.8484284 1.362886771e-38
-0.01882584615 -0.002391522308 -0.19873 -0.2548287692 -0.04780407692 0.8904183077 1.362886771e-38
-0.03598632 0.004651132 -0.1922361333 0.5160894667 0.020143 0.6799153333 1.362886771e-38
-0.0189514 0.00553894 -0.200684 -0.673168 0.33596 0.5199795 1.362886771e-38
0.02427454286 0.004296982857 -0.192278 0.6029211429 -0.3744461429 0.6195162857 1.362886771e-38
-0.05796813611 0.002664590278 -0.1789248056 0.2287147778 -0.2226080278 0.8321123333 1.362886771e-38
-0.05066017097 0.002693174839 -0.1820502581 0.3144171613 -0.2607435161 0.812293129 1.362886771e-38
0.02605435 0.004207615 -0.194214 0.8549255 0 0.5187475 1.362886771e-38
-0.048591615 0.002747488 -0.182617 0.24749425 -0.1171186 0.8537113 1.362886771e-38
-0.04738158667 0.00255941 -0.183716 0.3291508667 -0.1533005333 0.8067839333 1.362886771e-38
-0.04478963333 0.00270462 -0.185669 0.5613478667 0 0.6928942 1.362886771e-38
-0.04033631481 0.002704762593 -0.1891186296 0.4702771481 -0.1016118519 0.7449746296 1.362886771e-38
-0.0356903 0.002574179444 -0.1923826667 0.4109867778 0.01125188889 0.7799895556 1.362886771e-38
-0.0343323 0.002592405 -0.193726 0.7666875 0.05014583333 0.6236681667 1.362886771e-38
-0.0319214 0.00377846 -0.195679 0.915907 0.302779 0.263513 1.362886771e-38
-0.03032485185 0.002668451111 -0.1960495926 0.474504037 0.209417037 0.680759037 1.362886771e-38
-0.02762145 0.002667427 -0.1993162 0.63816895 0.31764515 0.5989848 1.362886771e-38
-0.02718606667 0.003716786667 -0.200684 0.4618446667 0.33419 0.6660616667 1.362886771e-38
-0.02554614615 0.002855523077 -0.2009796154 0.2909696923 0.3142966923 0.7746331154 1.362886771e-38
-0.02317486061 0.00276213 -0.2014492727 -0.005100090909 0.3602959394 0.8370135758 1.362886771e-38
-0.02105966111 0.002717444444 -0.200989 -0.3582250556 0.4149741111 0.7610047778 1.362886771e-38
-0.01844872222 0.002660911111 -0.1988385556 -0.3943852222 0.2982076111 0.7943168889 1.362886771e-38
-0.01558940833 0.0026415175 -0.1973571389 -0.28256525 0.06151138889 0.8712209722 1.362886771e-38
-0.01293792 0.002624511667 -0.1960694 -0.4161474667 -0.02126143333 0.8260866333 1.362886771e-38
-0.010525012 0.002601878333 -0.1944417333 -0.4189398 -0.01609926667 0.8171880667 1.362886771e-38
-0.008516038571 0.002494085714 -0.193726 -0.190203 -0.04377438095 0.9154018571 1.362886771e-38
-0.005626783611 0.002572934722 -0.1923216111 -0.2277798611 -0.1098658889 0.8699643333 1.362886771e-38
-0.003103258 0.002557817667 -0.1911945333 -0.2254489333 -0.1816012667 0.8493103333 1.362886771e-38
0.006934241154 0.002613287692 -0.1889462308 -0.06150503846 -0.4741741538 0.7719278846 1.362886771e-38
0.0074005125 0.00362396 -0.187622 -0.09946875 -0.7868035 0.57988775 1.362886771e-38
0.009400948 0.00362396 -0.187622 0 -0.7835582 0.6213176 1.362886771e-38
0.01184591667 0.00362396 -0.187622 0 -0.7836755 0.6211696667 1.362886771e-38
0.01683925385 0.00282416 -0.1892465385 0.2068027308 -0.6586163846 0.6701477308 1.362886771e-38
0.0207367 0.00366211 -0.189697 0.483608 -0.492849 0.723342 1.362886771e-38
0.02188477931 0.002522764828 -0.1916123793 0.3436155517 -0.5504103448 0.7133605862 1.362886771e-38
0.02389373 0.0027348525 -0.1925292 0.4666003 -0.30908615 0.74449385 1.362886771e-38
0.0250702 0.002271176 -0.193726 0.4117527 -0.205976 0.8181465 1.362886771e-38
0.02623075294 0.002529594118 -0.1940130588 0.3969838824 0.1465008235 0.7988040588 1.362886771e-38
-0.04223635 -0.002688723333 -0.188721 0.4182320833 -0.2071381667 0.7515225 1.362886771e-38
-0.05518410909 0.002242521818 -0.180664 0.3046566364 -0.2945687273 0.7783036364 1.362886771e-38
-0.031566625 0.0022597325 -0.194702 0.48760075 0.11612375 0.73359375 1.362886771e-38
0.009463509 0.002527475 -0.188965 0 -0.5658733 0.74171535 1.362886771e-38
0.01192664583 0.002527475 -0.188965 0 -0.5658444167 0.74175175 1.362886771e-38
-0.02880027273 0.001937864545 -0.1971545455 0.7054156364 0.2268189091 0.5916502727 1.362886771e-38
0.004400814706 0.0009923533529 -0.189697 -0.039182 -0.2514761176 0.8823602353 1.362886771e-38
-0.05552891143 0.0002468413543 -0.1811106286 0.2530876857 -0.3176381714 0.8210857143 1.362886771e-38
-0.05303806098 0.0002628561659 -0.1819028049 0.2262800732 -0.311917122 0.8083921463 1.362886771e-38
-0.0488815375 0.000984251125 -0.182617 0.3053845 -0.293967375 0.756060625 1.362886771e-38
-0.0478705069 0.0001996180207 -0.183917931 0.3789632069 -0.2914103793 0.739123931 1.362886771e-38
-0.04313489444 0.0002876048778 -0.1870255556 0.4302130278 -0.06195313889 0.7687843889 1.362886771e-38
-0.04048156667 0.0002912078833 -0.189209 0.4168458333 0 0.7758304722 1.362886771e-38
0.00097084 0.00142288 -0.190674 -0.594545 -0.594545 0.541324 1.362886771e-38
0.007031758333 0.0009659123333 -0.189697 0 -0.2454180556 0.8922348889 1.362886771e-38
0.009468087143 0.0009980192857 -0.189697 0.060397 -0.279205 0.8786695 1.362886771e-38
0.01179428 0.0012355788 -0.189697 0.0812077 -0.4499506 0.7984825 1.362886771e-38
0.014219275 0.00141525 -0.189697 0.1229835 -0.676645 0.68545325 1.362886771e-38
-0.03791504 6.7722804e-05 -0.1908692 0.48714324 0 0.75027332 1.362886771e-38
-0.0343323 0.00029803805 -0.193726 0.80287225 0.101596 0.55483625 1.362886771e-38
-0.03306272 6.8891072e-05 -0.1943116 0.34421368 0.01208164 0.82945708 1.362886771e-38
-0.02834672692 -1.993763846e-05 -0.1971622308 0.4762621154 0.09579196154 0.7438418462 1.362886771e-38
-0.02735135 0.000658855575 -0.19873 0.5617605 0.2768685 0.65067825 1.362886771e-38
-0.02302115714 0.0008863728571 -0.200684 0.03901285714 0.5109552857 0.7373154286 1.362886771e-38
-0.020685825 3.16381625e-05 -0.199584875 -0.3077355 0.1916955833 0.8529797917 1.362886771e-38
-0.01878685714 3.325278571e-06 -0.19873 -0.346036 0.03294628571 0.8578054286 1.362886771e-38
-0.0081904588 6.850476e-05 -0.19376504 -0.18272276 -0.07744912 0.91026204 1.362886771e-38
-0.005427518333 0.0002204949792 -0.192749 -0.15214925 -0.12520625 0.8979168333 1.362886771e-38
-0.003118668 6.7036188e-05 -0.19213356 -0.20082112 -0.25562924 0.82195216 1.362886771e-38
-0.0006128860433 6.679294e-05 -0.1912596 -0.2021382667 -0.2461370667 0.8323460333 1.362886771e-38
-0.03247682 -0.02172548 -0.202759 0 -0.740813 0.6627748 1.362886771e-38
0.00181509087 -1.099058696e-05 -0.190674 -0.06983421739 -0.2352587826 0.887873 1.362886771e-38
0.01451021923 3.131298846e-05 -0.1912042692 0.1484741154 -0.5807363462 0.7259182692 1.362886771e-38
0.0168185087 0.0001451372913 -0.191820087 0.3030513478 -0.6448944348 0.6357498696 1.362886771e-38
0.0192973 0.0006144565 -0.1923826667 0.2835732 -0.6987386667 0.5963588667 1.362886771e-38
0.02197266 0.000981331 -0.192749 0.1394854 -0.7320188 0.6113528 1.362886771e-38
0.0259094 0.0008331933333 -0.193726 0 0 1 1.362886771e-38
0.004298561053 -0.0003365654842 -0.190674 -0.01820942105 -0.2798387895 0.8728098947 1.362886771e-38
0.009364474211 -0.0003367913263 -0.1907253684 0.07040010526 -0.5010640526 0.7785018421 1.362886771e-38
-0.03551282632 -0.02027973684 -0.2010307368 0.04758052632 -0.6257787368 0.7244414737 1.362886771e-38
-0.0283478 -0.0263916 -0.2061276 0.3094708 -0.1197342 0.569676 1.362886771e-38
-0.05015393333 -0.0005631842778 -0.183716 0.2838842222 -0.4583563333 0.7289232222 1.362886771e-38
0.006842804 -0.0003841122333 -0.190674 0 -0.4889123333 0.7865515333 1.362886771e-38
-0.0624008 -0.0005776885 -0.180664 0 0 0 1.362886771e-38
-0.06048585 -0.0006204608 -0.180664 0.0429673 -0.3374542 0.8394488 1.362886771e-38
-0.05043538889 -0.008272806667 -0.188721 0.1716252222 -0.5072607778 0.7322381111 1.362886771e-38
-0.0383229 -0.009112638235 -0.192749 0.2031461176 -0.2880029412 0.8579822353 1.362886771e-38
-0.0341492 -0.000844479 -0.192749 0.812774 0.406546 0.417275 1.362886771e-38
-0.06285529643 -0.002429723571 -0.1818500714 -0.03621278571 -0.4312601786 0.7896011071 1.362886771e-38
-0.06046027838 -0.00227605973 -0.18172 0.09232794595 -0.4759655135 0.7689480811 1.362886771e-38
-0.05805091515 -0.002368494242 -0.1820846364 0.07291875758 -0.385087 0.8212140606 1.362886771e-38
-0.05565868529 -0.002108854412 -0.1823299412 0.2241430294 -0.4462234118 0.7621310588 1.362886771e-38
-0.0465088 -0.00124645 -0.184692 0.284414 -0.6474275 0.639743 1.362886771e-38
-0.04050530278 -0.002399206389 -0.1893174444 0.3014412778 -0.1181688611 0.8424651667 1.362886771e-38
-0.039032 -0.002403736667 -0.189697 0.7799743333 -0.08831383333 0.5781765 1.362886771e-38
-0.03787944 -0.002416516 -0.1907065333 0.3457707333 0.03800933333 0.8117176667 1.362886771e-38
-0.0341492 -0.002213476 -0.192749 0.7466704 -0.1066296 0.6112078 1.362886771e-38
-0.0317383 -0.002236556 -0.194702 0.7883574 0 0.6152176 1.362886771e-38
-0.030566388 -0.002251778 -0.19595228 0.46340416 -0.01225104 0.7613892 1.362886771e-38
-0.023071896 -0.0022912232 -0.19943344 0.2805756 -0.00531084 0.84966168 1.362886771e-38
-0.01760991667 -0.002154428333 -0.197754 -0.2853634167 0.01338075 0.87331175 1.362886771e-38
-0.0155627 -0.002263576 -0.1970213333 -0.2448695333 0 0.8928262333 1.362886771e-38
-0.012935172 -0.002252998 -0.19603036 -0.25317452 -0.121457 0.8701374 1.362886771e-38
-0.01126184444 -0.002506151111 -0.195679 -0.3429315556 -0.1644487778 0.8293527778 1.362886771e-38
-0.010162825 -0.002092479375 -0.194702 -0.205589125 -0.0988720625 0.8892725 1.362886771e-38
-0.0082133472 -0.0022325132 -0.19427256 -0.23091704 -0.20009204 0.84874408 1.362886771e-38
-0.004722595 -0.00130081 -0.192749 -0.3259515 -0.651521 0.6649195 1.362886771e-38
-0.0005625237176 -0.002372545294 -0.1924580882 -0.1571970588 -0.2966581176 0.8341466765 1.362886771e-38
0.001886861367 -0.002435209 -0.1920204333 -0.1111499333 -0.3819939 0.8081134667 1.362886771e-38
-0.02874077778 -0.01684738889 -0.199707 0.2719385556 -0.3480902222 0.8367385556 1.362886771e-38
0.006892777667 -0.00243594 -0.1920896 0.0683004 -0.4180453333 0.8082668333 1.362886771e-38
0.01424408333 -0.001566011667 -0.1925658333 0.2346425 -0.7008599167 0.6174280833 1.362886771e-38
0.01688929286 -0.001870427143 -0.194214 0.2797942857 -0.7323768571 0.5508607857 1.362886771e-38
0.02199008571 -0.001379147143 -0.1945625714 -0.3495177143 -0.3735234286 0.6855662857 1.362886771e-38
-0.0529467125 -0.0028014975 -0.1838786667 0.275447125 -0.4966795 0.7335049583 1.362886771e-38
0.01959308947 -0.002598609474 -0.1962440526 0.08233347368 -0.6022518421 0.7063225789 1.362886771e-38
0.01723411818 -0.002841429091 -0.1958564545 0.3194839091 -0.7043501818 0.5618068182 1.362886771e-38
-0.0295868 -0.0133438 -0.19873 0.642453 -0.254893 0.6624025 1.362886771e-38
-0.06541951667 -0.00298055 -0.182129 0.1187452778 -0.5642163333 0.6845448333 1.362886771e-38
-0.05527342 -0.003328704 -0.183716 0.319899 -0.625424 0.633567 1.362886771e-38
0.0106201 -0.00314331 -0.193726 0.488515 -0.489535 0.722295 1.362886771e-38
-0.03448486667 -0.004977332222 -0.193726 0.5103708889 -0.1550652222 0.7338522222 1.362886771e-38
-0.03308104 -0.004766209 -0.1944092 0.3987984667 -0.07914376667 0.8030052333 1.362886771e-38
-0.0317383 -0.004312515 -0.194702 0.72102825 -0.1325595 0.6290785 1.362886771e-38
-0.03055926667 -0.004803592667 -0.1959067333 0.4338004 -0.0676708 0.7892747333 1.362886771e-38
-0.0185075913 -0.005045766957 -0.19873 -0.1616282174 -0.06289230435 0.9244526087 1.362886771e-38
-0.01559534167 -0.004841485556 -0.1974487222 -0.1856180556 -0.1494863611 0.8781533611 1.362886771e-38
-0.01064457241 -0.004847163448 -0.1960155517 -0.2060542759 -0.2156041034 0.8516204138 1.362886771e-38
-0.00961304 -0.00362015 -0.194702 -0.36934 -0.741732 0.55984 1.362886771e-38
-0.005458321667 -0.004767987667 -0.1944417333 -0.085871 -0.2915816667 0.8624192 1.362886771e-38
-0.003151704 -0.004763411 -0.1942465333 -0.06468496667 -0.2249372333 0.8938529667 1.362886771e-38
-0.0007433138567 -0.004956054 -0.1940188 -0.1171304333 -0.4022085667 0.8115172667 1.362886771e-38
0.0094873092 -0.0044950856 -0.19419448 0.12551852 -0.66168192 0.700468 1.362886771e-38
0.01445975385 -0.004914355769 -0.1966928462 0.3358115 -0.6803941154 0.5791686538 1.362886771e-38
0.01670953846 -0.004315303077 -0.1972562308 0.2342889231 -0.6047494615 0.6165343077 1.362886771e-38
-0.03336214211 -0.007184078947 -0.1945992632 0.4725465789 -0.1802587895 0.761275 1.362886771e-38
