# .PCD v0.7 - Point Cloud Data file format
VERSION 0.7
FIELDS x y z normal_x normal_y normal_z rgb
SIZE 4 4 4 4 4 4 4
TYPE F F F F F F F
COUNT 1 1 1 1 1 1 1
WIDTH 520
HEIGHT 1
VIEWPOINT 0 0 0 1 0 0 0
POINTS 520
DATA ascii
-0.03352355 0.04811095 -0.319092 0.7143856282 -0.2200082809 -0.6642661594 3.228311402e-41
-0.02017213333 0.03766886667 -0.3171386667 0.7240453295 0.1149969307 0.6800985714 3.192438161e-41
-0.0359802 0.0477295 -0.324219 0.8537352328 0.188417136 -0.4854226355 3.371804365e-41
-0.05366515 0.0372467 -0.335205 0.3327673914 -0.01674825996 0.9428602012 3.587043809e-41
0.0374171 0.04754894167 -0.3423666667 -0.1947858188 -0.6787101374 0.7081038301 3.730536772e-41
0.0539551 0.03216555 -0.334229 0.297251522 -0.6065970609 -0.7373476374 3.587043809e-41
-0.03028105 0.047386175 -0.3168133333 0.322488155 -0.3414258542 -0.8828532018 3.192438161e-41
0.0296262 0.02999495 -0.3114420833 -0.2169363673 -0.3798317323 0.8992588435 3.084818439e-41
0.04735457143 0.03024291429 -0.3371581429 0.5181629505 -0.6055774938 -0.6039727277 3.65879029e-41
-0.045555125 0.0476723 -0.333252 -0.02688463644 -0.6306032878 0.7756395488 3.587043809e-41
0.05261842 0.03214112 -0.3348146 0.3496421585 -0.595074134 -0.7236277607 3.587043809e-41
0.03548176667 0.04527793333 -0.3445636667 0.2520673933 0.6349699083 -0.7302569718 3.730536772e-41
-0.0277194875 0.04725265 -0.316528375 0.008220665539 -0.4599378873 -0.8879130366 3.156564921e-41
0.0159302 0.0370483 -0.318115 -0.5777275114 0.1672021751 0.798920744 3.228311402e-41
0.0330505 0.0515442 -0.339111 -0.02751822262 -0.6719972085 0.7400422279 0
0.0428518 0.02280425 -0.3192546667 -0.5558607659 0.1826923955 -0.8109514767 3.228311402e-41
0.0078125 0.03207395 -0.325195 0.7076606157 -0.1594245408 -0.6883315109 3.371804365e-41
-0.01806133333 0.04025945556 -0.3197426667 0.635546403 0.1082423408 0.7644372867 3.264184643e-41
-0.0368652 0.048645 -0.325195 0.8116406321 0.2582362192 -0.5239785677 3.371804365e-41
0.01931154 0.02490846 -0.319092 -0.3674064702 -0.4104237492 0.8346045961 3.228311402e-41
-0.03528595 0.01687625 -0.3146975 0.1035229389 -0.7495647931 0.6537856087 3.156564921e-41
-0.0358582 0.0483398 -0.323242 0.8659123214 0.07657316084 -0.4942999117 3.335931124e-41
-0.00532108 0.02264234444 -0.3279078889 0.3225404796 -0.08050797122 0.9431257104 3.443550846e-41
0.03471883333 0.050415 -0.3395995 -0.06168220047 -0.6635598788 0.7455760145 3.694663531e-41
0.03725761429 0.0502537 -0.3396692857 -0.09986505783 -0.6296125163 0.770464178 3.694663531e-41
-0.00769949 0.0047698 -0.334229 -0.08588867133 0.5024969593 -0.8603022388 3.587043809e-41
-0.02499048889 0.032586 -0.3115777778 -0.6705457651 0.09078130402 -0.7362928302 3.084818439e-41
-0.04788547778 0.03771972222 -0.3377007778 -0.2928001502 0.1407699906 -0.9457546626 3.65879029e-41
0.02749633333 0.0191345 -0.321045 -0.1643871961 -0.6984454773 0.6965276485 3.300057883e-41
-0.0149240625 0.03020095 -0.321411 0.7271470769 0.047409641 0.6848426495 3.300057883e-41
-0.03746035 0.04815675 -0.3271485 0.7727277737 0.3880488218 -0.5023045885 3.443550846e-41
0.03955076667 0.05002168889 -0.3396537778 -0.084791154 -0.5391399333 0.8379371054 3.694663531e-41
0.0536194 0.0284424 -0.332275 0.2781309591 -0.5492322371 -0.7880273595 3.551170568e-41
-0.03533936 0.0127594 -0.3178222 -0.1720082701 0.5732149481 -0.801147788 3.228311402e-41
-0.05801393333 0.02481076667 -0.336182 0.1739380159 0.1530552465 -0.9727896269 3.62291705e-41
0.04194132222 0.0499878 -0.3394366667 -0.08818503749 -0.4483898282 0.8894773528 3.694663531e-41
-0.00548096 0.017601 -0.328125 0.3944111948 -0.1284744856 0.9099088504 3.443550846e-41
0.04449769 0.04988709 -0.3393064 0.1605024268 0.3194261424 -0.9339196489 3.694663531e-41
-0.01729325556 0.03492907778 -0.3195257778 0.6600422408 0.07557919191 0.7474169025 3.228311402e-41
0.02225648 0.02104184 -0.320068 0.2283956186 0.5869934918 -0.7767072048 3.264184643e-41
0.021514875 0.040512075 -0.31445325 0.7289579188 -0.1564293931 -0.666445945 3.12069168e-41
0.0116348 0.0219955 -0.324219 -0.4018028673 -0.3367000522 0.851579433 3.371804365e-41
-0.0239258 0.0466919 -0.317139 -0.2479601308 -0.4525812383 -0.8565547246 3.192438161e-41
0.02470906667 0.01548513333 -0.3245443333 -0.1403180332 -0.7072295631 0.6929193276 3.371804365e-41
-0.0479354875 0.0475731125 -0.333252 -0.006359745772 -0.5128607881 0.8584482312 3.587043809e-41
0.0484619 0.03719076667 -0.340088 -0.5001920996 0.2058452151 0.8410919158 3.694663531e-41
0.00559235 0.0134125 -0.330078 -0.2639015248 -0.4464048272 0.855031412 3.479424087e-41
-0.033905 0.0462341 -0.319092 -0.5923610498 0.2324752108 0.7714036965 3.228311402e-41
0.0224304 0.04474893333 -0.314209 0.7588293758 -0.1651313235 -0.6300076384 3.12069168e-41
0.00629807 0.0287018 -0.326172 -0.5712647016 0.1931661501 0.7977114009 3.407677606e-41
-0.0258484 0.0416565 -0.312988 0.1720677326 0.5182676095 0.837729897 3.12069168e-41
0.004966736 0.03953246 -0.330078 -0.5372258414 0.1962491193 0.8202893871 3.479424087e-41
0.0348714 0.0494385 -0.341309 -0.111833081 -0.7087793436 0.6965092994 3.730536772e-41
-0.01503686364 0.02246233636 -0.3212224545 0.6069303077 -0.2135581543 0.7655249939 3.300057883e-41
-0.01016997667 0.00447273 -0.334229 0.1050901928 -0.5105008901 0.8534312465 3.587043809e-41
0.0396983 0.0444641 -0.3445636667 -0.3617442513 -0.5101573142 0.7803080234 3.730536772e-41
-0.05069582 0.04713136 -0.334229 -0.0474459633 -0.3539363648 0.9340652709 3.587043809e-41
-0.027324675 0.044342025 -0.315186 0.03956445137 0.502305257 0.8637847434 3.156564921e-41
0.022380825 0.0177936625 -0.322784125 -0.1489417729 -0.652645395 0.7428797593 3.335931124e-41
-0.025455475 0.044342025 -0.315186 0.2437515005 0.4785094013 0.8435721421 3.156564921e-41
-0.000274896 0.03541056667 -0.331055 -0.07385836502 -0.1015842592 -0.9920814383 3.515297328e-41
0.0352347 0.04786898571 -0.3425642857 0.1333822559 0.6918091463 -0.7096543377 3.730536772e-41
0.01741026667 0.035072325 -0.3174643333 -0.6115584923 0.03975669538 0.7901997315 3.192438161e-41
-0.003023146667 0.01032511889 -0.3314616667 0.2268115708 -0.5051684023 0.8326832511 3.515297328e-41
0.03964233 0.04750367 -0.3419924 -0.2411198731 -0.6126184324 0.7527017092 3.730536772e-41
0.0506287 0.0293274 -0.333252 -0.2782610785 0.6285276298 0.7263083304 3.587043809e-41
-0.0227007 0.01547022857 -0.3195102857 0.34818711 -0.6608873444 0.6648260333 3.264184643e-41
0.03452556667 0.0296173 -0.3113606667 0.01338906619 0.3982607187 -0.9171745378 3.084818439e-41
0.0404053 0.0484619 -0.340088 -0.1474149318 -0.5163226595 0.8436111362 3.694663531e-41
0.01946106 0.01715394 -0.324219 -0.1464335206 -0.6746743549 0.7234443578 3.371804365e-41
-0.0573578 0.03659055 -0.334717 -0.1762250745 -0.09119947819 -0.9801160025 3.587043809e-41
0.04704793333 0.03733657778 -0.3416343333 -0.5363783671 0.1376353247 0.8326792688 3.730536772e-41
0.042221075 0.04826355 -0.340088 -0.2432982482 -0.4432935642 0.8627263635 3.694663531e-41
0.04459229 0.0477356 -0.3399903 0.2568471607 0.3640608053 -0.895259329 3.694663531e-41
0.00283623 0.0211029 -0.328125 -0.3004193259 -0.3805587005 0.874598939 3.443550846e-41
-0.05040632857 0.04277257143 -0.335205 0.2131339387 -0.3091101886 0.9268359162 3.587043809e-41
-0.0472107 0.01828 -0.31958 0.534898858 -0.5959432668 -0.5989447674 3.264184643e-41
0.04712591111 0.04730564444 -0.3394366667 0.3180395445 0.2798010619 -0.9058488913 3.694663531e-41
-0.007645923333 0.03271485556 -0.3276907778 0.5900708989 -0.07676182214 0.8036939448 3.443550846e-41
-0.04792276667 0.01942953333 -0.3217773333 0.5442160541 -0.7355075295 -0.4035561429 3.300057883e-41
-0.03267753333 0.01724752222 -0.3147517778 0.1841762443 -0.7260561356 0.6625115841 3.156564921e-41
0.0167389 0.0386658 -0.319092 -0.5887565333 0.304447961 0.7487838029 3.228311402e-41
-0.052124 0.046814 -0.334229 0.04244516677 0.2819987549 -0.9584754092 3.587043809e-41
0.004808213333 0.01497225556 -0.3299695556 -0.2753554854 -0.3499022353 0.895403698 3.479424087e-41
0.0199707 0.01611938 -0.3249998 -0.1468506704 -0.7092145388 0.689528548 3.371804365e-41
-0.02286224 0.01293564 -0.3221921 0.3182927007 -0.6910376656 0.6489658708 3.300057883e-41
-0.0187225 0.0347697 -0.318115 0.6907514511 0.1145439666 0.7139622626 3.228311402e-41
-0.0489502 0.046814 -0.334229 0.04939586818 -0.4340523073 0.8995324579 3.587043809e-41
0.05203755 0.0333201 -0.3363446667 0.4075941276 -0.5952843097 -0.6924619974 3.62291705e-41
-0.04501343333 0.046814 -0.334229 0.01841629529 -0.6189007808 0.785253248 3.587043809e-41
-0.00915527 0.03450015 -0.326172 0.6265925599 -0.2220651392 0.7470400511 3.407677606e-41
-0.0430298 0.046814 -0.334229 -0.1524507501 -0.7156622612 0.6816056753 3.587043809e-41
-0.009309384 0.02777404 -0.326172 0.5662580436 0.1711899335 0.8062541998 3.407677606e-41
-0.0293808 0.0441589 -0.315186 -0.1127379715 0.5295395815 0.8407603591 3.156564921e-41
-0.0209198 0.0444336 -0.317139 -0.5238157011 -0.2773139107 -0.8054279025 3.192438161e-41
0.0183105 0.04447935 -0.320068 0.7338477953 -0.2693617474 -0.6236278236 3.264184643e-41
-0.0409546 0.0443726 -0.33667 0.04710181697 0.6693992519 -0.7414081605 3.65879029e-41
0.02241896667 0.0302442 -0.3148603333 -0.5291579425 -0.2976954739 0.7945874884 3.156564921e-41
0.0199814 0.0443573 -0.3166505 0.7763755362 -0.2300713972 -0.5867777935 3.192438161e-41
0.030777 0.03261565 -0.310059 0.1950185031 0.2880005159 -0.937562524 3.084818439e-41
0.0210724 0.044281 -0.316162 0.7874465155 -0.22932511 -0.5721345814 3.156564921e-41
0.0231018 0.0438843 -0.312988 0.6345804198 -0.2144243871 -0.7425159076 3.12069168e-41
0.02463588462 0.04234901538 -0.3114859231 0.5440978975 -0.1058204393 -0.8323217602 3.084818439e-41
0.0419922 0.04732666 -0.341309 -0.3051757596 -0.5054898793 0.8070611734 3.730536772e-41
-0.0202274125 0.0174236125 -0.319458 0.4876057591 -0.4937679345 0.7200235069 3.228311402e-41
0.0351766 0.0466003 -0.344238 0.1420540239 0.6376788942 -0.7570906697 3.730536772e-41
0.004806093333 0.03762476667 -0.3298611111 -0.5589746018 0.2136896056 0.8011767264 3.479424087e-41
-0.0211182 0.016037 -0.320068 0.4066768184 -0.5849844099 0.7017173259 3.264184643e-41
-0.052322375 0.045227075 -0.334229 0.03771844078 -0.3274037604 0.9441313981 3.587043809e-41
-0.0003818591818 0.03313098182 -0.331055 -0.0193206666 0.222817509 0.9746686973 3.515297328e-41
-0.05053713333 0.04522706667 -0.334229 0.1107671895 -0.3898336097 0.9141993144 3.587043809e-41
-0.04779051667 0.0452525 -0.3343916667 0.1114019216 -0.4752860135 0.8727501459 3.587043809e-41
0.04520673333 0.03152466667 -0.3397623333 0.5523558625 -0.5289602401 -0.6442857018 3.694663531e-41
-0.04521397143 0.04556272857 -0.3349261429 0.08493731053 -0.6115217061 0.7866554877 3.587043809e-41
-0.0350342 0.0114517 -0.319092 -0.1650425072 0.5501698296 -0.8185805577 3.228311402e-41
-0.02104186667 0.01336926667 -0.322835 0.3187103044 -0.6862868119 0.6537844857 3.335931124e-41
0.03894043333 0.04222616667 -0.346191 0.3359213556 0.3793962091 -0.8620993907 3.730536772e-41
-0.04271445 0.04572548333 -0.3348796667 -0.06438100715 -0.7169148116 0.6941817045 3.587043809e-41
-0.0207825 0.02996826667 -0.315186 0.6540187082 -0.02366705922 0.7561080608 3.156564921e-41
-0.04071045 0.04570005 -0.334717 -0.1130956174 -0.7712152119 0.6264475064 3.587043809e-41
-0.0151930125 0.0395775 -0.321045 -0.387330513 -0.03280280433 -0.9213571781 3.300057883e-41
0.007176716667 0.0118866 -0.331055 -0.1629582724 -0.5627085778 0.8104342403 3.515297328e-41
-0.0385437 0.0458984 -0.333252 0.484665275 0.7260945203 -0.487735911 3.587043809e-41
-0.02790068333 0.0133629 -0.31958 0.2794410217 -0.6788496532 0.6790256723 3.264184643e-41
-0.0372925 0.0453491 -0.329102 0.690845148 0.6145384735 -0.380887708 3.479424087e-41
-0.02483214 0.03530579 -0.3114258 0.619631934 0.129735598 0.7740962091 3.084818439e-41
0.01979235556 0.02282375556 -0.3195257778 -0.2859072236 -0.5112607118 0.810474888 3.228311402e-41
-0.0319519 0.04261273333 -0.3148603333 -0.1771018154 0.5809868714 0.7944112299 3.156564921e-41
-0.03029479 0.04266054 -0.3146975 -0.1761625795 0.5794012918 0.7957769089 3.156564921e-41
0.01933455556 0.03256903333 -0.3162705556 -0.5525668521 -0.1957724035 0.8101500108 3.156564921e-41
-0.0278282125 0.042751325 -0.314575375 -0.02287531781 0.5197601669 0.8540059067 3.12069168e-41
-0.0283508 0.0325928 -0.308105 0.3804737261 0.1915328728 0.9047402403 3.084818439e-41
0.0130081 0.03726196667 -0.320068 -0.6058897271 0.1926468756 0.7718709866 3.264184643e-41
0.00324631 0.03530883333 -0.330078 -0.4238564913 0.2250588522 0.8773221688 3.479424087e-41
-0.0251350625 0.04267885 -0.3146975 0.3036007963 0.4852104522 0.8199983985 3.156564921e-41
-0.03778482667 0.01259408667 -0.3174642667 -0.1483299859 0.5880592092 -0.7951003595 3.192438161e-41
0.04470824286 0.02078464286 -0.3197891429 -0.4296970959 0.0573043123 -0.9011529402 3.264184643e-41
-0.0446777 0.0150452 -0.315186 0.368221584 0.3001043335 -0.8799717348 3.156564921e-41
-0.003586453333 0.003030776667 -0.335205 -0.2149347199 0.4283931224 -0.8776573357 3.587043809e-41
-0.02345886 0.04248048 -0.3149906 0.4552549763 0.4103550544 0.7901592472 3.156564921e-41
-0.02019755833 0.042607625 -0.3175456667 0.6624711707 0.1455324311 0.7348144388 3.192438161e-41
-0.0523376375 0.0376358125 -0.336182 0.3709607774 -0.09956394796 0.9232957933 3.62291705e-41
0.04976806 0.04250488 -0.340088 0.4111600698 0.1747385483 -0.8946585028 3.694663531e-41
0.01963807 0.04255066 -0.3171387 0.7669314545 -0.2347832794 -0.5972377716 3.192438161e-41
-0.0052485475 0.0327987625 -0.329468 0.5446248113 0.03849837039 0.8377957331 3.479424087e-41
0.02123516667 0.0423584 -0.3148603333 0.7495324493 -0.1731197084 -0.6389293184 3.156564921e-41
-0.0455627 0.0150909 -0.316162 0.6860300025 -0.01851775375 -0.7273375616 3.156564921e-41
0.02458953333 0.00849152 -0.3314616667 0.1232581737 0.564758218 -0.8159997413 3.515297328e-41
0.03483167273 0.02771827273 -0.3118343636 -0.05316644165 -0.5279920088 0.8475834874 3.084818439e-41
0.0119209 0.03515625 -0.321533 0.7126310627 -0.09151841104 -0.6955439231 3.300057883e-41
0.0226898 0.0423177 -0.3125 -0.6369308946 0.1836207722 0.7487338963 3.12069168e-41
0.02208456667 0.009922005 -0.331055 -0.06832616302 -0.6327811747 0.771310262 3.515297328e-41
0.026824925 0.04193115 -0.311035 0.3406661212 -0.08579206978 -0.9362618836 3.084818439e-41
-0.01859285 0.042259225 -0.319092 -0.6508846341 -0.0576323475 -0.7569859349 3.228311402e-41
-0.01246474444 0.007191552222 -0.3319768889 0.1750376455 -0.5949755388 0.7844526314 3.551170568e-41
0.01461538889 0.04286024444 -0.3221838889 0.4829956569 -0.3260229858 -0.8126648806 3.300057883e-41
0.020271275 0.0251732 -0.318115 -0.3622759057 -0.4166079532 0.8337829343 3.228311402e-41
0.01628495 0.042755125 -0.321289 -0.5497362895 0.3147374468 0.7737766807 3.300057883e-41
-0.00762558 0.02256606667 -0.3268226667 0.453335044 -0.04083047821 0.8904045204 3.407677606e-41
0.01766966 0.0423462 -0.3194824 0.6991524573 -0.2775510241 -0.6589015636 3.228311402e-41
-0.003598215 0.035110475 -0.330078 0.4625803868 0.009093372468 0.8865307081 3.479424087e-41
0.0402588 0.04562378 -0.3430666 -0.3582008705 -0.567213693 0.7415933946 3.730536772e-41
0.042277025 0.045110075 -0.34228525 -0.4163562527 -0.5125396617 0.7509664214 3.730536772e-41
-0.0121689 0.0216064 -0.324219 0.6262791077 -0.1653793404 0.7618557298 3.371804365e-41
0.0442886375 0.0451011625 -0.341431 -0.4263718111 -0.4144475058 0.8040151389 3.730536772e-41
0.01677375714 0.04024831429 -0.3196497143 -0.5891494906 0.363766238 0.7215102229 3.264184643e-41
-0.01010449833 0.007585208333 -0.3320109167 0.1545290218 -0.5945204845 0.789091994 3.551170568e-41
0.0452576 0.0456543 -0.340088 -0.3676596555 -0.3663488207 0.8547601531 3.694663531e-41
0.04724120833 0.04522706667 -0.3399251667 0.3600316152 0.2565567414 -0.8969703866 3.694663531e-41
-0.0451355 0.04425662 -0.3363772 0.1615988421 -0.5834962072 0.7958756124 3.62291705e-41
-0.02548453846 0.02758553846 -0.3120867692 0.6454100135 -0.1626852771 0.7463105353 3.084818439e-41
-0.0273336 0.0416565 -0.312988 0.08043364962 0.5462923617 0.8337236254 3.12069168e-41
-0.00835419 0.03746035 -0.325195 0.6708903136 -0.2609057631 0.6941429031 3.371804365e-41
0.012723925 0.04252625 -0.3226315 0.523326339 -0.3315036549 -0.7850062864 3.335931124e-41
-0.04268101429 0.03491647143 -0.338135 -0.1292062286 -0.1240422784 -0.9838288793 3.65879029e-41
0.03740776667 0.04511177778 -0.3446722222 0.2306702604 0.6229618376 -0.7474689157 3.730536772e-41
-0.0232544 0.03274536667 -0.312988 0.6853924237 -0.05794998516 0.7258643294 3.12069168e-41
0.0492096 0.0447693 -0.3395995 0.3022771762 0.1993493047 -0.9321418151 3.694663531e-41
0.0108948 0.0186005 -0.325195 -0.3721004153 -0.413361706 0.8310676151 3.371804365e-41
-0.0525411 0.04233806667 -0.335205 -0.1667559875 0.2602465382 -0.9510332171 3.587043809e-41
-0.0001950741333 0.02009478667 -0.3294273333 -0.002697171495 -0.2745123253 0.9615797983 3.479424087e-41
-0.046875 0.0439148 -0.336182 0.2157344068 -0.5084873981 0.833606161 3.62291705e-41
0.01961094444 0.03011915556 -0.3167047778 -0.5142063178 -0.2873380793 0.8081019063 3.192438161e-41
-0.01832836667 0.0324758 -0.3177896667 0.702720692 0.08677518693 0.7061541588 3.228311402e-41
-0.0153529 0.0121015 -0.3264973333 0.2715349322 -0.635069256 0.7231568438 3.407677606e-41
-0.0322571 0.0410461 -0.314209 0.1426859697 -0.5757169516 -0.8051029162 3.12069168e-41
-0.0203705 0.02021941 -0.3179198 0.5452953437 -0.3390672612 0.7666070575 3.228311402e-41
-0.02764510833 0.0400696 -0.3123373333 0.03578694141 0.5950638965 0.8028812203 3.084818439e-41
0.0091362025 0.0246829875 -0.324219 -0.4224309911 -0.2472782798 0.8720123337 3.371804365e-41
-0.0244446 0.0410461 -0.314209 0.4308013575 0.4351640954 0.790596231 3.12069168e-41
-0.049469 0.02198025 -0.32959 -0.2972198849 0.8886568255 0.3492125235 3.479424087e-41
-0.0553182 0.03718058333 -0.335205 -0.273555249 -0.0391270853 -0.9610601422 3.587043809e-41
-0.02282543333 0.04027642222 -0.3147517778 0.6394175585 0.3237840036 0.697358663 3.156564921e-41
-0.0216064 0.0401764 -0.316162 0.6388098931 0.2413495249 0.7305287998 3.156564921e-41
0.01221743636 0.03007091818 -0.3211337273 -0.5285462046 -0.1620260568 0.8332985458 3.300057883e-41
-0.0166168 0.0419617 -0.321045 -0.4758395604 -0.0840038393 -0.8755113179 3.300057883e-41
0.02485369375 0.03518868125 -0.311706625 -0.4338040856 -0.1707038287 0.8846887691 3.084818439e-41
0.0182037 0.0415649 -0.318115 0.7259038526 -0.2699797374 -0.6325935015 3.228311402e-41
-0.009564212 0.03760986 -0.3244142 -0.6046024603 0.2506147512 -0.7560741441 3.371804365e-41
0.02700805 0.03990683333 -0.311035 0.336110263 -0.001876027314 -0.9418207747 3.084818439e-41
-0.050437925 0.02273945 -0.33221425 -0.202888791 0.8438680878 0.4967119778 3.551170568e-41
0.0226898 0.04009501667 -0.3125 -0.5684715313 0.08981236151 0.8177859487 3.12069168e-41
0.02481204167 0.03992718333 -0.3111978333 -0.4583279929 0.0222934875 0.8885034898 3.084818439e-41
-0.0147273 0.02751158333 -0.3212076667 0.6782749133 0.1034305565 0.727492448 3.300057883e-41
-0.0475998125 0.0422592125 -0.336426 0.2979585454 -0.4021842264 0.8657185185 3.62291705e-41
0.0484619 0.0258484 -0.329102 0.1907495543 0.8387879408 0.5099503876 3.479424087e-41
0.03980102 0.02258759 -0.317334 0.3346183139 -0.6286672724 0.7020028808 3.192438161e-41
-0.0131807125 0.0329132125 -0.323089375 0.6588677274 -0.1644970728 0.7340531526 3.335931124e-41
0.02716403333 0.02265591111 -0.3172472222 -0.2024965377 -0.6515845133 0.7310490915 3.192438161e-41
-0.04543728889 0.04247708889 -0.3373752222 0.2710569197 -0.4823798125 0.8329693048 3.65879029e-41
0.02024333333 0.03515624444 -0.3148603333 -0.647853242 -0.05995714109 0.7594019476 3.156564921e-41
-0.0285339 0.0236206 -0.310059 0.4807000263 -0.39345301 0.7836595011 3.084818439e-41
-0.03212735 0.03975675 -0.312744 0.1247913937 -0.6086421385 -0.7835699428 3.12069168e-41
-0.02019925556 0.03998142222 -0.3175727778 0.6999087668 0.1090152888 0.705863574 3.192438161e-41
-0.0503387375 0.0303916875 -0.33740225 0.37950228 0.08366455346 0.9214001639 3.65879029e-41
0.02184641818 0.03247902727 -0.3145642727 -0.5541715411 -0.2554450877 0.7922384175 3.12069168e-41
0.0124783 0.03992377778 -0.3216956667 0.5955966807 -0.3266200475 -0.7338827825 3.300057883e-41
0.00972177 0.02240879167 -0.3246256667 -0.4395377353 -0.3103934544 0.8428893656 3.371804365e-41
0.0159302 0.035148625 -0.318115 -0.5457536036 0.08845469383 0.8332639265 3.228311402e-41
-0.0198059 0.03255354286 -0.3164411429 0.70940258 0.06710947386 0.7016012386 3.156564921e-41
0.0144767875 0.040546425 -0.321167 -0.537117654 0.3784125001 0.753862458 3.300057883e-41
0.0322876 0.0194168 -0.31958 -0.0380454776 -0.7048361656 0.7083491521 3.264184643e-41
-0.0237732 0.02063755 -0.315186 0.4744415455 -0.3244106497 0.8183293654 3.156564921e-41
0.0160828 0.0411987 -0.321045 -0.546246997 0.3332503857 0.7684779755 3.300057883e-41
-0.0561625 0.02294413333 -0.336182 0.2439101013 -0.009074119435 -0.9697553933 3.62291705e-41
0.0192337 0.03986613333 -0.3166505 0.7187172962 -0.2064857001 -0.6639345628 3.192438161e-41
0.00709025 0.03498332222 -0.3271483333 -0.6871350574 0.2226448927 0.6915740486 3.407677606e-41
0.02053834 0.03976442 -0.3147952 0.7420577153 -0.1187886625 -0.6597269138 3.156564921e-41
-0.01785106667 0.007667116667 -0.3297526667 0.3008311838 -0.6260279857 0.7194369743 3.479424087e-41
-0.0455424 0.03536986667 -0.338135 0.1720844122 0.05802834786 0.9833715808 3.65879029e-41
-0.014724725 0.0026907875 -0.334229 -0.2549604076 0.3940401807 -0.8830218154 3.587043809e-41
0.04474155455 0.04253595455 -0.3420189091 -0.5138443403 -0.338012827 0.7884867296 3.730536772e-41
0.04757691111 0.04300604444 -0.340088 0.3856917334 0.261517598 -0.8847883548 3.694663531e-41
-0.0236206 0.0394287 -0.312988 0.5658130828 0.3273295336 0.7567766723 3.12069168e-41
-0.0455424 0.03256225 -0.338135 -0.09868811532 -0.06465817947 -0.9930155969 3.65879029e-41
0.03769685 0.042823775 -0.3466795 -0.2369107601 -0.4320689403 0.8701664913 3.766410012e-41
-0.02323912857 0.02261351429 -0.315186 0.5222124676 -0.3011466266 0.7978752082 3.156564921e-41
0.019016225 0.037735 -0.316162 -0.6722241592 0.1452190194 0.725965644 3.156564921e-41
-0.00590897 0.02946855 -0.328125 0.402409996 0.1560567984 0.9020601259 3.443550846e-41
-0.007571791 0.03025514 -0.3278319 0.5128660331 0.0310135363 0.8579082659 3.443550846e-41
0.03982111429 0.04297311429 -0.3450754286 -0.3780049998 -0.4818220516 0.7905439461 3.730536772e-41
0.02482475833 0.0377299 -0.3113606667 -0.3853496298 -0.03784935958 0.9219940828 3.084818439e-41
0.01691547143 0.01757811429 -0.3246372857 -0.1802377302 -0.6344561031 0.7516513911 3.371804365e-41
0.04176111429 0.04234097143 -0.3446567143 -0.5310722749 -0.3114935907 0.7879936432 3.730536772e-41
-0.0218735 0.0351359 -0.3146975 0.752326045 0.04353337152 0.6573510231 3.156564921e-41
-0.0295563 0.0107651 -0.321045 -0.3164406109 0.6629787623 -0.6784721811 3.300057883e-41
0.0476583 0.02864073333 -0.3345543333 0.3558660588 -0.8113602272 -0.4637390752 3.587043809e-41
0.02996826667 0.0161896 -0.323242 -0.1530436349 -0.6688732908 0.7274518312 3.335931124e-41
-0.045772 0.02987891429 -0.338135 0.07472944664 0.0910219033 0.993041048 3.65879029e-41
0.0430069 0.04260255 -0.343262 -0.5028428029 -0.382249381 0.7752641655 3.730536772e-41
-0.04794313333 0.03536986667 -0.338135 0.2943791413 -0.05255114582 0.9542427879 3.65879029e-41
0.0464681 0.04241946667 -0.341309 -0.4227604369 -0.2889446205 0.8589438977 3.730536772e-41
0.0196686 0.0110626 -0.330078 -0.05840215937 -0.655295432 0.7531116017 3.479424087e-41
0.0479228 0.03216553333 -0.338135 -0.530851622 0.5467457424 0.6475072575 3.65879029e-41
-0.0496521 0.0415344 -0.336182 0.2979073725 -0.3266820103 0.8969559976 3.62291705e-41
-0.0416565 0.0419006 -0.339111 -0.2116939156 0.4090176892 -0.887631802 3.694663531e-41
-0.004955293333 0.03523253333 -0.3294273333 0.5620017665 -0.03406907736 0.8264340944 3.479424087e-41
-0.0001427594444 0.0270691 -0.328125 -0.1474175069 0.279234667 0.9488393328 3.443550846e-41
-0.03206176 0.03788452 -0.3114258 0.09593710509 -0.6288139567 -0.7716145928 3.084818439e-41
-0.01513781429 0.01449038571 -0.3243584286 0.3639182858 -0.5513515996 0.7507162546 3.371804365e-41
-0.0301234 0.03807575 -0.3111978333 -0.05391163295 0.5936725268 0.8028987899 3.084818439e-41
-0.02789306667 0.0380554 -0.311035 0.1184542403 0.4797236735 0.8693870197 3.084818439e-41
-0.02524912727 0.03781128182 -0.3114790909 0.4260865645 0.3843631203 0.8189720577 3.084818439e-41
-0.05307008 0.03982544 -0.335205 -0.3343313253 0.1408872042 -0.9318655271 3.587043809e-41
-0.02332764 0.03748778 -0.312988 0.6504450975 0.2265328347 0.7249855515 3.12069168e-41
-0.0236206 0.030147575 -0.312988 0.6390071325 -0.1024461676 0.7623481274 3.12069168e-41
-0.02215005 0.0376510625 -0.3146975 0.7399775617 0.1662683275 0.6517576631 3.156564921e-41
0.0152817 0.0395508 -0.320068 -0.5324635477 0.3288213486 0.7799737759 3.264184643e-41
-0.0307922 0.0136795 -0.318115 0.2151033 -0.6404431455 0.7372673516 3.228311402e-41
-0.02518393636 0.01742970909 -0.3166948182 0.3161938017 -0.6052066108 0.730579522 3.192438161e-41
0.0204027 0.03746202222 -0.3147517778 -0.6977247195 0.05527233392 0.7142304845 3.156564921e-41
0.022340125 0.03752899167 -0.312744 -0.6348467067 -0.04594205791 0.77127102 3.12069168e-41
0.0048728 0.020406725 -0.32788075 -0.3860726075 -0.379692967 0.8407027968 3.443550846e-41
0.0351766 0.0141932 -0.324219 0.1281757568 0.6696702419 -0.731514007 3.371804365e-41
0.02727397143 0.0376892 -0.311035 0.3191352173 0.009313584213 -0.9476634267 3.084818439e-41
0.02765655 0.03756715 -0.310059 0.3191352173 0.009313584213 -0.9476634267 3.084818439e-41
-0.009489874286 0.01766967143 -0.3263114286 0.4653178614 -0.1532851959 0.8717700021 3.407677606e-41
0.04219565 0.03770191667 -0.3448893333 -0.5519004417 0.02202751177 0.8336190324 3.730536772e-41
-0.0519531 0.0397766 -0.336182 0.3458178792 -0.177252155 0.9214074386 3.62291705e-41
-0.04032205455 0.02002646364 -0.3123669091 0.4175727833 0.4484417087 -0.790274006 3.084818439e-41
-0.0312805 0.0343933 -0.308105 -0.07367466645 -0.4237317938 -0.90278647 3.084818439e-41
-0.05006578889 0.0399509 -0.3362904444 0.3332878207 -0.2505629728 0.9089210225 3.62291705e-41
-0.02269592 0.02516277333 -0.3147952 0.5727470923 -0.2198852135 0.789690611 3.156564921e-41
-0.04783461111 0.04007635556 -0.3373751111 0.3311366341 -0.2789297823 0.9014137264 3.65879029e-41
0.00555801 0.0183792 -0.328125 -0.386643215 -0.3308937789 0.8608230546 3.443550846e-41
0.018012975 0.028183 -0.318115 -0.4664299765 -0.2687538593 0.8427422145 3.228311402e-41
-0.0455424 0.0401713 -0.338135 0.3247253299 -0.1786432141 0.928784185 3.65879029e-41
-0.000663201 0.028183 -0.329102 -0.07554578274 0.3217219274 0.9438155732 3.479424087e-41
-0.0439453 0.0409851 -0.338135 0.2431248245 -0.2966602697 0.9235166507 3.65879029e-41
-0.0425605875 0.040393825 -0.339111 -0.1684190199 0.2529992192 -0.9526942998 3.694663531e-41
-0.01255291667 0.002889946667 -0.3343916667 -0.1512435874 0.4779361935 -0.8652758937 3.587043809e-41
-0.01775104667 0.03751424 -0.3196125333 0.6219932017 0.113454992 0.7747595897 3.264184643e-41
-0.00543976 0.002898215 -0.335205 -0.1515403653 0.4392890557 -0.885471989 3.587043809e-41
-0.04794313333 0.02976483333 -0.338135 0.2336743212 0.182992985 0.9549397253 3.65879029e-41
0.008870446667 0.0196838 -0.326172 -0.4007993676 -0.3411117791 0.850295608 3.407677606e-41
0.00901031 0.000121117 -0.341309 -0.06192468768 -0.6663902323 0.7430271808 3.730536772e-41
-0.0113297 0.039032 -0.322021 -0.5025012314 0.1600994556 -0.8496238443 3.300057883e-41
0.006621043333 0.03966266667 -0.3294273333 0.5951766614 -0.2078361731 -0.7762530946 3.479424087e-41
0.0075016 0.03936765 -0.328125 0.7483200089 -0.1535136354 -0.6453299373 3.443550846e-41
0.0100937 0.0392761 -0.324219 0.7834185854 -0.1850985919 -0.5932906804 3.371804365e-41
0.0469157 0.02249653333 -0.3221026667 0.5507623889 0.6314728149 0.5458047957 3.300057883e-41
0.0108337 0.0391541 -0.323242 0.7424707755 -0.2010751455 -0.6389882107 3.335931124e-41
0.01470512143 0.03767176429 -0.3193708571 -0.5384429136 0.2898409066 0.7912467868 3.228311402e-41
-0.02019570909 0.02511872727 -0.3164284545 0.5742832316 -0.165647901 0.8017228591 3.156564921e-41
0.0421753 0.03577168333 -0.3447265 0.5724863177 -0.1343903424 -0.8088254768 3.730536772e-41
-0.03020961818 0.03535878182 -0.3094372727 0.1571803233 0.439079974 0.8845920655 3.084818439e-41
0.0175113625 0.0376358125 -0.317627 -0.6461362931 0.2078606242 0.7343717394 3.192438161e-41
0.04703775833 0.040158575 -0.341553 -0.4721572542 -0.09333227597 0.8765595323 3.730536772e-41
0.0500895 0.04041543333 -0.340088 0.436105093 0.0711406557 -0.8970793471 3.694663531e-41
-0.0440674 0.03988645 -0.339111 0.2875748483 -0.1042990783 0.9520621875 3.694663531e-41
0.0515442 0.0411072 -0.339111 0.4228325001 0.08768455191 -0.9019557063 3.694663531e-41
-0.030372625 0.0368347 -0.310059 0.0103054517 0.5543209236 0.8322392152 3.084818439e-41
-0.0278015 0.0368347 -0.310059 0.1601461485 0.4427541105 0.8822255997 3.084818439e-41
-0.01833853333 0.02496846667 -0.3179523333 0.6136286189 -0.1613499556 0.7729334446 3.228311402e-41
-0.01691178333 0.03038535 -0.3194173333 0.7142213387 0.064713607 0.6969218237 3.228311402e-41
-0.0263367 0.0368347 -0.310059 0.3531622169 0.2831635032 0.8916809289 3.084818439e-41
0.00251738 0.002916651667 -0.3373208333 -0.1712010656 0.4559126134 -0.8734036204 3.65879029e-41
0.0231018 0.0331116 -0.312988 -0.5144191938 -0.2546210421 0.8188656898 3.12069168e-41
-0.0150986 0.03738403333 -0.321045 0.4291811857 0.04220490428 0.9022318194 3.300057883e-41
-0.0113678 0.0249939 -0.323242 0.6670539019 -0.001825779848 0.7450072204 3.335931124e-41
-0.05222864286 0.03050448571 -0.3363214286 0.4290962828 -0.002220483885 0.9032560265 3.62291705e-41
-0.01285553333 0.0375061 -0.322021 0.4944106629 -0.06304043057 0.8669394445 3.300057883e-41
-0.01098 0.03760781667 -0.3230385 -0.5619638212 0.2620317275 -0.7845610477 3.335931124e-41
0.02468871429 0.01947022857 -0.3211844286 -0.1465562547 -0.6824307915 0.71610717 3.300057883e-41
0.007543838571 0.03758021429 -0.3275667143 0.7319403154 -0.1929191517 -0.6534872421 3.407677606e-41
0.00861359 0.0375824 -0.326172 0.7733858539 -0.2035987452 -0.600351457 3.407677606e-41
-0.03517844545 0.02485101818 -0.308105 -0.008922987111 0.3453694851 -0.9384243704 3.084818439e-41
0.0167389 0.0296021 -0.319092 -0.4861021805 -0.2388069824 0.8406401699 3.228311402e-41
0.0119209 0.03744506667 -0.321533 -0.6879197392 0.1845045957 0.7019433643 3.300057883e-41
0.029129 0.0368347 -0.310059 0.3235317185 0.1146045498 -0.9392513105 3.084818439e-41
0.03741456667 0.04071046667 -0.347168 0.5311302001 0.1459816763 -0.8346197103 3.150679467e-41
0.0316772 0.0324249 -0.310059 0.1590600035 0.359259483 -0.9195828072 3.084818439e-41
0.03950328889 0.04032726667 -0.3462995556 -0.4829594004 -0.1562190954 0.8615949233 3.730536772e-41
-0.03674315 0.0219269 -0.3095705 0.1960479925 0.571865734 -0.7965769059 3.084818439e-41
0.004852293333 0.00879669 -0.333252 -0.05761788817 -0.5709541844 0.8189575681 3.587043809e-41
0.042185475 0.04014080833 -0.3448079167 -0.5307950619 -0.1443572774 0.8351153087 3.730536772e-41
-0.003002166667 0.028183 -0.329102 0.08898288886 0.2859227861 0.9541122606 3.479424087e-41
0.04478963333 0.039917 -0.3429363333 -0.5318411634 -0.08025906478 0.8430323004 3.730536772e-41
0.00976562 0.00266568 -0.3392738333 -0.08106375055 -0.6368523108 0.7667123336 3.694663531e-41
0.0130081 0.0312042 -0.320068 -0.537173733 -0.1218836266 0.8346189323 3.264184643e-41
0.005358695 0.032539375 -0.32788075 -0.6200900914 0.2621763319 0.7394267033 3.443550846e-41
0.0486145 0.0397186 -0.341309 -0.4555988542 -0.09284866817 0.8853297741 3.730536772e-41
0.0071551 0.0130234 -0.330078 -0.2149290301 -0.5175507008 0.8282190436 3.479424087e-41
0.01254052857 0.01803808571 -0.3250555714 -0.2739965854 -0.481873451 0.8323003354 3.371804365e-41
0.0205841 0.021347 -0.320068 -0.2303137104 -0.5614165078 0.7948377819 3.264184643e-41
0.01051788 0.03514402 -0.3229978 0.7568538086 -0.1272891756 -0.641069246 3.335931124e-41
-0.02775065556 0.03530206667 -0.3095162222 0.3175668625 0.3234880199 0.891351103 3.084818439e-41
0.02973768889 0.02751158889 -0.3125542222 -0.2009185566 -0.5126197957 0.8347770233 3.12069168e-41
-0.02609253333 0.03475953333 -0.310059 0.4793583397 0.1651076636 0.8619483984 3.084818439e-41
0.02719929333 0.03001098 -0.3123372667 -0.3347938627 -0.3547122089 0.8729789908 3.084818439e-41
-0.02326311429 0.03511265714 -0.3124302857 0.7110081912 0.03369158604 0.7023761308 3.084818439e-41
0.0025687225 0.0376739625 -0.331055 0.3192342653 -0.08644564503 -0.9437248722 3.515297328e-41
0.00635529 0.0375468 -0.329102 -0.5954056036 0.2101093155 0.7754651783 3.479424087e-41
-0.02547455 0.008384705 -0.324951 0.3193734598 -0.5963384612 0.7364652285 3.371804365e-41
-0.003005768889 0.01495021111 -0.3295357778 0.3153496059 -0.1971954296 0.9282610563 3.479424087e-41
-0.01303030909 0.0152151 -0.3247513636 0.442365631 -0.4273146262 0.7884889719 3.371804365e-41
0.0108337 0.0372467 -0.323242 0.780254616 -0.1267922811 -0.6124756743 3.335931124e-41
0.02731182727 0.03500920909 -0.311035 -0.3615152502 -0.1350320021 0.9225362228 3.084818439e-41
0.0280304 0.0361023 -0.310059 0.3235317186 0.1146045498 -0.9392513105 3.084818439e-41
-0.05016752222 0.03763154444 -0.3369411111 0.3697118655 -0.1245243164 0.9207642647 3.65879029e-41
-0.0455424 0.0377706 -0.338135 0.2437129501 -0.05027097515 0.9685436629 3.65879029e-41
-0.0440674 0.0378825 -0.339111 0.2216801051 -0.003321399474 0.9751137879 3.694663531e-41
0.03471544444 0.02444967778 -0.3146432222 -0.007701907285 -0.6882936654 0.7253912812 3.12069168e-41
-0.04299926667 0.03842163333 -0.339111 -0.2063261804 0.01990357744 -0.978280816 3.694663531e-41
0.03978729167 0.02010728333 -0.3194986667 0.1882561422 -0.5287600156 0.8276306367 3.228311402e-41
-0.0076160425 0.0366516 -0.326416 0.6543813998 -0.2362994622 0.7182948892 3.407677606e-41
-0.0479126 0.0227661 -0.32959 0.4030486724 -0.8543034768 -0.3282031949 3.479424087e-41
-0.02253725 0.0116348 -0.324219 0.337097482 -0.6444351082 0.6863444317 3.371804365e-41
0.0188293 0.03529866667 -0.316162 -0.6094577277 0.02582363971 0.7923978911 3.156564921e-41
0.0216827 0.03507486667 -0.314209 -0.6087173803 -0.1252227038 0.7834426752 3.12069168e-41
-0.0403239 0.0143433 -0.316162 -0.02531908899 0.5298480926 -0.8477145407 3.156564921e-41
0.02741030909 0.02551549091 -0.3146530909 -0.2411956103 -0.6231210511 0.7440059363 3.156564921e-41
0.02272795 0.03496296667 -0.312988 -0.5210339471 -0.1527326259 0.8397597102 3.12069168e-41
-0.01286823333 0.03525117778 -0.322428 0.5880771845 -0.2224925134 0.7776003514 3.300057883e-41
-0.0207825 0.0325775 -0.315186 0.708780709 0.04251740737 0.704146417 3.156564921e-41
-0.02244949167 0.02004623333 -0.3166504167 0.5131455851 -0.3391438029 0.788456143 3.192438161e-41
-0.0113678 0.03570555 -0.323242 0.5689101605 -0.2672036147 0.7777811116 3.335931124e-41
-0.00534058 0.0367737 -0.329102 -0.6512942089 0.08881895529 -0.7536093462 3.479424087e-41
-0.02293651667 0.01777393333 -0.3173014167 0.4290138814 -0.5198472584 0.738719106 3.192438161e-41
-0.02497864 0.01246645 -0.3218748 0.304510986 -0.6949997507 0.6513435391 3.300057883e-41
-0.00379372 0.0368652 -0.330078 -0.4864857292 0.02200842714 -0.8734112802 3.479424087e-41
-0.002628325 0.0369873 -0.331055 -0.3737484622 0.01696767765 -0.9273748891 3.515297328e-41
0.00856018 0.0300649 -0.324219 -0.6747289213 0.05148200998 0.736267944 3.371804365e-41
-0.0004056286667 0.0369873 -0.331055 -0.04573922981 0.01717489212 -0.9988057599 3.515297328e-41
0.0091486 0.0351028375 -0.324707 0.7722631929 -0.1613916919 -0.6144609692 3.371804365e-41
-0.05354614 0.03013 -0.335205 0.3049565973 -0.04478119402 0.9513128394 3.587043809e-41
0.0130081 0.0349935 -0.320068 -0.6557572794 0.06523046598 0.7521485072 3.264184643e-41
0.04733276667 0.0276642 -0.332275 -0.06813093109 -0.8852337104 -0.4601298232 3.551170568e-41
0.0379639 0.0387878 -0.347168 0.4711178361 0.08667660102 -0.8778013166 3.766410012e-41
0.03950328889 0.03785535556 -0.3462995556 0.4765460297 0.04458257526 -0.87801838 3.730536772e-41
0.04478963333 0.03747897778 -0.3429363333 -0.5485278473 0.1482315791 0.822887963 3.730536772e-41
0.00649071 0.030441275 -0.326172 -0.6214073365 0.2305006397 0.7488139804 3.407677606e-41
-0.0431519 0.0369568 -0.338135 -0.2230156665 -0.06735445939 -0.9724851615 3.65879029e-41
0.002463343333 0.0157623 -0.330078 -0.1681701752 -0.272767789 0.947267927 3.479424087e-41
-0.02824094 0.02523192 -0.310059 0.5533093184 -0.2579201353 0.7920391417 3.084818439e-41
0.0175323375 0.0303402125 -0.317993 -0.4940585961 -0.1999362806 0.8461274061 3.228311402e-41
-0.03193665 0.032524125 -0.307617 0.1981350311 0.3219936822 0.9257767431 3.084818439e-41
-0.003053242222 0.004877726667 -0.3348796667 0.2223705146 -0.4750041445 0.8514237587 3.587043809e-41
-0.030148525 0.03254700625 -0.3078 0.3071957072 0.20424885 0.9294693135 3.084818439e-41
-0.007630665556 0.03496974444 -0.3270396667 0.6406820363 -0.1957306 0.7424392639 3.407677606e-41
-0.00610352 0.03508506667 -0.328125 0.6180074384 -0.09065500741 0.7809279581 3.443550846e-41
-0.002549742 0.03556518 -0.331055 -0.324809089 -0.06601590341 -0.9434728169 3.515297328e-41
-0.01758065 0.01280846667 -0.3248696667 0.283290535 -0.6536234712 0.7017997084 3.371804365e-41
0.0463562 0.021347 -0.320068 -0.5715613879 -0.3613845689 -0.7366944911 3.264184643e-41
0.00207806 0.03541056667 -0.331055 -0.2496611501 0.1640250799 0.9543401298 3.515297328e-41
-0.05354614 0.02774964 -0.335205 0.1134104847 0.02714406229 0.9931773567 3.587043809e-41
-0.03022765455 0.015213 -0.3173162727 0.1900831646 -0.6484859596 0.7371121697 3.192438161e-41
0.00470208875 0.0353355375 -0.329468 -0.5726880084 0.2203071559 0.7896158573 3.479424087e-41
-0.00222206 0.0219421 -0.329102 0.06019301181 -0.2309241059 0.9711080571 3.479424087e-41
-0.02071636667 0.005846663333 -0.3297526667 0.279693835 -0.605296088 0.7452435873 3.479424087e-41
0.05197145 0.0309906 -0.334229 -0.3482620519 0.5928411121 0.7261218624 3.587043809e-41
0.04474895556 0.03500704444 -0.3426107778 -0.5816708971 0.2610472909 0.7703981305 3.730536772e-41
0.01004962111 0.02763534444 -0.3226993333 -0.5275821625 -0.1015034577 0.843418111 3.335931124e-41
-0.05757905 0.03484345 -0.334229 -0.1497400453 -0.02280399298 -0.9884623901 3.587043809e-41
0.01190185 0.0328064 -0.321045 -0.6438243254 0.001555709912 0.765171757 3.300057883e-41
-0.05538262222 0.03500706667 -0.3347712222 0.3052552022 0.04237572796 0.9513272619 3.587043809e-41
0.0367737 0.01590473333 -0.322428 0.07199242741 0.6152194365 -0.7850618672 3.300057883e-41
-0.05354614 0.0350525 -0.335205 0.362496396 -0.00925148046 0.9319392539 3.587043809e-41
-0.05220684286 0.03515627143 -0.336182 0.4306070816 -0.03006088923 0.9020387376 3.62291705e-41
-0.05020143333 0.03525796667 -0.337158 0.382126389 -0.0662934476 0.9217291368 3.65879029e-41
-0.04299926667 0.03601073333 -0.339111 -0.1936276818 -0.08797853175 -0.9771223561 3.694663531e-41
-0.05213545 0.027894975 -0.336182 0.2327317742 0.2035107104 0.9510096277 3.62291705e-41
-0.0263367 0.03243 -0.310059 0.5761931884 -0.02253710869 0.8170027468 3.084818439e-41
-0.02182445714 0.03269304286 -0.3147672857 0.6966559753 0.03952189119 0.7163159025 3.156564921e-41
0.00712967 0.0031242375 -0.338135 -0.0838719327 0.6271953721 -0.7743329156 3.694663531e-41
-0.0158081 0.0342407 -0.320068 0.6213985386 0.004744511701 0.7834802779 3.264184643e-41
0.05393678 0.02986142 -0.3322264 0.2808332571 -0.5511143459 -0.7857516525 3.551170568e-41
-0.0171585 0.0139389 -0.324219 0.3111611242 -0.6147320338 0.7247642937 3.371804365e-41
0.0119076 0.0071511275 -0.334595 -0.1098567294 -0.6782172155 0.7266036799 3.587043809e-41
0.02043535 0.033111575 -0.31494175 -0.5872063227 -0.1866170463 0.7876311399 3.156564921e-41
-0.0301641 0.03001404167 -0.3079423333 0.3973039591 -0.07529101346 0.9145932579 3.084818439e-41
0.02491124167 0.03268178333 -0.3124186667 -0.4369905166 -0.2618161742 0.860518204 3.084818439e-41
0.0108337 0.0238495 -0.323242 -0.4459786802 -0.268630925 0.8537800905 3.335931124e-41
-0.05771214444 0.03021746667 -0.3344458889 0.05039161699 -0.2246913806 0.9731261318 3.587043809e-41
0.02495575 0.0129204 -0.3276365 -0.1698128152 -0.7285368504 0.6636246419 3.443550846e-41
0.02739968889 0.03255208889 -0.3112521111 -0.331351986 -0.2432828543 0.9116026076 3.084818439e-41
0.02949525 0.032440175 -0.311035 -0.2959792132 -0.2709831209 0.9159500279 3.084818439e-41
0.04966736667 0.03533935 -0.339111 -0.4393321575 0.447766842 0.7787760337 3.694663531e-41
0.01697845 0.02734528 -0.3192872 -0.465516418 -0.2672575269 0.8437226315 3.228311402e-41
0.0515442 0.0362854 -0.339111 0.416584678 -0.3076817236 -0.8554467622 3.694663531e-41
-0.05950925 0.030418375 -0.334473 -0.01567974266 0.2400183734 -0.9706417084 3.587043809e-41
-0.0197296 0.0300649 -0.316162 0.6639531997 -0.02491255106 0.7473590258 3.156564921e-41
-0.037731175 0.014728525 -0.31640625 0.1288970205 -0.5921750213 0.7954334053 3.156564921e-41
0.05237155556 0.03512911111 -0.3375923333 0.3317636057 -0.5771459798 -0.746214063 3.65879029e-41
-0.0485535 0.0209808 -0.326172 0.4976924316 -0.7914661574 -0.3548007401 3.407677606e-41
-0.01692195 0.03266398333 -0.31958 0.6897498781 0.07829172633 0.7198024112 3.264184643e-41
-0.01503831 0.03270264 -0.3214354 0.7026318004 -0.03118998369 0.7108697053 3.300057883e-41
0.05230275714 0.02987234286 -0.3331124286 0.3407712251 -0.5721660246 -0.7459899546 3.587043809e-41
0.00235760375 0.03033635 -0.329102 -0.3785872082 0.3946175983 0.8372267775 3.479424087e-41
0.04897056667 0.0309092 -0.336182 -0.4759544605 0.5902459462 0.6519793513 3.62291705e-41
0.01729329167 0.01996739167 -0.3222449167 -0.2555184478 -0.5659399398 0.7838509472 3.300057883e-41
0.010200516 0.03244019 -0.3226315 -0.702254972 0.09979477092 0.7048964165 3.335931124e-41
-0.02775066667 0.03017678889 -0.3095162222 0.5967405116 -0.1595371327 0.7864150718 3.084818439e-41
0.0130081 0.03271483333 -0.320068 -0.5799485429 -0.05622482263 0.8127105616 3.264184643e-41
0.014713275 0.00840091375 -0.333129875 -0.1083912907 -0.6547996282 0.7479898228 3.587043809e-41
-0.02211 0.004301703333 -0.331055 0.2482131098 -0.5821374885 0.7742778549 3.515297328e-41
0.0159302 0.0325114 -0.318115 -0.512637417 -0.1320402517 0.8483915668 3.228311402e-41
-0.03103636667 0.02540586667 -0.308105 0.3166613791 -0.313452675 0.8952502396 3.084818439e-41
-0.04219055 0.013588 -0.316162 -0.005640225094 0.5263527925 -0.8502475673 3.156564921e-41
0.01741535556 0.03245714444 -0.3175727778 -0.5595405357 -0.1664128025 0.8119243611 3.192438161e-41
0.0399017 0.0361938 -0.346191 0.538735342 -0.05297931531 -0.8408076019 3.730536772e-41
-0.0597127 0.0284373 -0.335205 0.009284373749 0.3092315803 -0.9509414441 3.587043809e-41
-0.04266357273 0.01509511818 -0.3149195455 -0.1758995336 -0.3845427972 0.9061932416 2.866356009e-41
0.046521 0.03503416 -0.341309 -0.5438240795 0.3834769011 0.7464588648 3.730536772e-41
0.04787772857 0.03464181429 -0.3399484286 -0.5379989696 0.4528153347 0.7109960488 3.694663531e-41
0.05032346667 0.0348409 -0.338135 -0.4563327406 0.5112843403 0.7282504742 3.65879029e-41
-0.0251007 0.00464401 -0.3294924 0.2943694537 -0.6676607639 0.6837950929 3.479424087e-41
0.03703816667 0.0212097 -0.318115 0.1096047091 -0.6733707196 0.7311352008 3.228311402e-41
-0.01236155 0.032165525 -0.324219 0.6761201869 -0.07943015969 0.7324973329 3.371804365e-41
-0.0110461 0.03244525 -0.3250323333 0.6524942728 -0.1140559622 0.7491611719 3.371804365e-41
-0.0171966125 0.02272415 -0.319458 0.6118713383 -0.2197724788 0.7598115048 3.228311402e-41
-0.005748745 0.0110626 -0.330078 0.2427610673 -0.4889895864 0.837828293 3.479424087e-41
-0.009550728333 0.03259278333 -0.3264973333 0.6099110726 -0.1422227252 0.7796032196 3.407677606e-41
-0.00753212 0.0097255575 -0.331055 0.1721023327 -0.5538734017 0.8146195688 3.515297328e-41
-0.003082795455 0.0325345 -0.330078 0.369228895 0.1378247715 0.9190616712 3.479424087e-41
0.0509338 0.0318604 -0.335205 -0.4349723789 0.5909329777 0.6794094829 3.587043809e-41
0.001947406667 0.0335795 -0.331055 -0.3079594765 0.2264048117 0.924068083 3.515297328e-41
-0.05205788333 0.03279113333 -0.3363446667 0.4543522724 -0.011820347 0.8907436735 3.62291705e-41
0.00257356 0.03249685714 -0.3299385714 -0.3764154051 0.3046262003 0.8749367525 3.479424087e-41
0.004325864 0.03301392 -0.329102 -0.5326183113 0.2986896197 0.7918978757 3.479424087e-41
0.04599 0.0265503 -0.328125 -0.3004728319 -0.8569551717 -0.4187408637 0
0.00686046 0.0327323 -0.3267297143 -0.6872860292 0.2174240674 0.6930834647 3.407677606e-41
-0.00223541 0.0330505 -0.331055 0.2051792241 0.1882554196 0.9604485322 3.515297328e-41
-0.00804329 0.0133286 -0.328125 0.3431802957 -0.4274610659 0.8363637497 3.443550846e-41
0.008758545 0.0325775 -0.324463 0.7267781867 -0.146748735 -0.6710128732 3.371804365e-41
0.01705423333 0.0162811 -0.325195 -0.1520671088 -0.6469730229 0.7471957589 3.371804365e-41
0.049720775 0.0327568 -0.33703625 -0.4813680108 0.5624332459 0.6722750048 3.65879029e-41
0.0432129 0.0350647 -0.343262 0.5538660828 -0.2291833124 -0.8004419852 3.730536772e-41
-0.05767823333 0.03256226667 -0.334229 -0.1193258644 0.07137296746 -0.9902864422 3.587043809e-41
-0.03271483333 0.0249176 -0.308105 0.2586994949 -0.3496269705 0.9004640764 3.084818439e-41
-0.01680755 0.0197029 -0.321045 0.5323895585 -0.3083136564 0.7883552799 3.300057883e-41
0.02949523333 0.0124851 -0.3263888889 0.150540502 0.6765293687 -0.7208644606 3.407677606e-41
-0.05536567778 0.03260296667 -0.3346627778 0.2430369549 -0.03885838462 0.9692383941 3.587043809e-41
-0.05016784 0.03273621 -0.3374511 0.4001435143 -0.01432921679 0.9163404616 3.65879029e-41
-0.04794313333 0.03256225 -0.338135 0.1834646597 -0.0227754876 0.982762431 3.65879029e-41
-0.04321568182 0.03267044545 -0.338135 -0.01766271368 -0.08485665523 -0.9962366067 3.65879029e-41
-0.0576172 0.0232086 -0.336182 0.2563493907 0.04506247177 -0.9655332017 3.62291705e-41
-0.02567036667 0.0137634 -0.320068 0.2809206571 -0.6899794488 0.667092156 3.264184643e-41
-0.0318909 0.02993773333 -0.307129 -0.2362259851 0.09410396491 -0.9671306674 3.084818439e-41
-0.02532044 0.03012592667 -0.3120117333 0.6531279202 -0.1490186917 0.7424401318 3.084818439e-41
-0.02229587273 0.03016801818 -0.3144754545 0.6275626678 -0.04072690691 0.7775001074 3.156564921e-41
0.02416993333 0.02999623333 -0.314209 -0.4813593066 -0.3617549585 0.7983899849 3.12069168e-41
0.0252097 0.03050232857 -0.3128485714 -0.4352715256 -0.3388879114 0.8340825394 3.12069168e-41
-0.0183182 0.03020986667 -0.317627 0.7156473101 0.05617116742 0.6961994883 3.228311402e-41
-3.96496e-05 0.03155518 -0.330078 -0.1486299533 0.3201044417 0.9356507272 3.479424087e-41
-0.03515626667 0.0206757 -0.310059 0.03403392283 -0.6357192641 0.771169702 3.084818439e-41
0.01480304667 0.03010052 -0.3196125333 -0.4951560497 -0.1827475836 0.8493667094 3.264184643e-41
0.0447876 0.0328064 -0.3416994 0.5339454951 -0.4400441842 -0.7219856814 3.730536772e-41
-0.0256424 0.0187683 -0.315186 0.3687929274 -0.5168724464 0.7725507432 3.156564921e-41
0.04677908571 0.03252301429 -0.3395297143 -0.5710010355 0.4674998674 0.674834566 3.694663531e-41
-0.0005132218 0.008639524 -0.333252 0.1514808524 -0.506072229 0.8490844778 3.587043809e-41
-0.0592651 0.0317688 -0.334229 -0.06379924357 0.1620689443 -0.9847148388 3.587043809e-41
0.002470653333 0.0146294 -0.331055 -0.1466553149 -0.3487611414 0.9256661844 3.515297328e-41
0.00635529 0.0164948 -0.329102 -0.3532343567 -0.347172251 0.8687329379 3.479424087e-41
-0.0158081 0.02968853333 -0.320068 0.7147192809 0.03854710049 0.6983483877 3.264184643e-41
-0.01328275 0.02996826667 -0.323242 0.6969954318 0.09593131984 0.7106296855 3.335931124e-41
-0.0121689 0.0300649 -0.324219 0.6799204234 0.07620384689 0.7293155638 3.371804365e-41
0.02726555 0.0204506125 -0.319458 -0.1764795365 -0.7094293816 0.6823231827 3.228311402e-41
0.0246811 0.0118103 -0.329102 -0.1717359957 -0.6921582651 0.7010161795 3.479424087e-41
-0.0110461 0.03014121667 -0.3250323333 0.6326380442 0.05129245338 0.7727471703 3.371804365e-41
