# .PCD v0.7 - Point Cloud Data file format
VERSION 0.7
FIELDS x y z normal_x normal_y normal_z
SIZE 4 4 4 4 4 4
TYPE F F F F F F
COUNT 1 1 1 1 1 1
WIDTH 565
HEIGHT 1
VIEWPOINT 0 0 0 1 0 0 0
POINTS 565
DATA ascii
-0.007162525415 0.05416079521 -0.07986673737 0.3505287365 0.01103104972 0.9364870105
0.003306300402 0.01198541101 -0.07996107483 -0.1471492357 0.1986387293 0.9689632385
0.01570308161 0.06015287399 -0.05184269142 0.759493442 -0.4397689056 0.4793464522
-0.005180700858 0.02088247776 -0.08049140294 0.242688009 0.0206636617 0.9698842938
-0.007526248932 0.01866022682 -0.07970224762 0.3581508217 0.06188097464 0.9316108275
0.01231812143 0.06060000229 -0.04566370583 -0.509354403 0.7171459286 -0.475667751
0.006182025909 0.05971215057 -0.04470216274 -0.3098652236 0.1220614106 -0.9429128036
0.0006205027501 0.05944664256 -0.04358429591 0.1091874331 -0.1804175894 0.9775109196
0.0005740016301 0.02116595904 -0.08115777842 0.0180955623 0.01587496461 0.9997102261
-0.01143876243 0.01538094163 -0.0773008976 0.5481669018 0.1130854418 0.8286885607
-0.01148474353 0.05696245302 -0.04803635243 0.6784288321 0.3269008844 -0.6579286676
0.003718739927 0.05953609085 -0.04396064091 -0.1977515456 0.3890314168 -0.8997493445
-0.01132489128 0.03300858421 -0.07776074371 0.5475415995 -0.01099424976 0.8367062348
-0.01685950851 0.05978659439 -0.06311042023 0.5685732957 -0.8051127545 -0.1688723188
0.0089319098 0.05996311855 -0.04574923801 -0.4693425371 0.2614445446 -0.8434241715
-0.01757694149 0.06040634537 -0.06065076637 -0.276002411 0.9597736738 -0.05154768773
0.000560280535 0.03879548306 -0.08115770552 -0.05458259359 -0.01171174945 0.9984405718
0.0116369977 0.02089699888 -0.07755192184 -0.5680794629 0.01581151427 0.8228218032
-0.00186150825 0.05946286774 -0.04365285873 -0.1456111872 -0.1510639854 0.9777407911
-0.007104245663 0.05988138008 -0.07988076782 -0.3652262156 0.3842762202 -0.8479042387
0.003742850363 0.05437717247 -0.04395924282 0.1832175057 -0.03315086278 0.9825132904
0.01224894166 0.05686699009 -0.04875275135 -0.693386524 0.2658578783 -0.6697273452
-0.01110362228 0.05419373385 -0.07790510305 0.5397352911 0.008483250614 0.8417920467
-0.01074812603 0.0004047253927 -0.07231558736 0.5499799287 0.4450970524 0.7066899547
-0.003100910068 0.05949907303 -0.04380413055 -0.3543214779 -0.1621676977 0.9209549002
0.01647798061 0.05102780724 -0.07290261841 0.7907900889 -0.004390630863 -0.6120716932
-0.00556687657 0.05966577784 -0.04450704384 0.1692529656 0.1264924692 -0.9774216536
-0.005599205971 -0.007898291588 -0.06861705017 0.2651713166 0.6772347336 0.6863215635
-0.008772384453 0.05707364349 -0.04597829819 -0.5323120582 -0.2861917028 0.7967045763
-0.01472232842 0.0480654459 -0.07495226097 0.7107243595 0.01415835892 0.7033281067
0.003730770171 0.05696200371 -0.04395994282 0.2228953467 0.004479367641 0.9748320879
-0.01185544815 0.05944319839 -0.04838430176 0.6397702816 0.3896980361 -0.6624420181
-0.008420280774 0.05975078964 -0.04576155217 0.4075415265 0.3228653487 -0.8542059885
0.0006245346069 0.05428007253 -0.0435785408 0.04661958858 -0.03336443571 0.9983553618
-0.009348732948 0.05981466293 -0.04227589035 0.3607260649 0.7282503384 -0.5826904417
-0.01724175262 0.06060000229 -0.0563409729 -0.1696780469 0.9422308591 0.2888085326
0.0006225144664 0.05686875725 -0.04358142344 0.07521929131 -0.1255653127 0.9892297056
-0.0117010177 0.06060000229 -0.04567974981 0.3654719612 0.7683814937 -0.5253761754
0.01814074421 0.06010952377 -0.05157223511 -0.155693369 0.987596523 -0.02031459077
0.0005916772882 0.005814244906 -0.07836452993 0.01608368636 0.3643883027 0.9311081999
0.01535629845 0.05964034653 -0.04694669342 -0.6551122561 0.4276190509 -0.6228722816
0.01394206953 0.05988597107 -0.05076576042 0.7340495576 -0.451886241 0.5069221559
0.01221110129 0.059395257 -0.04871529007 -0.6878097831 0.2755467456 -0.671559151
-0.001878165483 0.05234959793 -0.04364554596 0.03872820295 0.03516755163 -0.9986307474
0.003321048737 0.04810340881 -0.0808957812 0.169295063 0.004119189896 -0.985556804
0.01895337868 0.06060000229 -0.0663493576 0.732538373 0.6708739099 -0.1153938001
0.009485041346 0.03592573329 -0.0788306536 -0.4756036217 0.000245568918 0.8796596698
-0.01496828556 0.01065181446 -0.07326649475 0.7097414937 0.1979798838 0.6760702461
0.01043292522 0.05963445663 -0.04705820847 -0.5965853534 0.3268676549 -0.73296893
-0.007861388683 0.0003618629277 -0.07404563904 0.3885208858 0.4608602703 0.7979093511
0.003251273298 0.03894790192 -0.08091148529 -0.1154342224 -0.01064343504 0.9932581022
0.01685950851 0.05978659439 -0.06311042023 -0.4520436777 -0.8888651546 -0.07466759959
-0.001867543399 0.05688563728 -0.04365020752 -0.1550198183 -0.1053534859 0.9822777097
-0.01431643613 0.05982589595 -0.05138715108 0.7940844826 0.4232784979 -0.4361939335
-0.008862916946 0.06060000229 -0.07599026108 -0.3911045338 0.5263705512 -0.7549644273
-0.01613641167 0.05968217468 -0.05511955643 0.03876996905 0.9584030466 0.2827728588
-0.01535629845 0.05964034653 -0.04694669342 0.6087610961 0.5499928931 -0.5717672126
-0.01283595053 0.05384638723 -0.07665002441 0.623122613 -0.005481912789 0.7821049532
0.00935148859 0.01494326425 -0.07847632599 -0.4774051019 0.1270263656 0.8694530874
0.0104988842 0.05453606033 -0.04710272217 -0.6075964234 0.06430702573 -0.7916382966
0.006106974814 0.04789678192 -0.08022041066 -0.2802431653 -0.01401518469 0.9598267255
0.01253790569 -0.005907310724 -0.06565711975 0.5945913013 -0.5875049846 -0.5489071665
0.01563980055 0.05753108215 -0.05396035767 0.6219785162 0.2516846927 0.7414833382
0.006483156681 0.008844762961 -0.0783190333 -0.3244545482 0.280059661 0.9034909144
-0.0175408179 0.06027304967 -0.05140011088 0.8076742706 0.5398262146 -0.2371706783
-0.01807223511 0.002561211348 -0.06447724152 0.8616567832 0.2892517008 0.4169904574
0.009405597278 0.04192249898 -0.07886990356 -0.4703375144 -0.0100557313 0.88242932
0.01843785 0.06060000229 -0.05629434013 0.5456214765 0.7769917006 0.3139762755
0.01613644218 0.05968205261 -0.05511905479 0.4929662839 0.6165821614 0.6138490703
-0.01879086876 0.05651103783 -0.05226856804 0.4245784533 -0.5511125215 -0.7183370558
-0.002320875853 0.01461085892 -0.08057471275 0.0772654859 0.1489527681 0.9858210373
-0.01233151182 0.002712991675 -0.07242730459 0.6049887943 0.3938609873 0.6919986138
0.006234807173 0.03305659231 -0.08019102351 -0.2882054495 0.005027924957 0.9575553973
0.009729674657 0.03006154188 -0.07870342255 -0.4802783912 0.001523667334 0.8771147846
0.003433080037 0.02415484587 -0.08088348262 -0.1696995452 0.009731927187 0.9854477936
0.01046589979 0.05708923594 -0.0470790952 -0.6054286348 0.3171728708 -0.7299709159
0.008772379494 0.05707368469 -0.04597847137 -0.4703954364 0.2340862388 -0.8508417986
0.01785129261 0.005773429394 -0.06698353958 0.8639713093 -0.2456708324 -0.4395445584
0.005698034763 -0.01141773987 -0.06457405853 -0.3166719638 0.7331838635 0.6017975487
0.01994343185 0.0238029995 -0.06570923996 0.9405070823 -0.01020466957 -0.3396208074
-0.01752399445 0.01190336227 -0.07017242432 0.8196738186 0.1662996702 0.548159877
-0.01456304182 0.02681373133 -0.07509671238 0.7095504966 -0.01756716355 0.7044355809
-0.005584776878 0.05709767214 -0.04451142375 -0.2088566324 -0.08121121081 0.9745684411
-0.003110947728 0.05692349052 -0.04380292511 -0.140986514 0.006696960505 0.9899888654
-0.008916180134 0.04814922333 -0.07913216782 0.4618261294 0.01030441411 0.8869106185
0.006201854706 0.05714639091 -0.04470924568 -0.3518539536 0.1390712493 -0.9256662374
0.01233151213 0.002712991635 -0.07242730204 -0.6179453611 0.3686933129 0.6944125371
-0.01963394737 0.06060000229 -0.05624770737 0.03318405384 -0.9665449864 -0.2543415181
0.01879098701 0.05651061058 -0.05226684952 0.158813785 0.6810415539 0.7148150695
0.02046424675 0.06060000229 -0.0613426857 -0.5095594868 -0.8558748953 0.08847199021
0.01815278816 0.06044980113 -0.06080956523 -0.5095594868 -0.8558748953 0.08847199021
0.003610662401 0.0003909772485 -0.0754558754 -0.1761265791 0.487568827 0.8551351163
0.01454140329 0.05760720634 -0.05174748993 0.7412831236 -0.3921226675 0.544737684
0.01397401428 0.05800678253 -0.05080263519 0.6955269196 -0.3791017143 0.6103476013
-0.01061286783 0.01177909708 -0.07717385483 0.5322343056 0.2076220596 0.8207433974
-0.01435227362 0.05774039841 -0.05143253835 0.7388270472 0.4690200038 -0.4838954745
-0.01465870428 0.0510408446 -0.07501491165 0.7045780032 0.0009947883744 0.7096258506
0.01351531076 0.01768808365 -0.07598046112 -0.6566978386 0.07978836615 0.7499211728
-0.005761259139 0.05404686117 -0.04456696177 -0.3118637266 -0.004434361733 0.9501164942
0.01839966679 0.02667826557 -0.06984614563 0.8899962995 0.01022396767 -0.4558531095
-0.01987585735 0.06060000229 -0.06136657715 0.457920405 -0.8828813051 0.104064902
0.02035196209 0.05928780746 -0.06341496277 0.7216130344 0.6814910206 -0.1218384896
0.0118742679 0.04229396693 -0.07741735077 -0.5992661378 0.01080744089 0.8004769174
0.008377074718 0.05418133926 -0.04572093391 -0.4853603236 0.06874408846 -0.8716074842
0.0186518898 0.01803363101 -0.06916202291 0.9109677171 -0.04495980866 -0.4100200411
0.01708104324 -0.002861134052 -0.06186227417 0.7983988737 -0.444489107 -0.4061879765
0.003579893947 0.003126713395 -0.07692055893 -0.1402467302 0.4254259111 0.8940602043
0.006226760387 0.05392369397 -0.04471814028 -0.3533006102 0.05849383956 -0.9336793612
-0.001873603821 0.05429761505 -0.04364754868 -0.05844512987 -0.023097233 0.9980233888
-0.007378953457 0.03291684341 -0.07981465149 0.3582682136 0.0009051196414 0.9336182667
-0.002860283732 0.024186075 -0.08095933533 0.1670551545 0.01015650438 0.9858952382
-0.00312102735 0.05433714867 -0.04380171776 -0.2035875007 -0.01616945693 0.9789232239
-0.01831112544 0.02990505282 -0.07001290385 0.9075534924 -0.002992696565 0.4199258294
-0.008377075672 0.05418133068 -0.04572090054 0.4732757137 0.07315407194 -0.8778716196
0.004095514297 0.01095266342 -0.07958402252 -0.2362486422 0.2290503321 0.944310608
0.01636672401 0.008125204086 -0.07063202667 0.8093318132 -0.2303657818 -0.5402903134
-0.01510975361 0.05721922684 -0.05270553589 0.712652346 -0.2825021114 -0.6421208538
-0.01684236526 8.021458983e-05 -0.06507118225 0.8296751902 0.3469643236 0.4373269223
0.01570233727 -0.003152133465 -0.06414648438 0.753286671 -0.4455207079 -0.4838083195
-0.01972429371 0.03048857498 -0.0664082489 0.9308088228 0.00313199432 0.3654929902
-0.01616975594 0.0578433075 -0.05521668625 0.4245784533 -0.5511125215 -0.7183370558
0.006132173697 0.04497264226 -0.08021401723 -0.2813995999 -0.01681936297 0.9594432626
-0.01895337868 0.06060000229 -0.0663493576 0.7460145556 -0.6623946098 0.06852491246
-0.004407011032 -0.0106667757 -0.06600923157 -0.2110241742 -0.7452822759 -0.6324738154
-0.02035196209 0.05928780746 -0.06341496277 0.7460145556 -0.6623946098 0.06852491246
0.01881222439 0.05944618607 -0.06888523102 0.8903953227 0.1479268707 -0.4304809059
0.01690300179 0.05851580811 -0.06286091232 -0.4520436777 -0.8888651546 -0.07466759959
-0.004178834438 0.003049020052 -0.07676306915 0.1966425362 0.421951664 0.8850358785
0.0006260551612 0.05233155696 -0.04357637024 -0.0478723474 0.02865328621 -0.9984424007
0.01546752024 0.05997458363 -0.07223005486 0.7189580396 0.4022061009 -0.5668594091
0.01512994703 0.05676534271 -0.07450281016 0.7422676498 0.1299439056 -0.6573836912
0.01401675797 0.05549232864 -0.0508519783 -0.7035295316 0.2431325892 -0.6677819571
0.01227741528 0.05496453667 -0.0487809391 -0.6910517068 0.2497130719 -0.6783000223
-0.01168218184 0.01831272602 -0.07743244553 0.5714048632 0.04803004852 0.8192616168
0.01283595053 0.05384638723 -0.07665002441 -0.6464253246 -0.007406481126 0.7629413108
-0.01168450642 0.05482209396 -0.04822307078 0.6899586611 0.03182921179 -0.7231486343
-0.01401675797 0.05549232864 -0.0508519783 0.6599627775 0.5052590252 -0.5560237852
-0.01466278362 0.06060000229 -0.07125984955 -0.5598369435 0.6708805164 -0.4863146403
0.003278352165 0.03296044807 -0.08090796967 -0.1148835512 0.0004470028095 0.9933788652
-0.01690300179 0.05851580811 -0.06286091232 0.5685732957 -0.8051127545 -0.1688723188
-0.01699478912 0.03007787132 -0.07217233276 0.801050666 -0.0002005276483 0.5985965171
-0.007719167948 0.006502667904 -0.07706653595 0.3659261345 0.3388564773 0.8667608389
-0.01881222439 0.05944618607 -0.06888523102 0.8523761077 -0.2674858544 0.4493398366
-0.007409973303 0.02987204107 -0.07980718486 0.3574972504 -0.01331272391 0.9338193012
0.02048588753 0.05664460945 -0.06255072403 -0.4520436777 -0.8888651546 -0.07466759959
-0.02048588753 0.05664460945 -0.06255072403 0.5685732957 -0.8051127545 -0.1688723188
0.01750946617 0.05947999573 -0.07138553619 0.7637238615 0.2844030845 -0.5795176864
0.01506479883 0.05969204903 -0.07456747055 0.6512898614 0.3857158533 -0.6534866463
0.01313084602 0.06020222346 -0.07585209656 0.5916400617 0.5339249231 -0.6040581213
0.00344764477 0.02104758549 -0.08087950897 0.1758330492 -0.02529520621 -0.9840949605
0.01296698666 0.05952516174 -0.07168782806 0.6004991225 0.5708186694 -0.5599704015
0.009417790095 0.06060000229 -0.07598045095 0.3048791746 0.8493702619 -0.4308350578
0.003751943231 0.05243157959 -0.04395871544 -0.1820216283 0.03882531715 -0.9825277205
-0.01839966679 0.02667826557 -0.06984614563 0.9116503979 -0.01129338487 0.4108114062
-0.003128614187 0.05239041519 -0.04380080795 0.2020198043 -0.001991630955 -0.9793794117
0.009447886785 0.05097620816 -0.07883897739 -0.4432444723 0.003465011764 0.8963940715
-0.01158623711 0.02405222861 -0.07759046936 0.5474922257 -0.0003652921308 0.8368106891
-0.004375272274 0.05247274399 -0.04411662292 0.2189571612 0.02389267824 -0.9754419006
0.01617790937 -0.0001891509369 -0.06594612885 0.7614081644 -0.40788801 -0.5038700015
-0.0110828414 0.06060000229 -0.07594950867 0.5932986041 -0.5592536842 0.5789922997
0.00616756171 0.02403768873 -0.08022135448 -0.2781917484 -0.0005511499915 0.9605254017
-0.01296698666 0.05952516174 -0.07168782806 -0.5939605506 0.6969800785 -0.401783069
-0.01447099733 0.05984769154 -0.07518826103 0.6289964356 -0.4610419456 0.6259423363
0.01944438108 0.03897869364 -0.06732003021 0.8999733436 -0.01124509489 -0.4357998723
0.009260271072 0.009457222939 -0.07730923716 -0.4536924591 0.2530529742 0.8544748942
-0.01668470319 0.0593926061 -0.07259469096 0.7327433679 -0.3659290253 0.5737448084
0.01888376045 0.05703428078 -0.06874466705 0.8884349209 0.1243632271 -0.4418338818
0.006746944237 0.05109141769 -0.08002866821 -0.359858206 0.01628212048 0.9328649228
0.01954999733 0.03574584389 -0.06698721313 0.9219134792 -0.007517956089 -0.3873228849
-0.00238409549 0.003248235226 -0.07716672516 0.08090866575 0.4331113668 0.8977016942
0.01757276662 0.0571009229 -0.07129386648 0.7732470053 0.1782193496 -0.6085449303
0.003519161034 0.03003521042 -0.08086282806 -0.1691197804 -0.008756428443 0.9855566066
0.01417752171 -0.0002305942774 -0.06870950699 0.6698489567 -0.4376095041 -0.5998335579
0.01196722285 0.05942682139 -0.07732959239 -0.6569245835 -0.2931917503 0.6946140577
0.009331478437 0.05963040543 -0.07888925298 0.3627051209 0.3572225841 -0.8607188976
0.00655236268 0.05993476868 -0.08009110069 0.2901344185 0.6473485539 -0.7048133575
-0.01408157008 0.04202410998 -0.07554094587 0.704666975 -0.002773438299 0.7095327775
0.01815373898 0.03564084816 -0.07030932999 0.875175685 0.01265630724 -0.4836396782
-0.008563084507 0.01247681046 -0.07841782837 0.4123788494 0.1846156465 0.8921102777
0.0006065583229 -0.002277415196 -0.07418437449 -0.02994774208 0.5601877964 0.8278241151
0.00384545154 0.0538410369 -0.08078073459 -0.1718678576 -0.009698416948 0.9850722716
0.01143876266 0.01538094163 -0.0773008976 -0.5675122528 0.1106962485 0.8158898108
0.004973359108 0.05967674255 -0.07692144012 0.3116706933 0.6335763087 -0.7081260057
0.00553550148 -0.005239104748 -0.07107395172 -0.266362865 0.6198018976 0.7381710045
0.003595526218 0.05996603165 -0.080668013 0.2554114786 0.5471608738 -0.7971072417
0.0005443091989 0.06011633873 -0.08081883113 0.2232945924 0.5097900455 -0.8308150423
0.006157549434 0.04202650325 -0.08020829688 -0.282882827 -0.0002370304774 0.9591544453
-0.01106970453 0.00619742775 -0.07504333115 0.529881516 0.3209068278 0.7850123482
-0.01925728607 0.04471981812 -0.06790416336 0.8930724857 0.002128967065 0.4499077715
-0.002722557882 0.06009415944 -0.08072863261 -0.2002573837 0.4412340584 -0.8747625312
-0.004973359108 0.05967674255 -0.07692144012 -0.3086204373 0.5979913725 -0.73970247
0.003135336399 -0.01013567162 -0.06702402496 -0.1440219496 0.7409243029 0.6559640657
-0.005636352857 0.05982024256 -0.08038501485 0.4000366675 -0.3749500729 0.8362912815
-0.00877019453 0.05970686626 -0.07919066811 0.4214712705 -0.3109684276 0.8518571507
-0.002367765009 0.005742068291 -0.07821594048 0.1083857498 0.3633225613 0.9253373686
-0.01136197433 0.05944694595 -0.07771178741 0.5435338604 -0.2145153427 0.811513469
-0.01707604675 0.05705512466 -0.0720206955 0.7847982404 -0.1905562773 0.5897287741
-0.002778329392 0.04521177483 -0.08096408844 0.1622704599 0.01195829851 0.9866738554
-0.01888376045 0.05703428078 -0.06874466705 0.921029509 -0.06561463192 0.3839262477
0.009547662735 0.005946746945 -0.07590693474 -0.4909450717 0.3271272755 0.8074408227
0.01633063698 0.05698771667 -0.07311579132 0.7596467817 0.1469698169 -0.6335113575
0.01365018058 0.05686816788 -0.07599451447 -0.6685632464 -0.1926009883 0.7182813132
0.01219302273 0.05746244812 -0.0771538868 -0.6379638282 -0.2352406959 0.7332557323
-0.01202504063 0.01200349172 -0.07624522909 0.5744466721 0.1972138097 0.7944291876
0.0006175143719 -0.006864977678 -0.07060803986 -0.02963356468 0.6692811195 0.7424180998
-0.01162496758 0.05736752955 -0.07752470398 0.5386516479 -0.1498119396 0.8291023971
-0.01453297663 0.0569314518 -0.07513433329 0.7287289948 -0.2106364547 0.6516028976
0.01897378095 0.05399924978 -0.06856778463 0.8715131927 -0.002041222718 -0.4903678093
0.009226938605 0.05692766285 -0.07894978237 -0.4073599016 -0.1856453381 0.8942000442
0.006579118331 0.05708560753 -0.08008587901 -0.2907446163 -0.1328995176 0.9475258763
0.003826728953 0.05727015898 -0.08078216722 -0.2493701277 -0.1705756248 0.953267274
0.00756809473 0.0153504405 -0.07938748932 -0.3637304159 0.1312744303 0.9222077903
0.000545865443 0.05736395603 -0.08113611942 -0.02192643147 -0.03445349148 0.9991657463
0.003555179954 0.005629277468 -0.07798364639 -0.138083817 0.3669097501 0.9199511371
-0.002731206907 0.05731749005 -0.08096072557 0.1947356266 -0.1386687348 0.9710041286
-0.005474507729 0.05717534256 -0.08042414983 0.2613399271 -0.1307240759 0.9563538354
-0.01897378095 0.05399924978 -0.06856778463 0.8760977876 0.0002196160513 0.482133403
-0.01598984337 0.01855264473 -0.07349013519 0.7731648255 0.03852272329 0.6330340847
-0.0159265693 0.02117413775 -0.07363735453 0.7688635911 -0.002317965733 0.6394086372
-0.007133303642 0.05702912521 -0.07987377167 0.3604396125 -0.1689726697 0.9173502726
-0.008806369305 0.05684384028 -0.07917584101 0.4399178551 -0.1740721706 0.8810057663
-0.0169174366 0.03322998492 -0.07227534231 0.7959529874 0.006220524634 0.6053264796
0.01765205956 0.05411209488 -0.07118237686 0.8361946574 -0.007118464088 -0.5483865629
0.01640407054 0.05401739756 -0.07300954946 0.7922611928 -0.005970825097 -0.610152892
-0.01279270363 0.05617998886 -0.07668048859 -0.5635811434 0.1144650786 -0.8180917067
-0.01690340729 0.05405467682 -0.07227652588 0.8120177708 0.02160331658 0.5832327465
-0.01551345348 -0.000458514601 -0.06682107544 0.7518802863 0.4145950088 0.5126275585
0.01459553432 0.05399694538 -0.07507632446 0.7315857217 -0.003144006145 -0.6817422145
0.01167468484 0.05410062917 -0.07756760661 -0.5574311361 -0.00721311138 0.830191845
0.00956684494 0.05410340227 -0.07877002171 -0.4889543685 -2.072466547e-05 0.8723093632
-0.01459553432 0.05399694538 -0.07507632446 0.7058146108 0.0008837872628 0.7083960433
-0.005081635535 0.01520187593 -0.08012357235 0.2403889576 0.1232620777 0.9628185755
0.01182382822 0.04527779579 -0.07745532608 0.5969172695 -0.004241170233 -0.802291584
0.01440451908 -0.003981103897 -0.06530354309 0.6925414723 -0.5195138253 -0.5004914529
0.01906525612 0.05094007301 -0.06837853622 0.8740939209 -0.007328888139 -0.4857016624
0.01773167292 0.05110221481 -0.07107386017 0.8334729292 -0.002296716542 -0.5525555188
-0.008260450244 0.009475064278 -0.07781263351 0.3982992052 0.2505313267 0.8823784888
0.01983243752 0.02716700935 -0.0660717926 0.9349044187 -0.001078598023 -0.3548979635
-0.007257334709 0.04485459137 -0.07984392548 0.3506934998 -0.01685890722 0.936338532
0.006497748947 0.05388652344 -0.08012060547 -0.3604619876 -0.0002427361675 0.9327738721
0.0005485221677 0.05394181527 -0.08114031813 -0.02775872139 -0.01070168529 0.9995573657
-0.002744529234 0.05389206399 -0.08096274991 0.1607451957 -0.01184383661 0.9869248733
-0.005501369874 0.05373973147 -0.08041903687 0.2814337723 -0.008135512874 0.9595461663
-0.02013284874 0.01886215973 -0.0647849884 0.9505976053 0.03696575001 0.3082170116
-0.0198335832 0.02716144689 -0.06605691274 0.9348546934 0.003217335196 0.355015987
0.006676115036 -0.001237151146 -0.07355587006 -0.3373305179 0.5226626698 0.7829635083
0.0005870522261 0.008939120928 -0.07943273544 0.01169682127 0.2831572221 0.9590021751
-0.008842750072 0.0539645052 -0.07916093445 0.4601434306 -0.00125819913 0.8878437026
-0.01723033371 0.05107184677 -0.07180327301 0.8337658277 0.01655854352 0.5518698753
-0.01906525612 0.05094007301 -0.06837853622 0.877848104 0.0005070881183 0.4789388783
0.0005552533666 0.04527135213 -0.08115096029 -0.05398305077 0.0142936259 0.9984395437
0.0005575287077 0.04234048589 -0.08115455712 -0.05578798896 0.01046378958 0.9983878051
-0.00893396616 0.006152295351 -0.07633572769 0.4169716194 0.3342787499 0.8452173602
0 -0.004419020653 -0.07266876221 0.00124255246 0.615656153 0.7880139322
0.01465870428 0.0510408446 -0.07501491165 0.7321887864 -0.00307523779 -0.6810947981
0.01915949694 0.04784761937 -0.06816092173 0.8772169297 -0.004062630461 -0.4800770285
0.01289029169 0.05091415215 -0.07661174011 -0.6384195334 -0.02134880607 0.7693924407
0.01172405338 0.05118014526 -0.07753043747 -0.556605917 -0.01006515652 0.8307156829
-0.007191943645 0.05127319082 -0.07985965983 0.3449924111 0.01271791845 0.9385193077
-0.002755716821 0.05101820819 -0.08096342087 0.1615602441 -0.0122730528 0.986786532
-0.01879767036 0.01437175322 -0.06825686264 0.9183550392 0.06379043756 0.3905826443
-0.008879358768 0.05106576602 -0.07914642207 0.4606062895 0.0009747260599 0.8876040198
-0.01104083843 0.05094850082 -0.07794052429 0.5417563804 -0.005231536832 0.8405192772
-0.01289029169 0.05091415215 -0.07661174011 0.5787459855 -0.001165097234 0.8155070366
-0.01412318563 0.01810055113 -0.07544778061 0.7048664203 0.05363459698 0.7073094511
0 -0.009688855171 -0.06787715149 0.0005210805494 0.727350131 0.6862663589
-0.01915949694 0.04784761937 -0.06816092173 0.8843323016 0.00600280128 0.466819394
0.0006440109412 -0.01460405827 -0.06124708176 0 0 1
0.0130001173 0.04498796272 -0.07653436661 -0.645494902 -0.004688747105 0.7637501863
0.01781322002 0.04806624794 -0.07094474411 0.8375782576 -0.004248308819 -0.546300846
0.01655246035 0.04801519267 -0.07279486593 0.801674866 -0.002359525221 -0.5977556707
0.003861169855 0.05096400579 -0.08077850469 -0.2218002525 -0.01395111622 0.974992315
0.0005507508318 0.05107106972 -0.08114384206 -0.02207679254 -0.01510291571 0.9996421946
-0.005523915172 0.05085736752 -0.08041435432 0.2823227307 -0.008847929193 0.9592786821
0.01906088638 0.009385238647 -0.0660017395 0.8824735119 -0.1833656111 -0.4331484197
-0.01705703697 0.04803437042 -0.07205069122 0.8377458902 0.00494882661 0.5460378491
0.0005625923077 0.03581677119 -0.08115880585 -0.05553474212 -0.002260363795 0.9984541968
0.01472232842 0.0480654459 -0.07495226097 0.7288815682 -0.00256179202 -0.6846350099
0.01745688629 0.01345915318 -0.07071208954 0.834928844 -0.121090342 -0.5368714506
0.01294502481 0.04796074549 -0.07657317861 -0.6422909794 -0.01167002565 0.766372043
0.01177377828 0.04823860677 -0.07749300385 0.595899013 -0.003399595547 -0.8030521833
0.000552994993 0.04818035634 -0.08114739143 -0.05742191007 -0.001891285689 0.9983482094
-0.0113161375 0.04808824921 -0.07777173767 0.5458545318 -0.01134994434 0.8378030848
-0.01294502481 0.04796074549 -0.07657317861 0.5827010251 0.006274279744 0.812662383
0.01925721931 0.04472009468 -0.06790504837 0.8850599857 -0.01799951312 -0.4651288415
0.01227064419 0.009202013874 -0.07526213531 -0.6182018858 0.2365933669 0.7495665462
0.0178969593 0.04499892298 -0.07079295349 0.8492719397 -0.02676194426 -0.5272769394
-0.01570233727 -0.003152135134 -0.06414648438 0.7528024174 0.4673768791 0.4635163139
0.009487181505 0.04805493863 -0.0788220075 -0.4708704487 0.008453368127 0.8821618679
-0.002766984542 0.04812423791 -0.08096392483 0.1643241958 -0.0004386102522 0.9864062887
-0.005546632051 0.04795457776 -0.08040912628 -0.2848391777 0.001519989067 -0.9585741142
0.0005691842437 0.02734447193 -0.08115943654 -0.05393571021 0.01412550371 0.9984444949
-0.007227493445 0.04778372065 -0.07985110219 0.3470693681 -0.01516070304 0.9377169119
-0.0173893856 0.04499089813 -0.07154690094 0.8397529909 0.01135195714 0.5428499308
0.01207995415 0.0301262544 -0.07726250712 -0.6078368832 0.007954656584 0.7940220695
0.003346650791 0.01812519417 -0.08079150543 -0.1498846862 0.07739661905 0.9856694903
-0.008357601802 -0.002561562339 -0.07183428446 0.4100291227 0.5493377921 0.7280824876
0.01662746048 0.04498153687 -0.07268635559 0.8178191234 0.001687734307 -0.5754728776
-0.008661918163 -0.005428800344 -0.0693549881 0.4413881898 0.5873939803 0.6783397216
0.01478644053 0.04506727155 -0.07488912837 0.7326887081 -0.002851188119 -0.6805579532
0.01491638597 0.03900279935 -0.07475664012 0.7327495404 0.0134506555 -0.6803654834
0.0196355629 0.03313387299 -0.06671486664 0.9258500508 -0.004840574447 -0.3778600963
-0.01478644053 0.04506727155 -0.07488912837 0.7084537129 0.01515848399 0.7055944707
-0.0186518898 0.01803363101 -0.06916202291 0.9114174651 0.0410091645 0.4094343083
0.01842751312 0.04221073278 -0.06966056569 0.8834697732 -0.00498413484 -0.4684616508
0.0095267743 0.04511207241 -0.07880466546 -0.4685546851 0.01242421413 0.8833471266
-0.008953284899 0.04521115049 -0.07911744054 0.4566072609 0.003035585902 0.8896631916
-0.0180674324 0.03878619766 -0.07047188059 0.8637670943 -0.01424187885 0.5036899599
-0.01113412361 0.04505686493 -0.07788148346 0.5440742656 -0.0002702169908 0.8390370198
-0.0130001173 0.04498796272 -0.07653436661 0.5810432337 0.008061893559 0.8138327632
-0.01931930161 0.0428177948 -0.06771018219 0.8913392929 0.002950139907 0.4533272125
-0.002404123336 0.0005384915248 -0.07575003433 0.1531197819 0.4897601741 0.8583060668
-0.01417752171 -0.0002305938005 -0.06870950699 0.6907135765 0.42524836 0.5848748478
0.01936055183 0.04154468536 -0.067584198 0.8926591352 -0.01496431306 -0.4504838929
0.00653083744 0.005953408909 -0.07729283295 -0.3308374642 0.3435257347 0.8789406362
-0.005698034763 -0.01141774082 -0.06457405853 -0.3327574085 -0.7296547229 -0.5973914064
0.01523729801 0.02403201294 -0.07441786194 0.7412849376 0.01140060752 -0.6710936354
0.0167030805 0.0419227829 -0.07257695007 0.8149987394 0.01122170679 -0.5793540611
0.003334685504 0.04518941784 -0.08089393044 -0.1649504668 0.007277796277 0.9862750008
0.01009561634 0.008179369926 -0.07644347382 -0.4820567938 0.2906334027 0.8265309872
-0.005569494367 0.04503321934 -0.080403862 -0.2847095953 0.001828434324 -0.9586120713
-0.01670375951 0.04191945775 -0.0725667394 0.8321032326 -0.02323306665 0.5541339503
0.009570936203 0.02429483147 -0.07879712067 -0.4841091207 0.01130562133 0.8749345931
-0.01798181725 0.04190637207 -0.07063313293 0.8879415339 0.008374995769 0.4598800841
-0.02031210899 0.01562619495 -0.06336026382 0.9564969495 0.05808672139 0.2859012387
-0.01936121368 0.04154188156 -0.06757544708 0.8936390674 0.008844330017 0.4486992255
0.02031210899 0.015626194 -0.06336026382 0.956497367 -0.05808968894 -0.2858992392
0.01485101843 0.04204816437 -0.07482522011 0.7257610192 0.01477673466 -0.6877881877
-0.01678006172 0.03883710861 -0.07245482635 0.8204888362 -0.01464355329 0.5714749654
0.01305563895 0.04199203746 -0.07649524689 -0.6357987541 0.001224850735 0.7718539007
-0.01925715828 0.006463212013 -0.06401602173 0.8882173526 0.2347561934 0.3949170346
0.00682455225 0.003191119671 -0.07597245483 -0.3563218048 0.4025127931 0.8432189649
-0.01141226711 0.04215098953 -0.07770687866 0.5462789101 0.01417856926 0.8374833255
0.009428400993 0.002858550986 -0.07456630198 -0.4811541116 0.4005265222 0.7797879365
-0.01944558016 0.03897346497 -0.06730422719 0.9014636821 0.01201157755 0.4326880538
0.0180674324 0.03878619766 -0.07047188059 0.8599930277 0.008648993342 -0.5102324835
-0.00559253033 0.04208966891 -0.0803985583 -0.2849751771 -0.002340030427 -0.9585320405
0.01322473955 0.03286739349 -0.07637611389 -0.6438638027 -0.002764474242 0.7651351261
0.003348425388 0.04225338173 -0.08089206696 -0.1672054454 0.008087052466 0.9858889078
-0.002789764431 0.04227723863 -0.080963974 0.1636085904 0.01129708724 0.9864606454
-0.007287403107 0.04190315755 -0.07983668518 0.3483979991 -0.00130625009 0.9373457889
0.01645319748 0.006370975494 -0.06973243713 0.8019081742 -0.2496728744 -0.5427768749
-0.008880366898 0.04191502075 -0.07915578003 0.4418524955 -0.01871492769 0.8968924817
0.01684063148 0.03635705948 -0.07237866592 0.7863738221 -0.004450312709 -0.6177349
0.01677926731 0.03884112549 -0.07246672821 0.8193282267 0.02120137222 -0.5729325953
0.000580008169 0.01466398668 -0.0806919899 -0.01554641564 0.153017287 0.9881012189
0.01513780737 0.006529566288 -0.07151722336 0.7269521065 -0.2817720876 -0.6262149196
-0.01446517754 0.0389958415 -0.07518144417 0.7198830342 -0.0179013734 0.6938645097
0.01311155224 0.03897496796 -0.07645585632 -0.6377332147 -0.006968005652 0.770225807
0.01192506266 0.03928910637 -0.07737911224 -0.6004252067 0.01206603593 0.7995898836
-0.005686430454 0.03009119797 -0.08037693659 0.290634466 -0.002549421292 0.9568307623
0.00975297296 0.03898662138 -0.07868856812 -0.4715718933 0.001287772793 0.8818266786
-0.009146351242 0.03901203079 -0.07902380981 0.4230770034 -0.001862758975 0.9060918162
-0.005710381746 0.02703073883 -0.08037142181 0.2916824154 -8.228805899e-05 0.9565152178
-0.0112287674 0.03907946091 -0.07782158051 0.5426120331 0.01402897664 0.8398662806
-0.01955187988 0.03573738098 -0.06696250916 0.9225946181 0.007715675694 0.3856937114
0.00618309927 0.03906006432 -0.08020258458 -0.2833559105 0.01593564688 0.9588824136
-0.01532395124 0.002785070479 -0.06929774094 0.729285277 0.3625261525 0.5802738779
-0.002662325293 0.03888437462 -0.08098551464 0.1295862078 -0.01364191118 0.9914743128
-0.005615725279 0.03912583256 -0.08039321899 -0.2862282412 -0.001773542503 -0.9581598241
-0.002999869296 0.02995966285 -0.08093682425 0.1656192023 -0.01013786603 0.9861376697
-0.007317679405 0.03893133545 -0.07982939911 0.3534805221 0.008691604657 0.9354015055
-0.01684098721 0.03635522842 -0.07237335205 0.7935212152 0.008124179587 0.6084883554
0.01120344639 0.01232685375 -0.07695451355 -0.5508208585 0.1742682639 0.8162272686
-0.009140127373 0.02113980293 -0.07902852936 0.4584495203 0.02871139488 0.8882565469
-0.01815373898 0.03564084816 -0.07030932999 0.8951121422 -0.005494294128 0.4458072069
0.01498228598 0.03593440723 -0.0746868515 0.7436536187 0.0208870804 -0.6682387487
0.01316793251 0.03593268458 -0.07641613515 -0.642313548 -0.01041125778 0.7663712623
0.01197628148 0.03625916417 -0.07734055328 -0.6034752645 0.006648312451 0.7973540023
-0.01150985012 0.03612396317 -0.07764104004 0.5477527497 -0.000913227776 0.8366397619
-0.01450088072 0.02994273353 -0.07513696003 0.7053735183 -0.01555863603 0.7086650326
-0.01236168003 0.01473448372 -0.07656370544 0.5812845961 0.1481261072 0.8001042899
-0.01420470592 0.03593366895 -0.07542797307 0.6990796544 -0.001430121117 0.7150423705
-0.01963772774 0.03312389946 -0.06668652725 0.9272784967 0.006569179468 0.3743146209
0.01822335815 0.03310368156 -0.0701782074 0.8797197067 -0.0110278251 -0.4753647281
0.0169174366 0.03322998492 -0.07227534231 0.7925642405 -0.001681044878 -0.609786109
-0.002975004264 0.03599376406 -0.08093895176 0.1637976114 0.001734831117 0.9864924393
0.00620885796 0.03606938977 -0.08019682397 -0.2877837915 0.01700544764 0.9575444137
0.003489982319 0.03607020187 -0.08086661987 -0.1686545969 0.000398205904 0.9856751333
0.01752399445 0.01190336227 -0.07017242432 0.8388470837 -0.1511790174 -0.5229536068
-0.009143440485 0.03018585968 -0.07902888489 0.4272300429 0.006906446042 0.9041165807
-0.005639109691 0.03613779132 -0.08038783518 0.288112882 0.008533107156 0.9575584334
-0.01462058942 0.0240669117 -0.07502811432 0.7091937937 0.002508894335 0.7050091265
-0.01407247734 -0.008527390242 -0.06045106125 0.6304635658 0.6445810187 0.4324708113
-0.007348203341 0.03593518957 -0.07982204946 0.3520475505 0.0112227909 0.9359148311
-0.00895518856 0.03592577744 -0.07912120972 -0.4206542304 0.0006305306303 -0.9072208225
-0.01822335815 0.03310368156 -0.0701782074 0.9019549817 0.008297776069 0.431750342
0.01972257519 0.03049668026 -0.06643064117 0.9302349934 -0.003535264644 -0.3669473517
0.01238430166 -0.003148663282 -0.06837703705 0.6110726629 -0.5071090838 -0.6078080107
0.01668119431 0.002424423218 -0.06710132599 0.8206946831 -0.3054564259 -0.4828629299
-0.01083586502 0.003770470262 -0.0741475029 0.5202561198 0.370426335 0.7694919754
0.01491897545 0.03313790855 -0.0747584137 0.7388134462 -0.008411260754 -0.673857509
-0.01443490805 0.03306061854 -0.07522061375 0.7039349837 0.01306255483 0.710144287
-0.009182424386 0.02710575453 -0.0790106341 -0.4288312324 0.0005791528282 -0.9033844357
-0.01847123623 0.02407297897 -0.06971021271 0.9056819596 0.02863529133 0.4229896076
0.01737651539 0.01564882088 -0.07123374176 0.832295216 -0.09308603546 -0.5464610356
0.01573491065 0.003350239515 -0.06905628459 0.7416708433 -0.3567956694 -0.5679975444
0.01831112544 0.02990505282 -0.07001290385 0.8873780942 0.0009050719594 -0.4610415369
-0.006877242088 -0.008541647911 -0.06737618256 -0.3466143364 -0.6736329927 -0.6527458104
0.01202788734 0.03320633888 -0.07730170441 -0.606363331 0.007557982095 0.7951518017
0.009835746646 0.03293906474 -0.07864636993 -0.4764205407 -0.01024767768 0.8791578092
-0.009223756599 0.03297385941 -0.07898710327 0.4263482446 -0.00789890407 0.9045246164
0.01697924614 0.03071127129 -0.07219303131 0.7968612613 -0.005280017957 -0.6041392652
0.01523217678 0.03004355431 -0.07441769409 0.742597786 -0.009828659661 -0.6696655327
0.0005649248229 0.03281281471 -0.08115973918 -0.05473016659 -0.0006505681942 0.9985009693
-0.002684474051 0.03289884329 -0.08098570347 0.130956658 0.001057951597 0.9913875299
-0.005662666917 0.03312765694 -0.08038241005 0.2905586463 0.008482027009 0.9568195902
-0.00910688591 0.01789374701 -0.07890918605 0.4244181394 0.08205945725 0.9017402555
0.01401644421 0.002899681091 -0.07094728851 0.6646520605 -0.3601851843 -0.6546023766
0.0009010536373 0.0001607737541 -0.07566569901 -0.04467848622 0.4969711367 0.8666161331
0.01701033211 0.02944447136 -0.07215163422 0.7943239708 0.004384999346 -0.6074785603
0.02013284874 0.01886215973 -0.0647849884 0.9505815637 -0.03707715476 -0.3082531027
0.01328205395 0.02977469889 -0.07633573659 -0.6626093848 -0.01473644505 0.7488201656
-0.01160901566 0.02999924622 -0.07757413483 0.5517360566 -0.01124788153 0.8339429291
-0.005734564781 0.02394155375 -0.08036547724 0.2860516283 -0.001363481249 0.9582132366
-0.007047674179 -0.01302925968 -0.06148947906 0.2792882403 0.7994915557 0.5318000857
0.01707288361 0.02689550082 -0.0720683314 0.798127141 0.0005627132937 -0.6024887968
0.006260983679 0.03001743465 -0.08018516964 -0.2885035891 -0.01761767557 0.957316717
-0.01707288361 0.02689550082 -0.0720683314 0.803281171 -0.009216173391 0.5955286916
0.01505221539 0.02687721825 -0.07461943665 0.7412133157 0.01320348487 -0.6711396938
0.0005672822595 0.02978549004 -0.08115966288 -0.05520120597 -0.01308511241 0.9983895065
-0.01994396591 0.02380033493 -0.0657023468 0.9406562061 0.009782506902 0.3392199944
0.01847123623 0.02407297897 -0.06971021271 0.8927939889 -0.02742464325 -0.4496296057
0.01334010792 0.02665501404 -0.07628990173 -0.645272146 -0.01511764987 0.7638031908
0.01213244057 0.02702132511 -0.07722299194 -0.6099849393 0.0002151230116 0.7924129779
0.009621690392 0.02716421628 -0.07876638412 -0.4792433365 0.01318275054 0.877583067
-0.01946351624 0.004029569149 -0.06168434525 0.893488865 0.2562977113 0.3687670422
-0.01153621507 0.02717811441 -0.07762233925 0.5544913833 0.01486668226 0.8320566613
0.020036026 0.02106864548 -0.06537930679 0.9472419678 -0.03241000391 -0.3188765374
0.01715165424 0.0236855793 -0.0719634285 0.8015734621 -0.0005129733731 -0.5978960794
0.01344717534 0.02095646477 -0.07618437703 -0.6437191483 0.02602439545 0.7648191871
0.006287366947 0.02695424525 -0.08017926915 -0.2857495112 -0.01862593327 0.9581233175
-0.01373892689 0.00977901268 -0.07423499298 0.6874689859 0.2140562796 0.6939497839
0.003418686748 0.02723483706 -0.08088404465 -0.1677072297 0.008362501944 0.9858013764
-0.002848276158 0.02726542505 -0.08096087901 0.165318586 0.01240208319 0.9861622349
-0.007441238403 0.02680312252 -0.07979965973 0.3605516209 -0.01544536288 0.9326113711
-0.01715165424 0.0236855793 -0.0719634285 0.8038114065 -0.01012473205 0.5947980435
0.001834445357 -0.004500234604 -0.07251083374 -0.1068983177 0.6016479571 0.7915759505
-0.02003603745 0.0210685873 -0.06537916183 0.9472828423 0.03226320574 0.3187699834
0.01157369232 0.0006357946396 -0.07186416626 -0.539099051 0.4468566326 0.7139267211
0.01854400635 0.02144346237 -0.06956455994 0.904553554 -0.04094917419 -0.4243890115
0.01338717222 0.02413670921 -0.07624861908 -0.6415706075 0.01122997854 0.766981775
0.01170980949 0.02376927338 -0.07750805664 -0.5993508654 -0.004378132542 0.8004744669
0.01379666042 0.008174659729 -0.0736171875 -0.6442836271 0.2650336661 0.7173951238
-0.01854400635 0.02144346237 -0.06956455994 0.9035856618 0.04344738441 0.4261986351
-0.01829910278 -0.0001445560306 -0.06167739487 0.8581764604 0.3235997473 0.3985177116
0.003715760827 -0.00727396512 -0.06982042694 -0.197343485 0.6635750363 0.7216118903
0.01721546936 0.02109338188 -0.0718752861 0.8081534474 -0.01760902102 -0.5887086952
0.0159265693 0.02117413775 -0.07363735453 0.7680846088 -0.004316221421 -0.6403338223
0.000571581112 0.02426833555 -0.08115915087 -0.05808825867 0.00905914019 0.9982703472
-0.007466454744 0.02432797527 -0.07979359055 0.3715721489 -0.004151222506 0.9283948004
0.0005767304765 0.01797908084 -0.08103349219 0.0379212517 -0.08142290937 -0.9959579753
-0.009221728563 0.02400035524 -0.07899222755 0.4265228525 0.001906174055 0.9044747773
-0.01686725934 0.01802206294 -0.07222806549 0.8139628027 0.05819267354 0.5779949554
-0.01721546936 0.02109338284 -0.0718752861 0.8073713453 0.01803645446 0.5897679179
0.00643660484 0.01204974597 -0.07917396981 -0.3116424193 0.2182160647 0.924803088
0.02021398735 0.01729403687 -0.06417961121 0.9535335982 -0.053911434 -0.2964240786
0.01467321396 0.02112210274 -0.07505272293 0.715226924 -0.01927571087 -0.6986264339
0.01615411758 -0.008017255783 -0.05714664459 0.7045996674 -0.6181687515 -0.3484346473
-0.01393759079 0.02102271996 -0.07573171539 0.6812277801 0.0189838847 0.7318253369
0.01829910278 -0.0001445540935 -0.06167739868 0.8625688021 -0.3239563 -0.3886224096
-0.02021398735 0.01729403687 -0.06417961121 0.9535337847 0.05390783062 0.2964241339
0.003526966274 0.008774688363 -0.07908639526 -0.1340681253 0.2943151439 0.9462580694
0.0172871685 0.01843581009 -0.07167888641 0.8154440812 -0.05348344064 -0.5763596725
0.009140117455 0.02113990631 -0.0790287796 0.4411269503 0.008553641501 -0.8974039497
-0.007498510838 0.02120426687 -0.07977716319 0.3655368908 0.01991005727 0.9305838872
-0.005184047604 0.0002975073457 -0.07500008545 0.2424146223 0.4835507963 0.841078937
0.006504592623 0.0209862502 -0.08010506984 -0.3488809317 0.0195226468 0.9369636929
-0.01615411758 -0.008017253876 -0.05714664841 0 0 1
-0.01163700771 0.02089690542 -0.07755169678 0.5689293327 0.003057870922 0.8223807292
0.01764370346 0.009427735329 -0.06909532547 0.8508828348 -0.1849210799 -0.4917342734
0.0160086422 0.01787360668 -0.07340827942 0.7720044441 -0.04853664255 -0.6337612584
0.0147310605 0.01851301765 -0.0749151001 0.7141633983 -0.05227882413 -0.6980240434
-0.002296741664 0.02111868954 -0.08104665947 -0.1200958293 -0.02824604299 -0.9923603946
0.01879767036 0.01437175369 -0.06825686264 0.9144067039 -0.07073840935 -0.3985680084
0.01482324791 0.01507831033 -0.0744195048 0.7181919148 -0.1209884206 -0.6852460694
0.01168218184 0.01831272602 -0.07743244553 -0.5789122011 0.07319256766 0.8120982154
0.00941998539 0.01799988365 -0.07876573486 -0.4849061909 0.06893725296 0.871844964
-0.01673390245 0.01537233758 -0.07210141754 0.8077284414 0.09560925363 0.5817504925
0.01609128952 0.01509585428 -0.07296909714 0.7858490577 -0.106292291 -0.609215239
0.006130037594 0.01834810562 -0.08014573364 -0.273033571 0.06109652792 0.9600624372
0.00303561759 -0.002438128471 -0.07386915588 -0.1325098752 0.542539431 0.8295131698
-0.0145174346 0.00608002007 -0.07198305511 0.692510642 0.2918542596 0.6597348724
-0.002307711701 0.01792948469 -0.08092055384 0.1067843843 0.07370310856 0.9915467448
-0.005200249513 0.01833354441 -0.08040202459 0.2414027694 0.07016443754 0.9678851454
-0.01432716045 0.01502511482 -0.07488556519 0.6918631773 0.1146750074 0.7128639327
0.0005832179983 0.01187557491 -0.08018662389 0.04921692594 -0.2111973416 -0.9762035531
0.01891102028 0.01200012493 -0.06737139893 0.9189462477 -0.1115016441 -0.3782924493
0.01317591317 0.01487504228 -0.0759110082 -0.6290572471 0.1271319656 0.7668927194
0.007541388512 0.01736306381 -0.07962644196 -0.3759605633 0.07196397217 0.9238370211
-0.01661553891 0.01258598455 -0.07171366882 0.8076214849 0.1434479599 0.5719879543
-0.01891102028 0.01200012493 -0.06737139893 0.910414609 0.08761769113 0.4043122308
0.01578600534 0.01165020498 -0.07256513977 0.7657342934 -0.1641683421 -0.6218518693
-0.01911707115 0.008472147942 -0.06546257782 0.8869736661 0.2214634594 0.4052550454
0.00569371748 0.01523250771 -0.07997895508 -0.2571427285 0.1210989731 0.9587557853
0.003597590256 0.01492260952 -0.08042166443 -0.1503874034 0.1276284746 0.9803543244
-0.00875702397 0.01507898966 -0.0787800471 0.4123804114 0.1434370502 0.8996489365
-0.01900470161 0.01029832935 -0.06654090118 0.8793503693 0.1824606524 0.4398306927
0.01491450691 0.01217641068 -0.07373859406 0.7164283294 -0.1567606435 -0.6798209687
0.01268130302 0.01202472172 -0.0757175293 -0.6242183226 0.1843378513 0.7591910447
-0.01408196672 0.01209651502 -0.07453018443 0.6872364724 0.1693070444 0.7064284505
-0.01721804365 0.008993558566 -0.0696075592 0.828698402 0.1920809823 0.5257032002
0.01925715828 0.006463212013 -0.06401602173 0.8934379188 -0.2381761898 -0.3808422086
0.01566110373 0.009420479774 -0.07200790405 0.7330053343 -0.2091853247 -0.6472593606
0.009404731035 0.01212137032 -0.07792403221 -0.4437782852 0.189491525 0.8758731618
-0.005655493577 0.01169516182 -0.07933592987 0.3061859977 0.2117368421 0.9281258775
-0.01629163551 0.009787231445 -0.0713601532 0.8120232149 0.1897887516 0.5519044557
0.01946351624 0.004029569626 -0.06168434906 0.9036519502 -0.2471374296 -0.3497659842
-0.002333769351 0.01181749892 -0.08006145096 0.08305422381 0.2189552067 0.9721937119
-0.00408313179 0.01238781071 -0.07990373993 0.1987936336 0.1971114464 0.9600146712
-0.01154198208 0.008882085991 -0.07570383453 0.5663312677 0.2581368206 0.7827095739
-0.01441361618 0.008614193916 -0.07313641739 0.6958282995 0.2299225899 0.6804105968
-0.01785129261 0.005773428202 -0.06698353958 0.872015623 0.2467443491 0.4227363002
-0.01005672741 0.009734930992 -0.07697124481 0.4994446521 0.235117572 0.8338313779
-0.01645319748 0.006370975494 -0.06973243713 0.8044752459 0.2430981948 0.5419620341
0.01807223511 0.002561206102 -0.06447723389 0.8682480496 -0.2816636137 -0.4084249417
0.0005957458417 0.003325815837 -0.07732381439 -0.01300088968 0.412259815 0.9109735571
0.01347836971 0.005585922082 -0.07282286072 -0.6448253852 0.3150532716 0.6963775259
-0.002427646339 -0.002380549192 -0.07398203659 0.09788807819 0.5582029226 0.8239098381
0.01197804976 0.006653657436 -0.07460852432 -0.6057304364 0.2915239798 0.7403407375
-0.002349175483 0.008874844074 -0.07929738235 0.07998250604 0.2806683114 0.9564664645
-0.00530245026 0.008537912369 -0.07858755112 0.2511755697 0.2907237632 0.9232499806
-0.01655682945 0.004480576992 -0.06857337952 0.8060497921 0.2893695476 0.5162838343
-0.01264098454 0.005496819973 -0.07357080841 0.6204536211 0.3304803505 0.7112102657
-0.01668119431 0.002424423933 -0.06710133362 0.8204285471 0.3063116843 0.4827733952
0.01143239117 0.004402532101 -0.07407234192 -0.5540250605 0.3536800358 0.7536356312
-0.001932032824 -0.01497182751 -0.06054992294 -0.1098865292 -0.6521645154 -0.750070927
-0.005103114986 0.005575320816 -0.07760046844 0.2332446975 0.3591484691 0.903664367
-0.01401644421 0.002899680614 -0.07094728851 0.6824077753 0.3689053894 0.6310534382
-0.006178515275 0.00324048535 -0.07625352224 0.3232926573 0.4009690446 0.8571497436
-0.008408270121 0.002917847276 -0.07514448738 0.4193007623 0.4025237161 0.813733082
-0.01708104324 -0.002861133814 -0.06186227417 0.8035790485 0.4088198656 0.4325818192
0.01227101231 -0.0008299162984 -0.07027418137 0.625664308 -0.4748620017 -0.6189105372
0.009925884883 0.000152332286 -0.07271918233 -0.498512466 0.4623067311 0.7333197172
-0.01227101231 -0.0008299167007 -0.07027418137 0.5789870553 0.4738255143 0.6635234523
0 0.001575484037 -0.0764799118 0.01041415851 0.4643766554 0.8855765733
-0.009106969833 -0.000121386759 -0.07307495117 0.4422393188 0.4807035192 0.7571978021
-0.01174203491 -0.003067852179 -0.06899722799 0.5766220947 0.5094615068 0.6387142812
-0.01440451908 -0.00398110199 -0.06530355072 0.6852480532 0.5130729598 0.5169054493
0.0147021637 -0.007823366642 -0.06042675018 0.7047991406 -0.5351580451 -0.4656866308
0.01045750237 -0.002906235695 -0.0702375946 -0.4878748974 0.5430764244 0.683407698
0.008578549147 -0.003023324728 -0.07137146378 -0.412444584 0.5482584359 0.7275315475
0.006710252444 -0.002652733246 -0.07255346171 -0.3396203091 0.5391511847 0.7706971167
-0.006676115036 -0.001237150311 -0.07355587006 0.294221748 0.5115656563 0.8073005279
-0.01314876938 -0.005143857002 -0.06577908325 0.6105261691 0.5291726383 0.5892657429
0.01344279099 -0.009231415749 -0.06047537231 0.6171769812 -0.670645572 -0.411493731
0.00929651165 -0.005415338834 -0.06892475891 -0.4356718345 0.6031531127 0.6681290109
-0.009563297272 -0.01113721657 -0.06236101151 0.4987404121 0.7094532661 0.4979297788
0.004257977962 -0.002675476551 -0.07340250397 -0.2024550854 0.5682794391 0.7975402294
-0.005491009394 -0.002998547554 -0.07276765188 0.2450991926 0.5714291779 0.7831954292
-0.01056569862 -0.005388415337 -0.06806430817 0.4846216819 0.5919882971 0.6439655904
-0.01073116684 -0.008601288795 -0.06451784515 -0.5229687614 -0.6589050031 -0.5406920301
-0.01192704201 -0.0066707654 -0.06553515625 -0.5700065249 -0.6077982879 -0.5528777466
0.01073116684 -0.008601284027 -0.06451785278 0.5294952293 -0.6518951612 -0.5428328481
0.009369592667 -0.007226718903 -0.06720134735 -0.4505865243 0.6121260977 0.6498256879
0.006792386532 -0.00574348259 -0.07009172058 -0.3176968116 0.6059506443 0.7293096411
0.003677244544 -0.00476606679 -0.07199418259 -0.2010000848 0.604013897 0.771210852
-0.002447567523 -0.004567874432 -0.07237950897 0.1347909299 0.6121456896 0.7791720348
-0.00491465044 -0.005067861319 -0.07140706635 0.2118225318 0.624758386 0.7515372074
-0.005566198826 -0.006597714663 -0.06978449631 0.2990413734 0.6498983758 0.6987176527
-0.009369592667 -0.007226719856 -0.06720134735 0.4532425549 0.6157346823 0.6445478939
0.009563297272 -0.01113721657 -0.06236100769 -0.4732910728 0.725113291 0.500206233
0.008189349174 -0.009538132668 -0.065452034 0.3923304922 -0.6941372308 -0.603531515
0.006877242088 -0.008541648865 -0.06737618256 0.3190642951 -0.6927507804 -0.6467567795
0.005599205971 -0.007898292542 -0.06861705017 0.2410060527 -0.6875218237 -0.6850035215
