# .PCD v0.7 - Point Cloud Data file format
VERSION 0.7
FIELDS x y z normal_x normal_y normal_z
SIZE 4 4 4 4 4 4
TYPE F F F F F F
COUNT 1 1 1 1 1 1
WIDTH 262
HEIGHT 1
VIEWPOINT 0 0 0 1 0 0 0
POINTS 262
DATA ascii
0.01772802019 0.01534471536 -0.07052156067 0.8583990958 -0.07935071832 -0.5068081055
0 0.05932011986 -0.04301726468 0.002560962796 0.1246749117 -0.9921943398
0.01897378095 0.05399924978 -0.06856778463 0.9111121204 0.1248098238 -0.3928068381
0.01814074421 0.06010952377 -0.05157223511 0.7639317175 -0.2003347208 0.6134120399
0.01414590311 0.06012017441 -0.04629660225 -0.4162261513 0.7590260634 -0.500634823
-0.01034256294 0.05937994419 -0.04645585702 0.5778125291 0.4838808192 -0.657261009
-0.005189308038 0.05910197713 -0.04442220101 0.4126033317 0.2723175696 -0.8692534912
0.004954362611 0.05898207696 -0.04433219941 -0.2606928979 0.1831875114 -0.9478826661
-0.02048588753 0.05664460945 -0.06255072403 0.9974284194 -0.01166717206 -0.07071368486
0.0135821235 0.02006594398 -0.07598686704 -0.6689971662 0.04240359928 0.7420543959
-0.01895337868 0.06060000229 -0.0663493576 0.8085737121 -0.4797494285 0.3406597099
0.009894669013 0.05937456963 -0.04644278648 -0.5693028051 0.4899526001 -0.6601823731
-0.0004294484939 -0.0002290847365 -0.07537648555 0.02150746394 0.5151344195 0.8568395176
-0.0185853796 0.02009143782 -0.06942712975 0.8733546436 0.04566228084 0.4849398134
0.01803318634 0.04003426743 -0.07053638153 0.8093598865 0.00578666338 -0.5872845041
0.009348732948 0.05981466293 -0.04227589035 -0.4304410592 0.2502999911 -0.8672199312
-0.01147766548 0.03488989809 -0.07766135491 0.6127408621 -0.01475383214 0.7901461639
-0.009348732948 0.05981466293 -0.04227589035 0.4055691398 0.2920986035 -0.8661362933
-0.01883009148 0.05884377543 -0.06885012309 0.8867924859 -0.2405302291 0.3946445184
-0.008777417978 0.05913517507 -0.07918770727 0.4429123164 -0.2129265667 0.8709138632
-0.005143366051 -0.009732025719 -0.06672010956 -0.2308461587 -0.7274263377 -0.6461895807
0.01408572038 0.0592511495 -0.05073348109 0.6972708963 -0.4706348234 0.5406627046
0.01688125515 0.05915120125 -0.06298566628 0.90283591 0.4201223564 -0.09156705395
0.01594238782 0.0205187645 -0.0736005497 0.7775571757 -0.02706864372 -0.6282293586
-0.01280657514 0.05890408325 -0.04930469767 0.5951681389 0.5443052997 -0.5911908552
-0.01512985543 0.05959258543 -0.05138537325 0.6936137673 0.4228824046 -0.5831555656
0.01879098701 0.05651061058 -0.05226684952 0.8338750499 -0.3422831512 0.4330065191
-0.01535629845 0.05964034653 -0.04694669342 0.6206673083 0.5580503575 -0.5507739018
-0.0052742733 0.01076915193 -0.07919803009 0.2189304817 0.2379158665 0.9462903807
0.01972266912 0.03049384689 -0.06643033791 0.9065224167 -0.006139694368 -0.4221130326
0.01843785 0.06060000229 -0.05629434013 0.1176219887 0.9891169481 0.08838965292
0.01614757729 0.05906901423 -0.05515109634 0.678520234 0.7060871366 0.2026110749
-0.009020900011 0.03986771584 -0.07908626366 0.4362893387 -0.01864603122 0.899613216
0.01638937044 0.0546119976 -0.07303081703 0.7752980085 0.07816694558 -0.6267399195
-3.097720493e-20 0.05529978125 -0.04358953966 -0.004215169733 -0.0006053646292 0.9999909329
-0.01963394737 0.06060000229 -0.05624770737 -0.1499855043 0.9836995822 0.09919415507
0.009757036487 0.009905023853 -0.07710943667 -0.5124150048 0.2433932534 0.8235232765
-0.01642108297 0.05945191479 -0.055449193 0.5051453214 0.8510438879 -0.143361449
-0.01872422981 0.05961914444 -0.05213450623 0.4001916111 0.9164141697 0.005634181458
0.00515808395 0.05476374817 -0.04439195633 -0.2172163571 0.2082073959 -0.9536596534
-0.01890169525 0.05642960739 -0.06870942688 0.8859337581 -0.1982065862 0.4193274679
-0.004973359108 0.05967674255 -0.07692144012 -0.2035622234 0.722068443 -0.6611955722
-0.0144833649 0.05926544507 -0.07517763011 -0.6600085681 0.2718703343 -0.7003393544
-0.006721748829 0.00874800272 -0.07820653076 0.3337401816 0.2857011138 0.8983275376
0.01787101078 0.02996663761 -0.07074095662 0.8456435107 -0.02475246035 -0.5331738634
0.01927108924 0.06008750343 -0.06176688449 0.9882699274 0.1296417524 0.08071906059
0.008221616798 0.059194138 -0.07941855452 0.4018521912 0.2115127537 -0.8909417329
-0.01616551452 0.009770638678 -0.07131845093 0.7715659455 0.2041694903 0.6024954862
0.009734647091 0.05551025978 -0.04667535342 -0.5724025956 0.4896320438 -0.6577353041
0.01389504029 0.05511043167 -0.07570190664 -0.6930528473 -0.05906482277 0.7184630106
0.01895337868 0.06060000229 -0.0663493576 0.9050304232 0.2935200859 -0.3078406929
-0.005158098085 0.05476360512 -0.04439137977 0.3766267322 0.334597854 -0.8638267076
-0.009734612978 0.05551045491 -0.04667614746 0.5778125291 0.4838808192 -0.657261009
0.008247657265 0.05014815058 -0.07941853006 -0.4043416433 0.00235033869 0.9146050029
-0.01693479729 0.05950503031 -0.0619458224 0.994874822 -0.09650780836 -0.03017169986
0.02048588753 0.05664460945 -0.06255072403 0.9970620502 0.0538158052 0.05450804668
-0.01457047462 0.0551718235 -0.07509982014 0.7277958648 -0.07763264211 0.6813856119
-0.01971352806 0.06007512436 -0.06219969559 0.996536078 -0.05565185846 -0.06179576008
0.01376669235 0.05619179916 -0.05062133255 0.7035954045 -0.4326771191 0.5636878723
-0.01285579252 0.05574832535 -0.0493609333 0.5443603083 0.5884364871 -0.5978414132
-0.01437395891 0.05648744837 -0.05146159871 0.6936137673 0.4228824046 -0.5831555656
-0.01096225484 0.05945597617 -0.07708602079 -0.55845043 0.2308329213 -0.7967742966
0.01404726827 0.05921883202 -0.07556280804 0.592742252 0.2174655894 -0.7754774917
0.004390572977 0.05495145206 -0.08065910034 -0.2112710841 -0.09588753752 0.9727127578
-0.01879086876 0.05651103783 -0.05226856804 0.6478387895 0.6885175519 -0.325957794
0.004647092978 0.01507077034 -0.08018679873 -0.264038989 0.1457353063 0.9534383214
0.01830816002 0.05886077576 -0.06985513763 0.9079665912 0.1822055624 -0.3773563334
0.00451439472 0.03502608999 -0.08063743888 -0.2617140135 -0.003005677641 0.9651407882
-0.005510473728 0.05932629672 -0.08033991866 -0.2480611981 0.1604706594 -0.9553610885
0.01519217857 0.05950052198 -0.07229083506 0.7967786271 0.2693328652 -0.5409284862
-0.01897378095 0.05399924978 -0.06856778463 0.9007902451 -0.1407091197 0.4108258488
-0.0005753668427 0.019878722 -0.08107488708 0.02006071116 0.09070383085 0.9956758423
0.01438705525 0.04000589107 -0.07524899996 0.7174849356 0.01803638216 -0.6963404743
-0.01617670522 0.05932132176 -0.07211108616 0.7669232325 -0.1760309462 0.6171238622
0.01787661095 0.05553280182 -0.07072319946 0.8711843482 0.1417010845 -0.4700623725
-0.01228284518 0.003931368589 -0.07309822591 0.5814032892 0.3651254021 0.7270857282
0.008477424695 0.04491211554 -0.07932003902 -0.4042477689 -0.02112890885 0.914405441
0.01060689631 0.05953145828 -0.0771598793 -0.5117223022 -0.1887106744 0.838169772
0.003751943231 0.05243157959 -0.04395871544 -0.1531070528 0.1734111858 -0.972875527
-0.01175587882 0.05486536584 -0.07743197162 0.5769835313 -0.1366037124 0.8052511598
0.008563507199 0.03028363562 -0.07929027239 -0.3971097703 0.001606145781 0.9177697155
0 0.0523360672 -0.04359366417 -0.004215169733 -0.0006053646292 0.9999909329
0.009563297272 -0.01113721657 -0.06236100769 0.5536544877 -0.6657172427 -0.5002871786
-0.003751943231 0.05243157959 -0.04395871544 0.1554812649 0.1745696479 -0.9722916303
-0.01296698666 0.05952516174 -0.07168782806 -0.6338587553 0.4075054209 -0.6573906071
0.008621895035 0.02535163132 -0.0792664299 -0.3922248985 0.008016336422 0.9198344239
0.004314113487 0.05939231734 -0.08059914121 0.1229056573 0.2858613079 -0.9503565184
0.0100150203 -0.0006022199818 -0.07211244638 -0.525184967 0.4608409635 0.7154064277
-0.01448657036 0.02513010684 -0.07516731817 0.7038995693 0.02013435417 0.7100140873
0.004973359108 0.05967674255 -0.07692144012 0.1504786233 0.5165227863 -0.8429474451
-0.008828185797 0.05511718464 -0.07916690159 0.43131616 -0.1441988048 0.890602647
-0.0005446723302 0.05957105662 -0.08089826609 -0.009236880231 0.2542404065 -0.9670969423
0.01817112287 0.0350073204 -0.07027658844 0.8413070647 0.0001947567203 -0.5405574761
-0.01700500131 0.05495969725 -0.07212653446 0.7773542438 -0.1062023484 0.6200334192
0.0110942663 0.05477405548 -0.07791282749 -0.5504834602 -0.112708043 0.8272030325
0.008269025405 0.05518144194 -0.07940218226 0.367906299 0.1063431245 -0.9237619255
-0.0005478353691 0.05507289291 -0.08110053558 0.03120614164 -0.1430284311 0.989226488
-0.02006830788 0.02033311145 -0.06518110402 0.9172123502 0.03725178155 0.396653261
-0.005406222419 0.055002441 -0.08040463177 0.2434999057 -0.08824879322 0.9658778113
0.01910281277 0.0497048254 -0.06829290009 0.8791498098 0.01643245383 -0.4762620984
0.01774794006 0.05049573612 -0.0710484333 0.7878656143 0.02344469844 -0.6154007799
-0.005953410029 0.004804851631 -0.07697183545 0.2905043089 0.3874172416 0.8749372134
-0.01712803578 0.05015897465 -0.07195105362 0.7833254384 -0.01423477865 0.6214488142
-0.01910281277 0.0497048254 -0.06829290009 0.8781085813 -0.01731130899 0.478148134
0.01650774336 0.04982394791 -0.07285956001 0.7669037832 0.02428517891 -0.6413024383
0.01829910278 -0.0001445540935 -0.06167739868 0.8294019312 -0.3907773268 -0.3992311579
0.01408837986 0.05001307355 -0.07553775024 -0.7055079899 0.003481378426 0.7086934148
-0.01461114216 0.05013715871 -0.07506727007 0.7254893016 -0.00595890231 0.6882076466
0.0111689415 0.05010737276 -0.07786528492 -0.5662556538 0.01150486051 0.8241493631
-0.005632263366 0.04984613015 -0.08033992857 0.3062648321 0.002932623187 0.9519418324
-0.008827665117 0.05016814338 -0.07917303212 0.3976810749 0.01293150173 0.9174325801
0.004452148363 0.04510890555 -0.0806465621 -0.2663230109 0.01690726922 0.9637355436
-0.01175010212 0.04998227755 -0.07744030444 0.58936973 -0.003633527336 0.8078552586
0.004422989517 0.04976900458 -0.08065282536 -0.2670876698 -0.002075729092 0.9636699995
-0.000551862669 0.04990396233 -0.08110549927 0.04377944107 -0.0200194311 0.9988406194
-0.005156899071 -0.004790521145 -0.07141976318 0.2893512854 0.6133315226 0.7349151496
0.01925777388 0.04471583652 -0.06789844131 0.8468664478 -0.01920325634 -0.5314587986
-0.0180674324 0.03878619766 -0.07047188059 0.8200321141 -0.0002985931124 0.5723174317
0.01788014412 0.0456132412 -0.070824049 0.8025737675 -0.01265809174 -0.5964185782
-0.007295911074 -0.001437593818 -0.07315789795 0.3565513667 0.5304534667 0.7690840283
0.01609384966 0.01507520032 -0.07293051529 0.7496539418 -0.1306233861 -0.6488116048
-0.01725410819 0.04529510832 -0.07175090122 0.7856868275 0.01062970673 0.6185331183
-0.01925790644 0.04471528339 -0.06789668655 0.849026346 0.01544767628 0.5281246378
0.01662750673 0.04497965527 -0.07268628883 0.7741553354 -0.00679577362 -0.6329591883
0.01419065245 0.04504049238 -0.07543795458 0.7093572631 0.01245481997 -0.7047390657
-0.0145911773 0.04485944112 -0.07506989204 0.7225101786 -0.02450761556 0.6909257693
0.01118502988 0.04507278697 -0.07785484314 -0.5739530637 0.0005524339757 0.8188880115
-0.009019776344 0.04493762589 -0.07908471086 0.4388174349 -0.02166143793 0.8983151123
-0.005522170279 0.03520004823 -0.08038075129 0.2957992721 0.01685773917 0.9551013597
-0.01163620321 0.0451993103 -0.07752295685 0.5945010787 0.01452755192 0.8039635674
-0.005608990327 0.04029846859 -0.08035399628 0.2311933149 0.01791071269 0.9727429555
-0.0005554876208 0.04525653076 -0.08110962029 0.04500144878 0.01050938475 0.9989316405
-0.005572043046 0.0450182209 -0.08036216688 0.304040139 -0.002462892896 0.9526560387
0.01942342377 0.03962019157 -0.06738607216 0.8677397301 -0.01031505116 -0.4969118237
-0.01716027768 0.04068304125 -0.07187747065 0.7907723547 0.008417967399 0.6120524657
-0.01942448854 0.03961556911 -0.06737203217 0.8665196584 0.004036367247 0.4991266265
0.01674875975 0.0400751133 -0.07251086426 0.7818744022 -0.009553413143 -0.6233627767
-0.01438705525 0.04000589107 -0.07524899996 0.7306702807 -0.01512695301 0.6825629027
0.008940850616 -0.004402688861 -0.07001183701 -0.4260978055 0.5807413499 0.6936714962
0.004612066999 0.0196618793 -0.08057172346 -0.2448762845 0.04722260659 0.9684036507
0.01132991576 0.04001750278 -0.07776244164 -0.5788691146 0.0008822596752 0.8154199959
-0.01133011234 0.04001596737 -0.0777579546 0.6113900197 0.01519017264 0.7911836086
-0.01829355049 0.03054556417 -0.07004600525 0.8593163588 0.009696109579 0.5113525016
0.008449060798 0.03995273336 -0.0793364315 -0.4034720065 -0.01973566723 0.9147791227
0.004383134982 0.04022860179 -0.08066196442 -0.1984590173 0.02160284461 0.9798710811
-0.0005596160984 0.0399636702 -0.08111388062 0.01930532459 0.02549479664 0.9994885291
-0.01090931678 -0.005781312585 -0.067295084 0.5550534462 0.5753920462 0.6006993133
0.0195712986 0.0350940272 -0.06692001597 0.8974827554 -0.006516216419 -0.4410014089
-0.01957331212 0.03508491007 -0.06689360809 0.8740688035 0.01627811703 0.48552935
-0.01817112287 0.0350073204 -0.07027658844 0.8183614626 -0.002392944828 0.5746988693
0.01687132597 0.03510762596 -0.07233726883 0.7889231815 -0.02760435668 -0.6138714957
-0.01687150383 0.03510671043 -0.07233461189 0.7951942703 0.006365037517 0.6063213329
0.01392270355 0.03468777161 -0.07565538635 -0.6816519393 -0.01435547065 0.7315357504
-0.01699484444 0.03007560253 -0.07217225838 0.8036870976 0.001008615513 0.595051285
0.01120749807 0.03542760213 -0.07784245936 -0.5615222998 0.01909485542 0.8272412546
-0.01439899349 0.03490515614 -0.07524186007 0.7260385661 -0.0007607824375 0.6876535623
0.008505916437 0.03514921729 -0.07931350072 -0.4022056997 -0.001301227451 0.915548405
-0.009081788421 0.03505694056 -0.07905775452 0.4367771993 0.002238732359 0.8995669326
-0.01972438622 0.03048576021 -0.06640794945 0.9070771926 0.006543920497 0.4209134635
-0.0005637988806 0.03460075474 -0.08111619644 0.04759676117 -0.01074438612 0.9988088438
0.01696375751 0.03134242058 -0.07221365738 0.8077009788 -0.02323461869 -0.5891343492
-0.01408121884 0.02006253386 -0.07556820202 0.6787699716 0.04096313288 0.7332075746
0.01389817083 0.02983315027 -0.07567231846 -0.6808673214 -0.02331221605 0.7320356762
-0.01712010717 0.02497114086 -0.07200544167 0.8100745704 0.002458458587 0.5863217089
-0.01450074808 0.02994220177 -0.07514488665 0.7021787466 -0.01505732216 0.7118414745
0.0198989687 0.02515058804 -0.06585447502 0.9130317628 -0.02618854441 -0.4070468773
0.01090234971 0.02980912066 -0.07804808998 -0.5446361877 -0.03352054525 0.838002265
0.004648602247 0.02974767932 -0.08060522147 -0.2555985655 -0.01095313597 0.9667209536
-0.005722878779 0.02992832038 -0.08032955708 0.2967451336 0.004210966006 0.9549474297
-0.009143466711 0.03018377805 -0.07902887344 0.4066456692 -0.01041028711 0.913526642
-0.011496539 0.02965631509 -0.07764809608 0.5895066071 -0.01602090593 0.8076046624
-0.01989975071 0.02514673758 -0.06584434509 0.9210404604 0.01649452977 0.3891174641
0.01777777934 0.02517338157 -0.07089181042 0.8268022864 -0.0151303553 -0.5622891175
0.01025189042 0.01469159043 -0.07791780472 -0.5278820996 0.1430095833 0.8371909866
-0.0005675687671 0.02976665792 -0.08111634865 0.04767520117 -0.01250322739 0.9987846337
-0.01843545151 0.02537562227 -0.06977817917 0.8618483165 0.0150954954 0.506941422
0.01387010282 0.02496594048 -0.07570699056 -0.6766609886 0.005844339982 0.7362715194
0.02006830025 0.02033315023 -0.06518120066 0.9171418329 -0.03101822307 -0.3973521464
0.01097747016 0.0248431983 -0.07800606728 -0.5573784657 0.008142125156 0.8302186169
-0.005729168892 0.02485367644 -0.08032732105 0.2921095126 -0.001108988133 0.9563842339
-0.009205988407 0.02524397779 -0.07899959946 0.4000306017 -0.001066788576 0.9165011618
-0.01095046926 0.01492945075 -0.07749042257 0.569241044 0.1406171638 0.8100564469
-0.01157622087 0.02467814922 -0.0775968504 0.5867475846 -0.003642510455 0.8097616958
0.01791834927 0.0199280169 -0.070602108 0.8669658062 -0.02956758615 -0.4974897473
0.004579978228 0.02466549611 -0.08062428284 -0.250610756 -0.002264767286 0.9680852854
-0.0005713899732 0.0248663868 -0.08111545448 0.01772080603 0.05632155093 0.9982554062
-0.01659685338 0.02014168048 -0.07268881798 0.8053926193 0.04381450207 0.5911201385
0.01926977603 0.01534584808 -0.06689777883 0.9019808871 -0.05998498495 -0.4275889158
-0.01926977603 0.01534584777 -0.06689777883 0.8807060577 0.0758627725 0.4675485854
0.02031210899 0.015626194 -0.06336026382 0.9333919609 -0.05237444741 -0.355016006
0.0104588387 0.01993812799 -0.07827630711 -0.5196226875 0.05926127769 0.8523381745
0.008092396677 0.02045790696 -0.07949894905 -0.3958269079 0.03345825515 0.9177154266
0.009460258007 -0.009069708347 -0.06498494339 0.4006555701 -0.6757475282 -0.6187409735
-0.00576921773 0.01984807253 -0.0802746439 0.3277977792 0.04771891347 0.9435420082
-0.008679347992 0.02034755707 -0.07923946381 0.4000767214 0.03185624897 0.9159278336
-0.01094767336 0.01997538584 -0.07795620242 0.5872508687 0.04356938774 0.8082314803
-0.02031210899 0.01562619495 -0.06336026382 0.9290369802 0.0508560214 0.3664750394
-0.0187021637 0.0166220665 -0.06890666962 0.8730802786 0.07246363831 0.4821616412
-0.0007318848744 0.009833778977 -0.07961721516 0.03212414312 0.2258459064 0.9736332297
-0.0166550451 0.01500822803 -0.0721288038 0.8129551598 0.1046154899 0.5728520816
-0.005578978807 0.0002049514763 -0.07475174427 0.2202816797 0.4835833672 0.8471263829
0.01347267931 0.01514246412 -0.07563772999 -0.6335127581 0.1127927521 0.7654667729
-0.01411556612 0.01499234635 -0.07506748853 -0.6987797517 -0.08473719883 -0.7103002645
0.01901093102 0.01025686741 -0.06645829264 0.8877338152 -0.1634017644 -0.4303818498
0.008072421755 0.0155184833 -0.07915713392 -0.3576965146 0.1006108696 0.9284022061
-0.005949729369 0.01510977752 -0.0798386119 0.3288736332 0.1309885086 0.9352454993
-0.008743605296 0.01576448091 -0.07888887278 0.3802441035 0.1222088252 0.9167766494
-0.01901093102 0.01025686741 -0.06645829264 0.8807875792 0.160698536 0.4454090488
0.0132976443 0.01071222019 -0.07484196726 -0.6370912154 0.2082175684 0.742132217
0.01760380046 0.01025294431 -0.06945435842 0.8431530684 -0.1495563167 -0.516455043
-0.0004576194914 0.01473837617 -0.0806414293 0.007931560316 0.1628627283 0.9866168568
0.01544637156 0.009529485703 -0.07225049973 0.7452719849 -0.2118415471 -0.6322126442
-0.01411420409 0.01108774694 -0.07422834524 0.718258545 0.1814938299 0.6716879129
0.01825799465 0.005142819226 -0.06561508369 0.8284619247 -0.2948785174 -0.4761276082
-0.01070845978 0.01004668067 -0.0765681481 0.5541634047 0.2316900476 0.7995140041
-0.009048729897 0.001806662798 -0.07424290466 0.4270998793 0.4413850993 0.7891545395
0.0152746315 3.697949151e-06 -0.06730233129 0.7346138511 -0.4185966635 -0.5339656571
-0.01866469669 0.00451221168 -0.06424663162 0.8218910231 0.3132126216 0.4758077342
0.01946351624 0.004029569626 -0.06168434906 0.864381248 -0.2819756783 -0.4163349311
0.007620228291 0.01185791779 -0.07875432587 -0.3310877409 0.2121096269 0.9194511482
0.004371743276 0.01054448924 -0.07935737492 -0.1677048025 0.2394496814 0.9563152981
-0.01741980489 0.005342477798 -0.06751348623 0.7925459416 0.312229093 0.5238166892
-0.01946351624 0.004029569149 -0.06168434525 0.870201889 0.2762584537 0.4079582565
0.01435097928 0.005177965747 -0.07164715322 0.7046088865 -0.3028052311 -0.6417439591
-0.0148298036 0.005340510096 -0.07122819737 0.7310110678 0.2885907936 0.6183350003
0.01655682945 0.004480576992 -0.06857337952 0.7752541494 -0.3266442657 -0.5406334503
0.01257954311 0.007196652412 -0.07435609436 -0.5907225132 0.2826144952 0.7557618405
0.00437101686 2.617202699e-06 -0.07501994991 -0.1727969824 0.4941262679 0.8520448546
0.006097009659 0.008158831596 -0.07824619293 -0.2958290522 0.3008845566 0.9066165978
-0.01031284618 0.005362869369 -0.07515256924 0.5256341111 0.3185980308 0.7887991354
0.009404276068 0.005280028495 -0.07565028035 -0.4348884912 0.3364719962 0.835259598
-0.01573082409 0.000496032393 -0.06708788757 0.7347195051 0.3983010745 0.5491297687
-0.01829910278 -0.0001445560306 -0.06167739487 0.8141656822 0.3976549504 0.4230895677
0.00476099207 0.004604474982 -0.07723894691 -0.2684007805 0.3830448505 0.8838764979
-0.0006847653664 0.004696813437 -0.07784255629 0.05948190206 0.3956691388 0.916464858
0 0.006634542942 -0.07870130157 -0.04311285396 0.3479322241 0.9365278689
0.01708104324 -0.002861134052 -0.06186227417 0.785734433 -0.4206606865 -0.4535041208
0.01326084963 0.0008448332946 -0.07044242605 0.6454734908 -0.4114307248 -0.643497266
0.01149834919 0.002575981855 -0.0730676651 -0.5367522146 0.3846886342 0.7509405535
0.005143366051 -0.0097320261 -0.06672010803 0.2304987084 -0.7281423246 -0.6455068556
-0.01098192394 -0.0001156357927 -0.07172140789 0.5614032718 0.4422949673 0.6994294305
-0.01411659336 0.0008820810318 -0.06958321381 0.6944140674 0.4025161585 0.5964644542
-0.01708104324 -0.002861133814 -0.06186227417 0.7902537805 0.4178884911 0.4481831896
0.01441854191 -0.004092364788 -0.06507637024 0.6768326859 -0.5129360512 -0.5280095859
0.008241568247 0.001465621809 -0.07446242778 -0.383447453 0.4368612947 0.8137077239
0 -0.009774283648 -0.06771393967 -0.001607501844 -0.7718024545 -0.6358603519
-0.01441854191 -0.004092364709 -0.06507637278 0.7062573966 0.4974305867 0.5037492443
0.01615411758 -0.008017255783 -0.05714664459 0.7043906711 -0.5351423299 -0.4663222805
-0.01299366856 -0.002457972527 -0.06837456512 0.6559200355 0.4696147796 0.5909575838
-0.01615411758 -0.008017253876 -0.05714664841 0.7043908096 0.5351422607 0.4663221507
0.01407247734 -0.008527391195 -0.06045106125 0.6619045051 -0.5877266685 -0.4652523931
0.01090931702 -0.005781312764 -0.06729508209 -0.5498785207 0.5726937789 0.6079929672
0.006676115036 -0.001237151146 -0.07355587006 -0.3159874466 0.535224766 0.7833813781
-0.009260446231 -0.004587944984 -0.06964919027 0.4403769433 0.5763669031 0.6883816825
-0.01407247734 -0.008527390242 -0.06045106125 0.6619045964 0.5877266374 0.4652523025
0.004842991882 -0.004895365583 -0.07145531718 -0.2461804696 0.6238880462 0.7417269593
0 -0.005670637608 -0.07158286476 0.01238234357 0.6307839136 0.7758597373
-0.009460258007 -0.009069707394 -0.0649849472 -0.4067480923 -0.6683767348 -0.6227588055
-0.009563297272 -0.01113721657 -0.06236101151 -0.5528827793 -0.6557392719 -0.5141270657
0.007047674179 -0.01302926159 -0.06148947525 -0.3162571227 0.7757466448 0.5460756132
-0.007047674179 -0.01302925968 -0.06148947906 0.3162571003 0.7757467302 0.546075505
5.421010862e-20 -0.01469600058 -0.06107279205 -4.611750288e-08 0.8242403461 0.5662401009
