# .PCD v0.7 - Point Cloud Data file format
VERSION 0.7
FIELDS x y z normal_x normal_y normal_z
SIZE 4 4 4 4 4 4
TYPE F F F F F F
COUNT 1 1 1 1 1 1
WIDTH 563
HEIGHT 1
VIEWPOINT 0 0 0 1 0 0 0
POINTS 563
DATA ascii
0.0006269690394 0.06058665085 -0.04004697037 0.007072446147 -0.9900492075 0.1405437559
-0.0006269690394 0.06058665085 -0.04004697037 -0.598483454 -0.7150463047 0.361284289
0.01708104324 -0.002861134052 -0.06186227417 0.8240368893 -0.3385683561 -0.4542407659
-0.01044118309 0.05899884033 -0.04706275749 -0.6007852476 -0.1912106 0.7762058958
0.005574002266 0.05900787354 -0.04443501663 0.327621409 0.01332971804 0.9447150528
0.01970072937 0.03115877914 -0.0665019989 0.9289736655 -0.008949246757 -0.3700376194
0.01293550777 0.06060000229 -0.04564651108 -0.1055984861 0.9534594208 -0.2824253751
0.01121776581 0.0348203481 -0.07783472697 -0.5413460188 -0.006011032621 0.8407784223
0.005565079212 0.06028945923 -0.04443190765 0.328484489 0.001291992786 0.9445084813
0.0196355629 0.03313387299 -0.06671486664 0.9261176561 -0.00918352722 -0.3771229904
0.007398845434 0.06047815704 -0.04523639297 -0.2425604185 0.4388331228 -0.8652109186
0.01957123375 0.0350958252 -0.06692029572 0.9240814242 -0.009316770197 -0.3820820844
-0.01708104324 -0.002861133814 -0.06186227417 0.8240370762 0.3385680823 0.4542406308
-0.006094467163 0.04907854462 -0.08027693939 -0.2938056556 -0.0008065204847 -0.9558648368
-0.008511338472 -0.0008797120415 -0.07291743851 0.3942674229 0.5095718534 0.7647808349
0.01046681023 0.06060000229 -0.04571183777 -0.3241329118 0.8002992834 -0.5044392059
0.01170073509 0.06060000229 -0.04568090057 -0.1055984861 0.9534594208 -0.2824253751
-0.01845320129 0.02472724915 -0.06974531555 0.8619670623 0.001441409849 0.5069622331
-0.01634099388 0.06060000229 -0.05105545044 0.3364311674 0.5043845295 -0.7952423002
-0.006186979771 0.05907193375 -0.04470365334 0.3380941224 -0.02559582841 -0.940764167
0.009348732948 0.05981466293 -0.04227589035 0.2437207011 -0.9548024937 -0.1701541004
-0.004361145496 0.05506440353 -0.04411681747 -0.2580180648 -0.01498639738 0.9660238538
0.003599686623 0.001331830561 -0.07599147034 -0.1738181193 0.4600438072 0.870716347
-0.01622435188 0.01138427639 -0.07197147369 0.7689378805 0.1735720897 0.6153107065
-0.000620221138 0.06008176804 -0.04355075836 -0.271375736 -0.6154545169 0.7399803697
0.001240111828 0.06009381485 -0.04360213852 -0.04844499028 0.5408288512 -0.839736409
0.003715738535 0.06017830467 -0.04396081543 -0.2314304491 -0.04812561724 -0.9716603687
-0.006216799259 0.05521528053 -0.04471367073 -0.3668407353 -0.00533402078 0.9302684683
0.003280687034 0.05673241138 -0.08089927101 -0.1387381284 -0.02957352584 0.9898874372
0.01773148918 0.05110400009 -0.07107608032 0.8681796875 0.001001045908 -0.4962489579
-0.002479204178 0.06012376022 -0.0437289753 0.1464942691 -0.04799431353 -0.9880465449
-0.01612530899 0.06029446793 -0.05508721542 -0.3534212056 -0.9219283374 -0.1585610043
-0.01007617188 0.00895715189 -0.07670736313 0.4834050786 0.2673779439 0.8335637739
-0.004333071232 0.06021495056 -0.04411719894 0.2530098927 -0.04540323997 -0.9663977132
0.01419030619 0.04467074966 -0.07552637863 -0.6948568382 -0.01068416337 0.7190687193
0.0110828414 0.06060000229 -0.07594950867 0.2897072686 0.6706364116 -0.6828737086
-0.01278693867 0.06016314316 -0.04928226089 0.6520499758 0.5824952013 -0.4853145057
-0.006177080154 0.06035229111 -0.04470032692 0.35203007 -0.01967220206 -0.9357819374
0.01872425842 0.05961904526 -0.05213409424 0.7346040441 0.4739097322 -0.4855578896
0.01682527924 0.03697995377 -0.07240015411 0.8090466378 0.008154336107 -0.5876878803
0.008916074117 0.03287067159 -0.0791440684 -0.4430827277 -0.009321580632 0.8964322643
0.005587423086 0.05708033943 -0.04443968964 -0.3303715263 -0.006305934436 -0.9438299051
-0.008008613586 0.06054116058 -0.04550388336 0.2984589873 0.4256428562 -0.8542542899
-0.01647832489 0.05102629471 -0.07289739227 0.7869683839 -0.006295913931 0.6169612016
-0.009348732948 0.05981466293 -0.04227589035 0.3130600237 0.9376508719 0.1510108073
0.01284678078 0.05326198959 -0.07664239502 -0.6273128244 -0.001221108823 0.778766415
-0.01888376045 0.05703428078 -0.06874466705 0.8889531072 -0.001250901446 0.4579965158
-0.01395270443 0.05926036072 -0.05077803802 -0.6080992764 -0.276281155 0.7442338298
0.01824082565 0.03246709824 -0.07014530945 0.8913670145 0.01844440854 -0.4529068881
0.001242119819 0.05880758286 -0.04360073471 0.05093041046 0.02745786083 0.9983246762
-0.004378448546 0.05667236614 -0.08067531967 0.2009140329 -0.01799461879 0.9794435895
-0.01231812143 0.06060000229 -0.04566370583 0.1781678667 0.9523975015 -0.2473766569
-0.01862675285 0.01873941326 -0.06928969955 0.8763547926 0.04358859726 0.4796898078
0.01755723 0.06060000229 -0.05101037598 -0.09199492944 0.3894593293 -0.9164378669
-0.01373892689 0.00977901268 -0.07423499298 0.6775516369 0.2242666317 0.7004486114
-0.01393143463 0.06051158142 -0.05075348282 0.5829488105 0.3321131662 -0.7415332286
-0.002221595913 0.04523840332 -0.08104760551 0.1157133304 0.001962099007 0.9932807133
0.01634099388 0.06060000229 -0.05105545044 -0.3363899231 0.5043906546 -0.7952558627
0.007519038439 0.0193014698 -0.07972938538 -0.36540087 0.04421524516 0.929799557
-0.01856249809 0.02078217697 -0.0695249176 0.8689914996 0.009074949237 0.4947437912
-0.01755723 0.06060000229 -0.05101037598 0.09208926018 0.3897513197 -0.9163042491
0.01637461662 0.05520877075 -0.07305216217 0.7854435224 0.007335108941 -0.6188898685
0.003334685504 0.04518941784 -0.08089393044 -0.141336147 0.00699729371 0.9899369331
0.001110408068 0.04526691628 -0.08113709259 -0.03690859715 0.003624458663 0.9993120728
0.01535629845 0.05964034653 -0.04694669342 -0.08453379547 -0.9466887707 0.3108607548
-0.0006212256551 0.0587952919 -0.04354927063 -0.1598442013 -0.2905672311 0.9434089864
-0.005599205971 -0.007898291588 -0.06861705017 -0.261550231 -0.6854948445 -0.6794764859
-0.01097759056 0.02484405899 -0.07800262833 0.5145559971 -0.008571043171 0.8574139391
0.01393143463 0.06051158142 -0.05075348282 -0.5830203606 0.332206786 -0.7414350345
0.01122489548 0.04657723427 -0.07783082581 -0.5441257004 -0.005868557539 0.8389831835
0.005193486214 0.01899003792 -0.08046295166 -0.2591571274 0.03987961753 0.9650115022
0.01273897839 0.05907899284 -0.07671834183 0.5315870024 0.2742775439 -0.8013657641
-0.004562669098 0.02714444256 -0.08065699577 0.2331342906 0.001312473109 0.9724436642
-0.01724175262 0.06060000229 -0.0563409729 0.5104022704 0.8504412891 0.127432869
0.01061162233 0.04903993988 -0.07820615387 -0.5090320728 0.002335748178 0.8607443832
-0.01607626947 0.03322147369 -0.0733946406 0.8019038135 0.01219548702 0.5973286733
-0.01231558228 0.01678752613 -0.07685584259 0.5982763656 0.07811260405 0.7974733924
-0.008762982368 0.06027766037 -0.07919362259 -0.5652791845 0.3543150791 -0.7449297069
0.01597335577 0.01921389771 -0.07353683853 0.7685980043 -0.03487116518 -0.6387809559
0.01845320129 0.02472724915 -0.06974531555 0.8619670623 -0.001441409849 -0.5069622331
0.01278693867 0.06016314316 -0.04928226089 0.704772402 -0.5603168573 0.4351331759
0.01162545204 0.05925650215 -0.04813710785 0.6418395862 -0.5819992495 0.4993183545
-0.01688125515 0.05915120125 -0.06298566628 0.1740718961 0.8942302589 -0.4123726701
0.009839663267 0.05890397739 -0.04666947079 0.4712210261 -0.2662191655 0.8408793614
-0.008194250107 0.01313513994 -0.07873108673 0.3930546038 0.1716979315 0.9033426253
-0.004487314463 0.03921980095 -0.08066579056 0.2091634999 0.006881985789 0.9778564662
0.007410675526 0.05920038605 -0.04524077606 -0.2852877565 0.4888419766 -0.8244054936
-0.01872422981 0.05961914444 -0.05213450623 0.7344878963 -0.4741492345 0.4854997772
0.00563449049 0.0367365694 -0.08038520813 -0.2907936176 -0.01474472648 0.9566721826
-0.01455583668 0.02684150314 -0.07516954803 0.7206509749 -0.01429187461 0.6931507157
-0.00248321414 0.05883818054 -0.04372801399 0.1344526919 -0.03511724463 -0.9902975577
0.003721741319 0.05889387703 -0.04396046638 0.2256764758 0.01867688916 0.9740232554
-0.01953050613 0.03638807297 -0.06703121948 0.9222466491 0.009255666513 0.3864912042
-0.002495293796 0.05496556091 -0.04372511864 -0.150415119 -0.010405868 0.9885681615
-0.01204798794 0.05479385376 -0.07727177429 0.5916493866 -0.007563097365 0.8061599115
-0.00434006834 0.05893126678 -0.04411710358 0.2421235113 -0.03317506438 -0.9696781014
-0.01429302279 0.05893190511 -0.07537976329 0.7223458889 -0.3505343784 0.5961057511
0.00903832372 0.02300100009 -0.07908735911 0.4506384339 -0.002669840992 -0.8927025674
-0.008021419525 0.05926455307 -0.04550827026 0.3377988301 0.4587109664 -0.8218735911
-0.01931930161 0.0428177948 -0.06771018219 0.9110345829 0.01078449703 0.4121888929
0.01257954311 0.007196652412 -0.07435609436 -0.6131357372 0.2950452929 0.7328116012
0.007441238403 0.02680312252 -0.07979965973 0.3610205356 0.004091790872 -0.9325488889
-0.009238143444 0.05880911446 -0.04627618408 -0.4152664361 -0.1743849107 0.8928290374
-0.01227731752 0.05496511078 -0.04878324509 0.7086647054 0.03532044447 -0.7046607706
-0.002489245564 0.0569045639 -0.04372656631 -0.1497176952 0.002483979452 0.9887256655
-0.01215022151 0.04893451564 -0.07719656118 0.594591711 -0.01867519434 0.8038108822
0.01159077613 0.01312911065 -0.07682156372 -0.5572263684 0.1615646673 0.8144910267
-0.01162540722 0.05925675583 -0.04813817787 0.6472218582 0.5152208001 -0.5618286157
0.008308241844 0.06060000229 -0.07599931335 0.03308406376 0.9746750188 -0.2211652152
-0.01057652283 0.05137875366 -0.07821871567 0.4965388474 0.003174201921 0.8680086967
-0.01535629845 0.05964034653 -0.04694669342 0.08024372091 -0.9534900481 0.2905471965
0.01622435188 0.01138427639 -0.07197147369 0.7766857877 -0.1604604108 -0.6091072514
0.003401579976 0.03089481497 -0.08088491821 -0.145074709 -0.007112804154 0.9893951369
0.01963394737 0.06060000229 -0.05624770737 -0.172409056 -0.4449226295 -0.8788168018
-0.01466278362 0.06060000229 -0.07125984955 -0.2578877759 0.9560213671 0.1397034024
-0.01721546936 0.02109338284 -0.0718752861 0.8438424468 0.0153152291 0.536372416
0.01724175262 0.06060000229 -0.0563409729 -0.5137169062 0.849544126 0.1198737602
-0.01166167879 0.05672205544 -0.0481701889 -0.687130292 -0.0192467165 0.726279234
0.01344279099 -0.009231415749 -0.06047537231 0 0 1
-0.01401675797 0.05549232864 -0.0508519783 0.7951410362 0.01943568344 -0.6061130149
-0.004350592613 0.05700051689 -0.04411696053 -0.256579769 0.002142833314 0.9665206829
0.01612531853 0.06029442596 -0.05508704758 0.3533836048 -0.9219119731 -0.1587398553
-0.008040680885 0.05734453011 -0.0455148735 -0.4575030987 -0.01092553803 0.889140904
0.01507630539 0.05908468437 -0.05264881516 0.5364325146 -0.7789666565 0.3247323597
0.01395270443 0.05926036072 -0.05077803802 0.6081611846 -0.2763117335 0.7441718884
-0.009579607964 0.04096685219 -0.07880632401 0.4779095503 -0.002055331818 0.8784066469
-0.008389870644 0.04471258736 -0.0793985672 0.4177552527 -0.009587107087 0.9085090182
0.008065163612 -0.006345905781 -0.0689186554 -0.3816246613 0.6224584333 0.6833067515
0.01280656242 0.05890488052 -0.04930468369 0.6884880806 -0.1962676565 0.6981856271
0.001097836375 0.05336569595 -0.0811273098 -0.03544634921 0.003290590849 0.9993661633
0.007428477407 0.05727853775 -0.0452470541 0.4289408549 -0.009177278623 0.9032859573
0.01817108154 0.03500883102 -0.07027666473 0.8927724559 0.0117174666 -0.4503554629
0.001144993961 0.02302669811 -0.08114617157 -0.03114943733 -0.002916223095 0.9995104843
0.003730770171 0.05696200371 -0.04395994282 0.2266212425 -7.321746578e-05 0.9739829604
-0.004450507283 0.04511803055 -0.080670084 0.2080458779 0.006146107743 0.9780997587
0.01820589066 0.03374026489 -0.07021110535 0.8975245192 -0.003936316714 -0.4409469843
0.001245139986 0.05687297726 -0.04359861946 0.06385138171 0.001305204021 0.997958565
-0.0006227365732 0.05686031723 -0.0435470314 -0.06589467105 0.005019470265 0.9978139592
0.01801596642 0.04066182899 -0.07056881332 0.8867253428 0.01255933101 -0.462125989
-0.002247324586 0.03697307491 -0.0810507164 0.09472749569 -0.003703300287 0.9954963521
-0.006201869011 0.05714624977 -0.04470865536 -0.3644374049 0.003449598132 0.9312214979
-0.01280656242 0.05890488052 -0.04930468369 0.6959443713 0.2727619571 -0.6642758063
0.01526924515 0.00379283309 -0.06998542786 0.7254335299 -0.3427194757 -0.5968999537
-0.01507630539 0.05908468437 -0.05264881516 -0.5364545698 -0.7790006744 0.3246143001
-0.01963394737 0.06060000229 -0.05624770737 0.1724817372 -0.4444879012 -0.8790225003
0.01169438076 0.05293550873 -0.07755278015 -0.5720052345 0.00154797443 0.8202485083
0.01163721943 0.0330978241 -0.07755916341 -0.5695035692 0.001103357901 0.8219881187
0.01987585735 0.06060000229 -0.06136657715 -0.06001059108 0.7507775199 -0.6578235665
0.01832874393 0.02926295185 -0.06997972107 0.8992348523 -0.009941095528 -0.4373532382
0.01641879749 0.05342171097 -0.0729882431 0.7868933624 -0.004564722625 -0.6170721186
-0.0005474417806 0.05509383011 -0.0811662674 0.02780171725 0.01331513833 0.9995247729
-0.006728308678 -0.003367682457 -0.07204194641 0.3403375 0.5687156229 0.7488210242
0.01358302927 0.01494532156 -0.07558465958 -0.6647981414 0.1242434011 0.7366186316
0.01811200142 0.06060000229 -0.0614353981 -0.1951454147 0.8973272534 -0.3958813804
0.01705889511 0.0601493988 -0.05960282898 0.3538345763 -0.9206217196 0.1650961599
0.01807223511 0.002561206102 -0.06447723389 0.8843200251 -0.2795531401 -0.373936004
0.01614756584 0.05906967926 -0.05515106201 -0.6635512697 -0.07363936528 -0.744497788
0.01505181217 0.06027544403 -0.07458036041 0.7701632174 0.5367918634 -0.3445331828
0.007569921335 0.05084487661 -0.07971197764 -0.3901745721 -0.005068548488 0.9207269482
0.01398468971 0.05737878609 -0.05081495857 0.7542385245 -0.1065520108 0.6478973045
0.01052364826 0.05486787605 -0.07825066757 -0.5019430972 -0.009133331739 0.8648524206
-0.01433946514 0.03739531517 -0.07538077164 0.7128442761 0.01506470706 0.7011605328
0.005739447713 0.02332095671 -0.08036291122 -0.2844854947 0.004328047006 0.958670575
-0.01637480927 0.05520796585 -0.07304922485 0.7870997207 -0.001069613712 0.6168248419
0.01283607388 0.05701267624 -0.04933840179 0.7224582344 -7.666486156e-06 0.6914145642
0.01135161018 0.006928439379 -0.07519244385 -0.558162201 0.3057047198 0.7713621599
0.005724896669 0.02518086624 -0.08036600494 -0.2889427727 0.008062395731 0.9573124213
-0.006285345554 0.02696658039 -0.08021028137 0.3343874313 0.0002287653052 0.9424356707
-0.008481495857 0.03697290421 -0.07935878754 0.4213240138 0.00151348421 0.9069089176
0.01166180944 0.05672130394 -0.04816710091 0.6943480095 -0.01495742997 0.7194839241
0.01049062681 0.05517522621 -0.04709680748 -0.6257120072 0.02571851938 -0.7796300673
0.01292307091 0.04914537048 -0.07658864594 -0.6287409256 -0.006639882494 0.7775864971
0.009863032818 0.05699200821 -0.0466831646 0.587449414 -0.09494621735 0.8036718247
-0.009260176659 0.05689392471 -0.04628724289 -0.5296891313 -0.07377183392 0.8449775977
-0.004551203251 0.02898180962 -0.08065833282 0.2320410856 -0.002535823174 0.9727026803
-0.01046588898 0.05709009171 -0.0470790863 -0.6305965709 -0.08109717174 0.7718621726
-0.01283607388 0.05701267624 -0.04933840179 0.7292076437 0.003310699513 -0.6842844816
0.008189349174 -0.009538132668 -0.065452034 0.3776824567 -0.7169354 -0.5859689361
-0.01398468971 0.05737878609 -0.05081495857 0.7576542879 0.1112206804 -0.6431095865
0.01430190277 0.0392274704 -0.07541743469 -0.7009486981 0.01270626261 0.713098502
0.00553550148 -0.005239104748 -0.07107395172 -0.2746190707 0.6242259369 0.7313865911
-0.01218033838 0.001238741755 -0.07171110535 0.6044095242 0.415182872 0.6799355189
-0.01614751434 0.05906988144 -0.05515189743 0.6639797556 -0.07274162147 -0.7442039644
0.01575415134 0.02883036423 -0.07384261322 0.7516382896 0.00490678312 -0.6595572796
-0.01704188156 0.06021268845 -0.05986613464 0.2926451186 0.9397632521 -0.1766461563
-0.01869973469 0.06060000229 -0.06141293335 0.09007815534 0.7068594387 -0.7015950825
0.01627225685 0.05934916496 -0.07320026016 0.6972174844 0.6684570159 -0.2589459354
-0.02046424675 0.06060000229 -0.0613426857 0.5638255911 0.2469626842 -0.7881054088
-0.006317402124 0.02325305748 -0.08019908905 0.3367474126 0.004916744777 0.9415821821
-0.006301326275 0.02511533165 -0.08020470428 0.3368746406 -0.001480186352 0.9415483448
0.02035196209 0.05928780746 -0.06341496277 0.8537927145 0.5153399121 0.07391059242
-0.006010226965 0.05885211754 -0.08030066299 0.2670786038 -0.1504814718 0.9518531116
0.0140680356 0.05063466644 -0.07564574051 -0.6985626584 -0.009318395286 0.7154882108
0.01895337868 0.06060000229 -0.0663493576 0.9276265357 0.2788871525 -0.2484571721
0.007843095541 0.04301366615 -0.07961457443 -0.3957157526 0.001703604951 0.9183714613
-0.01811911583 0.03690265465 -0.07037454224 0.8799748683 -0.005261588206 0.4749911019
0.01167032576 0.01896600151 -0.07747299957 0.5717844519 -0.04175351125 -0.8193407013
0.00739752388 0.03109402847 -0.07981018066 -0.3625167934 0.002031214532 0.9319750258
0.003345666766 0.04284286118 -0.0808924408 -0.1425851194 -0.007601130705 0.9897533564
0.007861388683 0.0003618637919 -0.07404564667 -0.3927770731 0.4659726529 0.7928402472
0.01877761269 0.05713359833 -0.052240242 -0.1007811429 -0.2482996246 0.9634264153
0.01688125515 0.05915120125 -0.06298566628 -0.1951454147 0.8973272534 -0.3958813804
-0.01100596046 0.0229647522 -0.07798825073 0.5161772539 -0.005756608782 0.8564624359
-0.01906525612 0.05094007301 -0.06837853622 0.8968487721 0.0004187742135 0.4423370938
-0.01547589684 0.04122741699 -0.07415818787 0.7368656829 0.001479107518 0.6760375564
0.01616984749 0.05784293747 -0.05521517944 0.8952725359 -0.05494674986 0.4421175649
0.005486741543 -0.002952483416 -0.07285850525 -0.2374914904 0.5583621961 0.7948770031
0.01510975361 0.05721922684 -0.05270553589 -0.5677727536 -0.5080074626 -0.6477364574
-0.01459181754 0.04473564657 -0.07509755452 0.7120892572 -0.01463828108 0.7019363293
-0.008618896961 0.02536694431 -0.07929894257 0.4262521208 0.006481490422 0.9045811847
0.00928228569 0.05497218704 -0.04629833984 0.5629069684 -0.02142717659 0.8262424711
-0.01957325363 0.035086689 -0.06689379883 0.9248322173 0.0094898911 0.3802569023
0.007655182997 0.05494503657 -0.04534435908 -0.4700425993 -0.003208872614 -0.8826378974
-0.008460193634 0.03877220345 -0.07936806107 0.4205335562 -0.005409283489 0.9072608598
0.01264098454 0.005496819973 -0.07357080841 -0.6079606034 0.3260208268 0.7239435925
0.005600880623 0.05514750671 -0.04444437408 0.3310107472 -0.009269158585 0.943581458
0.01390064144 0.05884353065 -0.07579235458 -0.6076614839 -0.1351189962 0.7826176447
0.003739823818 0.05502475929 -0.04395941925 0.1888543052 -0.006748446362 0.9819819295
0.001248168558 0.05493297386 -0.0435965023 0.06352123398 -0.009469667951 0.9979355582
-0.0006242516637 0.05491994095 -0.04354478836 -0.07187268383 -0.007844559327 0.9973829657
-0.008066439629 0.05477579117 -0.04552408409 0.4500616657 -0.01538934169 -0.8928648639
-0.004389136314 0.05495844841 -0.08067461777 0.2049639363 0.007847787347 0.9787380636
-0.009793024063 0.025125453 -0.07870028305 0.4791085063 -0.006017287802 0.8777350576
-0.00928228569 0.05497218704 -0.04629833984 0.5577629387 0.03653149048 -0.8291959686
-0.0005445030928 0.06060000229 -0.08050502777 -0.003227142571 0.2177742062 -0.9759938425
0.01551345348 -0.0004585160315 -0.06682107544 0.7413528133 -0.4176335921 -0.5253362627
-0.01049062681 0.05517522621 -0.04709680748 -0.6177146277 -0.02198628709 0.7860949319
-0.01976785278 0.02916251087 -0.06626821899 0.932269379 0.007569296034 0.3616856519
-0.004407011032 -0.0106667757 -0.06600923157 -0.2502928055 -0.7262626749 -0.6402312384
-0.01510975361 0.05721922684 -0.05270553589 0.5680832725 -0.507821332 -0.6476101375
0.009563297272 -0.01113721657 -0.06236100769 0.4211044677 -0.7258567754 -0.543877715
-0.01457044196 0.05517335033 -0.07509985161 0.7004731793 0.01189084524 0.7135796612
-0.01616975594 0.0578433075 -0.05521668625 0.8953442255 0.05518033871 -0.4419432634
-0.0187775135 0.05713395691 -0.05224169922 0.1003647706 -0.2486416448 0.9633816717
-0.009660618305 0.03495363808 -0.07876607132 0.4724222472 -0.01349507555 0.88126903
-0.00229090327 0.02298625565 -0.0810492363 0.08828061249 -0.002929938202 0.9960913356
0.003748910069 0.05308058262 -0.04395889091 -0.2310203005 0.0400692225 -0.9721234892
-0.0006257721782 0.05297259903 -0.04354253387 0.07684702716 0.02933651929 -0.9966112096
-0.006217012405 0.03488254929 -0.08023414612 0.3299640907 -0.005671116035 0.9439764495
-0.009767911911 0.02698944283 -0.07871276093 0.4620979218 -0.006662205689 0.8868038823
-0.01895337868 0.06060000229 -0.0663493576 0.9276265357 -0.2788871525 0.2484571721
0.01879438972 0.06004748154 -0.06892027283 0.9312594161 0.09397755165 -0.352028578
-0.02035196209 0.05928780746 -0.06341496277 0.9030224129 -0.400955155 0.1542254373
0.0189918375 0.05339047813 -0.06853230667 0.8935354502 0.002075079309 -0.4489878544
0.005293727875 0.05680641429 -0.08046438599 -0.2702991535 0.0009889506587 0.9627758771
0.005662734032 0.03312646675 -0.08037920952 -0.2820158149 0.006860633146 0.959385226
0.0130001173 0.04498796272 -0.07653436661 -0.6457829685 -0.0134763598 0.7634020863
0.006357248783 0.01883659363 -0.08010896301 -0.3037635282 0.05592848317 0.9511044757
0.01880436134 0.05588762283 -0.05229345703 -0.1267552872 -0.04504112043 0.9909108914
0.01522878551 0.06060000229 -0.07124401855 -0.2515899617 -0.962288457 0.1034573184
0.01530128813 0.0490681057 -0.07433275604 0.7253505345 0.0001058465668 -0.6883796851
0.01409678173 0.06060000229 -0.07127568054 -0.2515899617 -0.962288457 0.1034573184
-0.0194879303 0.0376842041 -0.06716808319 0.9189691123 0.01013288444 0.3941993091
-0.0059956007 0.06055563736 -0.08030226898 -0.2417717785 0.3158953519 -0.9174729063
0.020036026 0.02106864548 -0.06537930679 0.9974096122 0.02566786759 -0.06719543212
0.01401675797 0.05549232864 -0.0508519783 0.7912612623 -0.01852954188 0.6111974075
0.01451719904 0.02872609711 -0.07520726013 0.7087864243 0.01148981444 -0.7053295605
0.01286566162 0.05511552429 -0.04937221146 0.7366628638 -0.02065034881 0.6759448115
-0.01446584606 0.05070878728 -0.07522125244 0.7030444535 -0.006786018915 0.7111135256
0.01168916893 0.05481354904 -0.04818966675 -0.6890006124 0.02043776182 -0.724472535
0.007261331558 0.05317950312 -0.04517164358 -0.3964515943 0.01440528613 -0.9179426023
-0.01073734188 0.04074083138 -0.07813135147 0.5034575989 -0.008807625301 0.8639750412
0.001180722892 0.006612366676 -0.07865535355 -0.05665898023 0.3432977782 0.9375160774
0.005614385843 0.05320783997 -0.0444490757 0.3316665025 -0.01982591735 0.9431883503
-0.01983351898 0.02716339684 -0.06605712128 0.9994668818 -0.03246664767 0.003445140419
0.001251208007 0.05298600483 -0.0435943737 -0.0590691446 0.03576782907 -0.9976129002
0.01535463524 0.04667156029 -0.07427980804 0.7304663646 0.003768440652 -0.6829382762
-0.002501363605 0.05301960468 -0.04372366238 0.152021672 0.05847849298 -0.9866456695
-0.004371736765 0.0531213665 -0.04411667061 0.2585001598 0.0612848169 -0.9640652668
-0.02045222092 0.0573090744 -0.06276798248 0.8632073031 -0.07691104578 -0.4989567545
-0.007293434381 0.04131115341 -0.07983523178 0.3602315835 0.01131282375 0.9327943108
0.01299366856 -0.002457973719 -0.0683745575 0.642037193 -0.4927612248 -0.5873453993
-0.00623178196 0.05327748394 -0.04471870422 0.3566336772 0.02997153312 -0.9337634216
-0.01880422401 0.05588811874 -0.05229543686 0.1263741122 -0.04545178491 0.9909408252
-0.01791334724 0.004785923004 -0.06631219482 0.8786723473 0.2399069491 0.4127705922
-0.01550331116 0.04000601959 -0.07412709045 0.7636203975 -0.0001157735875 0.6456654514
-0.01091192627 0.02919236755 -0.07803651428 0.5090024852 0.00578905879 0.8607455819
-0.01879438972 0.06004748154 -0.06892027283 0.9286007143 -0.09474426709 0.3587816011
0.02045222092 0.0573090744 -0.06276798248 0.9813805072 0.1027786652 0.1622616595
0.01883005905 0.05884489059 -0.06885018921 0.9343965951 0.08192210977 -0.3466868486
0.01570233727 -0.003152133465 -0.06414648438 0.7600674834 -0.450008169 -0.4688177349
0.01784643078 0.0468433857 -0.07088697052 0.8751931996 0.009983032793 -0.4836705515
-0.008575031281 0.02907217312 -0.07931804657 0.4250822951 7.515961082e-05 0.9051547032
0.01752526283 0.05888627625 -0.07136265945 0.7060152782 0.3729056393 -0.6020662847
-0.01655682945 0.004480576992 -0.06857337952 0.785424138 0.3063194465 0.5378450708
0.009324204445 0.03117092832 -0.07893984731 -0.4460568818 0.0117195098 0.8949278805
0.0138654871 0.0605825386 -0.07581739044 0.6047732299 0.1960334909 -0.7718939116
0.009882781029 0.06013241005 -0.07861499786 -0.4606837403 -0.497215788 0.7352189821
-0.004735906363 0.006297001839 -0.07800232315 0.2371406674 0.3434056658 0.9087556616
-0.0005568732619 0.04293809891 -0.0811816597 0.02837321504 -0.00721911328 0.9995713307
0.01296698666 0.05952516174 -0.07168782806 -0.1456759785 0.9473930634 -0.2849998119
0.007479130507 0.02308376789 -0.0797905426 0.36548629 -0.002936383726 -0.9308120914
0.009417592049 0.06060000229 -0.0759812088 -0.2638838695 -0.8964268721 0.3560676431
-0.007215600967 0.0489510498 -0.07985396576 0.3546948292 -0.002097472015 0.9349797745
0.009961992264 0.01410525417 -0.0780349884 -0.4805031652 0.1512365195 0.8638542837
0.01329355574 0.02915405369 -0.0763276329 -0.6613086687 -0.004415883668 0.7501008897
0.01306677628 0.04139107132 -0.07648740005 -0.6534695593 0.009478727518 0.7568934461
-0.008085758209 0.05284302521 -0.04553339005 0.4356676241 -0.01826129162 -0.8999223558
0.01543524408 0.04305033684 -0.0741998024 0.7303080102 0.002477466013 -0.6831135136
-0.0189918375 0.05339047813 -0.06853230667 0.8935050872 -0.002108113048 0.449048121
0.001163003013 0.01327911687 -0.08045156479 -0.05539558805 0.1799329618 0.9821178433
-0.008862916946 0.06060000229 -0.07599026108 -0.2672793778 0.8460460152 -0.461267682
-0.01052753639 0.06060000229 -0.07596083069 0.3329026722 -0.8743259339 0.353171307
0.01317924452 0.03532228851 -0.07640816498 -0.6547269159 0.0008235529894 0.755865059
-0.01056569862 -0.005388415337 -0.06806430817 0.5268752814 0.5782369088 0.6229321915
-0.007317679405 0.03893133545 -0.07982939911 0.3619286298 -0.004882225257 0.9321930223
-0.002271737993 0.02913502979 -0.08105118561 -0.08819220253 -0.00168315328 -0.9961020542
-0.0116381464 0.06060000229 -0.07593818665 -0.3673653469 0.5661431301 -0.7379191406
0.01446598434 0.03122415733 -0.07525725937 -0.7063626581 0.008606896685 0.7077977935
-0.01296698666 0.05952516174 -0.07168782806 0.02970963995 0.9900212884 -0.1377504474
-0.009742947102 0.02884254932 -0.07872516251 0.4835732005 -0.009208484477 0.8752554847
-0.01445864964 0.06042899132 -0.07519887543 -0.5017216331 0.8084924393 -0.3075961288
0.01245782232 0.01110620928 -0.07570479965 0.5873133049 -0.2236056436 -0.7778583406
-0.007416198015 0.02926104736 -0.07980568695 0.3657119231 0.009034145496 0.9306842502
-0.01627230072 0.05934898949 -0.07319957352 0.6307819748 -0.6653456539 0.3992859391
0.01124127674 0.01084124279 -0.076545578 -0.5542513304 0.1969474327 0.8087132814
-0.01750950813 0.05947983932 -0.07138492584 0.7479478829 -0.3646155448 0.5546435513
-0.01883005905 0.05884489059 -0.06885018921 0.9312231043 -0.08387658439 0.3546663906
0.02051955414 0.0559801445 -0.06233346558 0.8544859183 0.2000466854 0.4794112421
0.01888376045 0.05703428078 -0.06874466705 0.8893630969 0.0008976289643 -0.4572006957
0.01507778549 0.05910865402 -0.07455458069 0.7668933887 0.4591746393 -0.448367239
0.01158670187 0.05931168365 -0.07763144302 -0.40301329 -0.4391576032 0.8029451336
-0.01641905403 0.05342061424 -0.07298432541 0.7872753084 0.008250435441 0.6165464452
-0.007378953457 0.03291684341 -0.07981465149 0.3655442113 -0.00250340297 0.9307906116
0.007652128935 0.06039567566 -0.0796649437 -0.2728476826 -0.7887815806 0.5507973857
0.005995601177 0.06055562973 -0.08030223846 0.2249001485 0.5799785912 -0.7829717473
-0.01471593475 0.01917232704 -0.07495983887 0.6923417423 0.04299770275 0.7202875186
0.004973359108 0.05967674255 -0.07692144012 -0.1746851313 0.9727185288 -0.1526557195
0.01149834919 0.002575981855 -0.0730676651 -0.5625775138 0.4017693088 0.7225565469
0.003267337441 0.06060000229 -0.08049555969 0.0637904158 0.1519644319 -0.9863252984
0.001089022934 0.06060000229 -0.08050397491 0.02030279955 0.2049614064 -0.9785594607
0.00973251311 0.0574850235 -0.0787046051 -0.490079409 -0.01006128775 0.8716197241
-0.008431937218 0.04115901375 -0.07938037109 0.4193118544 0.005675601751 0.9078245185
-0.01925715828 0.006463212013 -0.06401602173 0.9062242416 0.226540001 0.3569835458
0.005551275015 0.04737112331 -0.08040382767 -0.275021342 0.008263727735 0.9614026067
-0.01806739235 0.0387876358 -0.07047195435 0.8885674808 -0.0247798814 0.4580761832
0.001135419875 0.02917238617 -0.08114696503 -0.03185371425 0.001734388731 0.9994910369
-0.002178112984 0.06060000229 -0.08050082016 -0.0553028589 0.1887845127 -0.9804600969
-0.007460128307 0.02494895935 -0.07979511261 0.368522201 -0.005666769395 0.9296016755
-0.003811991692 0.06060000229 -0.08049240112 -0.2226769691 0.432102619 -0.8739006203
-0.009523622513 0.04512255096 -0.07883414459 -0.4647507838 -0.0008810490469 -0.885441095
0.01645319748 0.006370975494 -0.06973243713 0.7861517822 -0.2653086529 -0.5581905536
-0.004973359108 0.05967674255 -0.07692144012 0.1688300532 -0.9856167985 -0.007479274244
-0.01762045383 0.05530962181 -0.07122444916 0.8662393064 0.006203396432 0.4995908145
0.01311155224 0.03897496796 -0.07645585632 -0.6476929474 -0.01631463477 0.7617267742
0.01063823891 0.04727669144 -0.07819268799 -0.5194291676 -0.0002460566788 0.8545134752
-0.007098452091 0.06045004654 -0.079882164 -0.2655971594 0.2539634675 -0.9300326371
-0.01789692307 0.04500024796 -0.07079302216 0.8731579025 -0.008873121788 0.4873566918
-0.01044542503 0.06005066299 -0.07828993225 -0.5595874575 0.4318702347 -0.7073542096
-0.01216284347 0.05919532013 -0.07717481995 -0.4643341299 0.4380355193 -0.7697523626
-0.01487595177 -0.0009008916169 -0.06732843781 0.715851247 0.4278000183 0.5518551771
-0.01754114914 0.0582922287 -0.07133851624 0.7662286308 -0.2318010505 0.5993012251
0.01931890488 0.04281945419 -0.06771543121 0.9106961831 -0.0101066905 -0.4129531655
-0.006129770517 0.04498889542 -0.08026461029 0.2980740419 -0.009757936525 0.9544928749
0.005461179495 0.05888397694 -0.08042520714 -0.2685356896 -0.2126179402 0.939511679
-0.02051955414 0.0559801445 -0.06233346558 0.8544859183 -0.2000466854 -0.4794112421
0.001251123071 -0.009774282932 -0.06771393967 2.881811404e-05 0.8859563435 0.4637686455
-0.0005791013837 0.01535407639 -0.08081127167 0.03054032882 0.1357693682 0.9902696436
0.01757273865 0.05710198593 -0.07129390717 0.8653726378 0.004034925883 -0.501112679
-0.01602744102 0.01719456863 -0.07332642365 0.7718799158 0.07351587066 0.6315036123
0.01633063698 0.05698771667 -0.07311579132 0.778406838 0.0005017882194 -0.6277599404
0.005355415821 0.004563508511 -0.07714640045 0.2585672317 -0.3854320222 -0.885768109
0.003438864708 0.02291701794 -0.080883255 -0.1664285888 -0.005016601965 0.9860407489
0.01511687326 0.05735265732 -0.07451578522 0.7129003634 -0.008232918142 -0.701217007
0.009899138451 0.05898734474 -0.07860678864 -0.4828992881 -0.3852782464 0.7863643878
0.007670898914 0.05868658161 -0.07966021919 -0.2536408115 -0.1617401638 0.9536804801
0.003270063579 0.05900598717 -0.08089909172 -0.1186181228 -0.07626727181 0.990006588
-0.002178666115 0.05904188824 -0.08103879738 0.077218174 -0.1087153205 0.9910692875
0.006792386532 -0.00574348259 -0.07009172058 -0.3144622127 0.6297005821 0.7103454749
0.0010889927 0.05906284618 -0.08112042999 -0.02211788925 -0.1156920679 0.9930388433
0.009245757103 0.03723881912 -0.07897738393 -0.4385491952 0.01144282587 0.8986343334
-0.0005443540514 0.05907345009 -0.08116123199 0.02957869746 -0.1245909529 0.9917672081
0.007733942628 0.05294608402 -0.07964435387 -0.3957996553 -0.00765021332 0.9183050185
-0.01938224983 0.04090145493 -0.06750782013 0.9152819789 0.01134942102 0.4026538087
-0.004364255071 0.05894847488 -0.08067624855 0.2467093961 -0.1669796294 0.9545953474
0.01551706219 0.0393933773 -0.07411149597 0.7406662452 -0.005704695171 -0.6718489187
-0.007115846157 0.05874272156 -0.07987797546 0.2810680914 -0.1582183522 0.9465556936
0.01496828556 0.01065181446 -0.07326650238 0.7077286975 -0.2073879379 -0.675359411
-0.02021398735 0.01729403687 -0.06417961121 0.9974095224 -0.02566746844 0.06719691692
-0.008595830282 0.05877713648 -0.07927204386 0.512946775 -0.1429816092 0.8464288897
-0.01046276474 0.05890367508 -0.07828051758 0.5208591656 -0.4581538759 0.7202782487
-0.01472321892 0.05726807149 -0.07493293508 0.7001781321 0.007892018518 0.7139245754
-0.01633076572 0.05698719025 -0.07311382294 0.7836024588 -0.01086120472 0.621167627
-0.01757287216 0.05710147858 -0.07129198456 0.8660611941 0.0006219434086 0.4999376174
0.0164631424 0.05162798691 -0.07292408752 0.7821717518 -0.005122338391 -0.6230418223
-0.009369592667 -0.007226719856 -0.06720134735 -0.4611326826 -0.6405375879 -0.6140588307
-0.004872359753 -0.002813980103 -0.07313050461 0.2259064408 0.5651340195 0.7934669621
0.01893766785 0.05521679306 -0.06863874054 0.8910792151 0.002399712709 -0.4538414632
0.01762036419 0.05530996704 -0.07122573853 0.8663374897 -0.006775707169 -0.4994130993
0.005710431218 0.02702980661 -0.08036907387 -0.2886684824 -0.001168071662 0.9574284009
0.0127819376 0.05676093102 -0.07668807602 -0.6235782475 -0.005442054516 0.7817419992
-0.006059521675 0.05312868881 -0.08028841019 0.2929004323 9.3519218e-05 0.9561429433
0.01153809675 0.03917406464 -0.07762787374 -0.5764910534 0.004172839923 0.8170928054
0.01162561369 0.05700351524 -0.07760454559 -0.579877913 -0.09177405546 0.8095178372
-0.01912153053 0.04908919144 -0.06825022125 0.8988570298 -0.001190009046 0.4382403722
-0.0005550560355 0.04528022385 -0.08117869568 0.02795008846 0.007637664893 0.9995801412
0.009081676483 0.03505968952 -0.07905997658 -0.4407900173 -0.007564707154 0.8975783731
-0.01264173985 0.02080185827 -0.07682072449 0.6059526963 0.01308583588 0.7953930417
-0.008987922351 0.05720462163 -0.07909151967 0.4351019106 0.007191200806 0.9003524943
-0.01048885727 0.05717769241 -0.07826633835 0.4874576021 0.004478981118 0.8731351699
-0.01220377564 0.05688222313 -0.07714631081 0.6096094918 -0.07581414952 0.78906811
-0.01893766785 0.05521679306 -0.06863874054 0.8910044811 -0.002452789548 0.4539878836
-0.0005523491502 0.04876897049 -0.08117427826 0.02408573619 -0.007907619518 0.9996786218
0.01516921329 0.05500136757 -0.07446384048 0.7178745142 -0.005899663883 -0.6961475245
0.01976636124 0.02916962814 -0.06628762054 0.9317466414 -0.008380566704 -0.3630123447
0.01397167063 0.0553453331 -0.07573586273 -0.6874340409 0.00437330128 0.7262336495
-0.01794778156 0.04314677238 -0.07069723511 0.8782547803 0.008331210171 0.4781204156
0.01531523482 0.01291523075 -0.07344153086 0.7551942434 -0.1410686254 -0.6401416232
0.007708632112 0.05525075722 -0.0796507225 -0.3936330822 0.003822425249 0.9192596944
0.0104974699 0.05660206223 -0.07826390839 -0.5001981469 -0.00571994501 0.8658920811
0.007689727306 0.05697212219 -0.07965547943 -0.3909222968 0.005989732438 0.9204041943
0.01433946514 0.03739531517 -0.07538077164 -0.699802954 0.01331625677 0.7142118053
0.001092517421 0.05679221058 -0.08112317276 -0.03374980123 -0.03779635755 0.998715368
-0.01064749193 0.04668424416 -0.07818016052 0.4989312601 -0.01128102354 0.8665681371
-0.01426453829 0.04104997253 -0.07545391464 0.7106049178 -0.001297185693 0.7035900569
-0.0005461154878 0.05680325127 -0.08116410446 0.02794322132 -0.03779410478 0.9988947803
-0.004242001613 0.04882307943 -0.08071442668 0.2067855399 -0.007679738538 0.978356153
-0.02031210899 0.01562619495 -0.06336026382 0.9974090741 -0.0256638281 0.06720496126
0.005673204422 0.05525873947 -0.08037785594 -0.2721358645 0.008544190209 0.962220904
-0.002185719967 0.05677035618 -0.08104127693 0.1047608565 -0.03399641062 0.9939161972
-0.006024913311 0.05714313507 -0.08029846191 0.2918069602 0.01494521418 0.9563604648
0.01547589684 0.04122741699 -0.07415818787 0.7345501505 -0.009697142712 -0.678485108
-0.007133294106 0.05703004456 -0.07987377167 0.352618361 0.01142363691 0.9356974896
-0.01824082565 0.03246709824 -0.07014530945 0.8745508693 -0.01055144627 0.4848189806
-0.004628246188 0.01710218477 -0.08047231293 0.2368365055 0.07123426596 0.9689345432
0.01768376923 0.0529112072 -0.07113994217 0.8659722759 0.00954369609 -0.5000009353
0.01917848015 0.04722683334 -0.06811627197 0.9014205368 -0.002443144598 -0.4329376941
0.01281429005 0.0550151825 -0.0766652832 -0.6243404168 -0.01025746542 0.7810850327
0.0111227986 0.04086120351 -0.07789444987 -0.5486365244 -0.01210682052 0.8359733184
-0.01756209946 0.01109157944 -0.06983864212 0.8612210998 0.1487507646 0.4859747187
0.01166483688 0.05468318939 -0.07757501984 -0.571582961 -0.007439004115 0.8205105605
-0.0005689979792 0.0273545866 -0.0811848526 -0.03133619671 -0.002329774418 -0.9995061855
-0.002210726798 0.04873012161 -0.08104629326 0.1134997013 -0.004828481285 0.9935262974
0.005587999105 0.04267915726 -0.08039508438 -0.2737418203 -0.009919264779 0.9617520595
0.01791334724 0.004785924435 -0.06631219482 0.8786722919 -0.2399073707 -0.4127704653
0.009389761448 0.05504710197 -0.07890512085 -0.4639447656 0.001376788238 0.8858630588
0.01925721931 0.04472009468 -0.06790504837 0.9055188706 -0.007698319175 -0.4242361499
-0.008930982351 0.04697678089 -0.07912643814 0.4171192684 -0.007083277904 0.9088241541
-0.006039710283 0.05542672157 -0.08029416656 0.2862038117 0.003327468885 0.9581629851
-0.01632917976 0.008956217766 -0.07099608994 0.777217925 0.230222193 0.5856022874
0.01592586327 0.02118013954 -0.07364788055 0.7581007512 -0.009811884675 -0.6520636303
-0.007150812864 0.0553104763 -0.07986955643 0.3534064198 0.0116684614 0.9353971079
-0.008828167677 0.05511862373 -0.07916690826 0.4328457865 0.007395030772 0.901437651
-0.002310025811 0.01728393602 -0.08088355637 0.0931753084 0.08680996353 0.9918580504
-0.01430190277 0.0392274704 -0.07541743469 0.7023202994 0.01754324776 0.7116448774
-0.01052378988 0.05486695099 -0.07824736404 0.4921520259 -0.004824866027 0.8704958955
-0.01768376923 0.0529112072 -0.07113994217 0.8679003076 -0.01287280394 0.496571593
0.01906525612 0.05094007301 -0.06837853622 0.8968487721 -0.0004187742135 -0.4423370938
-0.01671895409 0.04130564308 -0.07254445267 0.8015709556 0.01013919739 0.5978136832
0.01522182798 0.05263772774 -0.07441161728 0.7274074759 -0.004500341056 -0.6861910164
0.001819674969 -0.002322969675 -0.0740949173 -0.1095886767 0.5544925223 0.824941431
0.01401961803 0.05299683189 -0.07569280624 -0.690385662 0.003456264504 0.7234332671
0.003288686514 0.05502041435 -0.08089940643 -0.1374665258 0.01082364314 0.9904472742
-0.002447567523 -0.004567874432 -0.07237950897 0.1099603377 0.6102991219 0.7845022026
0.001095171422 0.05508245659 -0.08112523651 -0.02827432848 0.007923641836 0.9995687962
-0.002191031396 0.05505992317 -0.08104314423 0.1038797568 0.009343601622 0.9945459734
-0.01662802505 0.04497886086 -0.07267782211 0.7948556407 -0.005365989424 0.6067748484
0.002905400276 0.01389838028 -0.08040729523 -0.1317905778 0.1512416535 0.9796719889
-0.008879345894 0.05106678963 -0.07914642715 0.4163236204 -0.00147561402 0.9092153021
0.01278698444 0.001841689825 -0.07155804443 -0.6302900492 0.4026754234 0.6637672464
-0.01246264744 0.05315316264 -0.07694585673 0.6168268049 0.00691182052 0.7870685609
-0.01462072301 0.05281727982 -0.07505221176 0.7029277512 -0.01376727219 0.7111280046
0.01054991436 0.05312784958 -0.07823737335 -0.5109784776 -0.002495046231 0.8595898848
0.003318328917 0.04868459797 -0.08089615059 -0.1395108064 -0.01073891481 0.9901623153
0.009420947075 0.05273227119 -0.07888960648 -0.4650115957 -0.003728067106 0.8852967398
0.01459470654 0.02494554329 -0.07513159943 0.7147586878 0.001158538026 -0.6993701995
0.005505911112 0.0531645422 -0.08041576195 -0.2706976887 0.005788840405 0.9626470021
0.007633020401 0.01111846733 -0.07855408859 -0.3897492786 0.2239425065 0.8932778143
0.00329672426 0.05330123425 -0.08089908409 -0.1392169686 0.006780976955 0.9902386854
-0.0005487735271 0.05337740517 -0.08116844177 0.02759940723 0.007221087169 0.9995929815
-0.002196369946 0.05334234238 -0.08104455757 0.1129301624 0.001586762827 0.9936016609
0.003307498276 0.05099895668 -0.08089761925 -0.1395446896 -0.0009373724378 0.9902153306
-0.0005505566895 0.05107917595 -0.08117135239 0.02799037752 0.0007334294482 0.9996079236
-0.004399868309 0.05323745632 -0.08067391586 0.2053301669 0.006020358844 0.978674245
0.01426453829 0.04104997253 -0.07545391464 -0.6831447767 0.005434518032 0.7302627473
-0.00717426753 0.05300822258 -0.07986391068 0.3530706619 -0.001161492078 0.9355959377
0.007295911074 -0.001437594175 -0.07315789795 -0.3568613207 0.521857726 0.774799659
0.01579673719 0.02693306446 -0.07379431915 0.7530563246 -0.002641111312 -0.6579507554
-0.01289599578 0.02906557274 -0.07663400777 0.6038177732 0.001804198749 0.7971203433
-0.008857366562 0.052807477 -0.07915502357 0.4173270196 -0.004339459963 0.9087460194
-0.01067430305 0.04491071701 -0.07816559601 0.4999549192 -0.007932548474 0.8660151
-0.01055009937 0.05312661362 -0.07823307037 0.4937244669 0.004148007778 0.8696085009
-0.01773148918 0.05110400009 -0.07107608032 0.8696097309 -0.001349178805 0.4937378815
0.0134464817 0.02096319389 -0.07619658661 -0.6583368734 0.01305138328 0.7526102727
0.01912153053 0.04908919144 -0.06825022125 0.8988570298 0.001190009046 -0.4382403722
-0.007354327202 0.03533408928 -0.07982057571 0.3630543106 0.01135103215 0.9316988363
-0.004717022657 0.007873124838 -0.07855815887 0.2512196023 0.316916871 0.9145777213
-0.006150099277 0.04263393784 -0.08025751114 0.3218965554 -0.00531775836 0.946759911
-0.01883208275 0.0136040144 -0.06800627136 0.8901954717 0.1137787892 0.4411421645
0.01778031254 0.04928450584 -0.07099947739 0.8697672669 -0.006758656806 -0.4934158712
0.01649281883 0.05042762756 -0.07288114929 0.7830572364 -0.001823437864 -0.6219469749
0.01526146698 0.05085702896 -0.07437227631 0.7290156801 -0.006094658579 -0.6844698629
0.00520933938 0.01704452133 -0.08034189987 -0.251514256 0.09152765269 0.9635160963
0.01687131214 0.0351095562 -0.07233676529 0.8135040913 -0.004222130688 -0.5815438651
-0.002131565849 0.01347375202 -0.08041108449 0.1004614151 0.1647600812 0.9812041682
0.01289029169 0.05091415215 -0.07661174011 -0.6356955188 -0.007536702257 0.7719031063
-0.01712004757 0.02497355843 -0.07200551987 0.8384966611 -0.001237256386 0.5449053299
0.01172405338 0.05118014526 -0.07753043747 -0.5732456889 0.007908496855 0.8193453703
0.01950761032 0.03704327393 -0.06712078094 0.9214319571 -0.009321275281 -0.388427937
0.01386112595 0.006503346443 -0.07288147736 -0.6731858284 0.2818314325 0.6836606498
0.01850739288 0.02276172829 -0.06963965607 0.8641055478 -0.001324157561 -0.5033089
0.01144052219 0.04515640132 -0.07769509633 -0.5752904822 0.006812547143 0.8179208093
0.01057629347 0.05138031769 -0.07822402954 -0.5057940904 0.00972906821 0.8625993759
-0.01230717254 0.0510471487 -0.07707108879 0.6128975335 -0.004770113864 0.7901479985
-0.006921537399 0.02066495514 -0.07997875214 0.3470168799 0.02568168528 0.9375071926
-0.01467321396 0.02112210274 -0.07505272293 0.6926632349 0.01799602293 0.7210366053
-0.01778031254 0.04928450584 -0.07099947739 0.8717711071 0.01012186504 0.4898088246
-0.004683974266 0.01088243008 -0.07943353653 0.2220644744 0.2275926557 0.9480975436
-0.004385041316 0.02490343666 -0.08069668325 0.2127425257 -0.007434834285 0.9770800075
-0.01267602539 0.04129261017 -0.07679229991 0.6207351912 0.004429220565 0.7840077834
-0.01911707115 0.008472147942 -0.06546257782 0.901308422 0.1882078843 0.3901549958
0.0165225811 0.04922378159 -0.07283809662 0.78509573 -0.003721731765 -0.6193632564
0.01341083431 0.02287061596 -0.0762278595 -0.6662284969 0.0001096604049 0.7457476637
0.009444437981 0.05098865891 -0.07887792969 -0.4691478323 -0.002655098507 0.883115656
0.005523979068 0.05085643101 -0.08041122818 -0.2729947677 -0.007057440341 0.9619896306
0.001101404592 0.0510670166 -0.0811300869 -0.04702232 -0.0001939712565 0.9988938201
0.01656739998 0.04741089821 -0.07277325058 0.7937977609 -0.008614236437 -0.608120802
-0.01368917847 0.01130781746 -0.07471144867 0.6657431718 0.1917187892 0.721131011
-0.002203529626 0.05104224396 -0.0810454216 0.1236580236 -0.001097913736 0.9923242856
-0.00719784236 0.05069418335 -0.07985824203 0.3522434937 -0.01304047029 0.9358175395
-0.004414238214 0.05093305683 -0.08067297363 0.2064586904 -0.007110102109 0.9784294842
-0.006079445124 0.05081875801 -0.08028218079 0.2926237803 -0.01155090906 0.9561578843
0.001191363633 0.003317377925 -0.0773067131 -0.03764570847 0.4220801145 0.9057765605
0.001142104879 0.02488124323 -0.0811464119 -0.03733409605 0.0002728714297 0.9993028024
-0.01490236696 0.04899701945 -0.07475854492 0.7150382211 0.01761224227 0.6988634712
-0.01652299118 0.04922193909 -0.07283187866 0.7894466726 0.002512332497 0.6138140103
-0.01917848015 0.04722683334 -0.06811627197 0.9014369023 0.00247534028 0.4329034349
0.01410452461 0.04885484695 -0.07561012268 0.6986009485 0.02384924559 -0.7151139267
0.01176379681 0.04882908821 -0.0775005188 -0.576666736 -0.004007285502 0.816969655
0.001158474058 0.01533773136 -0.08077494812 -0.03592525227 0.1282385795 0.9910924493
0.007961620331 0.04925099818 -0.07956071218 -0.3948809037 0.008217433715 0.9186955675
0.01128248 0.04301247215 -0.07779283142 -0.5468735075 -4.70199902e-07 0.8372152452
0.01655682945 0.004480576992 -0.06857337952 0.7918575983 -0.3018124444 -0.5309150519
-0.008901418447 0.04931845379 -0.07913788223 0.4368783777 0.009016036095 0.8994753995
-0.004807037592 0.001143573225 -0.07561411667 0.2307427419 0.4681561918 0.8529874367
0.01602744102 0.01719456863 -0.07332642365 0.7713616833 -0.06576038835 -0.6329903039
-0.01061191034 0.04903791428 -0.07819949341 0.4971093383 0.002706297037 0.8676836876
-0.01656787682 0.04740870857 -0.07276604462 0.7950858869 0.01032489659 0.6064089618
-0.01784643078 0.0468433857 -0.07088697052 0.8749611711 -0.009981608305 0.4840901946
0.01414118671 0.04706661797 -0.07557432938 -0.6773725184 0.01194279193 0.7355432285
0.00345718348 0.01914721584 -0.08082535172 -0.1793575493 0.04713743354 0.9826540245
0.01295600176 0.047368433 -0.07656544495 -0.6324176445 0.001987655847 0.7746250526
-0.004513409019 0.03503824043 -0.08066274643 -0.2107655164 0.003184782529 -0.9775314595
-0.008189349174 -0.009538125992 -0.06545204926 -0.3776826811 -0.7169352038 -0.5859690316
0.005615809202 0.03912442875 -0.08038917732 -0.2700032623 0.002298650394 0.9628566636
-0.00553550148 -0.005239104748 -0.07107395172 0.2760687543 0.6123823847 0.7407927225
0.003327893813 0.009049262683 -0.07920814768 -0.1457509962 0.2774522666 0.9496193379
0.005537596464 0.04911769104 -0.08040753937 -0.273148143 0.002868217519 0.9619677049
0.001104991406 0.04875635624 -0.08113287926 -0.03630692854 -0.004270116884 0.9993315631
-0.01256858158 0.04726483663 -0.07686962128 0.6255827662 0.006925874703 0.7801270633
0.01839966679 0.02667826557 -0.06984614563 0.858929826 -0.001329709478 -0.5120915796
-0.01474791098 0.04686908913 -0.07492706871 0.7195324391 0.003071112178 0.6944520411
-0.01925728607 0.04471981812 -0.06790416336 0.9056534117 0.00811871205 0.4239410151
-0.0005596213639 0.03939892387 -0.08118510056 0.0282887757 0.008187911029 0.9995662576
0.01509913349 0.007397371769 -0.07194403839 0.708737227 -0.266741406 -0.6531007315
-0.009843641281 0.02136822414 -0.07867512894 0.4767516994 0.02097131929 0.8787878133
0.01789692307 0.04500024796 -0.07079302216 0.8734481216 0.008973826886 -0.4868345194
0.01662746048 0.04498153687 -0.07268635559 0.7967829744 0.002816715 -0.6042590155
0.00949963522 0.04689152718 -0.07885047531 -0.471242973 -0.004287516014 0.8819930145
0.007797797322 0.04713175011 -0.07962828445 -0.4028397242 0.004810092004 0.9152578979
-0.004476212502 0.04099884415 -0.08066708374 -0.2092535498 0.003416180803 -0.9778554503
-0.004622620662 0.04724662272 -0.08062915293 0.2267195244 0.009473141138 0.9739140192
0.01442779446 0.03308691788 -0.07529454041 0.7077381722 0.002727764996 -0.7064695598
