# .PCD v0.7 - Point Cloud Data file format
VERSION 0.7
FIELDS x y z normal_x normal_y normal_z
SIZE 4 4 4 4 4 4
TYPE F F F F F F
COUNT 1 1 1 1 1 1
WIDTH 359
HEIGHT 1
VIEWPOINT 0 0 0 1 0 0 0
POINTS 359
DATA ascii
0.01879438972 0.06004748154 -0.06892027283 0.8495719403 0.4230029909 -0.3151126593
-0.01509859753 0.05784142494 -0.0526866169 0.671259344 0.7016930773 -0.2388257069
-0.01624899826 0.005413416195 -0.06940730896 0.7882564531 0.276601221 0.5496758397
-0.0005677572091 0.02917593447 -0.08115960693 0.08126083334 0.01693991354 0.9965489031
0.009348732948 0.05981466293 -0.04227589035 -0.3931410899 0.251415023 -0.8844379965
-0.01694911194 0.06060000229 -0.05103291321 0.419170126 0.8723045083 -0.2517563311
0 0.06058665085 -0.04004697037 -0.07434151438 -0.2382992869 0.9683422892
0.01138399458 0.06035861588 -0.04602436447 -0.6124152458 0.3737731835 -0.6965925452
-0.008535659041 0.0598625679 -0.04571369825 0.4721215084 0.3135280774 -0.8238940624
0.007402488391 0.05984886678 -0.0452764581 -0.4568055548 0.1986352943 -0.8671059364
0.003097159863 0.060154157 -0.04385838318 -0.08665522402 0.206674399 -0.974564808
-0.01616975594 0.0578433075 -0.05521668625 0.2961345062 0.9548717187 0.02289879948
0.01474171098 0.06012398148 -0.05086232376 0.7461024566 -0.4142522906 0.521273598
-0.0006200008392 0.06008979925 -0.0435850118 -0.06135272289 -0.1739373335 0.9828436536
-0.01537865734 0.001777306676 -0.06861004639 0.7803906709 0.33861097 0.5256738645
0.01963394737 0.06060000229 -0.05624770737 0.3513430008 0.9354624549 0.03831567915
-0.004332185904 0.0602153511 -0.04411782074 0.1739081912 0.2140731523 -0.9612120612
0.01130594215 0.001126369786 -0.07231449432 -0.5445731918 0.4366932383 0.7160579965
0.00341153566 0.02905578883 -0.08085155741 -0.1079553489 0.00175803328 0.9941541892
0.01535629845 0.05964034653 -0.04694669342 0.6856745251 -0.3913809315 0.6137356207
0.01708104324 -0.002861134052 -0.06186227417 0.8037405136 -0.423951593 -0.4174520733
0.01629357656 0.03291108831 -0.07310685857 0.792813951 0.03308304213 -0.6085651579
-0.009348732948 0.05981466293 -0.04227589035 0.2675884288 0.2694069524 -0.9251034141
-0.01231812143 0.06060000229 -0.04566370583 0.640953198 0.4174778981 -0.6441204876
0.01807223511 0.002561206102 -0.06447723389 0.8377503123 -0.3129100499 -0.447506106
0.01755723 0.06060000229 -0.05101037598 -0.5450444418 0.7522658913 -0.3701656186
0.02048588753 0.05664460945 -0.06255072403 0.8145814117 0.5708110457 -0.1031109775
0.01514257298 0.06010441742 -0.07297519226 0.7079056798 0.2167812748 -0.6722168009
0.01220165968 0.06002610016 -0.04870594215 0.6530929736 -0.502082374 0.5669063922
-0.01963602161 0.06027248573 -0.06498959541 0.8701728639 -0.4898118248 0.05369882043
0.007287451047 0.05683170377 -0.04523962549 -0.4568055548 0.1986352943 -0.8671059364
-0.02003603745 0.0210685873 -0.06537916183 0.9462964004 0.01716958055 0.3228441236
-0.01912157122 0.04908785884 -0.06825012716 0.863200383 0.00603974445 0.5048253364
0.00323258096 0.05732913208 -0.04388301353 -0.1751470781 0.2901487872 -0.9408172949
0.003355388244 0.04106057072 -0.0808537426 -0.1083473102 0.001421992301 0.9941120854
0.01872425842 0.05961904526 -0.05213409424 -0.4760671014 0.8542159291 -0.2089862709
-0.0006220111979 0.05751366679 -0.0435821423 -0.06135272289 -0.1739373335 0.9828436536
0.007047674179 -0.01302926159 -0.06148947525 -0.2883754679 0.8200682925 0.4942950386
-0.004461585782 0.05718328857 -0.04414872984 0.188504371 0.2737403428 -0.9431502144
0.007196473735 0.05348817607 -0.04517740032 -0.3749068715 0.2883055907 -0.8810929145
-0.01906088638 0.009385238647 -0.0660017395 0.8795117024 0.1882041067 0.4370793744
-0.008648746649 0.05681354968 -0.0459657224 0.4721215084 0.3135280774 -0.8238940624
-0.01307185864 0.05995606899 -0.04973599339 0.6483995078 0.5455867935 -0.5309549218
-0.01535629845 0.05964034653 -0.04694669342 0.5997448193 0.521859795 -0.6066040769
-0.009563297272 -0.01113721657 -0.06236101151 -0.4874370019 -0.6853559618 -0.5410105127
0.0138970623 0.005630473137 -0.07244888687 -0.6567204238 0.314074077 0.6856207108
0.006956434488 0.01743978723 -0.07980548859 -0.3417937556 0.09438750509 0.9350230091
0.01845917288 0.048881464 -0.06961111196 0.8233477157 -0.01608092916 -0.5673093889
0.01724175262 0.06060000229 -0.0563409729 -0.4408833195 0.8967809619 -0.03749406559
0.01193565941 -0.006805301825 -0.0652773641 0.5875284384 -0.5970419729 -0.5462153574
-0.008945583522 0.01276608562 -0.07827823544 0.4388181252 0.2041753636 0.8750720393
0.01577935123 0.05968995031 -0.05428934733 -0.2721053568 0.9619656865 0.02409756653
-0.01610509825 0.04095751254 -0.07333965047 0.7998477491 0.0007532857831 0.6002024748
0.01232893058 0.05715890176 -0.04883321326 -0.6594822379 0.3973596987 -0.6381131935
-0.01834645208 0.02861760712 -0.06994637044 0.8739247944 -0.002246083636 0.4860559729
0.01046589979 0.05708923594 -0.0470790952 -0.5964665709 0.3684820254 -0.7130558371
0.002967439443 0.05353153419 -0.0438222785 -0.1506385612 0.04312025128 -0.9876480485
0.01296698666 0.05952516174 -0.07168782806 0.7079056798 0.2167812748 -0.6722168009
-0.01733779716 0.06019976171 -0.06147065099 -0.115116837 0.9932607989 0.01345730726
0.007337922891 0.03713028971 -0.07980838521 -0.3703605307 0.0156857353 0.9287556379
-0.01282883244 0.057036409 -0.04943221359 0.6556507812 0.4355323503 -0.6167930162
-0.02038525963 0.05863064575 -0.06320009232 0.7350344947 -0.6733307776 0.07968660823
-0.007542266528 0.01734897041 -0.07959870148 0.3363802842 0.08293190655 0.9380674833
0.007154303854 0.04502392752 -0.07987602997 -0.3094848146 0.001702035094 0.9509028618
-0.01577933089 0.05969003169 -0.05428968175 0.1968593541 0.9788909042 0.05494535839
-0.008199963689 0.005313100964 -0.07630982018 0.3677153381 0.3476053111 0.8625288272
0.01864728203 0.03785280151 -0.06914573517 0.8583410913 -0.01528104961 -0.5128518894
0.01168916893 0.05481354904 -0.04818966675 -0.641475474 0.2376304587 -0.7294113938
-0.01724175262 0.06060000229 -0.0563409729 0.01797217266 0.9996074793 0.02149158839
0.01963602161 0.06027248573 -0.06498959541 0.8362460897 0.5324690952 -0.131031065
-0.01872422981 0.05961914444 -0.05213450623 0.3267879534 0.9427327684 -0.06681736978
0.003050367494 -0.003578157147 -0.07297762934 -0.1505225198 0.5785158685 0.8016622487
-0.01963394737 0.06060000229 -0.05624770737 -0.3790468098 0.9231700098 0.0638799568
0.01928790538 0.06060000229 -0.06138951747 0.2787341842 0.9591614158 0.04813141369
0.001932032824 -0.01497182751 -0.06054992294 0.1575996711 -0.8180814323 -0.5530868953
-0.008189349174 -0.009538125992 -0.06545204926 -0.373608055 -0.7029320216 -0.6052301994
-0.01594896815 0.02069307772 -0.07349749078 0.7473540452 0.03542455399 0.6634809961
0.01399537913 0.05674996694 -0.05082729848 0.7437675098 -0.4162232861 0.5230373481
-0.01845331256 0.02472519048 -0.06974434916 0.878314346 -0.00214601871 0.4780787636
0.01695920181 0.0599679966 -0.0613566246 0.2787341842 0.9591614158 0.04813141369
-0.01987585735 0.06060000229 -0.06136657715 -0.03886035304 0.9992391642 0.003311444353
0.01845331256 0.02472519048 -0.06974434916 0.8906026176 -0.01267966786 -0.4546055473
0.01509859753 0.05784142494 -0.0526866169 0.7195727809 -0.5654668833 0.4030660205
0.01879098701 0.05651061058 -0.05226684952 -0.5518422335 0.8221424926 -0.1398280057
0.01616984749 0.05784293747 -0.05521517944 -0.3150618999 0.9490707316 -0.000863539845
-0.01946351624 0.004029569149 -0.06168434525 0.8868512959 0.2711708047 0.3741138511
-0.0006250414583 0.05363056734 -0.04357781728 -0.04630994688 -0.2650612715 0.9631188458
-0.01195300865 0.001684488535 -0.07216329447 0.596291326 0.4102590798 0.6900174939
0.003524164768 0.03287431145 -0.08082790962 -0.1702545076 -0.01061486536 0.9853429491
-0.01690300179 0.05851580811 -0.06286091232 0.8627719471 0.4816124961 -0.1538634812
-0.004191845213 0.05338901411 -0.04407651901 0.221300892 0.046791788 -0.9740823598
-0.01879086876 0.05651103783 -0.05226856804 0.3267879534 0.9427327684 -0.06681736978
-0.004553022047 0.0289699351 -0.08063145574 0.2002682169 -0.01734757637 0.9795875167
0.007274533662 0.03308842694 -0.07983577798 -0.3194869492 0.02310419046 0.9473089706
0.02038525963 0.05863064575 -0.06320009232 -0.7023880494 -0.7073789291 0.07915856638
0.01690300179 0.05851580811 -0.06286091232 0.9242102449 -0.3491672641 0.1546533056
0.0104988842 0.05453606033 -0.04710272217 -0.6747850723 0.3492370039 -0.6501527676
-0.00827425766 0.05375606855 -0.0457402668 0.4211925096 0.3353724392 -0.8426874847
-0.01168897343 0.05481469727 -0.04819427872 0.6557467064 0.3856495654 -0.6490536725
0.008092618847 0.001002207065 -0.07425157928 -0.4306226171 0.4541141426 0.7799644268
-0.01353188419 0.06006258202 -0.0714817543 0.7097107243 -0.2748965728 0.6486467159
-0.01582512283 0.05988036652 -0.07299696808 0.7097107243 -0.2748965728 0.6486467159
0.01505342817 -0.003566618681 -0.06472501373 0.73209132 -0.4629189588 -0.4997482735
-0.01879438972 0.06004748154 -0.06892027283 0.8486935749 -0.4241122011 0.3159874314
0.007923256602 0.005131155321 -0.07637402017 -0.3930406314 0.3593120707 0.8464123687
0.01143071302 0.004627566934 -0.0740798022 -0.5768451331 0.3409951178 0.7422748965
0.01888381195 0.0570325613 -0.06874456596 0.8817792646 0.2473208862 -0.4016188589
0.01119313812 0.01300064099 -0.0770161581 -0.5627560847 0.158663897 0.8112529549
0.01750946617 0.05947999573 -0.07138553619 0.8103448535 0.1898424945 -0.5543474052
0.01387719584 0.06000333405 -0.07580905151 0.6687561701 0.1959873078 -0.7171848856
0.0158525584 0.02497566293 -0.07361683863 0.7463788988 -0.02934591159 -0.6648739406
0.01138328266 0.06015897217 -0.07691042328 0.5394241291 0.3052889396 -0.7847421693
0.009095384598 0.06012120914 -0.07746308708 0.483635632 0.3066851484 -0.8197809434
0.01482086897 0.009140636524 -0.07284642156 0.7241320165 -0.2202036528 -0.6535619129
-0.009365401077 0.06010704193 -0.07762823639 -0.5248323197 0.2988780837 -0.7970087372
0.006593822479 0.002561703205 -0.0757748642 -0.2745475742 0.4263646312 0.8618798239
-0.01237090111 0.06012511826 -0.07631327947 -0.5396022248 0.3533234558 -0.7641936761
-0.01888381195 0.0570325613 -0.06874456596 0.8989870009 -0.1927615084 0.3932751876
0.007196381378 -0.002279016447 -0.07257187958 -0.3298325485 0.5558700635 0.7630327401
-0.02048588753 0.05664460945 -0.06255072403 0.9909727885 -0.1116912338 0.07414850462
0.01757276662 0.0571009229 -0.07129386648 0.8055059858 0.1664965935 -0.5687169693
-0.008733397143 0.000798488171 -0.07376292637 0.4281129314 0.4637928848 0.7756387548
0.01581607791 0.0568915111 -0.07371019636 0.7504257362 0.1102119646 -0.6517012639
-0.0040999856 0.01045249303 -0.07943599955 0.1638021021 0.2331861967 0.9585369419
0.007105747064 0.05988033295 -0.07987605794 0.3238139376 0.2155358435 -0.9212430917
0.004973359108 0.05967674255 -0.07692144012 0.2896472435 0.2218168116 -0.9310756019
0.003034783755 0.06000697763 -0.08070313808 0.1809305828 0.2638873813 -0.9474320948
-0.0005443091989 0.06011633873 -0.08081883113 -0.02310306235 0.3833597224 -0.9233101168
-0.01534740663 0.009222536445 -0.0723065834 0.7568832135 0.2373945982 0.6089101788
-0.004282650096 0.05997242846 -0.08056356267 -0.2130920656 0.2002106038 -0.9562988475
-0.004973359108 0.05967674255 -0.07692144012 -0.314581267 0.2151372536 -0.9245293876
0.01764370346 0.009427735329 -0.06909532547 0.8131285685 -0.194877629 -0.5484930636
-0.007658380747 0.05982642078 -0.07966337013 -0.3336901356 0.197362373 -0.9217911841
-0.01634317627 0.05695397034 -0.0729839325 0.7704233069 -0.1206113376 0.6260198347
-0.004512093337 0.05311097488 -0.08063686167 0.1972635635 -0.06662580242 0.9780838865
0.01393600623 0.05709756088 -0.07576585642 0.6519748005 0.1677997617 -0.7394403962
0.01152466609 0.05715801516 -0.07759796281 -0.5521833034 -0.2028779941 0.8086619312
-0.0005584432549 0.04116244507 -0.08115594143 0.08116712566 0.01394613623 0.9966029315
-0.01000788784 0.05700405012 -0.07854411643 0.3975722484 -0.1319195111 0.9080382976
-0.01266241693 0.05713235626 -0.07678019562 -0.6467274334 0.1499467984 -0.7478366028
0.009366482735 0.05677500661 -0.07891669718 -0.4034297021 -0.1268539807 0.9061746758
0.007134802765 0.05702816391 -0.07986964671 -0.3496848585 -0.1463648434 0.9253636217
0.003123958026 0.05697138705 -0.08088361086 -0.1921575634 -0.149923671 0.9698445049
-0.0005463075042 0.05679452896 -0.08113681793 -0.004240249796 -0.2113739789 0.9773960616
0.003336143106 0.04517509198 -0.08085428429 -0.1400185725 -0.001435819417 0.9901478363
-0.004250329329 0.05707000674 -0.08068836564 0.2156361922 -0.138052724 0.9666656495
-0.007689737638 0.05697120094 -0.07965547689 0.3573742211 -0.1366738842 0.923906876
0.01610473585 0.04095931053 -0.07334509277 0.7623360353 0.002585580998 -0.6471762388
0.01835487334 0.05254384931 -0.06980696615 0.8287057239 -0.00538776045 -0.5596586417
0.01763622665 0.05471170807 -0.0712035675 0.7874164477 0.08327948242 -0.6107698958
-0.01608054107 0.05326671382 -0.07333792332 0.7804603548 -0.08918407227 0.6188116319
-0.0190100708 0.05277889379 -0.0684952774 0.9083665895 -0.01932794802 0.4177278654
0.01423845005 -0.001343268394 -0.06783580017 0.7043161091 -0.4570499924 -0.5431796414
0.0158211209 0.05302648099 -0.07369577154 0.7585612666 0.06104155845 -0.6487362584
0.01401968551 0.05299507904 -0.07569214821 -0.7035922622 -0.07415706827 0.7067238907
-0.004452064663 0.04511037779 -0.08065111685 0.1953689695 -0.0001940434025 0.9807297936
0.01181202173 0.05312258377 -0.07739398956 -0.5680540633 -0.02634315701 0.8225695225
-0.01244282252 0.05308588845 -0.07690682656 0.627351219 -0.02590590487 0.7783054234
0.0187050012 0.01660343997 -0.0688689448 0.8916119307 -0.05932732931 -0.4488969069
-0.01769967588 0.05230880483 -0.07111865489 0.8159672677 -0.01012733155 0.5780093903
0.009413144112 0.05331146876 -0.07889348857 -0.4427482653 -0.02471549794 0.8963052592
0.01143802995 0.02512598581 -0.07763255134 -0.6001194807 0.02275415852 0.7995866789
0.007175817609 0.05300547409 -0.07985902341 -0.3040627155 -0.08879442741 0.9485048311
0.00345633259 0.0530345617 -0.08083014297 -0.1748096586 -0.06668562808 0.9823413919
-0.00773395884 0.05294460773 -0.07964435005 0.355990167 -0.07266413794 0.9316603051
-0.009413301468 0.05331029638 -0.07888940938 0.4430484054 -0.03578775488 0.8957830915
-0.0005494121313 0.0527954589 -0.08114172533 0.01688127147 -0.01315031792 0.9997710197
0.01906088638 0.009385238647 -0.0660017395 0.890987259 -0.1830501854 -0.4154928807
-0.01936126709 0.04154023488 -0.06757527415 0.8772406982 0.007672334913 0.4799894715
0.01582473346 0.04913335255 -0.0736921463 0.7597906775 -0.02140966218 -0.6498151682
-0.01582490921 0.04913256182 -0.07368948255 0.7859616198 0.01754199362 0.6180263834
-0.01779677455 0.04867506917 -0.07097209676 0.8582908512 -0.008010865089 0.5131010045
0.01410454782 0.04885372543 -0.07561009725 -0.695923034 -0.02761226016 0.7175853216
0.01594896815 0.02069307751 -0.07349749078 0.7540273377 -0.01553955312 -0.6566591934
0.01148023907 0.0488646342 -0.07762057304 -0.5834208433 -0.004002657453 0.8121601433
0.009460167567 0.0498210907 -0.07887010447 -0.4398633398 0.03036440085 0.8975512495
-0.00946822834 0.04923434639 -0.07886166954 0.4219918715 0.01207517067 0.9065191949
-0.01218471091 0.04896064813 -0.07709972109 0.6043035925 -0.01509374809 0.7966111641
0.01856717809 0.04517344348 -0.06937619909 0.830899802 -0.00627977379 -0.5563866313
0.007217197683 0.04894820658 -0.07984772915 -0.3191533348 0.006337319412 0.9476819019
-0.0004517146891 0.04891867482 -0.081151517 0.0168230223 -0.001506504131 0.999857348
0.003317064464 0.04925130526 -0.08085549672 -0.1585533121 0.002819354881 0.9873463923
0.003261155788 0.03702843602 -0.08087482808 -0.1113315291 -0.01691706921 0.9936393226
-0.004426544746 0.04919129912 -0.08065569941 0.1945919029 0.0148387701 0.980772044
-0.01216925091 0.02512606896 -0.07715514882 0.6137813057 0.01399297242 0.7893520795
-0.007778558413 0.04888356209 -0.07963312658 0.3650280624 -0.01338642107 0.9309002725
0.008317950535 0.01282069187 -0.07860958252 -0.4196153958 0.1879695959 0.8880260979
-0.01923744138 0.04534777959 -0.06795885468 0.8682965767 0.01202644398 0.4958996063
0.0160992324 0.04493019267 -0.07335211291 0.7592680113 0.01025622644 -0.650697239
-0.004664584088 0.01299763508 -0.07983909378 0.1880711323 0.1757690438 0.9662993803
-0.01609955556 0.04492866135 -0.07334723554 0.7924087128 -0.003890184036 0.609978113
-0.0178969593 0.04499892298 -0.07079295349 0.8683228399 0.005988145401 0.4959632928
0.003605470648 0.01671706478 -0.0805949484 -0.1839742556 0.1004447702 0.9777854169
-0.0006663055658 0.04491793823 -0.08114585876 0.01760943134 -0.001145077815 0.9998442862
0.01417801444 0.04527030055 -0.0755383784 0.7090530133 -0.0005146654937 -0.7051549896
0.0113918815 0.04493058131 -0.07765541253 -0.5873661576 -0.006243943372 0.8092972322
-0.01246609937 0.04496393673 -0.07689173126 0.6060763571 -0.01327360027 0.7952957066
0.01867975299 0.04141340256 -0.06909249115 0.8470270801 -0.02070647977 -0.5311462767
-0.0004668710015 0.02505461537 -0.0811639009 0.08134272956 0.01625641085 0.9965536059
-0.007739743233 0.04504490171 -0.07965398734 0.3714198769 0.002216732691 0.9284623639
-0.009523637772 0.04512142181 -0.07883413696 0.4237603706 0.002691039717 0.9057703388
-0.01799890137 0.04128375244 -0.07060095469 0.8743218507 0.01798655895 0.4850131803
-0.01570233727 -0.003152135134 -0.06414648438 0.722349463 0.4777000381 0.5000139267
0.003333007415 0.02116142069 -0.08085837809 -0.1298895892 0.04500798886 0.9905064238
0.01426457691 0.04104809093 -0.07545387459 0.7378730889 0.002802928099 -0.6749336621
-0.01262774937 0.04106568469 -0.07675916173 0.6098749743 0.01273965566 0.7923952404
0.01118607917 0.04104132638 -0.07779422819 -0.5882514711 0.01472904816 0.8085439147
0.020036026 0.02106864548 -0.06537930679 0.9462213289 -0.01748170046 -0.3230473447
0.00741225934 0.04093530502 -0.07977792435 -0.3687273881 -0.01597427769 0.9294003097
-0.01887155151 0.01280206966 -0.06768883514 0.8911023928 0.1074219391 0.4409048112
-0.00794661447 0.04096847425 -0.07957468196 0.3715385463 -0.001098616949 0.9284168792
-0.009579632282 0.04096505356 -0.07880631256 0.4235327327 -0.01042289904 0.9058208363
-0.01944552422 0.03897516251 -0.06730440521 0.8833936625 0.01167348865 0.4684862503
-0.004477833033 0.0409906311 -0.08064610354 0.1972632242 0.002863747974 0.9803463772
-0.01810187467 0.0375309817 -0.07040701294 0.8815203392 0.01504499014 0.4719062829
-0.01953056335 0.03638632202 -0.06703103383 0.8885279781 0.02112925084 0.4583356705
0.01954999733 0.03574584389 -0.06698721313 0.8869340179 -0.00605663559 -0.4618564334
0.01588660121 0.01689020669 -0.07336718178 0.7567951121 -0.07367701307 -0.6494866096
0.01610928467 0.03695250756 -0.07334248243 0.7796713945 0.0113046293 -0.6260868326
-0.006593822479 0.002561703444 -0.0757748642 0.3269314675 0.4184427634 0.847361475
-0.0161095032 0.03695138986 -0.07333921487 0.8020553514 -0.002204676612 0.5972456385
-0.0006090200742 -0.003361753464 -0.07340024694 0.01378361655 0.5742266187 0.8185803579
0.01435203997 0.03678195826 -0.07536849467 0.7459227572 0.01524582827 -0.6658579466
0.01138388661 0.03698254885 -0.07767695999 -0.5936076427 0.001553085881 0.8047531016
-0.0005649248229 0.03281281471 -0.08115973918 0.01826782503 -0.02312700029 0.9995656199
-0.01239456783 0.03698463685 -0.07694296646 0.6111796044 0.0009722037162 0.7914913429
0.01965728505 0.03247550837 -0.06664391073 0.8919734749 -0.01166139163 -0.4519373098
0.01822342157 0.03310136223 -0.07017808723 0.8563594657 -0.00189496078 -0.516376679
-0.0005616666575 0.03700947825 -0.08115836525 0.08102108174 0.0009826200712 0.9967119036
0.007537593126 0.02886455402 -0.07973321838 -0.3774492436 -0.01659666436 0.9258815363
-0.004340368049 0.03709533201 -0.08067750985 0.199939771 0.000600542262 0.9798080053
-0.007908739408 0.03705389277 -0.07959188716 0.3714262298 0.003592246852 0.9284555194
-0.00963619264 0.03676671473 -0.07877820587 0.4272221126 -0.01136043644 0.9040753326
0.006707369924 0.01377190423 -0.07943122482 -0.3199383388 0.1598940943 0.9338486697
-0.01822342157 0.03310136223 -0.07017808723 0.8742883817 0.01916431427 0.485028406
0.01834645208 0.02861760712 -0.06994637044 0.8666650193 0.01423068234 -0.4986875094
-0.01965933863 0.03246599579 -0.06661705526 0.8946159849 0.01254807326 0.4466595857
-0.007623791337 -0.00211065042 -0.07250022125 0.3841537763 0.5302099974 0.7558460391
-0.01629357656 0.03291108831 -0.07310685857 0.8060662124 -0.02925378678 0.5911019178
0.01442782307 0.03308551979 -0.07529451243 0.7329915176 -0.02441318781 -0.6797995523
0.01144813625 0.03302117634 -0.07762759082 -0.595541923 -0.01313023097 0.8032169165
-0.008043203592 0.02484607251 -0.0795454216 0.359903798 -0.01319553105 0.9328961004
-0.01263392019 0.03300894372 -0.07675982475 0.6152660312 -0.02014199724 0.7880621871
0.01978836505 0.02850274277 -0.0662157491 0.9081630258 -0.01183442591 -0.4184493576
-0.008081082412 0.02888886969 -0.07952638463 0.4050342669 -0.01689933728 0.914145314
-0.004689966202 0.03294844246 -0.08060015433 0.2532141392 -0.01158494305 0.9673408855
-0.00786988381 0.03309975651 -0.07961126382 0.3722556601 0.0171353696 0.9279720376
-0.02021964836 0.01726079718 -0.06410828781 0.9492059151 0.03458481478 0.3127491348
-0.009685184479 0.03313012441 -0.07875386556 0.4531077137 0.02705494723 0.8910451333
-0.01978974152 0.02849613953 -0.06619785309 0.9085665846 0.01121745081 0.4175894277
0.01858525276 0.005624568224 -0.06516410828 0.8571201647 -0.2620041686 -0.4435074282
0.01638227749 0.02913590399 -0.07299707921 0.7965681908 -0.02158714615 -0.6041631506
-0.01638227749 0.02913590399 -0.07299707921 0.8147812863 0.0141218157 0.5795964371
0.01450438054 0.0293513368 -0.07521977488 0.7371171151 -0.022639908 -0.6753856626
0.01164736198 0.02917118747 -0.07749055774 -0.5981706222 0.02094333508 0.8010950527
-0.01259968154 0.02923295132 -0.07680181758 0.613507436 0.008250323784 0.7896458435
0.01992116737 0.02447779338 -0.06578196462 0.9424774612 -0.01420703418 -0.333967656
0.0128789711 -0.0001892697811 -0.0701860199 -0.6008435099 0.4504265307 0.6603809635
-0.009734663645 0.02945741971 -0.07872927856 0.4585746464 0.01736215988 0.8884862684
-0.01992182795 0.02447451782 -0.0657734197 0.9426395842 0.01384565384 0.3335249798
-0.01453004742 0.02809939003 -0.07519471741 0.697964035 -0.02035632546 0.7158434367
-0.0158525584 0.02497566293 -0.07361683863 0.7388794667 0.03035964007 0.6731533451
-0.009793053865 0.02512322378 -0.07870026779 0.4970185096 -0.007350102442 0.867708809
-0.01316068482 0.008486995459 -0.07429135704 0.648914291 0.2545312367 0.7170244713
0.01856397883 0.02077232997 -0.06950526937 0.8971228517 -0.02859467913 -0.4408547758
0.007462582058 0.02493533558 -0.0797651808 -0.3766522821 -0.01175812958 0.9262800898
0.003428738912 0.025376345 -0.080850722 -0.1726628295 0.01415605141 0.9848792583
-0.01367066956 0.001197497219 -0.07023884074 0.649860475 0.4245915445 0.6303993841
-0.00457607017 0.02528540357 -0.08062690608 0.2558725995 0.01307392174 0.9666221006
-0.01856397883 0.02077232997 -0.06950526937 0.8967484607 0.02991714899 0.4415282124
-0.008084814469 0.0210958945 -0.07952064641 0.3635989186 0.02638231386 0.931181937
0.02021964836 0.01726079686 -0.06410828781 0.938741378 -0.04994190155 -0.3409845036
-0.01265887626 0.005165377816 -0.07334301376 0.6120241474 0.3286901249 0.7192977442
0.01159431597 0.02103010853 -0.07752218334 -0.5906281676 0.009029225728 0.8068933267
-0.01211680231 0.02111979961 -0.07718169022 0.6069670687 0.02924383802 0.7941887531
0.007501118501 0.02118981001 -0.07974289873 0.369749548 -0.02486669294 -0.9287986431
-0.0006888380289 0.0207816864 -0.08113809814 0.0904737152 0.03805570282 0.9951714779
0.003923356712 0.008465030114 -0.07889016088 -0.2255022198 0.3052095072 0.9252004678
-0.004436271599 0.02121508312 -0.08064776993 0.2007646148 0.03179150225 0.9791235212
-0.009852753639 0.02073057747 -0.07865579987 0.4915799076 0.02357097816 0.8705134137
-0.0187050012 0.01660343997 -0.0688689448 0.8949153919 0.05863184369 0.4423672098
-0.01588660121 0.01689020669 -0.07336718178 0.7765661383 0.07002693899 0.6261319834
0.01353156503 0.01700877635 -0.07589347076 0.6246551669 -0.09545189448 -0.7750450686
0.01110942618 0.01692965518 -0.07767094252 -0.5757910637 0.08028678992 0.813645305
-0.01158199048 0.009568660498 -0.07591602707 0.5379660291 0.2322412176 0.8103434879
0.01508805902 0.01266016974 -0.07356593868 0.7426634546 -0.1459595061 -0.653564699
-0.01231571918 0.01698915524 -0.07682990519 0.6006848908 0.08055544198 0.7954171753
0.01842236582 0.01250250085 -0.0685166982 0.877994176 -0.1242362056 -0.4622678792
0.01742937565 0.01419474649 -0.07089596558 0.8523882543 -0.08680733968 -0.515653711
0.01586393833 0.005076536596 -0.06984541321 0.7713564757 -0.2883541245 -0.5673280235
0.008723296483 0.01710435581 -0.07904118093 -0.4146695474 0.08660991288 0.9058409846
-0.004675480164 0.01692058717 -0.08039515803 0.2414343555 0.0913124124 0.9661115336
-0.009317991098 0.01696731663 -0.07872888184 0.4450133117 0.1069371644 0.8891161877
-0.01746091525 0.01343095175 -0.07065478516 0.8058712522 0.1272226011 0.5782611301
-0.0005779648489 0.0166700858 -0.0809262085 0.01671298323 0.116362741 0.9930661552
-0.01565700397 0.01290161057 -0.07302191772 0.7657766701 0.1289235834 0.6300514274
0.01360198498 0.01424048138 -0.0754498291 -0.6243440017 0.1229775207 0.771408515
-0.01219536241 0.01337006394 -0.07640018845 0.6202220972 0.1307203153 0.7734576583
0.001877289295 -0.009859710693 -0.06755072784 -0.06098217979 0.7357606928 0.674490457
-0.007577027321 0.0146772604 -0.07930756378 0.3606231931 0.1548530222 0.9197670651
-0.01366569662 0.01205656719 -0.07492597961 0.6432208666 0.1697035187 0.7466375509
-0.01721804365 0.008993558566 -0.0696075592 0.8133762316 0.2129899376 0.5413449847
0.003263489878 0.01272290344 -0.08007856293 0.1149571751 -0.1758152891 -0.9776880034
-0.0005823900302 0.01257864751 -0.08032339054 0.02239419967 0.1865921117 0.9821822049
-0.01925715828 0.006463212013 -0.06401602173 0.873153397 0.2448387043 0.4214939551
0.01946351624 0.004029569626 -0.06168434906 0.8814994603 -0.274187357 -0.3844216367
0.01778923798 0.006760934353 -0.06765488434 0.8364841117 -0.2583348622 -0.4832777978
0.01636672401 0.008125204086 -0.07063202667 0.7689424601 -0.2399612505 -0.5925758106
0.01108005095 0.009364823421 -0.07617980321 -0.5368836013 0.2425772752 0.808029866
0.01255357599 0.007997156143 -0.07465662766 -0.6249367556 0.2609875006 0.7357578243
0.007522754788 0.009061914504 -0.07797596931 -0.3739472481 0.2848482859 0.8826238778
0.003514511079 0.01025507975 -0.07947439003 -0.1449685376 0.2431470457 0.959095218
-0.005151659727 0.008739622831 -0.07867060757 0.2731405389 0.2914964334 0.9167464619
-0.00869957413 0.00901751709 -0.07743414089 0.4127349061 0.2777117539 0.8674826102
-0.01791334724 0.004785923004 -0.06631219482 0.8402308591 0.2794072569 0.4646974157
-0.0003516174793 0.009094905853 -0.07948736877 0.02148405859 0.2678591524 0.9632185161
-0.01677731204 0.001151833817 -0.06586770821 0.8007434914 0.339358131 0.4936050242
0.01829910278 -0.0001445540935 -0.06167739868 0.8353965299 -0.3311544545 -0.4386905118
-0.0147021637 -0.007823365688 -0.06042675018 0.6737487624 0.5783490197 0.4599728434
0.01634567102 0.000682040448 -0.06633119456 0.7826974335 -0.3585254523 -0.5087673609
0.0101369133 0.006586720943 -0.07586042786 -0.4582981354 0.3168841581 0.8303898178
-0.001764225841 0.008160197258 -0.07915956879 0.09824240405 0.3178833764 0.9430262929
-0.01829910278 -0.0001445560306 -0.06167739487 0.8460474738 0.3290548175 0.419436049
0.0145038983 0.001853023132 -0.06971351624 0.7105294002 -0.3626569223 -0.6030156949
0.003400396065 0.004946355018 -0.07769238559 -0.1600751989 0.3813473155 0.9104669986
-0.0005930334859 0.004984768311 -0.0780176239 0.03683769183 0.3921223687 0.9191751914
-0.004008381933 0.00494397223 -0.0775950489 0.1969427275 0.3897521105 0.8996148367
-0.0102125721 0.004017041802 -0.07465925598 0.4777083479 0.378196905 0.7929450393
-0.01708104324 -0.002861133814 -0.06186227417 0.8027607804 0.4321691336 0.4108588193
0.003599475523 0.001291629344 -0.07591456731 -0.1676391118 0.4612010897 0.87131549
-0.004498159647 0.001641835243 -0.07594432068 0.2292599264 0.442765531 0.8668324929
-0.01266752648 -0.002277788579 -0.06873805809 0.6006674062 0.4922013926 0.6300289329
0.01615411758 -0.008017255783 -0.05714664459 0.693147257 -0.5490517565 -0.4670000523
-0.007776096225 -0.006964438915 -0.06839697647 0.3691118322 0.6478890477 0.6663304264
0.0117222898 -0.002668531269 -0.06933850288 -0.56854888 0.5071589952 0.6477205606
-0.0006007024248 0.0006323441913 -0.07593710454 0.004275465083 0.4761268823 0.8793661992
-0.01440451908 -0.00398110199 -0.06530355072 0.6715980916 0.5072771737 0.5400239554
-0.01615411758 -0.008017253876 -0.05714664841 0.7558379751 0.5116527884 0.4085589059
0.0147021637 -0.007823366642 -0.06042675018 0.6967174881 -0.5597193733 -0.448663532
0.004229949395 -0.0006611488461 -0.07469952393 -0.2507665445 0.5084333453 0.8237788984
-0.004229949236 -0.0006611482104 -0.07469952647 0.2531661458 0.4974988794 0.8296998057
-0.009232746283 -0.003754949093 -0.07037623342 0.4568007102 0.5531521811 0.6966747991
-0.01193565941 -0.006805303733 -0.06527736155 0.6080760575 0.5786328679 0.5435324392
0.01150304413 -0.01018431616 -0.06141819 -0.5580598993 0.7059290648 0.4361574305
0.01056569862 -0.00538841486 -0.06806430817 -0.4773902987 0.5936899829 0.6477890914
0.008620368242 -0.004179306984 -0.07044554901 -0.4176276499 0.5644569749 0.712022099
-0.004026965237 -0.003519644356 -0.07282370605 0.1908081116 0.5794036551 0.7923911086
-0.01056569862 -0.005388415337 -0.06806430817 0.5265015948 0.5648250382 0.6354280029
-0.01344279099 -0.009231414795 -0.06047537231 0.6163237434 0.6258332788 0.4779934628
0.007039848725 -0.006832525571 -0.06887981796 -0.3118546045 0.6482453562 0.6946399527
-0.004641557276 -0.006921331763 -0.06983296394 0.1954218712 0.6638500232 0.7218818733
0.006943691969 -0.01047793627 -0.06501304626 0.3675564608 -0.6991147831 -0.6133031618
0.003094688257 -0.007159862836 -0.0700401535 -0.1690106445 0.65703252 0.7346724914
-0.0006175143719 -0.006864977678 -0.07060803986 0.02526452081 0.6882899532 0.7249956167
0.003771173716 -0.01040122461 -0.06651662445 0.1661854076 -0.7581326539 -0.6305690204
-0.0006257630984 -0.009745807966 -0.06776834361 0.1162466291 0.737247677 0.6655468308
-0.004413460732 -0.01074006303 -0.06586910502 -0.1886453073 -0.7629600135 -0.618308148
-0.007047674179 -0.01302925968 -0.06148947906 0.3572468679 0.81796036 0.4509052283
-0.0006440109412 -0.01460405827 -0.06124708176 -0.008039215501 0.7880620162 0.6155433613
