# .PCD v0.7 - Point Cloud Data file format
VERSION 0.7
FIELDS x y z normal_x normal_y normal_z
SIZE 4 4 4 4 4 4
TYPE F F F F F F
COUNT 1 1 1 1 1 1
WIDTH 561
HEIGHT 1
VIEWPOINT 0 0 0 1 0 0 0
POINTS 561
DATA ascii
0.006376545787 -0.004707248211 -0.07114782906 -0.2859634855 0.6078682549 0.7407570922
0.0006008894708 0.003393978808 -0.07733904775 -0.02022123484 0.4133315308 0.9103560552
-0.008855208397 0.04859154129 -0.07915401459 0.4220539993 0.005192480211 0.9065558228
-0.01179901361 -0.01682262421 -0.002665084124 0.5384503721 0.8413398192 -0.04710101354
-0.005776493788 -0.0197267437 -0.009129721642 -0.2900636859 -0.9570055315 0.001863003286
0.003457762559 -0.02026170921 -0.02398112043 0.1755354382 -0.9844705065 -0.002265350128
0.01812488365 0.009582023303 -0.06822595723 0.8635732196 -0.1767755591 -0.4722199657
0.01410777998 0.01005768013 -0.07394970322 -0.6630038166 0.2221458357 0.7148966127
-0.002870416403 -0.02035757542 -0.01104492998 -0.1306899945 -0.9914210901 0.002085056145
0.01304115613 -0.01418965276 -0.05093208567 0.62182798 -0.7501421008 -0.2249817592
-0.007495296001 -0.01918724632 -0.02922108459 -0.346676459 -0.9377310927 0.02181354304
-0.01169421959 -0.01693523216 -0.02698023224 -0.5561192315 -0.8310073254 -0.01257876977
0 -0.02055065727 -0.01163126564 0 -0.9996886926 -0.02495030668
-0.01063449955 -0.01763288879 -0.01634414673 -0.5059184269 -0.8625699157 0.004436867888
-0.01808461571 -0.00980143261 -0.03880896378 0.871167996 0.4909431694 0.006413043699
-0.0168703227 0.05104693699 -0.07232756424 0.8198845566 -0.01241653661 0.5723942203
-0.002485494882 0.03943655109 -0.08102627182 0.1217884806 -0.0003868438151 0.9925560016
0 -0.02056004333 -0.02484808731 -0.02582192173 -0.9996542465 -0.004961428026
0.003634962261 -0.005257720232 -0.07159383011 -0.1743602006 0.6310340152 0.7559064705
0.002870416403 -0.02035757542 -0.01104492998 0.1306899945 -0.9914210901 0.002085056145
-0.007689131737 -0.01910120964 -0.02060938072 -0.3762221285 -0.9264511059 0.01205231729
-0.01402741718 0.04552681255 -0.07562081337 0.7071212548 0.007606304612 0.707051395
0.005776493788 -0.0197267437 -0.009129721642 -0.3089641318 0.9510450117 -0.007385868731
0.01252629519 0.01245807314 -0.0759841156 -0.6141234497 0.1916805992 0.7655788245
0.01826956749 0.02084073353 -0.07008167648 0.8869897985 0.004463509266 -0.4617674463
-0.01784602737 -0.01006685352 -0.04303837967 0.83497052 0.5468366216 0.06159496692
0.01471328163 0.01851602936 -0.07486329193 0.731453659 -0.04961101824 -0.6800840328
0.009464717388 -0.0181896553 -0.00678933382 0.4659770031 -0.8847838002 0.004802030702
-0.02053467178 0.04167461395 -0.06221349716 0.9977137365 0.02411327033 0.06313358958
0.009669651985 -0.005573700047 -0.06853836365 -0.4806057391 0.5946926856 0.6444833071
0.002797094941 -0.02037608337 -0.02002242851 0.1151517192 -0.9933455595 -0.002163541322
-0.009393731117 -0.01828906631 -0.009377570152 -0.4470797068 -0.8944828839 0.004484000709
-0.01450546026 -0.01455279541 -0.00962631464 -0.6776309495 -0.7353426325 0.009354626517
-0.007893509865 -0.01900881195 -0.01152992916 -0.3891206492 -0.9211469152 0.008572106284
0.003608403742 0.004081362903 -0.07733180428 -0.1481459789 0.3997159875 0.9045882479
-0.01569986629 -0.006308770657 -0.0605811882 0.7514710697 0.5271775296 0.3967052855
0.01703085709 -0.004622747898 -0.05991464615 0.8080246808 -0.4491859523 -0.3812192224
0.009390589714 0.03937584877 -0.07887351481 0.4499740178 0.007595994949 -0.8930093416
0.007789963722 -0.01905562401 -0.0161299324 0.3922313961 -0.9198391285 0.007107014853
-0.00869271183 -0.01864525414 -0.03569337463 -0.4173001761 -0.9087661527 0.002154710251
-0.002532456815 0.05447400093 -0.08100847626 0.1237750548 -0.004390412146 0.9923005896
0.006342236519 -0.01956254959 -0.0176242981 0.3239406648 -0.9459724437 -0.01409189436
-0.01252287459 0.003153901935 -0.07251077271 0.5876807057 0.3946229965 0.7063314228
-0.006425580978 -0.01953133965 -0.01309299088 -0.3497169216 -0.9368511509 -0.002827665782
-0.008383168697 -0.002333035469 -0.07198022156 0.393308665 0.5363561148 0.7467465515
-0.002833255291 -0.02036789799 -0.01559534597 -0.1439350084 -0.9895731123 0.005269613906
0.01272113736 -0.01526780128 -0.0478261706 0.62490846 -0.7615663921 -0.1717732433
0.01331304407 0.04270026398 -0.07628875351 -0.625716944 0.002892081808 0.7800448332
0.004975822926 -0.01998015976 -0.01443530369 0.2262593237 -0.9740655515 0.001737748352
-0.00562699461 -0.01978199577 -0.0182710743 -0.3204046514 -0.9472443203 0.00831005888
-0.009175205231 -0.01830885887 -0.04242325211 -0.4146279038 -0.9071133291 -0.07231258216
0.006425580978 -0.01953133965 -0.01309299088 0.3291634665 -0.9442219052 0.009818661552
-0.01593200922 0.03979839134 -0.07364090729 0.7964737902 0.008983065038 0.6046063231
0.007893509865 -0.01900881195 -0.01152992916 0.3933200807 -0.9192543195 0.01645631041
-0.01410777998 0.01005768061 -0.07394970322 0.6922899799 0.2164719322 0.6883854199
0.009393731117 -0.01828906631 -0.009377570152 0.4794827842 -0.8773863115 0.01701528697
-0.004495542526 -0.01917655945 -0.04840493011 -0.2128110084 -0.9532823643 -0.2143926504
-0.005587308486 0.03681889534 -0.08038013331 0.2759782619 0.01166909042 0.9610930399
0.01858761978 0.03322621918 -0.06943841934 0.924086946 -0.004518879398 -0.3821555912
-0.01234143448 -0.01646266556 -0.008488924026 -0.5639282863 -0.8258227696 -0.001281045579
-0.002797094941 -0.02037608337 -0.02002242851 -0.1266833849 -0.9919426636 0.001035433508
-0.01147619677 -0.01705931854 -0.01247266817 -0.5324625465 -0.8464534529 -0.0004343336853
-0.0172701664 -0.007746022701 -0.0543777504 0.8190329847 0.5202232403 0.2419767555
-0.008529377937 -0.01870555592 -0.01509825802 -0.3821796938 -0.9240801318 -0.003819895596
-0.01485014534 -0.005661446476 -0.06280739746 0.7104924704 0.531247164 0.4614942039
-0.0142673502 -0.01398602581 -0.04752631569 0.7103679153 0.6873749503 0.1513046683
-0.005733306408 0.0574631265 -0.08031401062 0.2855713282 0.008005667669 0.9583240192
0.0006117934783 0.02733842945 -0.08115434265 -0.06868555359 -0.001999475876 0.997636355
0 -0.02055699539 -0.02055586433 0.006385677227 -0.9999561197 -0.006854328648
-0.01767867088 -0.009906991005 -0.04613726044 0.8359473016 0.5386525746 0.1050976351
0.004911752701 -0.02000144196 -0.01891785049 0.2131142392 -0.9770252004 0.002019622643
-0.01442071978 0.03061508624 -0.07521308772 0.7001917386 0.001483821011 0.713953309
-0.009147171021 -0.01842014503 -0.01863104439 -0.4324374927 -0.9016636055 0.0007466243843
0.009951645851 -0.01799418831 -0.01520536518 0.471730778 -0.8817281562 -0.005052882907
-0.01813446522 0.01261845016 -0.06922386932 0.8711546948 0.1427847751 0.4697893205
0.01496082425 0.02472879887 -0.07470669556 0.7352533575 -0.01196746831 -0.6776867123
0.01077945232 -0.01753294563 -0.01164246368 0.5135509871 -0.8580146578 -0.008731019223
-0.02029453278 -0.001380745292 -0.04956290817 0.9543170962 0.2722471178 0.123127522
-0.006261052132 -0.01959295082 -0.02203815269 -0.3386188172 -0.9409231712 0.0009394428916
-0.008447114786 -0.01837527339 -0.0450700175 -0.4228259765 -0.8962536749 -0.1339684432
-0.004849573135 -0.02001700974 -0.02327005386 -0.2228718133 -0.9748414054 -0.003519825812
-0.01196251297 -0.0124525075 -0.05731521988 -0.5920998625 -0.7160177345 -0.3697787944
-0.002211050669 -0.002203638832 -0.07410767619 0.08121431963 0.5571868273 0.8264061192
0.007931037426 0.02104268169 -0.07959337234 -0.3981901987 0.01461875594 0.9171863811
-0.002761857271 -0.02038405895 -0.02433665371 -0.1652503384 -0.9862449725 0.003630400711
0.006975091934 -0.01934708023 -0.02132376671 0.3581966039 -0.9336031706 -0.008961743869
0.009147171021 -0.01842014503 -0.01863104439 0.4566715942 -0.889622035 0.004867232757
0.01217294121 -0.01658569145 -0.01330287266 0.5696070189 -0.8219157417 0.00153546119
0.01486270746 -0.007876805464 -0.05997358068 0.7188303364 -0.5602846669 -0.4115386246
-0.01820770836 0.00248052299 -0.06411393547 0.8857618538 0.2785659875 0.3712504936
-0.01814360873 0.00616785717 -0.06660545858 0.8817990994 0.2306276848 0.4113893768
0.02007176399 0.03042882538 -0.06523366547 0.9434223356 0.01017616555 -0.3314373883
0.006942559242 -0.00591683445 -0.0698495575 -0.3521717803 0.6228461739 0.6985969373
0.003619948626 -0.001774262428 -0.07415137863 -0.1398882272 0.5513859932 0.822438308
-0.008682437897 0.03302522659 -0.07925884438 0.4117000076 -0.01396064905 0.9112124911
0.01377661037 -0.01525029278 -0.009425215721 0.6359944597 -0.7711539405 0.02885562796
0.007853044033 0.005213801384 -0.07649023438 -0.3930318985 0.3659951998 0.8435481257
0.00891335392 -0.01854444885 -0.02740629959 0.4340511838 -0.9008740497 -0.005051385807
0.01184951878 -0.01682184029 -0.02254322815 0.5711999474 -0.8208107012 -0.0006425271945
-0.01703295517 -0.01158535576 -0.003331546307 0.8116418936 0.5838035293 -0.02027006865
-0.007590903759 -0.01914561653 -0.02497311783 -0.3628015273 -0.9318342816 -0.00774101592
-0.01429873323 -0.01476881552 -0.01460873938 -0.6943194091 -0.719657462 -0.003700751448
0.01832312202 -0.0008807944655 -0.06087987518 0.9010067224 -0.3020359642 -0.3113858741
-0.01965744273 0.006709586938 -0.06272156652 0.9172710269 0.2188959058 0.3327137593
-0.002504308343 -0.01654208231 -0.05734122181 -0.1270932841 -0.8943605102 -0.4289132486
0.0142618475 -0.004282588482 -0.06518819427 0.6859507475 -0.5157252948 -0.5133215292
-0.0139699192 0.04233123779 -0.07568096161 0.7109821783 -0.01201747118 0.7031073336
-0.0120090332 -0.01670536995 -0.01798582649 -0.5534768076 -0.8328440323 -0.005851606411
-0.01117199707 -0.01727073956 -0.02171647167 -0.5162169391 -0.8564528262 -0.002937403545
-0.009028734207 -0.01848310852 -0.02307601929 -0.4590978563 -0.8883012846 -0.01224688411
-0.002524855196 0.05204113007 -0.08101170731 0.1220334572 0.006206136938 0.992506584
-0.005942237377 0.05114300919 -0.08026761017 0.2811964417 -0.01276336052 0.9595653484
-0.0189705019 0.04795228577 -0.06859376144 0.870334005 -0.004888675922 0.4924376311
-0.015433918 0.003313481092 -0.06947104645 0.7364766386 0.3433349558 0.5828578462
-0.01542305533 0.01257636293 -0.07322214254 0.7558038372 0.1555202882 0.6360613174
-0.005485482693 -0.0198268919 -0.02692433929 -0.249039059 -0.9684929457 -0.0009804508902
-0.003411677837 -0.02030063248 -0.02828121185 -0.2027985318 -0.9792044597 -0.005601928453
-0.01962190247 0.009465267658 -0.06433581924 0.9160741098 0.1585014343 0.3683551556
-0.01902681923 -0.007824683666 -0.02246133614 0 0 1
-0.002043334246 -0.02048303413 -0.02880367088 -0.1070953345 -0.9941479088 -0.01416067532
0.01204104185 0.04515305901 -0.07729180145 -0.6183382806 -0.002896780974 0.7859067244
0 -0.02056301498 -0.02903282356 -0.03477135384 -0.9993937818 -0.001738321704
-0.006004541993 -0.01700908995 -0.05427117634 -0.2856724536 -0.8969423081 -0.337469621
0.00338660109 -0.02026500607 -0.03022618484 0.134136973 -0.9909425308 0.006338231012
-0.01074990972 0.01267403984 -0.07727234395 0.531693609 0.1626856881 0.8311650095
0.004100321531 -0.02016640759 -0.02789672852 0.2072058021 -0.9781530387 0.01680442007
-0.01117641902 0.03018432474 -0.07785902786 0.5791740056 -0.01331864144 0.8150951387
-0.01496082425 0.02472879887 -0.07470669556 0.7297203985 0.003417368056 0.683737129
0.00618200016 -0.0196216011 -0.02633643341 0.316021537 -0.9487064928 -0.009294011506
-0.01177858925 0.009346957684 -0.07568476232 0.5824277084 0.2529762584 0.7725160045
0.007590903759 -0.01914561653 -0.02497311783 0.3850276425 -0.9228714076 0.007879062844
-0.002438895285 0.02449355221 -0.08103417397 -0.1238507106 -0.003583743882 -0.9922943909
-0.01088440275 -0.01746322155 -0.03045699978 -0.5338912837 -0.8454953003 -0.009889100537
0.009693428993 -0.01814361 -0.02419603634 0.4812385676 -0.8764295927 -0.01675141882
-0.01101148677 0.01847531509 -0.07788179779 0.5792869325 0.05721000593 0.8131135622
0.01049447536 -0.01771963882 -0.02088971519 0.5196063743 -0.8543900994 0.005174334058
0.0120090332 -0.01670536995 -0.01798582649 0.572708957 -0.8196242893 0.0148483993
0.01358308887 -0.01543508053 -0.0143493681 0.6507878249 -0.7592277323 0.006961139878
0.01523431015 -0.01385529804 -0.009827413559 0.7472182974 -0.6645758115 -0.001951100912
0.001848255515 -0.01305585289 -0.06354629898 0.08214571264 -0.8162092916 -0.5718867669
0.009590399551 0.01250288067 -0.07790705109 -0.4750401782 0.1762544977 0.8621317655
-0.01905388451 -0.007073438644 -0.04616685486 0.877465574 0.4683168238 0.103602698
0.01703295517 -0.01158535576 -0.003331546307 0.8112225665 -0.5843988771 0.0198972385
-0.01677230072 -0.01193565559 -0.008753694534 0.8057179872 0.5922245894 0.009410679418
-0.01410044765 -0.01495954084 -0.01939678192 -0.6660696613 -0.7458885378 -0.001222895981
-0.002403389424 0.006244588494 -0.07841692924 -0.117356577 -0.3425032619 -0.9321582212
-0.01035812378 -0.01780411148 -0.02531605339 -0.4828949216 -0.8756628367 0.005204920531
0.009704303583 0.003417018851 -0.07467257309 -0.4794258087 0.3843752259 0.788927487
-0.00560899051 0.03988878822 -0.08037171682 0.2777146598 0.01113808953 0.9605990374
-0.005417471647 -0.01984709072 -0.03108432293 -0.2568227207 -0.9664008768 0.01055629427
0.006474996249 -0.0154800717 -0.05750453695 0.2967791912 -0.8525128924 -0.4302834878
0.01336730528 0.04588943863 -0.07623999023 -0.6270432497 0.01340678774 0.7788690654
-0.002694007158 -0.02039941502 -0.03264398193 -0.1212270511 -0.9925838046 -0.009021800474
0 -0.02056591225 -0.03311421585 -0.03315072001 -0.9994487342 -0.001804822903
0.01623783016 0.05448168945 -0.07325315094 0.7825892216 -0.01150448041 -0.6224321305
0.01481130075 0.05168955803 -0.07485586166 0.7360466552 -0.00727256238 -0.6768917426
0.01879337502 -0.006240204811 -0.05088695908 0.9316398897 -0.3352257691 -0.140252628
0.002694007158 -0.02039941502 -0.03264398193 0.1182484641 -0.9929836417 0.0008877770196
0.00680018568 -0.01941722488 -0.02987051582 0.3406749104 -0.9396834928 -0.03058657799
0.01814360873 0.006167856534 -0.06660546112 0.8826433291 -0.218649283 -0.4160928317
0.01339521694 -0.01561275864 -0.01913043976 0.6256914669 -0.7799774089 0.01205942847
0.01501437759 -0.01410255051 -0.01486811066 0.7338865271 -0.6792147161 -0.008828062501
-0.01412112379 0.01251916218 -0.07460547256 0.6770824585 0.1646893073 0.7172424809
0.01677230072 -0.01193565559 -0.008753694534 0.797329667 -0.6035149681 0.005923294622
-0.01847307014 -0.00908850193 -0.005144766331 0.9118072436 0.4105644 -0.00666513264
-0.01941317177 -0.006817781925 -0.01583297253 0.8898077428 0.4550894946 0.03370063484
0.01680321693 -0.01190118217 -0.03681150055 0.7998490775 -0.6001933021 0.00307463524
-0.01719804382 -0.01119359875 -0.01522911835 0.8419793859 0.5395075964 0.001505675762
0.01836627769 -0.008490214825 -0.04615205765 0.870407428 -0.4797948005 -0.1103986356
0.01996183968 -0.004899151802 -0.006606520653 0 0 1
-0.01767699337 -0.002762738287 -0.06042051315 0.8631380894 0.3750813018 0.3380926731
0.01208997488 0.04835972023 -0.07725369644 -0.6081113305 0.001783788463 0.7938497514
-0.01390801382 -0.0151420722 -0.02404491138 -0.6265986115 -0.7792891733 0.009086494175
-0.008801597595 -0.01859599876 -0.03160354233 -0.4384743394 -0.898737835 0.00324925509
-0.002514825851 0.04883128166 -0.08101597023 0.1277405933 0.01048024576 0.9917522399
-0.00740278244 -0.01921800423 -0.03333518982 -0.3463341569 -0.9381055598 0.003257375565
0.01816346359 -0.009649298668 -0.01100104332 0.8569002711 -0.5154005711 -0.009174787482
-0.006030056477 -0.01967217255 -0.03459978104 -0.2923763102 -0.9562801584 -0.006659721131
-0.004672223091 -0.0200614109 -0.03568347168 -0.2321661222 -0.9726697126 0.003538630209
-0.01163967746 -0.00259507697 -0.06947277396 0.5715180738 0.5189347491 0.6356680088
-0.002661327779 -0.02040681076 -0.03664525795 -0.169008535 -0.985594051 0.006362526364
0.0131023488 0.03031669235 -0.07647811127 -0.6403380036 -0.003836540256 0.7680836687
0 -0.02056874084 -0.03709619522 -0.02506446788 -0.999622698 -0.01123539159
0.003331626217 -0.02029167747 -0.03632466253 0.1925961126 -0.9812763203 0.001876315541
-0.01758421898 -0.01065359116 -0.02197481537 0.8623814631 0.5060178346 -0.01562572205
-0.002421569884 -0.005338279843 -0.0717630806 0.1398935201 0.6316573144 0.7625213703
0.006716419458 -0.01944508839 -0.03396748543 0.3119410782 -0.9500379001 0.01098872425
0.01156930637 0.003913811684 -0.07371514893 -0.5316543286 0.3743370526 0.7597469617
0.009513720036 -0.0182383852 -0.03060791874 0.4720631077 -0.8814550713 0.01390610351
0.01169421959 -0.01693523216 -0.02698023224 0.5682986557 -0.8227656622 0.009659343688
0.009094827652 0.001099956751 -0.07384575653 -0.4347474981 0.4472774173 0.7816249259
0.01616724777 0.05113392258 -0.07335832977 0.7795052253 0.01566645403 -0.6261997812
0.0006427718798 -0.01972092438 -0.04802215131 0.03597320576 -0.9816536426 -0.1872486432
0.005431733608 0.01313841248 -0.07974775696 -0.245946088 0.1709830145 0.9540835029
-0.01293978691 -0.003862977743 -0.0672182312 0.6150303386 0.5232349801 0.5898837497
0.01321254063 -0.01578528309 -0.02377934647 -0.6378098613 0.7701815112 0.004361258332
-0.003289078951 -0.02032399178 -0.04030282211 -0.1602212348 -0.9864082314 -0.03644114274
0.01480567837 -0.01430632305 -0.01966312408 0.720180552 -0.6937862544 -0.0007783413576
-0.01703085709 -0.004622747898 -0.05991464615 0.7912719941 0.4715483079 0.3892696041
-0.0181610508 0.01520053434 -0.06976091766 0.8752176385 0.09023272947 0.4752390345
0.0006367750565 0.05931961823 -0.08112217712 0.02486410116 0.07846648057 -0.9966066365
0.007904633522 0.01822498512 -0.07951341629 -0.3926736492 0.06883979729 0.9170978615
0.01652152634 -0.01226205158 -0.01397439766 0.7903358294 -0.612672796 -0.001149651507
-0.01905918217 0.05134800339 -0.06839238739 0.8751312518 -0.00481548954 0.4838616571
0.01847135925 -0.009099108696 -0.005174262047 0.9118788281 -0.4103814073 0.008006461564
-0.008603938421 -0.008764337937 -0.06604494476 -0.437014939 -0.6765208084 -0.592737327
-0.01816886902 -0.009615393639 -0.01090803623 0.8821074937 0.4707846186 0.01575475941
0.0006012407541 0.01031178602 -0.0798105545 -0.02267751913 0.2320421542 0.9724413447
0.01385631084 -0.01514811325 -0.04150805283 0.6540193894 -0.7550381401 -0.04664810108
-0.01627817917 -0.01257877731 -0.01904042816 0.7779402252 0.6282465443 -0.01073711276
-0.01148125553 -0.01701981449 -0.03320826149 -0.5542836392 -0.8321851599 -0.0154112631
-0.009143296242 -0.003974571943 -0.0703225708 0.4493555397 0.5693419808 0.6884252377
-0.007312540531 -0.01924800491 -0.03734829712 -0.36492782 -0.9309400458 -0.01335354957
-0.005286423922 -0.01988601112 -0.03910015678 -0.2375058954 -0.9711587843 -0.02101345786
0.0036433357 -0.006695141792 -0.07036043167 -0.1889009254 0.6552272281 0.7314326489
-0.002613139868 -0.02031222916 -0.0421719532 -0.1004590908 -0.9932803786 -0.05746355925
0.003264615059 -0.02018879445 -0.04246947861 0.1289774881 -0.9897389191 -0.0614953619
0.003952527642 -0.02019974232 -0.03996162033 0.2067844859 -0.9780603707 -0.02526039689
0.01844358635 -0.003060594082 -0.05801179123 0.8994985418 -0.3453244072 -0.2676815779
0.00595687151 -0.01969652939 -0.03857989502 0.3373627846 -0.9410649748 -0.02414673325
0.007312540531 -0.01924800491 -0.03734829712 0.3801526622 -0.9249225801 -0.001474547408
0.003676547527 -0.01079965925 -0.06607884789 0.2153270815 -0.7526177795 -0.6222545507
0.01412112379 0.0125191617 -0.07460547638 -0.6672795929 0.1922802226 0.7195597688
0.01009732723 -0.01795121574 -0.03378776932 0.4716568602 -0.8817213154 0.01035993167
0.0006052020391 -0.005389518023 -0.07187065887 -0.02981409079 0.6350172332 0.7719224272
0.01154296303 -0.01704567146 -0.03130170441 0.5603206026 -0.8282201793 0.009599834937
0.01303516769 -0.0159501915 -0.02829431915 -0.597087794 0.8021529102 0.006072467669
0.01206656647 -0.01386133432 -0.05409151077 -0.6009767387 0.7381193801 0.3066051862
0.01460348701 -0.01449886131 -0.0243104763 0.7259375804 -0.6877215637 -0.007326674623
0.01627817917 -0.01257877731 -0.01904042816 0.7777627849 -0.6285579132 1.417976872e-05
0.003731130898 -0.01494384861 -0.06003688908 0.1869212882 -0.8527547554 -0.4877189345
-0.01604192924 -0.01288626862 -0.02395874214 0.7694771641 0.6386649488 -0.003460789331
-0.01511018705 -0.01393156576 -0.02877328491 -0.7028090663 -0.7112769402 -0.01202209064
-0.01408563209 0.04876224518 -0.07555991554 0.7038394749 0.01663339676 0.7101642934
-0.01204838276 -0.01668147182 -0.03616384125 -0.5752639085 -0.8179675545 0.000717929061
-0.009279259205 -0.01835659981 -0.03877089119 -0.4542513281 -0.8908621642 -0.004509470373
-0.01032065725 0.009873366833 -0.07684672165 0.4842675852 0.2406742124 0.8411663506
-0.007227524281 -0.01923337173 -0.04114539337 -0.3624113627 -0.9306324621 -0.05080575445
-0.002547894418 0.05941378212 -0.08100162888 -0.1310334214 0.02319042224 -0.9911066778
-0.005228923321 -0.01978848648 -0.0426489296 -0.2576731992 -0.9642580686 -0.06173248382
0.02029453278 -0.001380745173 -0.04956290817 0.9542019474 -0.2743101279 -0.1193842426
0.01538341808 -0.01368069267 -0.03769171524 0.7295813421 -0.6838463333 -0.008078221823
-0.002589804649 -0.02004234314 -0.04519987488 -0.1117825034 -0.9859087331 -0.1244533724
-0.008523241043 0.01838569403 -0.07924279785 0.4486597882 0.06203118034 0.8915472658
0.0006504252752 -0.02031311925 -0.04407008362 0.04547367847 -0.9934769867 -0.1045735216
-0.01675539398 0.01277690601 -0.07156087112 0.8014155718 0.1336056564 0.5829945196
0.00655890274 -0.01943420982 -0.04168936157 0.3683746331 -0.9278773519 -0.05782516353
-0.005594045912 0.006316324847 -0.0777377352 0.2802869979 0.3187156786 0.9054609406
-0.001803722262 0.01033723354 -0.07976522064 0.07202545317 0.2477475108 0.9661436254
0.01204838276 -0.01668147182 -0.03616384125 0.5754253787 -0.8178269344 -0.006688718897
0.01754711342 -0.009537333488 -0.04866644287 0.8457487922 -0.5153814466 -0.1381699858
-0.01036305141 -0.001682896495 -0.07120957947 0.5204401285 0.4952516513 0.6956061203
0.006140948415 0.02791986513 -0.08024398041 -0.2757324193 0.01319584042 0.9611438512
0.0003707783937 -0.01357717247 -0.06287617264 0.036956267 -0.8256263546 -0.5630056456
0.01286518383 -0.01608841324 -0.03262875366 0.5972820025 -0.8019952653 -0.007602884706
0.01884036827 0.04294868279 -0.06888139725 0.8607149279 0.009249326344 -0.5090032051
-0.005951129675 -0.0156165483 -0.05756330776 -0.3037621927 -0.8554585511 -0.4194272256
0.01511018705 -0.01393156576 -0.02877328491 0.7137449573 -0.700349317 -0.008886508984
0.01604192924 -0.01288626862 -0.02395874214 0.7353595516 -0.6776763085 0.001072715442
-0.01599787569 0.04298392105 -0.07356620789 0.7966284122 0.007111268102 0.6044274999
0.01786652946 -0.01017614555 -0.0166218605 0.844919439 -0.5348932636 0.0005814228996
-0.01996183968 -0.004899151802 -0.006606520653 0 0 1
-0.01549152708 -0.0003003823981 -0.06696112442 0.7548130197 0.4047002041 0.5162122142
-0.01490549898 -0.01414981508 -0.03324743271 -0.6914074375 -0.7224560411 0.003608895092
-0.002547784388 -0.01884957314 -0.05113366699 -0.130899607 -0.9492701761 -0.2859220622
-0.012950881 0.0213948679 -0.07660684967 0.6155920146 0.009868541402 0.7880032256
0.01891043282 -0.006730177402 -0.04872188187 0.9165248963 -0.3791277781 -0.1274529022
-0.007946568489 -0.007072210789 -0.06826839447 0.3667111244 0.6457577562 0.669716262
-0.01125282764 -0.01724981308 -0.03959397888 -0.5593956103 -0.8288828732 -0.005452868208
0.0186772728 -0.008658553123 -0.02848773575 0.9251876245 -0.3789511257 0.02058892408
-0.008538872147 -0.01121946163 -0.06303400116 -0.4148502291 -0.7318773304 -0.5406060124
-0.005182415962 -0.0194983654 -0.04560140419 -0.2750604414 -0.9532497054 -0.1251269466
0.01492222118 0.05753736496 -0.07472521973 0.7406558692 0.01047487299 -0.6718029179
-0.002353983561 -0.01957541339 -0.04824399821 -0.1433621519 -0.9682271698 -0.2048986119
0.01010069389 -0.01200478382 -0.06044785309 0.4955157382 -0.7483832548 -0.4408930224
-0.01842443848 0.02694263077 -0.06979557037 0.9148054315 -0.005482392373 0.403857606
-0.006654836178 0.01461963749 -0.07961650085 0.3318230599 0.1587967408 0.9298801278
0.003878276587 -0.01972233772 -0.0461998539 0.2224243481 -0.9631103855 -0.151478694
0.005836612225 -0.01937056351 -0.0452599144 0.2561149993 -0.9573723122 -0.1335790514
0.007157212734 -0.01903288651 -0.04435767365 0.3678789104 -0.9253249204 -0.09186348039
-0.002668057005 -0.01273307451 -0.06383617401 -0.1177844295 -0.8061115529 -0.5799232642
0.009175205231 -0.01830885887 -0.04242325211 0.467985712 -0.8819250513 -0.0565471241
0.01538118617 -0.008704699039 -0.05766300837 0.7352280658 -0.5793555346 -0.3518335626
0.01125282764 -0.01724981308 -0.03959397888 0.5415741696 -0.8403540519 -0.02241620749
-0.01143427992 0.04805561066 -0.07767881203 0.5697565671 -0.01548111708 0.8216676879
0.01490549898 -0.01414981508 -0.03324743271 0.7428220618 -0.669449829 0.007232631979
-0.0143803916 -0.01433926535 -0.04487199402 0.7178284629 0.6881040862 0.1059955864
0.009427735488 0.04249388568 -0.07885067622 -0.4810420881 0.004723961168 0.8766847744
0.0123364222 -0.005481477141 -0.06629462051 0.6234683398 -0.5555273586 -0.5501605066
0.01757917404 -0.01068599606 -0.02206134796 0.8267545743 -0.5625619256 0.0009766309707
-0.008219649315 -0.01608634377 -0.05452101517 -0.418535362 -0.8394415907 -0.346649631
-0.01306533337 -0.007954990625 -0.06272388077 0.6332807595 0.6140804818 0.4710208505
-0.01730182838 -0.01117384624 -0.02731296921 0.8278680652 0.5609134123 0.003257384282
-0.01402928638 -0.01504277611 -0.03750954819 -0.6613331004 -0.7499827942 -0.01281946961
-0.01183830023 -0.01673437881 -0.04196791458 -0.5578280086 -0.8282893174 -0.05258060048
-0.008049398303 -0.01803236914 -0.04810934258 -0.3912859542 -0.9007851479 -0.1883651223
-0.005792417049 -0.0189572773 -0.04782692337 -0.3108685272 -0.9309304799 -0.191648638
0.003850430965 -0.01926858616 -0.04864749718 0.1726970565 -0.9649530363 -0.1975888771
0.006647756894 -0.01860383097 -0.04809997559 0.3310956012 -0.9216952578 -0.2021226227
0.01183830023 -0.01673437881 -0.04196791458 0.5537831118 -0.8303404185 -0.06212128842
0.01854672623 -0.008599306822 -0.04295635605 0.8877083611 -0.4587145785 -0.03943096733
0.01402928638 -0.01504277611 -0.03750954819 0.6628992971 -0.7485033115 -0.0175303919
-0.01657670021 -0.01216748524 -0.04115112305 0.8162615291 0.5766518681 0.03449259636
-0.01113336587 0.02719486761 -0.07788997841 0.5808669025 -0.01398502486 0.8138784065
0.01730182838 -0.01117384624 -0.02731296921 0.8147308931 -0.5798361355 0.00190466104
0.01031689835 0.008095252037 -0.07627600098 -0.4974013049 0.2846539113 0.8194901419
0.004379529953 -0.01602597809 -0.05773962402 0.2252744431 -0.8776799618 -0.4230003664
0.01941317177 -0.006817781925 -0.01583297253 0.9090692507 -0.4165482589 -0.008980283556
0.0130006032 0.02433403778 -0.07656856918 -0.6394958421 0.01064958021 0.768720791
-0.01704527855 -0.01156649494 -0.0321931839 0.8209927738 0.5708673462 -0.009018786605
-0.004831100464 -0.001663201511 -0.07392773056 0.2035643759 0.5366689576 0.8188699377
-0.01538341808 -0.01368069267 -0.03769171524 0.7285687258 0.6846900559 0.01967585131
-0.01832312202 -0.0008807939291 -0.06087987518 0.8909935527 0.3166700705 0.3253468235
-0.01837236404 -0.009262928963 -0.03379150009 0.8901734964 0.4554888848 0.01100101004
0.006187802434 0.0338918581 -0.08022680664 -0.2785455299 -0.008385153323 0.9603864207
-0.01172742796 -0.01651379108 -0.04505964661 -0.5641575266 -0.8185483918 -0.1081887957
-0.005478268623 -0.01813635635 -0.05140486984 -0.288393726 -0.9184133762 -0.2708245359
-0.02020056915 0.03393182755 -0.06453610992 0.9530025153 -0.02963376294 0.3015096117
0.0006366200844 -0.01892650159 -0.05133370209 -0.03691718034 0.9660810704 0.2555865551
0.01166534138 -0.004281878948 -0.06810604095 -0.5612954804 0.5420925578 0.6253663266
0.01922042847 0.05743118668 -0.06799137115 0.8815901565 0.003865695195 -0.4719998435
0.004031447887 -0.01850433222 -0.05141461309 0.214413916 -0.9357928092 -0.27985441
-0.002475951046 0.0363789978 -0.08102936554 0.1237111739 -0.00253068957 0.9923150412
0.006160902659 -0.01799225934 -0.05126868693 0.3069180163 -0.9148771009 -0.2622998696
0.0006315129002 -0.01799342982 -0.05418028259 0.05356286405 -0.9320787937 -0.3582738365
0.0006030129592 -0.002415019214 -0.07407941564 -0.02105712996 0.5612056352 0.8274085039
0.01172742796 -0.01651379108 -0.04505964661 0.5753858376 -0.8112091064 -0.1042637211
0.01704527855 -0.01156649494 -0.0321931839 0.820427248 -0.5716735429 0.009406965611
0.006646794107 0.0006641762224 -0.0747034039 -0.3423161741 0.4643945788 0.8167969834
0.01902681923 -0.007824683666 -0.02246133614 0 0 1
0.01957898331 -0.006388454437 -0.03755596924 0.9175754771 -0.3973735127 -0.01222846052
-0.0186772728 -0.008658553123 -0.02848773575 0.9252911077 0.3787481257 -0.01965256561
0.009630567233 0.0595116628 -0.07872345479 0.4928903715 0.0388098446 -0.869225447
-0.01227592421 -0.01558126354 -0.04803108978 -0.5913689748 -0.787892485 -0.1717794162
0.0006285057664 0.04874228986 -0.08113721593 -0.0722695757 0.01362644501 0.9972920477
-0.01095450401 -0.01645677567 -0.0485033493 0.536211462 0.8249848534 0.178542039
-0.00893894887 -0.01683862782 -0.0512369175 -0.4406590174 -0.8659938037 -0.2363775843
-0.002527219623 -0.01792503786 -0.05400600433 -0.1268665463 -0.9313439382 -0.341325868
0.006881344509 0.003275545073 -0.07599976349 -0.3555117089 0.4059165215 0.8419282644
0.006739784718 -0.009097985983 -0.06678913116 0.3543031552 -0.6947241901 -0.6259613198
-0.01698862139 0.04579388682 -0.07215353139 0.8164624744 0.00802804879 0.5773426871
0.003579525232 -0.01773197301 -0.05409182358 0.1869800043 -0.922654929 -0.3372630428
0.01609824657 0.04783657455 -0.07345176315 0.7877005955 0.008310883828 -0.6160021924
0.00893894887 -0.01683862829 -0.05123691654 0.4399286217 -0.8617804293 -0.252581273
0.01679375553 0.002491713047 -0.06693592453 0.7893194865 -0.3491899721 -0.5050159519
0.01371964264 -0.01499680424 -0.04475688934 0.6502995273 -0.7508254141 -0.1156361634
0.01836754608 -0.009292912483 -0.03386749649 0.855769738 -0.5173110028 -0.006890709517
0.01519080734 -0.01382252121 -0.04174313354 0.7215045737 -0.6918446173 -0.02796740334
-0.008500717044 0.01568461919 -0.07899957848 0.4413961946 0.1173667302 0.8896035353
-0.01129117076 -0.01535085678 -0.05153353882 -0.5645903367 -0.7850212893 -0.2549104294
0.0131403327 -0.00963566637 -0.06033077812 0.6304692984 -0.6427426186 -0.435190062
0.006533131123 -0.0168716507 -0.05420957692 0.3442926972 -0.8779146465 -0.3327587896
0.0006258196831 -0.0166042134 -0.05749534861 -0.03922430917 0.9100420195 0.4126560023
-0.005377457237 0.04278718719 -0.08043661499 0.2800078885 -1.536348993e-05 0.959997699
0.01085707855 -0.01562094021 -0.05163329697 0.5262275867 -0.8069489606 -0.268175133
0.01504114056 -0.01368172646 -0.04498709869 0.6979422383 -0.7102461854 -0.091798628
0.01657670021 -0.01216748524 -0.04115112305 0.7963767279 -0.6036248235 -0.03769853781
-0.0164033432 -0.01210620308 -0.04457357407 0.8266873508 0.5577215681 0.07439540684
0.006164244771 0.03088921261 -0.08023544121 -0.2774191676 -0.008273250837 0.9607133593
0.02014785004 -0.001045011997 -0.05200927353 0.9540364847 -0.2719493382 -0.1259283259
-0.002457212865 0.03037008524 -0.08103224754 0.1218203461 -0.01206810466 0.9924787978
-0.01348205662 -0.01387913418 -0.05073111725 -0.6316769261 -0.7393149948 -0.2332329296
-0.01865127277 -0.005321704865 -0.05363887787 0.9178125508 0.3506833271 0.1861218034
-0.009491797924 -0.01541931057 -0.05455528641 -0.4468458306 -0.8337949271 -0.3242141625
0.01462679434 0.04196221161 -0.07507316971 0.7207542057 0.0009569163566 -0.6931900599
-0.00503132081 -0.0166522007 -0.05593421555 -0.2322177933 -0.8893347396 -0.3939017865
0.00360962534 0.009260671139 -0.07921065648 -0.1593217725 0.2800702133 0.9466663871
0.0006140939395 0.03029064687 -0.08115406799 -0.06717433089 -0.01452195444 0.9976355658
0.01301713943 -0.006637715816 -0.06435229492 0.6389050739 -0.5709480468 -0.5155760219
0.003553652922 -0.01658239174 -0.05688159943 0.1856934508 -0.8943798894 -0.4069429391
0.003614203771 0.0003029634406 -0.07541439692 -0.1973317562 0.4957183864 0.8457679702
0.0148816731 -0.002557956249 -0.06590853882 0.7315188718 -0.4558561217 -0.5070259722
0.01989422798 0.02475147629 -0.06587085724 0.9352704199 0.004335367617 -0.3539073978
0.005663998127 -0.01657350731 -0.0557377243 0.2690276777 -0.8870372369 -0.3752186681
0.008219649315 -0.01608634377 -0.05452101517 0.3699534274 -0.8632931414 -0.3433065884
0.01492313671 -0.01333117676 -0.04763629913 0.7188897658 -0.6798558945 -0.144891226
0.009204937363 0.04539103394 -0.07896894989 0.4461539615 -0.008406524129 -0.8949167408
0.0164033432 -0.01210620308 -0.04457357407 0.7901126451 -0.6055293005 -0.09516445933
0.0006087874042 -0.008689388434 -0.06885479991 0.05829997995 -0.7082252538 -0.7035752285
-0.02024828911 -0.003687351942 -0.02727848816 0 0 1
0.01230055332 -0.008475300407 -0.06297135162 0.6005157794 -0.6284326399 -0.4944221028
-0.01694418383 0.05440198803 -0.07221710014 0.8267184101 0.01021938085 0.562523097
-0.01621431732 -0.01157392168 -0.04848314476 0.7953447918 0.5903094984 0.1377002479
-0.01478359747 -0.01256124973 -0.05090472794 0.7036663124 0.6756568354 0.2198671452
-0.01163536549 -0.01413392162 -0.05420091756 -0.5735841678 -0.7610402265 -0.3030164616
-0.008788178444 -0.01451473379 -0.05735458374 -0.4175208678 -0.8149563667 -0.401898551
0.009426491261 -0.0142167209 -0.05718273354 0.4533662791 -0.8023482203 -0.3881962781
0.013154109 0.03335886383 -0.07643159485 -0.6067481694 0.001239856369 0.7948931511
0.01521222591 -0.0119639136 -0.05114658229 0.720167597 -0.6539754121 -0.231678209
0.01621431732 -0.01157392168 -0.04848314667 0.7861658088 -0.5968751312 -0.1602604093
0.02024828911 -0.003687351942 -0.02727848816 0 0 1
-0.01957898331 -0.006388454437 -0.03755596924 0.9168951735 0.3990935641 0.005250516183
-0.01438887024 -0.01160127907 -0.05429650421 0.6951622797 0.6583244417 0.2887184343
-0.01070311689 -0.01362069511 -0.05683903313 -0.518384408 -0.7709885622 -0.3699381603
0.02042635345 0.03952200699 -0.06310310745 0.9977137367 -0.02411327123 -0.06313358708
-0.005597992216 -0.01433276231 -0.06018760082 -0.2779443377 -0.8298097531 -0.4839036254
-0.002485178292 -0.01503659892 -0.06026097488 -0.1390602276 -0.8584090317 -0.493757215
0.0006210560004 -0.01509507545 -0.06040222168 0.03723364554 -0.8645546112 -0.5011576397
0.006095159817 -0.01411258602 -0.06030651398 0.2782267327 -0.8260708996 -0.4900987187
0.01541537571 0.009550302744 -0.07228559303 0.7487180845 -0.2094766117 -0.6289203281
0.01334219265 -0.01264103651 -0.05446966553 0.6298190996 -0.7057199628 -0.3244799468
-0.01924742508 -0.00713176012 -0.04287433624 0.8928773919 0.4484037858 0.0412796302
-0.01754711342 -0.009537332535 -0.04866644287 0.8345747576 0.5306699737 0.1478998071
-0.0160694828 -0.01076924133 -0.05163029099 0.8062459333 0.5615487744 0.1860926352
-0.00810396862 -0.01352134657 -0.05986580658 -0.366736068 -0.8134979761 -0.4513598336
0.00810396862 -0.01352134657 -0.05986580658 0.3999360729 -0.7959488888 -0.4544408696
-0.01063453722 0.003657477379 -0.07420910645 0.5236012792 0.3638258554 0.7703716294
-0.002617257118 -0.003523738543 -0.07312758636 0.1593044363 0.5814074404 0.7978643273
0.01259683156 -0.01182974672 -0.05746267319 0.604737174 -0.700639528 -0.3786782303
0.0150866553 -0.01090810744 -0.05418106333 0.7285813846 -0.6319575214 -0.2641947333
-0.01739446354 -0.008722840309 -0.05174843788 0.8303414189 0.5189627641 0.2030043781
0.01293978691 -0.003862977266 -0.0672182312 0.6553499141 -0.4947841608 -0.5707058124
-0.01366881784 -0.01087721221 -0.05737466431 0.6648773328 0.6489897461 0.3697978391
0.01593200922 0.03979839134 -0.07364090729 0.757723645 -0.01708085664 -0.6523519925
-0.009343047142 -0.01245526361 -0.06055151558 -0.4406054386 -0.7667457049 -0.466870294
-0.004333106041 -0.01369420147 -0.0618841362 -0.2152768798 -0.8272087079 -0.5190198634
-0.01922064209 0.05743318558 -0.06798854828 0.8820429407 -0.002662183736 0.4711615047
-0.002472774565 -0.01384331083 -0.06223737335 -0.1057956578 -0.8286357683 -0.5496999566
-0.01657079252 0.04804518636 -0.072763532 0.8169241068 -0.0175082153 0.5764793718
-0.0142618475 -0.004282589436 -0.06518819427 0.6974582524 0.5042204426 0.509228565
0.003712381601 -0.01375305939 -0.06202360535 0.2085037323 -0.822198782 -0.5296370044
0.01739446354 -0.008722840309 -0.05174843788 0.8415830917 -0.5060933866 -0.1886991889
0.01702344513 0.02702725887 -0.07213841629 0.7957158696 0.00903077297 -0.6056027576
-0.01891043282 -0.006730177402 -0.04872188187 0.9079385572 0.3955866526 0.1384152328
0.01772859192 0.05772815895 -0.07106546402 0.8451249345 -0.003334581527 -0.5345584399
-0.01591817474 -0.009448710442 -0.05510141373 0.7675404178 0.5651661479 0.3024383118
-0.005555101077 -0.01230907154 -0.06337098249 -0.2835961227 -0.7828135381 -0.5538738158
0.003695799172 -0.01251553416 -0.06385062218 0.2001658355 -0.7976831183 -0.5688895157
0.007474266052 0.01522719383 -0.07938129425 -0.3756624568 0.1252792608 0.9182498709
-0.005216779995 -0.005003081131 -0.07134281616 0.2328590873 0.6209614007 0.7484541297
0.006175831318 -0.01223391557 -0.06319640732 0.2931818891 -0.7787333194 -0.5546339307
0.008538872147 -0.01121946201 -0.06303400116 0.4084092063 -0.736413759 -0.5393483993
0.01187710857 -0.01090652037 -0.06010999489 0.5933076211 -0.6797769044 -0.4311489615
0.01454415321 -0.01021766472 -0.05690374374 0.6983809013 -0.6188643626 -0.3595427895
0.005419953823 0.004258158922 -0.07699792099 -0.2661438288 0.3805287385 0.8856440265
0.01962190247 0.009465268135 -0.06433581543 0.9231748736 -0.1672679557 -0.3460774246
0.01591817474 -0.009448710442 -0.05510141373 0.7601339126 -0.5788990892 -0.2950801239
-0.005818357229 -0.009453783274 -0.06683104134 -0.2946986045 -0.7126698242 -0.6365959897
-0.01879337502 -0.006240205288 -0.05088695908 0.9178037026 0.3611671783 0.1649079527
-0.002429883331 0.02160228014 -0.08103509331 0.124011383 0.02012599437 0.992076671
-0.01538118617 -0.008704698881 -0.05766300837 0.7206427426 0.5883109583 0.3668300068
-0.01417375774 -0.008580349922 -0.06011645966 0.7035117605 0.5905801438 0.3953306168
0.003607602 0.006331159949 -0.0782568779 -0.2077072295 0.3263770026 0.9221365186
-0.002327934504 -0.01114813976 -0.0659534317 -0.1087688321 -0.7693109344 -0.6295474783
0.01576771593 0.003501164138 -0.06909927559 0.7600086118 -0.3316536655 -0.5589210644
0.009246526162 0.02726396751 -0.07895415243 -0.4449267132 -0.007900089808 0.895532137
0.0006128487322 -0.01136821577 -0.06584243435 0.02098184159 -0.774172822 -0.6326264332
0.0172701664 -0.007746022701 -0.0543777504 0.8294227683 -0.5094066387 -0.2292656709
-0.01748848057 -0.005749519229 -0.05699228859 0.8179732506 0.4806466057 0.3160674006
0.01687778664 -0.0009962484241 -0.06407833099 0.7935616807 -0.4028500576 -0.4560391321
-0.002435953061 -0.008636962891 -0.0687398351 -0.1135035395 -0.7075687758 -0.6974692638
-0.01128536644 -0.009146052361 -0.06325497055 -0.5886952217 -0.6444897933 -0.4879250376
-0.005279947186 -0.01072045383 -0.06559432068 -0.2234654784 -0.7506916111 -0.6217115771
-0.005489877701 -0.007901083946 -0.06860297648 0.2681076608 0.6734739246 0.6888767343
0.005939193249 -0.01070375697 -0.06535309347 0.2791468262 -0.7531655408 -0.5956666162
0.003760802925 0.04580673885 -0.08081727219 -0.2141090453 0.006519972999 0.976788005
0.01052736616 -0.00963187027 -0.06343292809 0.5166520376 -0.6781553605 -0.522662395
0.01890504265 0.04543650818 -0.06873886108 0.8645574031 0.005906005108 -0.5024993689
0.01748848057 -0.005749519348 -0.05699228859 0.8209762502 -0.4812080917 -0.3073056605
0.01495439339 0.0592335434 -0.07468733215 0.7336868868 0.01433334788 -0.6793365199
0.01865127277 -0.005321704865 -0.05363887787 0.9181490011 -0.3493162256 -0.1870309769
0.01971206951 0.01853073406 -0.06637352371 0.9277459658 -0.03025282055 -0.3719841258
-0.01674965986 0.006260159334 -0.06917577616 0.7748226114 0.2783541518 0.567599231
0.009230527537 -0.008621023723 -0.06572903224 0.4237619181 -0.6758618016 -0.6030229365
-0.01678308773 0.015369596 -0.0720484848 0.7857787741 0.09080800613 0.6118052176
0.006634615558 0.006468894073 -0.07745554025 -0.329840969 0.3362941104 0.8821061197
-0.01089480782 -0.007609772841 -0.06549263 -0.5230969023 -0.6337610362 -0.5698390824
0.003532790613 -0.008381528187 -0.06876972656 -0.14152086 0.6998270395 0.7001528126
0.0092818923 0.03024016698 -0.07893546168 -0.4455936397 -0.01785029738 0.8950573586
0.004276239872 -0.009418550491 -0.06750302124 0.2075585008 -0.7212648033 -0.6608301992
0.01485014515 -0.005661446667 -0.06280739822 0.7134791986 -0.529597504 -0.4587743639
0.01305116796 0.02730855179 -0.07652410889 -0.6397645824 -0.005590826673 0.768550598
0.0006017649439 0.000168998864 -0.07567793189 -0.02066185582 0.5076203471 0.8613330778
0.003717259526 0.03651554871 -0.08082763672 -0.2200031804 0.006523640479 0.975477341
-0.02014785004 -0.001045011401 -0.05200926971 0.9543145218 0.2722832675 0.1230675248
-0.01844358635 -0.003060594082 -0.05801179123 0.8979618227 0.3461087046 0.2717964855
0.009080142975 0.007770865917 -0.07687402344 -0.4361911821 0.2988419465 0.8487819176
-0.01301713943 -0.006637716293 -0.06435229492 0.6242201137 0.5835777649 0.5194095128
0.006471702671 -0.00767889061 -0.06841308136 -0.3027720155 0.6636906771 0.6839910758
0.01173241138 -0.007072818756 -0.0653089447 0.5596462446 -0.6178300252 -0.5523424126
-0.01999257278 -0.000174899824 -0.05479559708 0.9494015979 0.2720363285 0.1569485324
0.006235771656 0.04000209808 -0.08020789528 -0.2814573645 0.0171664721 0.9594201708
-0.01195781174 -0.005687168312 -0.06644542542 0.5828451533 0.5696367313 0.5794872921
-0.008674064922 -0.005795813084 -0.0690114212 0.4280273039 0.606582947 0.6699625031
0.02003222847 -0.000535590291 -0.05403112793 0.948342466 -0.2757821122 -0.1568145203
-0.01692795467 -0.002399842024 -0.06263157272 0.8082451269 0.4111411401 0.4215480729
0.01986017513 0.00141550979 -0.05749546432 0.9308938892 -0.2756823227 -0.2396577225
-0.008173643947 0.0009204214923 -0.07419887733 0.370035964 0.4526762479 0.8112691292
0.01468752909 0.04516418648 -0.07500163651 0.7298379545 0.007972881359 -0.6835736927
-0.0155856905 -0.003652610779 -0.06383440018 0.7584609282 0.4658599477 0.4557538036
-0.01083149465 -0.004832839012 -0.06831192271 0.5309965533 0.5658102034 0.63079432
-0.005503121217 0.02488518524 -0.08040828451 0.2703274739 0.01196800695 0.9626940447
0.007953114986 0.02321197128 -0.07958892059 -0.4083199722 -0.007662854089 0.9128067051
-0.002427125216 -0.006775714874 -0.07053282928 0.1539997457 0.6577123267 0.737359189
0.0006065884431 -0.006826921622 -0.07064233144 -0.04025719576 0.6597544778 0.7504021503
-0.01123744256 0.000624972254 -0.07207094356 0.5718867027 0.4338731527 0.6962037681
0.01974452591 0.003683250666 -0.06018935394 0.935496157 -0.2335535932 -0.2651408292
0.01648053328 -0.002817431609 -0.06303251394 0.7810124358 -0.4401457489 -0.4430477343
-0.01971207047 0.01853073406 -0.06637352371 0.927768807 0.03018763589 0.37193245
0.0199529171 0.0001857907027 -0.05556006622 0.9410225255 -0.2688593624 -0.2054050869
-0.01986017513 0.001415509641 -0.05749546432 0.9270986783 0.2731072564 0.2567108632
-0.01674299812 0.01090817261 -0.07107206726 0.7932532894 0.172592046 0.5839188338
-0.0148816731 -0.002557955772 -0.06590853691 0.7132382901 0.4652787666 0.5242201931
-0.01780396207 1.440457255e-05 -0.06293430964 0.8731871538 0.3265579369 0.3618067277
-0.007907064915 -0.004225160599 -0.07084647369 0.3459619416 0.5800315338 0.737477969
0.009969580332 -0.003441714525 -0.07015554047 -0.4864081072 0.5468497804 0.6814414655
0.01214245968 -0.002362993169 -0.06923307343 -0.6152208024 0.4874699405 0.6195776153
0.01826704979 0.0005197312087 -0.06236229706 0.8770342978 -0.3243959549 -0.3543700113
-0.01974452591 0.003683251063 -0.06018935267 0.9280996968 0.2423763309 0.2826387571
-0.01683697128 0.000466695061 -0.06537799835 0.8093415208 0.3681584031 0.4576305201
-0.01418883896 -0.001415045977 -0.06783970642 0.6916599498 0.4422003436 0.5710213393
-0.00562062679 -0.002857379385 -0.07281683677 0.2866764207 0.5612135886 0.7764379807
0.003625700772 -0.003287111521 -0.0731034832 -0.1755054492 0.5784466895 0.7966161339
0.006818160772 -0.002528081566 -0.07258833694 -0.3303773877 0.557024264 0.7619545596
0.009538293203 -0.002218323509 -0.07137620799 -0.4762049851 0.5220884198 0.7075680138
-0.01820591545 0.01793740273 -0.07004824448 0.8794816404 0.03995365463 0.4742528331
0.01418883896 -0.001415046096 -0.06783970642 0.6790817787 -0.4482006416 -0.5813468179
0.01616424918 8.315655636e-05 -0.06616956139 0.7743479002 -0.3981311298 -0.4918098545
-0.01448166156 0.0007601101026 -0.06903185272 0.6988692951 0.3951438475 0.5961904463
0.00949616305 0.04830866941 -0.07880806351 -0.4869582658 -0.01400403976 0.8733129646
-0.01287643099 -0.0004128767475 -0.07001533127 0.6054364738 0.4597505665 0.6496738357
-0.005430635876 0.0004958274596 -0.07503482056 0.2665760412 0.4877275858 0.8312995948
0.01287643099 -0.0004128768891 -0.07001533127 0.6418427647 -0.4292944836 -0.635408618
0.01448166156 0.0007601104677 -0.06903185272 0.6935392013 -0.4050974564 -0.5957343595
0.0006348367135 0.05684026782 -0.08112570445 -0.06250077496 -0.01144728728 0.9979792647
-0.01834600353 0.02386995316 -0.06994721603 0.8837648024 -0.01318481862 0.4677455874
0.01820770836 0.002480524063 -0.06411393547 0.87994325 -0.281149838 -0.382955148
-0.01725375811 0.00300037384 -0.06638216654 0.8324960979 0.3012486676 0.4649725661
-0.00910664463 -0.000455317162 -0.07286530304 0.4363964593 0.4734110486 0.7651405815
0.00543737793 -0.001604127049 -0.07380892181 -0.2520475815 0.5244881684 0.8132552968
0.009848161888 3.819501847e-05 -0.07269732208 -0.4993459366 0.4564775616 0.7363979029
0.0119086442 0.0008182983547 -0.07168515015 -0.6006721981 0.4258741878 0.6766269922
-0.002407797178 0.0002211438368 -0.07557540512 0.1444509561 0.5013835479 0.8530817424
-0.005648645004 0.04561414591 -0.08035379791 0.2810814088 -0.001051268415 0.9596833522
0.01817376328 0.00401769495 -0.06527464294 0.8875731886 -0.2487085369 -0.3877601043
0.01965744336 0.006709587097 -0.06272156525 0.928842381 -0.2012922872 -0.3110196881
-0.01676910973 0.004064213276 -0.06798396301 0.801974632 0.2976357342 0.5179282376
-0.01411961015 0.003774601062 -0.07129760742 0.6968279451 0.3401716797 0.6314380756
0.01411961015 0.003774600108 -0.07129760997 0.667199894 -0.365890611 -0.6488207473
-0.008593789864 0.003375888968 -0.07527982635 0.4123649835 0.400890858 0.8180719041
-0.0148880703 0.006585006332 -0.07178496704 0.7092465343 0.2771152683 0.6482102141
-0.005726988196 0.002942193568 -0.0762454567 0.3021786902 0.4210133105 0.8552402186
-0.003006808519 0.002377897978 -0.076673172 0.1761519555 0.4370017165 0.8820430762
-0.01890504265 0.04543650818 -0.06873886108 0.8710388765 -0.008576285764 0.4911392093
-0.00228379035 0.00366135993 -0.07735034332 0.07968831419 0.411727198 0.9078163289
0.003610004544 0.002431188822 -0.0765705719 -0.1869863771 0.4272842971 0.8845700787
0.0148880703 0.006585006905 -0.07178496552 0.7279303125 -0.263265156 -0.6330947147
-0.01757093773 0.009397250175 -0.06911284637 0.8507847133 0.1826431606 0.492754348
0.01678308868 0.01536959696 -0.0720484848 0.7850631767 -0.1030197628 -0.610788619
-0.01282738495 0.005459699631 -0.07340362549 0.6268711272 0.3273809708 0.707003741
0.01213982344 0.0516110363 -0.07720901871 -0.6150401876 0.0006981214543 0.7884954536
-0.01156739439 0.006501432351 -0.07481084442 0.5740099662 0.2988933823 0.7623485455
0.006374186516 0.05759600258 -0.08014094543 0.2923477289 -0.002861024749 -0.9563078061
-0.004815644026 0.004196807444 -0.07711366463 0.2322747814 0.3899576163 0.8910563862
0.01206790352 0.006558317375 -0.07448106079 -0.5909497181 0.2930922216 0.7515819186
-0.005423913903 0.009471891191 -0.07883068932 0.285561613 0.2731835747 0.9185996406
0.01282738495 0.005459699631 -0.07340362549 -0.6206614364 0.3221456541 0.7148437304
-0.005669536781 0.04853141632 -0.0803350174 0.2825840299 -0.002785924834 0.9592385025
-0.0129060626 0.01853475285 -0.07656083298 0.6130208024 0.06030862388 0.7877616173
-0.0196221021 0.01246522331 -0.0654785436 0.9165601096 0.1268046134 0.3792600104
-0.008670722802 0.005765116056 -0.07631818899 0.4258858275 0.3384861669 0.8390759064
