# .PCD v0.7 - Point Cloud Data file format
VERSION 0.7
FIELDS x y z normal_x normal_y normal_z
SIZE 4 4 4 4 4 4
TYPE F F F F F F
COUNT 1 1 1 1 1 1
WIDTH 392
HEIGHT 1
VIEWPOINT 0 0 0 1 0 0 0
POINTS 392
DATA ascii
-0.0007359540462 -0.02051077716 -0.002117230097 0.05067094457 0.9937457701 -0.09950778746
-0.01677230072 -0.01193565559 -0.008753694534 0.7789051195 0.6271386018 0.001997228245
-0.01962412567 -3.372128308e-05 -0.05664631882 0.9075145729 0.3285258759 0.2617022139
-0.02024828911 -0.003687351942 -0.02727848816 0.917787703 0.3970454322 -0.004545004256
-0.009028734207 -0.01848310852 -0.02307601929 -0.3738212451 -0.9273786096 0.01505294797
0 -0.01446203048 -0.06141306032 -0.002238342081 -0.8495683303 -0.5274738306
0.00432331357 -0.02007271385 -0.02085418282 0.1913458441 -0.9811811137 -0.0258918916
-0.005155422449 -0.01986226082 -0.001690950071 0.2282850619 0.9721062746 -0.05380819124
-0.01472088003 -0.01431209517 -0.004443412304 0.6935984196 0.7199414606 -0.02460743055
0.008110304832 -0.01889716339 -0.001904083371 -0.3579777112 0.9323539042 -0.05067697234
0.01063449955 -0.01763288879 -0.01634414673 0.5209723125 -0.8535597068 0.004865851914
-0.009688489567 -0.01458452051 -0.0560089961 -0.4423818463 -0.823774476 -0.3545333761
-0.008110304832 -0.01889716339 -0.001904083371 0.3757651849 0.9260203734 -0.03587190998
-0.01132176638 -0.01716912937 -0.01716498661 -0.5761804018 -0.8173160087 0.003269014835
-0.01996183968 -0.004899151802 -0.006606520653 0.9110536712 0.4120990654 -0.01247271229
0.004418532372 -0.02000779057 -0.001745566484 -0.2184480562 0.9717236962 -0.08962982166
-0.005442095566 -0.01979757156 -0.02091212311 -0.2237906344 -0.9744838588 -0.01729048416
-0.01719804382 -0.01119359875 -0.01522911835 0.7791885881 0.6262892327 0.02503879463
-0.0007261680762 -0.02051679484 -0.006895177841 -0.05632408122 -0.9975280526 0.04201645203
-0.005814925909 -0.019654531 -0.006583970904 -0.3090364658 -0.9510372865 0.004954036795
0.004359504044 -0.02002926874 -0.00656261301 0.2746432704 -0.9612623779 0.02336054029
-0.01837236404 -0.009262928963 -0.03379150009 0.8807345011 0.4734215262 -0.01337149967
-0.01179901361 -0.01682262421 -0.002665084124 0.5859085877 0.8084389923 -0.05601359253
-0.009207981586 -0.01838781643 -0.01634881401 -0.3808135734 -0.9245379572 0.01451165226
0.02022119141 -0.001212878585 -0.05078609085 0.9328217106 -0.3288856079 -0.1472342121
-0.00952213192 -0.01822080421 -0.004558650494 0.4003080296 0.9162800873 -0.01357508825
-0.01847307014 -0.00908850193 -0.005144766331 0.8628215117 0.505507852 0.0009221884634
0.01378514588 -0.004691784024 -0.06532764673 0.6972615433 -0.5003708285 -0.5132790413
-0.01941317177 -0.006817781925 -0.01583297253 0.8683091678 0.4956467898 -0.01932482739
-0.01102617168 -0.01736967182 -0.02614814281 -0.563962493 -0.8256634111 0.01504121366
-0.005737951338 -0.0196857152 -0.01128922558 0.3046861731 0.9524186537 0.008064983548
0.01971352005 0.004679764414 -0.06106000748 0.892151816 -0.281360743 -0.3534137369
-0.000716643095 -0.02052265294 -0.01154618518 -0.05263778597 -0.9986127494 -0.001356515382
0.004302056193 -0.02005017328 -0.01125074935 0.2539094747 -0.9672277306 0.0007041951427
0.005201662207 -0.00241296773 -0.07325260162 -0.2537468695 0.549017558 0.7963618821
0.01193926525 -0.01207964325 -0.05805765152 0.5905321083 -0.7008172202 -0.4001587846
0.008761161804 -0.01858875751 -0.005675382137 0.3735033379 -0.9274435594 -0.01853916845
-0.0006896496614 -0.02053336779 -0.0247705466 -0.01973483166 -0.9997634337 -0.009144012433
-0.008844560078 0.03950357492 -0.07917517308 0.4149898325 0.02072401506 0.9095899923
0 -0.01695311197 -0.05667608166 -0.007045886211 -0.9023292762 -0.430989829
0.004246142507 -0.02006962633 -0.01581257343 0.1851668344 -0.9823726527 -0.02563619904
0.01108331203 -0.01730910301 -0.001791954756 0.5338512308 -0.8439447967 0.05253611571
-0.01721136379 -0.01111716938 -0.04209475136 0.7872513391 0.6128650254 0.06805725323
-0.01163533878 -0.01694263268 -0.007637738943 -0.569153068 -0.8214270799 0.03636396062
-0.006637887383 0.008480208349 -0.07811746445 0.3395449497 0.287982429 0.8954190906
0.01345136976 -0.009079414368 -0.06062236881 0.6568433706 -0.6182851439 -0.4316019779
0.007899892012 -0.01900041644 -0.03138660558 0.3983862164 -0.9172150169 -0.002243965469
-0.009393731117 -0.01828906631 -0.009377570152 -0.4526848888 -0.8916643232 0.003335605438
-0.01924742508 -0.00713176012 -0.04287433624 0.8817355968 0.4633688338 0.0884966734
0.01703295517 -0.01158535576 -0.003331546307 0.7932630018 -0.6068071234 0.05018889258
-0.005663088679 -0.019715096 -0.01586707044 -0.229522268 -0.9731562106 -0.01692685223
0.003981271553 -0.02014450684 -0.02616063957 0.1999249699 -0.9797990759 0.004876193022
-0.0007073930105 -0.02052716001 -0.01607184315 -0.01846709406 -0.9998290876 -0.000872944178
0.01102617168 -0.01736967182 -0.02614814281 0.4877296232 -0.8729940254 0.001116351966
-0.008801597595 -0.01859599876 -0.03160354233 -0.4128155705 -0.9106220151 -0.01873100187
-0.01429873323 -0.01476881552 -0.01460873938 0.730619086 0.6827845737 0.0009884781856
-0.01345136976 -0.009079414368 -0.06062236881 0.6374822422 0.6206706734 0.456491299
0.008643620491 -0.01864893913 -0.01045374966 0.3862931981 -0.9222910891 -0.01251847365
0.01092924309 -0.01742259979 -0.00678655386 0.5400651761 -0.8410895948 0.02996496468
-0.006002574295 0.01952669477 -0.08017677593 0.2886901092 0.05430458014 0.9558812863
0.01251471519 -0.0163361454 -0.003538213491 -0.6050723351 0.7937275337 -0.06232232038
0.02043499438 0.03959572983 -0.06299470774 0.9460127712 0.005334574479 -0.3240854501
-0.01147619677 -0.01705931854 -0.01247266817 -0.5749842105 -0.8181631716 0.001477263741
-0.0006984072526 -0.02053030396 -0.02047713598 -0.05330254327 -0.9983608511 -0.02084346345
0.008735308965 -0.01861041896 -0.01627585347 0.3821335687 -0.924027108 0.01215892384
0.01077945232 -0.01753294563 -0.01164246368 0.5265501578 -0.8499928667 -0.01603302494
0.01392773151 -0.01502895196 -0.005791916211 0.6867725167 -0.7264008893 0.02617744056
-0.01450546026 -0.01455279541 -0.00962631464 -0.699775985 -0.7142983914 0.009559225716
-0.005085662508 -0.0198776268 -0.0262321701 -0.2694000586 -0.9629976031 0.007695771969
0.008358932972 -0.01879215908 -0.0218427 0.3923422813 -0.9197183305 0.01362815932
0.01372795391 -0.01523042742 -0.01085183398 0.6905342331 -0.7232610201 0.007481298847
0.01410044765 -0.01495954084 -0.01939678192 0.6920977372 -0.7213259924 -0.02625899576
-0.02020074781 0.03393663279 -0.06453512065 0.9344315203 -0.009916507069 0.3560047707
-0.01703295517 -0.01158535576 -0.003331546307 0.8066295839 0.5901261515 -0.03316383143
1.807003621e-20 0.04480063947 -0.08112719599 -0.0001066115273 0.02134190852 0.9997722298
-0.01117199707 -0.01727073956 -0.02171647167 -0.5618731269 -0.8272145704 -0.003826729445
-0.0006769477526 -0.02053781096 -0.03099769815 -0.06954275968 -0.9974618999 0.01528276098
0.003653258371 -0.02019520912 -0.03125205612 0.1804279596 -0.9835472032 0.008980565287
-0.005820536757 -0.01968245697 -0.03142488899 -0.2349954165 -0.9719948254 -0.001792675164
-0.004971033752 0.01031455028 -0.07918932343 0.2340151786 0.2338015947 0.9437021302
0.008252128839 -0.01884503269 -0.02618970871 0.3935753027 -0.919291512 0.001263730495
0.01117199707 -0.01727073956 -0.02171647167 0.5482457966 -0.8361794479 0.01518148149
0.009596006506 0.004649143163 -0.07525811094 -0.4773839165 0.347636928 0.807002579
0.01353549989 -0.01541433366 -0.01573443508 0.6766153258 -0.7363325272 0.002471877129
-0.01154466311 -0.01700495211 -0.03118091774 -0.5783098085 -0.815501131 -0.02270838237
-0.0186772728 -0.008658553123 -0.02848773575 0.8702497618 0.492456879 -0.01231155744
-0.01410044765 -0.01495954084 -0.01939678192 0.7101070894 0.7037814398 0.02096679705
-0.00891335392 -0.01854444885 -0.02740629959 -0.3903460593 -0.9206513263 0.005575794234
0.01677230072 -0.01193565559 -0.008753694534 0.7918136978 -0.6106850203 0.009740329181
-0.01361706511 -0.0154114453 -0.02546138064 -0.6750323387 -0.7376801824 -0.01262102001
0.0133007067 0.0001047900468 -0.06989515559 -0.6303483646 0.4492703676 0.6331011578
-0.005460073709 -0.01980057831 -0.03652565002 -0.2251284781 -0.9743288632 -0.0006593782623
-0.0006646595399 -0.02054210981 -0.03702203369 -0.03570740596 -0.9993480656 -0.005331496374
0.004396361327 -0.02004874687 -0.03643073273 0.1857040947 -0.9826053557 -0.0008391507953
-0.01924605274 0.05833528137 -0.067903759 0.8301827701 0.003648400542 0.5574793784
-0.01697439861 -0.0108391912 -0.0466774931 0.7712820813 0.6221395704 0.1344109591
0.01088440275 -0.01746322155 -0.03045699978 0.527785734 -0.8492063137 -0.01705449637
0.01361706511 -0.0154114453 -0.02546138064 0.6885768245 -0.7249263032 -0.01854215976
0.01792051806 0.03923645728 -0.07059347643 0.8509509617 -0.004551296492 -0.5252254245
-0.01860837619 0.03402465439 -0.06939267476 0.882656798 -0.01984425031 0.4695989594
0.01652152634 -0.01226205158 -0.01397439766 0.7686458242 -0.6396313342 -0.007439979407
0.01847135925 -0.009099108696 -0.005174262047 0.8259408855 -0.5621592327 0.04241050332
-0.01816886902 -0.009615393639 -0.01090803623 0.8564332688 0.5162249952 -0.005814674407
-0.01693119907 -0.01161618423 -0.02050762177 0.7723898389 0.6351194109 0.006104971143
0.004461785078 0.05885612933 -0.08065296046 0.1816811873 0.09440466387 -0.9788154604
0.00813294111 0.0584860987 -0.07944309344 -0.3507015979 -0.0472077706 0.9352966458
0.01384969351 0.03951268938 -0.07575106727 -0.6851955484 0.00595709163 0.7283347949
-0.004807669878 -0.0198947649 -0.04166972796 -0.2318111343 -0.9710856625 -0.05706342147
-0.01104152775 -0.01733351517 -0.03599362755 -0.5684642332 -0.8224212749 -0.02171778474
0.01817761955 0.004043224144 -0.06521924057 0.8477591265 -0.3085454938 -0.4313978925
-0.00869271183 -0.01864525414 -0.03569337463 -0.4009072805 -0.9156982954 -0.02774859054
-1.807003621e-20 0.05439776993 -0.08111336517 -0.004438229272 -0.04550115277 0.998954427
-0.008864152273 0.04939707502 -0.07914846547 0.4098810169 -0.001758731049 0.9121373026
-0.000656895558 -0.02051358414 -0.04082354991 -0.01808977383 -0.9977679377 -0.06427987658
-0.01632200638 0.01378305546 -0.07232761256 0.7933467867 0.1248273322 0.5958347196
0.01962412567 -3.372121155e-05 -0.05664631882 0.9022595696 -0.3416332742 -0.2630862502
0.003931530277 -0.02010015265 -0.04159416771 0.1951203523 -0.9792102391 -0.05545588946
0.01814775801 0.01390949273 -0.06949239159 0.8491564199 -0.1234869388 -0.5135020452
0.008002626181 -0.01894662952 -0.03652083588 0.3725569448 -0.9279660329 -0.008964637035
0.01048831145 -0.01770813179 -0.03571969604 0.5462534103 -0.8372513667 -0.02484674241
-0.01196251297 -0.0124525075 -0.05731521988 -0.5457586702 -0.7405375343 -0.3921117623
-0.01064819254 -0.01691043363 -0.04660231672 -0.5605245306 -0.8129784819 -0.1577283695
0.01627817917 -0.01257877731 -0.01904042816 0.7725731449 -0.6349032979 0.005342103569
0.01816346359 -0.009649298668 -0.01100104332 0.8379872497 -0.5456414339 0.007266010809
0.01899261602 0.04879924901 -0.06854361471 0.8274192311 0.01269923803 -0.5614411326
-0.01667187881 -0.01203005743 -0.02563585567 0.8024618352 0.5966432633 -0.008474629807
-0.01500784302 -0.01404069042 -0.03101035881 -0.6965310791 -0.7174769517 -0.008442727916
-0.00854048872 -0.01864495182 -0.04143736649 -0.3879283863 -0.9189893909 -0.07049869882
0.01351879226 0.05437731171 -0.07602580261 -0.6906801547 -0.02247327009 0.7228110929
0 -0.02012177515 -0.04541279316 -0.0112664329 -0.9896594144 -0.1429940939
0.008102833907 -0.01884109179 -0.04134004211 0.3503240346 -0.93526927 -0.0504426738
0.008125769329 0.0146943819 -0.07900575104 -0.3677024915 0.1217797716 0.9219352282
0.01457931118 -0.01445023499 -0.03133403778 0.6681062078 -0.7439521054 -0.01301383613
0.01604192924 -0.01288626862 -0.02395874214 0.7189933507 -0.6950002299 0.004821003445
0.01786652946 -0.01017614555 -0.0166218605 0.8175292213 -0.5758817361 0.002489638654
0.01680321693 -0.01190118217 -0.03681150055 0.7738273242 -0.6330235655 -0.02173563589
-0.01119634032 -0.01718492079 -0.04129607582 -0.5651798835 -0.8240757159 -0.03835249293
-0.01879919688 -0.006208362897 -0.05080074565 0.869997246 0.453220284 0.1941550053
-0.005448324272 -0.01923510197 -0.04647176961 -0.2737021872 -0.9514666913 -0.1407062476
0.004776224995 -0.01938981514 -0.04677829514 0.2371907963 -0.9583119716 -0.1593069091
0.007559491475 -0.01866234144 -0.04582667033 0.3438347189 -0.9305856839 -0.1256501926
0.01074659411 -0.01748278872 -0.04146138 0.5432645704 -0.8379932814 -0.05129197606
-0.01685096439 0.0396144104 -0.07234806188 0.7578732452 0.01108694324 0.6523076145
0.01568087158 0.009000630474 -0.0717288681 0.7674927018 -0.2200548974 -0.6021053021
-0.005835034668 -0.005474450612 -0.07062451973 0.2873481051 0.6303828326 0.7211439183
0.01403796037 -0.01497771136 -0.03733889516 0.6678870996 -0.744262428 0.0005102678942
0.01757917404 -0.01068599606 -0.02206134796 0.8229368506 -0.5668836104 -0.03765517571
0.01996183968 -0.004899151802 -0.006606520653 0.911226828 -0.4117044282 0.01285035711
0.01789578756 0.03400360743 -0.07064398193 0.8611651503 0.036015438 -0.5070478006
-0.01814775801 0.01390949225 -0.06949239349 0.8576814854 0.1378378917 0.4953616711
-0.01470635223 -0.01436173439 -0.03760063171 0.7147854635 0.6993365729 0.003177877158
-0.008421328545 -0.0182903862 -0.04606910324 -0.3719005121 -0.9168574502 -0.1451289947
-0.004471882661 -0.01861051814 -0.05050512314 -0.1810486308 -0.9517063315 -0.2479444533
0 -0.01890161419 -0.0512553908 -0.01399982753 0.970673142 0.2399951171
0.003956074905 -0.01869452896 -0.05072219391 0.2169524089 -0.9392404156 -0.2660058155
0.009959815598 -0.01728335571 -0.04705373917 0.5067079991 -0.8447640595 -0.1721066166
0.01386423238 -0.01508731715 -0.04135044988 0.6812009072 -0.7295031619 -0.06156671864
-0.0188619264 0.04377795792 -0.06883388519 0.874857053 0.01534343581 0.4841381164
0.01798955059 -0.009916199684 -0.02790035248 0.8662976965 -0.4994815085 0.006820825734
0.01941317177 -0.006817781925 -0.01583297253 0.8941520698 -0.4475008636 0.01533144394
-0.02001934179 0.02878615125 -0.06543468475 0.9196771116 -0.005744145064 0.3926334361
-0.01902681923 -0.007824683666 -0.02246133614 0.8585095109 0.5120688441 0.02732981203
-0.01704527855 -0.01156649494 -0.0321931839 0.814445768 0.5797105441 -0.02477450358
-0.01452355957 -0.01448531723 -0.04162559319 0.7104112798 0.7011656507 0.06068396682
-0.006088890266 0.0143984333 -0.079676916 0.2772184725 0.1678188246 0.9460373992
0.00705092144 -0.01819046402 -0.04941976929 0.3588660208 -0.9096422487 -0.2092036293
0.01367229223 -0.01476780669 -0.04595735677 0.6899200877 -0.7127377955 -0.1265508097
0.01704527855 -0.01156649494 -0.0321931839 0.806124416 -0.5913910298 0.02049575011
0.01902681923 -0.007824683666 -0.02246133614 0.8599661524 -0.5090271662 -0.03673636903
-0.01680321693 -0.01190118217 -0.03681150055 0.7773548924 0.6289843946 0.009899632104
-0.0143238709 -0.01416264558 -0.04619915485 0.719031395 0.6880528973 0.09786247281
-0.01043973499 -0.01588400767 -0.05133292431 -0.5374749221 -0.8049998841 -0.2511889621
-0.006035333633 -0.0176490922 -0.05243536091 -0.311346387 -0.9025017425 -0.2975802954
0.005080882788 -0.01797317123 -0.05239383125 0.2364877463 -0.9211653879 -0.3090758386
-0.004835544751 0.03923193359 -0.080555515 0.2167127553 -0.01998242664 0.9760308829
0.008931190193 -0.01665580249 -0.05164600515 0.4365919115 -0.8527470554 -0.286722797
-0.00502734222 -0.01644826007 -0.05626062552 -0.2592527313 -0.8718678689 -0.4154930089
0.00502734222 -0.01644826007 -0.05626062584 0.2873904594 -0.8725747921 -0.3949936152
0.004711344803 0.00437710295 -0.07715379199 -0.2726980924 0.3918905682 0.8786680448
0.01269035511 -0.01442358932 -0.05104885788 0.5719393721 -0.7853267984 -0.2369539499
0.01657670021 -0.01216748524 -0.04115112305 0.7796883579 -0.625563883 -0.02749350617
0.01836754608 -0.009292912483 -0.03386749649 0.869232543 -0.4938705774 0.02294861469
-0.01808461571 -0.00980143261 -0.03880896378 0.8378077113 0.5449192663 0.03378212503
-0.01348205662 -0.01387913418 -0.05073111725 -0.6909213018 -0.692527645 -0.2074444881
0.009453515625 -0.01469043865 -0.05611477203 0.4481483229 -0.8127471809 -0.3722970596
0.01601451079 0.0437884407 -0.07354734294 0.7205063809 0.01145740395 -0.6933536492
0.01485676169 -0.006487582505 -0.06174184275 0.7210761364 -0.5497428834 -0.4217012778
0.01633590508 -0.01195622063 -0.04595313454 0.7619494229 -0.6381199587 -0.1106164329
0.01796494675 -0.009936499119 -0.04092956543 0.8290952866 -0.5576705283 -0.04005730344
-0.01574355876 -0.01097385919 -0.05170368958 0.7477665451 0.6249796737 0.2241553065
0.008641014099 0.02927825737 -0.07927857844 -0.4236983627 -0.02111067026 0.9055573075
0.01519325717 -0.01172419882 -0.05168877411 0.7237376857 -0.6510705822 -0.2287156736
0.005011873739 0.04445828574 -0.08050986644 -0.305100593 0.001160789464 0.9523194216
0.02024828911 -0.003687351942 -0.02727848816 0.9294258926 -0.3689374815 -0.007255684307
-0.01899261602 0.04879924901 -0.06854361471 0.8285653926 -0.005478720223 0.5598654962
-0.01957898331 -0.006388454437 -0.03755596924 0.8618106802 0.5066498877 0.02425371711
0.01106993444 0.02907765225 -0.07793026624 -0.5602132977 -0.0001968091691 0.8283483702
-0.01697115453 0.02475064214 -0.07221799723 0.8100917191 0.01643998329 0.5860726351
-0.004802280534 -0.01434949485 -0.06052066699 -0.2128519111 -0.84121553 -0.4970417447
0.004802280534 -0.01434949485 -0.06052066699 0.2260145637 -0.8455205294 -0.4837483348
0.01203822899 -0.01352533913 -0.05495123672 0.5786225898 -0.7481813328 -0.3246853737
0.01761289215 -0.009722162247 -0.04740185165 0.8377070584 -0.5228920154 -0.1575779953
-0.01963830757 0.007779692173 -0.06343272018 0.8747223871 0.225235519 0.4291033751
0.01957898331 -0.006388454437 -0.03755596924 0.8889065018 -0.4577282318 -0.01816856884
-0.01442796199 -0.01057181284 -0.05628980891 0.7026193399 0.6317862885 0.3273715762
-0.00810396862 -0.01352134657 -0.05986580658 -0.3509498198 -0.8119773577 -0.4663978931
0.00810396862 -0.01352134657 -0.05986580658 0.4013461291 -0.7911750727 -0.4614794568
0.01418374186 -0.01079716883 -0.05631810722 0.6994289635 -0.6473285776 -0.3029271161
0.01924742508 -0.00713176012 -0.04287433624 0.8730331124 -0.4805281106 -0.08310186313
-0.01905388451 -0.007073438644 -0.04616685486 0.8668513666 0.4833462985 0.1222500057
-0.01426481032 0.05872044086 -0.07537247276 0.7346567202 -0.03781685689 0.6773842254
-0.01022055619 -0.01113209207 -0.06153064728 -0.5297837475 -0.7051212629 -0.4713100736
0.01022055619 -0.0111320922 -0.06153064728 0.5265756171 -0.6984493571 -0.484651024
0.01739446354 -0.008722840309 -0.05174843788 0.8214254624 -0.5261576378 -0.2200417004
0.01905388451 -0.007073438644 -0.04616685486 0.8801153716 -0.4620870834 -0.1089608187
-0.005311976099 -0.01258182831 -0.06306736374 -0.2944784261 -0.785683 -0.5440447408
0 -0.01305585337 -0.06354629898 0.03131448588 -0.8385223889 -0.5439665489
0.01693644524 0.02323949814 -0.07227082062 0.8144529102 -0.0004639784276 -0.5802294734
0.005311976099 -0.01258182812 -0.06306736374 0.2877481273 -0.7873558052 -0.545226422
0.01879919688 -0.006208362738 -0.05080074565 0.8828154391 -0.4251101253 -0.1997956
-0.01689743137 -0.006885365772 -0.05687382355 0.8148357106 0.5016804571 0.2904470412
-0.01414700842 0.001120248675 -0.06969972992 0.6535133591 0.4269108708 0.6250339173
-0.005240948785 -0.01008023531 -0.06623886195 -0.2878063 -0.7322033775 -0.6172890308
-0.0144007803 0.02959965191 -0.07524183655 0.7062421793 0.008650807068 0.7079174724
1.355252716e-20 -0.01092273653 -0.06635049152 0.008756515323 -0.7533287721 -0.6575858002
0.004805590981 -0.01012817292 -0.06638921818 0.2350586592 -0.7325920562 -0.6387928506
0.01775784166 -0.005600595134 -0.05631505367 0.8295723629 -0.4819071022 -0.2820908357
0.00906761149 -0.009289354052 -0.06506209128 0.3986671306 -0.7109783795 -0.5792877202
0.01579818249 -0.007942676067 -0.05802937317 0.7340450619 -0.5702033483 -0.368844125
-0.01853863907 -0.004240004381 -0.05595521037 0.8575226732 0.435033467 0.2745919655
0.008676228455 0.02445522526 -0.07926398359 -0.4221151527 0.01313011128 0.9064471292
-0.01528719835 -0.006027180052 -0.06148935509 0.7275422629 0.523894715 0.4429634107
0.02001917839 0.02878491402 -0.06543680064 0.9213974476 0.005126475562 -0.38858778
-0.009869658947 -0.00892389679 -0.06489370728 -0.5323520502 -0.6585095572 -0.5319459163
-0.02022119141 -0.001212878346 -0.05078608894 0.9286620815 0.3361762077 0.1567555287
-0.01129065151 -0.006115531333 -0.06658123525 -0.5409179079 -0.5994342175 -0.5899885048
0.01025841276 -0.006597085696 -0.06700618216 0.5393806545 -0.59774425 -0.5931022856
-0.007954259157 -0.007533785343 -0.06780188751 -0.3836951798 -0.6672638262 -0.638386243
0 -0.008683435917 -0.06884501648 0.02202494653 -0.7200309781 -0.6935923099
0.01335165872 0.04460412428 -0.07619088915 -0.6454768535 0.0170576069 0.7635893331
0.01700894356 -0.004185570598 -0.06047940636 0.786819727 -0.4689956769 -0.401195429
-0.01459306026 -0.004123961926 -0.06484480762 0.7106510658 0.5063828877 0.4884172743
-0.0005046332876 -0.005760398994 -0.07146514416 0.03111839288 0.6448611136 0.7636660198
0.004857824981 -0.005595270991 -0.07087849922 -0.2095445006 0.6315822549 0.7464549266
-0.01830604458 -0.0004046035279 -0.06135033321 0.8430215712 0.3706076822 0.3898263414
-0.01692795467 -0.002399842024 -0.06263157272 0.7815372629 0.4448460479 0.4373917013
-0.01476311384 0.01923210335 -0.07484067862 0.7326982134 0.03586820584 0.679607828
0.009155439006 -0.00436795383 -0.06988088226 -0.4109907611 0.586238041 0.6981486615
0.01692795467 -0.002399841785 -0.06263157082 0.8018043215 -0.4163065944 -0.4287174472
0.01830604458 -0.0004046036527 -0.06135033226 0.8415898008 -0.3699626033 -0.3935152848
-0.01551351946 -0.0007417563339 -0.06643870614 0.7649051591 0.367234426 0.5292059844
-0.0101487114 -0.004105212927 -0.06945716095 0.4861627921 0.57655143 0.6566842378
0.015297321 -0.0009214353361 -0.06657456207 0.7408698473 -0.4139581696 -0.5289144574
0 0.02956078434 -0.08113936996 0.01065890807 -0.004968164043 0.9999308501
-0.01291913891 -0.002897904158 -0.06806896973 0.6416296412 0.4903958316 0.5897654889
-0.01971351967 0.004679764366 -0.06106000748 0.8959138505 0.2740996011 0.3495822953
0.01087748019 0.05506969579 -0.07804616292 -0.5649583862 -0.01540331553 0.8249756116
0.008844520024 0.03950287465 -0.07917622049 -0.4431901188 0.02499324849 0.8960791573
-0.01098695564 -0.0006831325889 -0.07133295949 0.5240250077 0.478829729 0.7043577798
0.01012636706 -0.000884036141 -0.07183770132 -0.5210274209 0.4727737337 0.710644372
-0.01817761955 0.004043224287 -0.06521923904 0.8402660568 0.3100243263 0.4447896929
-0.006459527651 -0.002113652885 -0.07301125971 0.3512167237 0.5152679557 0.7817581127
0.02020074781 0.03393663279 -0.06453512065 0.9393126297 0.02070383766 -0.3424370524
-0.003018039942 -0.002842868805 -0.07357688141 0.1348757469 0.573707052 0.8078791688
-0.0005019155343 -0.0007605491243 -0.07505638917 0.02220300136 0.5191933538 0.8543683562
0.004950178425 0.03444718043 -0.08052767563 -0.2114115584 -0.02289091232 0.9771290391
-0.01677860737 0.003549465537 -0.0676149292 0.7918889279 0.3088191122 0.5268231979
-0.01672740444 0.04448224513 -0.07252567927 0.7639121319 0.01260138284 0.6451972255
-0.005866976568 0.0002655552381 -0.07472275707 0.3153436537 0.4680268231 0.825535749
0.004705593109 4.065698385e-06 -0.07493192952 -0.2452520646 0.4995758724 0.8308281245
0.01677860737 0.003549465895 -0.06761492729 0.7927297513 -0.3224410871 -0.5173115954
-0.01503390217 0.004557837772 -0.07058137436 0.7509368573 0.2887663871 0.5938920862
0.008173643947 0.0009204215035 -0.07419887733 -0.3845425966 0.4495453296 0.8062480933
0.01440587521 0.004344365086 -0.07115157809 0.7324715682 -0.3011068816 -0.6105899177
0.01963830757 0.007779691219 -0.06343272018 0.8731246976 -0.2188470484 -0.4356136267
-0.01258377666 0.003615061474 -0.07268934326 0.598772559 0.3733755642 0.7085634133
-0.009094827652 0.001099956751 -0.07384575653 0.427245574 0.4509464021 0.7836507908
-0.01032427549 0.004784085546 -0.07488198526 0.5410512981 0.3362248439 0.770854297
0.01157565212 0.00283257246 -0.0731383667 -0.5373291153 0.3988792903 0.7430832615
-0.01876671437 0.009452810901 -0.06652344404 0.8778984024 0.1638588477 0.4499385215
0.01781469917 0.02498407364 -0.07082294006 0.8302739206 -0.006288521638 -0.5573200798
-0.00603015241 0.004379616514 -0.07676824188 0.2936809291 0.3956600318 0.8701750692
-0.0006533626681 0.004340669964 -0.07768568288 0.04918782439 0.4302249461 0.9013806375
0.01876671437 0.009452810764 -0.06652344295 0.8560814681 -0.179176948 -0.4847887594
0 0.006754850864 -0.07874340057 0.02854849255 0.3368630553 0.9411207497
-0.01568087168 0.009000630522 -0.07172886887 0.7824685299 0.2118700378 0.5855374341
0.01282466316 0.006588534355 -0.07389833832 -0.6258856764 0.2910964116 0.7235537293
-0.005044404189 0.04961444314 -0.08049472364 0.2833203896 0.01518339427 0.9589051159
-0.01963977242 0.01439320183 -0.065935709 0.8901045972 0.09172378606 0.4464309052
-0.01165551462 0.0194363903 -0.07747230835 0.6102674602 0.04640565691 0.7908350916
-0.01094986784 0.009506776631 -0.07624152136 0.5441977562 0.2469391941 0.8017916416
-1.355252716e-20 0.02443108702 -0.08114003372 -0.006070939927 0.03213190066 0.9994651993
0.009706849724 0.00944593364 -0.07698903322 -0.5157715431 0.2502423652 0.819364677
0.01337787819 0.01001387617 -0.07458618927 -0.6655045057 0.2120017338 0.7156528612
0.01963977242 0.01439320135 -0.065935709 0.9030588024 -0.09087913816 -0.4197925459
-0.01411076291 0.01066924572 -0.07411971792 0.6813251521 0.1946384979 0.7056287212
0.005825717529 0.007947695414 -0.07824504852 -0.3025528674 0.298813507 0.9050813502
-0.0006014307141 0.009739336061 -0.07959682541 0.02741672316 0.2561215153 0.9662557077
0.01766984876 0.05517011007 -0.07115466309 0.7844003604 0.007014694059 -0.6202151793
0.004316406985 0.01014521694 -0.07928514926 -0.1839480121 0.2476141364 0.9512362316
0.0163220067 0.01378305546 -0.0723276151 0.7770776014 -0.1312761005 -0.6155623339
-0.01973225911 0.01928470675 -0.066342453 0.8943920733 0.03534686386 0.4458849834
0.0143036695 0.02435782259 -0.07532294464 -0.6836025805 -0.001082340069 0.7298536432
-0.01466537457 0.01499038219 -0.07450933685 0.7326582201 0.09126383619 0.6744500313
0.01924586487 0.05833352089 -0.06790623474 0.8326774415 0.01128923876 -0.5536432349
-0.01110118351 0.01435738309 -0.07729115041 0.5643779905 0.1512444539 0.8115433439
0.01046194649 0.01430312096 -0.07771736353 -0.5443067116 0.1504424061 0.8252861844
-0.01912660599 0.05392813619 -0.06823864746 0.8270309542 -0.002220418179 0.5621519995
0.01386257956 0.01477537007 -0.07522477298 -0.6803971765 0.1012551221 0.7258147714
0.01973224767 0.01928462474 -0.06634259796 0.9120349129 -0.03577138142 -0.4085495392
-0.01823774147 0.01938906813 -0.07006496048 0.8365898595 0.03826197733 0.5464919286
0.01132769394 0.03433346367 -0.07776335907 -0.5705410325 0.01538707715 0.8211249406
0.004792806021 0.01454980234 -0.08006375478 -0.2328453226 0.1470329335 0.9613346827
0.01823774147 0.01938906813 -0.07006496048 0.8537826303 -0.0406936784 -0.5190368433
-0.01479699051 0.02464279318 -0.07485221291 0.7042315467 0.006764501859 0.7099381453
-0.0168557725 0.01955174065 -0.07232657814 0.8067682287 0.05155839933 0.588614268
-0.01694512018 0.05440785662 -0.07221518707 0.7773387948 -0.01500287541 0.6289032611
0.01755395953 0.05012455241 -0.07133103434 0.7839283795 0.0007181452429 -0.6208508518
0.01449292925 0.03444808536 -0.07513939921 -0.6827555074 0.01877274951 0.7304057098
-0.0006032281518 0.01473676825 -0.08063016472 0.04407196455 0.1403311422 0.9891232645
0.0168557725 0.01955174017 -0.07232657814 0.7953249002 -0.04896645296 -0.6042024409
-0.01987038167 0.02396119817 -0.0659458491 0.9132845385 0.01089478126 0.4071764427
0.01420924501 0.01923583374 -0.07536225662 -0.6831411162 0.05128383425 0.7284834821
0.01986982218 0.02395702871 -0.06595310974 0.9151227769 -0.009681893741 -0.4030590083
-0.009123020172 0.01650477982 -0.07880802155 0.4093653037 0.114527617 0.9051538395
0.01111492511 0.01951857948 -0.07785509382 -0.5634966798 0.05750167545 0.8241147063
0.008605078833 0.03419019645 -0.07929359545 -0.3864042432 0.007309922939 0.9223005616
-0.0183654925 0.02463597997 -0.06991050975 0.867545822 0.01310430989 0.4971845974
-0.009149289131 0.01924848302 -0.07899704488 0.4155536077 0.07332281181 0.9066084956
0.005030377746 0.01939523724 -0.08045845849 -0.2582027308 0.05710474497 0.964401575
0.004439249727 0.05474128384 -0.08065987311 -0.1994021639 -0.00150624657 0.9799165823
0.008445601327 0.01946868324 -0.07931495884 -0.380880376 0.03882916686 0.9238086571
-0.0004325309992 0.01933456639 -0.08106488964 0.02154271156 0.08646641084 0.9960218227
0.01632743772 0.05873185603 -0.07311962636 0.7646474075 0.02488366138 -0.6439682799
-0.01172367255 0.02402624109 -0.07747257487 0.5882386439 -0.004420340141 0.8086753109
-0.01848509089 0.02928222338 -0.06966438039 0.8725247555 -0.007657966484 0.4885098838
-0.009207341194 0.02429183102 -0.07902516937 0.4347392811 0.01151681303 0.9004827152
0.01109137646 0.02423957666 -0.07792113241 -0.5849523625 0.004079429535 0.8110573912
-0.01683476448 0.04939243698 -0.07237889226 0.76832045 0.0005446698629 0.6400651446
0.01778067748 0.02930455144 -0.07086120605 0.8399012018 0.01957648551 -0.542386147
-0.01707626406 0.0293268795 -0.07205803172 0.8185626917 -0.02726932301 0.5737695564
-0.005286395788 0.0244983231 -0.08041422945 0.2218929251 0.0274142662 0.9746855841
0.004711768167 0.02446152156 -0.0805914214 -0.1997309186 0.01682804605 0.9797062708
0.0144007803 0.02959965191 -0.07524183655 -0.6813178642 0.0137729571 0.7318580966
-0.0053161264 0.0587701433 -0.0804072876 -0.2199362899 0.09578610941 -0.970800211
-0.01107010583 0.02908014434 -0.07792627389 0.5833712946 -0.02277959202 0.8118860898
-0.02043499438 0.03959572983 -0.06299470774 0.9600481552 -0.003152901678 0.2798170811
-0.01718319893 0.03398256048 -0.0718952891 0.8092202083 -0.01211396454 0.5873805464
0.01359038512 0.05856079229 -0.0759538091 0.6953405673 0.05125104417 -0.7168506301
-0.009268653234 0.02946032206 -0.07899448395 0.428385344 -0.0005819370528 0.9035959597
-0.01130912971 0.03935960007 -0.07776560465 0.5707649909 0.02363334314 0.820773288
-0.005610219268 0.02947338452 -0.08033273136 0.2845119748 0.005269479304 0.9586580041
-0.005074887574 0.05446840636 -0.08048137665 -0.2280045065 0.009258135865 -0.9736160598
0.005095291257 0.02955540494 -0.08049585833 -0.2772936133 0.01391144938 0.9606845078
-0.01449292925 0.03444808536 -0.07513939921 0.7088257934 -0.0191914057 0.7051224607
-0.01873395284 0.03885517375 -0.06911592611 0.8776882712 -0.003344705779 0.4792203162
-0.01132788508 0.03433631706 -0.07775892966 0.5793025388 0.01488805169 0.8149766343
0.01611540349 0.04865853628 -0.07342932638 0.7327807486 0.0268653393 -0.6799342821
-0.008605082784 0.0341902662 -0.07929348755 0.3871275426 -0.004307115805 0.922016114
-0.01408330846 0.0393018384 -0.07555280399 0.7124854443 -0.01427736679 0.7015416227
-1.355252716e-20 0.03936587811 -0.08113486671 -0.000138122041 -0.02785560035 0.9996119479
-0.004950118025 0.03444501686 -0.08053100077 0.2124707578 -0.02019324366 0.9769587555
-3.614007242e-20 0.03403900909 -0.08113879013 0.003170519359 -0.02001054148 0.999794742
0.01593200922 0.03979839134 -0.07364090729 0.7089868676 -0.01380027027 -0.7050866429
0.01815111224 0.04447700373 -0.0701689504 0.8612650697 -0.03672310437 -0.5068272815
0.01117453766 0.03898760605 -0.07785734863 -0.5714196852 -0.01840221203 0.8204516451
-0.01137687381 0.04406774457 -0.07771896744 0.5667267411 -0.01700873787 0.8237302372
0.004835608757 0.0392342588 -0.08055203893 -0.2103668253 -0.0150067421 0.9775073383
-0.01401301336 0.04472628975 -0.07563588079 0.7188264326 0.0183917002 0.6949462606
0.01072438717 0.04376928711 -0.07814643351 -0.5381552886 -0.01700657387 0.8426741136
-0.008811033885 0.04461342176 -0.0791815834 0.4087289711 0.01437934606 0.9125425265
-0.00501180613 0.04445581136 -0.08051344844 0.2813227511 -0.0006297289362 0.9596130018
-5.421010862e-20 0.05850363445 -0.08110744476 0.01267426953 0.09197419358 -0.9956807272
-0.01410033941 0.04957963435 -0.07554452896 0.717384526 0.009574670531 0.6966116332
0.008810964902 0.04461219279 -0.07918336614 -0.4372606989 0.01995303332 0.8991134287
0.0134343622 0.04944335132 -0.07611055586 -0.6644969618 -0.0007460189318 0.7472905936
0.01912660599 0.05392813619 -0.06823864746 0.8316423903 0.003578504312 -0.5553000351
-0.01135841056 0.04928172793 -0.077727114 0.5712838179 0.001877772374 0.8207504331
0.01080012774 0.04936037445 -0.07809697533 -0.5643687419 0.01419319628 0.8254007974
0.005044451892 0.04961619759 -0.08049226824 -0.3062502606 0.01897011774 0.9517620041
0.008864054839 0.04939529991 -0.07915097046 -0.4401608949 -0.00449342836 0.8979076766
0.01622014618 0.05364292145 -0.07327950287 0.764187331 0.01557377024 -0.6448063126
-0.01418934345 0.05452621333 -0.0754514211 0.719665991 -0.03172285332 0.693595359
-3.614007242e-20 0.04955420812 -0.0811203448 -0.02231729092 0.01434884172 0.9996479627
-0.0115276556 0.05457576052 -0.07760876846 0.5727112587 -0.002275615249 0.8197540093
-0.01690374565 0.05901930618 -0.07227341766 0.7811904211 -0.03347443573 0.623394729
-0.00891822052 0.05427044996 -0.07911621094 0.4133697228 -0.02506182614 0.9102183129
0.008272751225 0.05406454129 -0.0793914405 -0.3463480847 -0.0196556183 0.9379001338
0.01776806355 0.0594489193 -0.07100625992 0.781881402 0.04100674964 -0.6220771011
-0.01158768964 0.05873467636 -0.07756242561 0.5730110713 -0.04829842354 0.8181232025
-0.008964034319 0.05840132236 -0.07908942032 0.4000322544 -0.06061525355 0.9144943884
0.0109338088 0.05922726822 -0.07800915909 0.5677947783 0.07788634276 -0.8194771549
