# .PCD v0.7 - Point Cloud Data file format
VERSION 0.7
FIELDS x y z normal_x normal_y normal_z
SIZE 4 4 4 4 4 4
TYPE F F F F F F
COUNT 1 1 1 1 1 1
WIDTH 536
HEIGHT 1
VIEWPOINT 0 0 0 1 0 0 0
POINTS 536
DATA ascii
0.01147619677 -0.01705931854 -0.01247266817 0.5667130847 -0.8239151108 0.0004120172115
-0.01540713819 0.007755049388 -0.07169265493 0.7440144515 0.2373715746 0.6245776425
-0.008110304832 -0.01889716339 -0.001904083371 0.3455997713 0.9378825181 -0.03061340168
-0.0006404747566 -0.01948958715 -0.04923003642 -0.01448740245 -0.9742839307 -0.2248575941
-0.00952213192 -0.01822080421 -0.004558650494 -0.4286075 -0.9034810906 0.004186881785
-0.00443357408 -0.020060215 -0.000707422249 0.2771130979 0.9608248141 -0.004899754076
0.0036916701 -0.02018826993 -0.00110808674 -0.2272937482 0.9726350369 -0.04815222694
-0.004334113216 0.003384361124 -0.07683688812 0.1916744232 0.4221968401 0.8860083203
-0.01992063427 0.0005882180557 -0.05622397232 0.9414071693 0.2734307141 0.1974542635
-0.0007359540462 -0.02051077716 -0.002117230097 0.09678849954 0.9950104707 -0.02421052621
0.007159545422 -0.0192700758 -0.01231146002 0.4094042825 -0.9123501956 -0.002292159704
-0.004374167681 -0.02008106422 -0.005552236557 -0.2399941032 -0.9707400778 -0.008156700565
0.01691025734 -0.001937666893 -0.06312935257 0.8244368551 -0.3968727607 -0.403479719
-0.0006811114152 -0.0205363547 -0.02895643934 -0.0225096342 -0.9997031336 -0.009325289295
-0.003525806983 -0.01509160837 -0.05985080973 -0.142386102 -0.8663190962 -0.4787665627
-0.007299655437 -0.01921153164 -0.005225059748 -0.3473555416 -0.9376872726 0.009311630295
0.01234143448 -0.01646266556 -0.008488924026 0.5812826543 -0.813701711 3.689630233e-05
0.01576413453 0.03935371971 -0.07372005177 0.7704857382 0.03414593566 -0.6365420507
0.01202593422 -0.005800834775 -0.06624997711 0.582215241 -0.5773669512 -0.572427128
-0.01108331203 -0.01730910301 -0.001791954756 0.5514078862 0.8306413676 -0.07735800875
0.003642279863 -0.02020593007 -0.005937051773 0.2268994366 -0.9737831126 0.01622021389
0.01450751305 0.03567360115 -0.07521365738 -0.691149291 -0.01185645157 0.7226147536
0.00362463216 0.01553597887 -0.08046604919 -0.1488273215 0.1258543868 0.9808216462
-0.0007261680762 -0.02051679484 -0.006895177841 -0.01953822755 -0.9998024036 -0.003662161588
-0.01591301332 0.04767559705 -0.07351135799 0.7791479399 0.0200613032 0.6265189796
-0.007495296001 -0.01918724632 -0.02922108459 -0.3650059975 -0.9309594799 -0.009223259981
0.00318377008 0.05867535782 -0.08088600667 0.1592922849 0.1153152515 -0.980473539
0.007299655437 -0.01921153164 -0.005225059748 0.4232221269 -0.9058055319 0.01998423448
0.009393731117 -0.01828906631 -0.009377570152 0.4473264298 -0.8943623584 -0.003877772199
0.01122629795 0.05138005829 -0.07774635849 -0.5625651549 0.002005908396 0.8267505203
0.003526087761 -0.02024574598 -0.01670284748 0.2015357087 -0.9794646115 0.005694988824
0.01836754608 -0.009292912483 -0.03386749649 0.8433712545 -0.5371813253 -0.01269451818
0.008110304832 -0.01889716339 -0.001904083371 0.4258046151 -0.9042229311 0.03273103369
0.006715819359 0.04357020133 -0.08002295685 -0.323284072 0.01436594671 0.9461929129
0.01624946547 -0.01257471895 -0.003930557251 0.7444296614 -0.6670718965 0.02897523264
-0.01894868215 0.04711369324 -0.06864212799 0.8525752325 -0.007225245824 0.5225545606
-0.005047963699 -0.01990066465 -0.009657759666 -0.2430280712 -0.9699902988 0.007495115652
0.01973224767 0.01928462474 -0.06634259796 0.9053229762 -0.007338364633 -0.4246604023
-0.0006361275315 0.05849136734 -0.08112335459 -0.05228730718 0.07961271411 -0.9954535917
-0.007689131737 -0.01910120964 -0.02060938072 -0.3577608897 -0.9335812252 -0.02081446091
-0.000716643095 -0.02052265294 -0.01154618518 -0.03406097867 -0.9993713095 0.009840503226
0.01513970203 -0.01269737339 -0.0488427269 0.7534078549 -0.6372258374 -0.162233894
0.01201291656 -0.01665033913 -0.01782013766 0.5817573603 -0.8133313683 0.007103451227
0.003562876105 -0.02022340202 -0.01290566397 0.2032158434 -0.9790759386 0.01065962066
0.004316357255 -0.0201013546 -0.01026699114 0.1996228708 -0.9798716121 -0.001527524133
-0.00442139856 0.05149238756 -0.08066891903 0.2011359042 0.0002645912874 0.9795633099
-0.009268792152 -0.01835548782 -0.01406658363 0.4424021752 0.8965895067 -0.02018841145
0.003108898421 0.03951512273 -0.08091229248 -0.1655789698 0.02116777807 0.9859693352
0.006511176586 -0.01949928474 -0.008439296722 0.2920007529 -0.956292239 -0.01551496013
0.01763088036 0.05347348404 -0.071213974 0.8142310917 0.003266557773 -0.5805317036
-0.004590725482 -0.0199941144 -0.04130527496 -0.2507511565 -0.9671055464 -0.04278690942
0.0107322011 0.007638787429 -0.07583645121 -0.497994136 0.277409012 0.8216118795
0.01098869673 -0.01732651647 -0.004961139282 0.5369291326 -0.843518431 0.01355592703
0.01974452591 0.003683250666 -0.06018935394 0.9118171408 -0.2686452142 -0.3105144936
0.006773822975 0.05920308228 -0.07998913727 0.336877709 0.1035525952 -0.935836668
0.00716064328 0.05555786562 -0.079849473 0.3631294622 -0.02196170247 -0.9314798319
0.01108331203 -0.01730910301 -0.001791954756 -0.5320689619 0.8416534914 -0.09231478866
-0.004828779618 -0.01997557068 -0.02455477651 -0.2870206388 -0.9579209488 -0.002570734561
-0.0006896496614 -0.02053336779 -0.0247705466 -0.02567197377 -0.9995622692 -0.01470441364
-0.01247324753 -0.01627295113 -0.004894007921 0.6063365706 0.7951495807 -0.009649218823
-0.005700701952 -0.0197557497 -0.01376414728 -0.2985603723 -0.9541082353 0.02322023663
-0.009393731117 -0.01828906631 -0.009377570152 0.4431465487 0.8964450576 -0.002719385924
-0.0006984072526 -0.02053030396 -0.02047713598 0.02585270138 0.9996194314 0.00962446066
-0.007893509865 -0.01900881195 -0.01152992916 -0.3752345861 -0.9269298777 8.462682203e-05
-0.009410276413 -0.01400246191 -0.05776216507 -0.4552124815 -0.7882139075 -0.4141261073
0.007066100121 -0.0193090868 -0.01687711525 0.3453441939 -0.9384628477 0.004987100694
-0.00493277359 -0.01994201406 -0.01727363205 -0.2858341938 -0.9582773905 -0.001804600871
-0.0007073930105 -0.02052716001 -0.01607184315 -0.02812327708 -0.999589893 0.00539695233
-0.01902681923 -0.007824683666 -0.02246133614 0.8890229366 0.4575106384 0.01795087574
-0.008102190018 -0.0189070015 -0.03246936607 -0.3942696508 -0.9189945034 -0.0007383869401
-0.01305902243 -0.01585647917 -0.008957069874 -0.6069521598 -0.7947368113 -0.001573719729
0.01649508533 0.02764578667 -0.07283941498 0.7566046098 -0.007602609538 -0.6538284674
0.01473675156 -0.007653740525 -0.06050212574 0.7233345023 -0.5582139083 -0.4064288748
-0.007789963722 -0.01905562401 -0.0161299324 -0.357337772 -0.9339329544 -0.008885574165
-0.01217849414 -0.01651790587 -0.01309823481 -0.5687623025 -0.8223830958 0.01398166302
-0.004880010128 -0.01993409824 -0.02088166523 -0.2391956943 -0.9709343521 -0.008479612409
0.002797094941 -0.02037608337 -0.02002242851 0.13657391 -0.990355295 -0.02332288006
-0.0006044350266 -0.004404490769 -0.07262275124 0.005227393966 0.611194926 0.7914628461
0.01175496133 -0.01684154224 -0.02535854403 0.5757509716 -0.8175568174 -0.01056735509
0.003589063287 -0.01375297394 -0.0620194725 0.194342872 -0.8305865443 -0.5218781855
0.009268792152 -0.01835548782 -0.01406658363 0.432319506 -0.9015612777 0.01694424137
-0.004287206252 -0.01029657141 -0.06646123759 -0.1935706148 -0.7383763135 -0.6460114835
-0.009761604786 -0.01810137367 -0.02198286724 -0.4820037756 -0.8761673616 -0.001764857603
0.0139757843 -0.01506010818 -0.004357256413 -0.6610337866 0.7485007907 -0.05273423326
-0.0006057115661 0.01941188643 -0.08110587311 0.0499565423 0.05837222406 0.9970441451
-0.007490100225 0.03954136658 -0.07976048915 0.3353366665 -0.001854272662 0.9420965353
0.009028734207 -0.01848310852 -0.02307601929 0.4585756992 -0.8886496479 0.003182984797
0.0203439579 0.03759056854 -0.06366751862 0.9629114791 0.02119302088 -0.2689839015
-0.004178792417 0.03563267183 -0.08073250484 0.1933107977 0.01303974655 0.9810509164
-0.01624946547 -0.01257471895 -0.003930557251 0.7551689699 0.6545603763 -0.03564464387
0.02024828911 -0.003687351942 -0.02727848816 0.9544040679 -0.2981847008 -0.01409820588
0.006975091934 -0.01934708023 -0.02132376671 0.3153537606 -0.9489560465 0.005867498976
-0.01201291656 -0.01665033913 -0.01782013766 -0.5868070614 -0.8094277127 0.02200569623
-0.02009003925 -0.0007903008759 -0.05302019882 0.943632798 0.2845101912 0.1691481413
-0.009147171021 -0.01842014503 -0.01863104439 0.426706468 0.9043780775 0.004677938514
-0.008078913164 -0.01270914841 -0.06114359665 -0.3826229539 -0.7756439471 -0.5019722527
-0.01996183968 -0.004899151802 -0.006606520653 0.940056033 0.340518515 0.01848772026
0.003457762559 -0.02026170921 -0.02398112043 0.193081459 -0.9810687633 -0.01495432631
0.01358308887 -0.01543508053 -0.0143493681 0.593792478 -0.8046109388 -0.003424944651
0.006860535622 0.03939204364 -0.07997785526 -0.3265171676 -0.01788699737 0.9450220075
0.009147171021 -0.01842014503 -0.01863104439 0.446151788 -0.8949471266 0.004268805843
0.01480567837 -0.01430632305 -0.01966312408 -0.7016739866 0.7124920756 0.002942569691
-0.006649307251 0.01335007763 -0.07937814331 0.3215268117 0.1765454147 0.9302968483
-0.009774447123 0.01945401319 -0.07865208181 0.4530274835 0.0592801801 0.8895234451
-0.004768572807 -0.01999333954 -0.02877113469 -0.2602205774 -0.9654557289 -0.01343453067
-0.009432930946 0.04325001526 -0.07888991292 -0.4056946974 0.004271339948 -0.9139986697
0.01377661037 -0.01525029278 -0.009425215721 0.6827885071 -0.730427071 -0.0166177181
-0.01600330544 -0.01289547682 -0.009290554047 0.7605468094 0.6492786791 -0.002397408358
0.003076361391 0.03118754323 -0.08092171394 -0.1663680078 -0.01806180115 0.9858982997
-0.004377867116 0.04355088382 -0.08068419647 0.1973941792 -0.0004285572527 0.9803241068
-0.007590903759 -0.01914561653 -0.02497311783 -0.3461397641 -0.9381264373 0.01029812304
0.003414659103 -0.02027194977 -0.02819904264 0.1917043033 -0.9814382989 0.005322175022
-0.0006144215928 -0.01223069477 -0.06474268299 -0.019615784 -0.7939695222 -0.607641028
0.00688645196 -0.01938360882 -0.02565477562 0.3121786297 -0.949977403 0.009350774806
0.01117199707 -0.01727073956 -0.02171647167 0.5717726885 -0.8204009733 0.004270327573
0.01600330544 -0.01289547682 -0.009290554047 0.7413475736 -0.6709236352 0.01628652268
-0.01576795197 -0.01318230104 -0.01442125416 0.782639817 0.6224723882 -0.001744340816
0.01205704045 0.03530524397 -0.07723140717 -0.5917686352 -0.0004856251176 0.806107714
-0.01554431462 -0.01233165145 -0.04862626266 0.7725235429 0.6123170176 0.1681524478
-0.01961847051 0.01123990218 -0.0650679067 0.9105496374 0.1488637554 0.3856668771
-0.009995057487 0.02706232452 -0.07857301941 0.4325392109 -0.009190270637 0.9015682836
-0.01184951878 -0.01682184029 -0.02254322815 -0.5557088508 -0.8309753095 0.0258400492
-0.01285751152 -0.009020272064 -0.06142555847 -0.6277277723 -0.6303766731 -0.4567089816
-0.01035812378 -0.01780411148 -0.02531605339 -0.4865722796 -0.8736302308 -0.004199593717
-0.009569598198 -0.01821261024 -0.02850929737 -0.4480062427 -0.8939811998 -0.00938194295
-0.004709862153 -0.0200106678 -0.03288266818 -0.2562809084 -0.9665543824 -0.009629216028
-0.00067278409 -0.02053926722 -0.03303895696 -0.09632492132 -0.9949619895 0.02778756793
0.003372627417 -0.02028193601 -0.03231222089 0.181123736 -0.9834488029 0.004758603131
0.00680018568 -0.01941722488 -0.02987051582 0.3179181045 -0.9480611339 0.01040024898
0.003010139565 0.0007890052348 -0.07579428609 -0.1099758903 0.4835789172 0.8683644018
0.01826914279 0.0593778979 -0.06994453939 0.8119761864 0.03771234116 -0.5824709881
0.00891335392 -0.01854444885 -0.02740629959 0.4223316328 -0.9062263679 -0.01974239256
0.01576795197 -0.01318230104 -0.01442125416 0.7605129701 -0.6492866275 0.006848182143
0.007399254024 0.003757962704 -0.07599471951 -0.3714718247 0.3871850927 0.8438580375
0.01273722959 -0.01357506394 -0.05338987446 0.6055061818 -0.7415689148 -0.2888560342
0.01680265236 0.001972223282 -0.06657600403 0.834999188 -0.3132539403 -0.45238073
-0.01847307014 -0.00908850193 -0.005144766331 0.8922786544 0.451231694 -0.01512485343
-0.0006146743827 0.03103552839 -0.08115399848 0.04445613774 -0.006456331121 0.9989904742
-0.01619494867 -0.0124799571 -0.02081896973 0.7623028881 0.6472006079 0.005067542416
-0.004431849281 -0.0177319657 -0.05351401774 -0.2102256151 -0.9181712089 -0.3358077158
-0.01245338011 -0.01636025763 -0.02537978935 -0.6068360547 -0.7948191936 0.003528773207
-0.01856694794 0.03243104553 -0.06948397827 0.9180741557 -0.00159011784 0.3964054947
-0.004652590513 -0.02002757136 -0.03689339066 -0.2595270863 -0.9657031834 -0.00794059442
-0.0006646595399 -0.02054210981 -0.03702203369 -0.07986052172 -0.9968060456 6.677721816e-05
0.003331626217 -0.02029167747 -0.03632466253 0.1671289248 -0.9859202576 -0.005400762139
0.007411478837 -0.01916205851 -0.03317950439 0.3746389504 -0.9271701758 -0.001059179748
-0.01832666079 0.02310968018 -0.06998364512 0.8943762106 0.008732675106 0.4472302923
0.00286075139 -0.01508244629 -0.06004588165 0.1229999393 -0.8645547246 -0.4872536742
0.01163050508 -0.01691548157 -0.02895330715 0.5896156263 -0.8076805582 -0.002351395988
0.01847135925 -0.009099108696 -0.005174262047 0.8653648079 -0.4980606915 0.0554914127
-0.01816886902 -0.009615393639 -0.01090803623 0.8844019402 0.4666462347 -0.008631327869
-0.01627817917 -0.01257877731 -0.01904042816 0.7926628296 0.6096567879 0.002059017284
-0.01532270813 -0.01369256496 -0.02413460922 0.739959711 0.6726493271 -0.001583950552
-0.01372096872 -0.01531818914 -0.02856316662 -0.6201907758 -0.7838574857 -0.03050973264
0.006873616397 0.02315322685 -0.07998171043 -0.318043715 -0.001693076025 0.9480745376
-0.004310915603 0.03132983059 -0.08070468479 0.2011870345 -0.008513762798 0.9795158462
-0.01287453365 -0.01600047366 -0.03238675054 -0.6156391183 -0.7879687326 -0.009682582261
-0.01009732723 -0.01795121574 -0.03378776932 -0.4544295667 -0.8906641509 0.0145306315
-0.008002626181 -0.01894662952 -0.03652083588 -0.3769166657 -0.9261660505 -0.01225863341
-0.009386301994 0.0393428936 -0.07892224884 0.4130874014 0.0113483803 0.9106206746
-0.007907012224 -0.01896333504 -0.04041405869 -0.37327551 -0.9266137805 -0.04530226746
-0.000656895558 -0.02051358414 -0.04082354991 -0.07600355546 -0.9962110165 -0.04227375274
-0.007399253964 0.00375796254 -0.07599472046 0.3430517906 0.3885041187 0.8552075881
0.00361082685 -0.02020177698 -0.04091995049 0.1790901943 -0.9819408483 -0.06098256089
0.006530558586 -0.0112415699 -0.06432792892 0.3035747977 -0.7561277461 -0.5797526832
0.007320707957 -0.01919659615 -0.03720718892 0.41520575 -0.9096805775 -0.009242949464
0.0115018247 -0.01702843348 -0.03257274246 0.5748471656 -0.8178857307 -0.02477231976
0.01532270813 -0.01369256496 -0.02413460922 0.7335194624 -0.6796411325 -0.006093382377
0.01353422308 0.05569995499 -0.07608997726 0.648422922 -0.04135261202 -0.7601563495
0.01627817917 -0.01257877731 -0.01904042816 0.7728312573 -0.6344519868 -0.01423109989
0.0142154541 -0.01486733627 -0.03322979355 0.7260862569 -0.6875997777 -0.002300698081
0.01816346359 -0.009649298668 -0.01100104332 0.8575671683 -0.5142916409 0.009091753685
0.01992063427 0.0005882180855 -0.05622397232 0.9277306745 -0.3009193325 -0.2208242536
-0.02023369122 0.03482233047 -0.06435279846 0.9561274514 -0.02079888186 0.2922117437
-0.01787456131 -0.01012514591 -0.01648383904 0.8609416865 0.5086838485 0.004489399211
-0.01270868397 -0.01613523992 -0.03661241023 -0.6129402336 -0.7901283266 0.001223723913
0.006876783788 -0.007813040018 -0.06804373837 0.3180031034 -0.6751014269 -0.6656666505
-0.0186772728 -0.008658553123 -0.02848773575 0.8919507798 0.4515633243 -0.02267974076
-0.009972018242 -0.01801990128 -0.03785905838 0.4306301967 0.9025201535 0.00387378257
-0.004212189615 -0.01974349976 -0.04532787514 -0.1951490816 -0.9732952086 -0.1208853708
-0.0006477471391 -0.02013269043 -0.04544217491 -0.012920724 -0.9910196821 -0.1330903627
0.01067651691 -0.01641829891 -0.04910846176 0.5222149612 -0.8294875806 -0.1980956533
0.01257296333 0.006970167923 -0.07422952423 -0.6037521631 0.3011545126 0.7380984251
0.002979725814 -0.01995629883 -0.04534017563 0.1279202524 -0.9830328564 -0.1314641104
-0.009092065811 -0.01804646683 -0.04542618942 -0.4364032281 -0.8886319108 -0.1410161326
0.00723476855 -0.01918723933 -0.04102048238 0.401005093 -0.914939624 -0.04561139947
-0.007192554156 -0.01108006318 -0.06416398621 -0.3340642454 -0.7541402442 -0.5653968271
0.01135626125 -0.01712761497 -0.03672891363 0.5879927855 -0.8087392841 -0.01432670547
0.01440676975 -0.01468618679 -0.02883201408 0.7072111059 -0.7065933289 0.0240482689
0.01863985062 -0.008496963739 -0.01622741652 0.8411937651 -0.5406857181 -0.007211370215
-0.008256532907 -0.0165994784 -0.0529470857 -0.3920046208 -0.8693897142 -0.3008220439
-0.01655771637 -0.01217539549 -0.02801376247 0.7906898674 0.612204125 -0.003955121147
-0.01219643497 -0.01646667099 -0.04125946522 -0.6008339936 -0.7981304759 -0.04456742807
-0.009855933189 -0.01802111244 -0.04165449524 -0.4879117352 -0.8706815729 -0.06209458368
-0.0006179639896 -0.01390030479 -0.06237232844 -0.04709440329 -0.8299035198 -0.5559156995
-0.007583874067 -0.01876441447 -0.04486763891 -0.3682937655 -0.9220901507 -0.1187832327
0.01808386612 -0.009806144714 -0.038820755 0.8349948943 -0.5497026734 -0.02470824335
0.007082177003 -0.003698910475 -0.07162979126 -0.3354588909 0.57468148 0.7464640173
0.007147058606 -0.01891595173 -0.04496570778 0.3467740015 -0.9314753383 -0.1100067547
0.01119634032 -0.01718492079 -0.04129607582 0.5752066125 -0.8169840638 -0.04091934016
0.01655771637 -0.01217539549 -0.02801376247 0.7719205131 -0.6353765914 0.02086405115
0.01757917404 -0.01068599606 -0.02206134796 0.8418350069 -0.5396251848 0.01088489824
0.01416072941 0.0164239583 -0.07525276947 -0.6966335531 0.08682886912 0.7121533825
-0.01844462903 0.02772145653 -0.06975189972 0.9009982404 0.0137962407 0.4336033147
0.01996183968 -0.004899151802 -0.006606520653 0.9403612139 -0.3397213584 -0.01761209964
0.008421329498 -0.0182903862 -0.04606910324 0.4306875649 -0.8931873251 -0.1293237169
0.008678825855 0.002450661302 -0.07477298228 -0.4120766355 0.4174186884 0.809910171
-0.01649508533 0.02764578667 -0.07283941498 0.7751621584 0.001784089376 0.6317598002
-0.01941317177 -0.006817781925 -0.01583297253 0.8651037165 0.5015568244 0.006025903679
-0.01983199883 0.001840373874 -0.05810305023 0.9268084771 0.2712439868 0.2597166655
-0.01632041121 -0.01249939442 -0.03272912788 0.777821668 0.6284847924 0.0005643261957
-0.004229216099 -0.01898950691 -0.04934988403 -0.1715461519 -0.9604797881 -0.2192042299
-0.004532863583 0.03936618369 -0.08065228271 -0.2301174668 0.001131914644 -0.9731622014
0.01150434886 0.04750875219 -0.07757404073 -0.5721996894 0.01383959817 0.8199975494
0.003455017543 -0.01908880081 -0.0496116127 -0.1704993806 0.9599512126 0.2223142612
0.01626755667 0.02345809746 -0.07314487457 0.7911418969 -0.01628306164 -0.6114158657
0.005792417049 -0.0189572773 -0.04782692337 0.2646272953 -0.9443237837 -0.1955121125
0.01603782477 -0.004807885613 -0.06162842832 0.7502838117 -0.5036380491 -0.4282790182
0.01138402605 -0.01666024995 -0.04543712521 0.5555617996 -0.8222834106 -0.1232926578
0.01402928638 -0.01504277611 -0.03750954819 0.6603734391 -0.7509155077 -0.005728981682
-0.0042476702 0.01966990301 -0.08067889743 0.2028058172 0.05343572131 0.9777599011
-0.01217127686 -0.003918984985 -0.06791454163 0.572551451 0.5410546158 0.6159908592
0.01632041121 -0.01249939442 -0.03272912788 0.7506647395 -0.6606611244 0.005415504577
-0.004211702895 0.007204872227 -0.07842470093 0.2064496146 0.3403304346 0.9173623886
-0.01609331751 -0.01279093742 -0.03725160789 0.791825767 0.6107302273 -0.004532575299
-0.01237323594 -0.01595881391 -0.04543052864 -0.5933386879 -0.7973923645 -0.1100664276
-0.0006241919332 0.04322440508 -0.08114506192 0.04651191506 0.008585706243 0.9988808374
0.00312404512 0.04339256244 -0.0809074724 -0.1570807307 0.00895973539 0.9875451216
-0.02024828911 -0.003687351942 -0.02727848816 0.9544040679 0.2981847008 0.01409820588
0.009242201805 0.0272305212 -0.07900772476 -0.442824033 -0.02149930247 0.8963507437
-0.008605486107 -0.01754358597 -0.04916509094 -0.4342032394 -0.8732763018 -0.2210340415
0.01983199883 0.001840374112 -0.05810305023 0.9246395694 -0.2744463621 -0.2640470811
-0.00575426054 -0.01845200729 -0.0500998764 -0.2665493519 -0.9289809804 -0.2567991065
-0.008899381074 -0.00900412178 -0.06548370708 -0.4394298453 -0.6812043333 -0.5855442488
-0.0006366200844 -0.01892650159 -0.05133370209 -0.01754441322 -0.9613873024 -0.2746391238
0.001909860253 -0.01889115334 -0.05124178314 0.05138755562 -0.9602089121 -0.2745144152
-0.0006006996897 0.00676752313 -0.07872121006 0.03258436378 0.3579037418 0.9331897829
0.009469642639 -0.01508042717 -0.05540920639 0.4598932396 -0.8183160372 -0.3447565394
0.007368487716 -0.01795192051 -0.04968999004 0.3884742594 -0.8891662195 -0.2418081553
0.01371964264 -0.01499680424 -0.04475688934 0.5959183013 -0.7975581068 -0.0937146975
-0.01891043282 -0.006730177402 -0.04872188187 0.8931169126 0.4245180426 0.1487501662
0.003170891146 0.05538032341 -0.08089082718 -0.09820846878 -0.008548353841 0.9951291486
0.01385631084 -0.01514811325 -0.04150805283 0.6468249298 -0.7616347334 -0.03911576572
-0.01226094627 0.05912955399 -0.07703976746 -0.5965239386 0.02779803919 -0.8021137448
0.01609331751 -0.01279093742 -0.03725160789 0.7763486967 -0.6303001496 -0.002102995946
0.01902681923 -0.007824683666 -0.02246133614 0.8920526319 -0.4515475484 -0.01862561242
-0.01588375378 -0.01299500322 -0.0414471283 0.7486028266 0.66162235 0.04300783613
-0.00764114054 0.05548427455 -0.07967685191 0.3403462535 -0.02126980289 0.9400595849
-0.01192160201 -0.01559252834 -0.04894831848 -0.5638071339 -0.8065403813 -0.1778036253
-0.0006315129002 -0.01799342982 -0.05418028259 -0.05580731379 -0.9325073258 -0.3568131598
0.003161532541 -0.01786357848 -0.05384938812 0.1751481195 -0.9243109728 -0.3390757464
0.01421328068 0.01990206019 -0.07546113332 0.7104625392 -0.03581821506 -0.7028229051
-0.00760247004 0.05140265656 -0.07969833755 0.3602757485 0.001089382484 0.9328452167
0.00697870779 -0.01709863599 -0.05305772527 0.3184765759 -0.8946639957 -0.3132874165
0.003655640437 0.007109555391 -0.07848280217 -0.171229672 0.3374899566 0.9256246154
0.01588375378 -0.01299500322 -0.0414471283 0.7527062634 -0.6565964882 -0.04810751293
0.0186772728 -0.008658553123 -0.02848773575 0.8776046526 -0.4793788412 0.002449552514
-0.01837236404 -0.009262928963 -0.03379150009 0.8694200522 0.4940028508 0.008363987631
0.003132567803 -0.01648753357 -0.05720586904 0.1411492051 -0.8944166812 -0.4243768399
-0.007376040697 0.02746230698 -0.0798079745 0.3443496356 0.02070250543 0.9386131976
-0.007564447323 0.04738938204 -0.07971946971 0.3584918887 -0.01668395056 0.9333837429
-0.01572224188 -0.01289396477 -0.04478033638 0.785206139 0.611732924 0.0960944792
0.01056749344 -0.01539037628 -0.05277829285 0.5019188404 -0.8216319673 -0.2701821386
-0.0006016038126 0.01153919527 -0.08010219744 0.01849644948 0.1866809434 0.9822464593
-0.009500886679 0.003011346718 -0.07457337189 0.4385676708 0.4185100935 0.7953035268
0.01361156368 -0.01464087486 -0.04741633224 0.666158872 -0.7269593653 -0.1666206425
-0.02010331249 0.0312970314 -0.06506671524 0.9483800941 -0.01377314233 0.3168367051
0.01572224188 -0.01289396477 -0.04478033638 0.7563490355 -0.6466122439 -0.09914001496
-0.01808461571 -0.00980143261 -0.03880896378 0.8671946811 0.4975109424 0.02135994509
0.01527946911 0.04769104156 -0.07434911804 0.7621503015 -0.01776024432 -0.6471564661
-0.01352125168 -0.01416026115 -0.04970858002 -0.6577290268 -0.7257449064 -0.2017098365
-0.01125317955 -0.01493695386 -0.05278766759 -0.5228573261 -0.8088609743 -0.2690058379
-0.01102453709 -0.01130394522 -0.06050554911 -0.5457221003 -0.7074665507 -0.4490862599
-0.00775416708 -0.01534252278 -0.05660705439 -0.3436884135 -0.8591579632 -0.3791119475
-0.009697989655 0.02344175987 -0.07874460754 0.4349828486 0.01643595231 0.9002887209
-0.004565855162 -0.01619147996 -0.05718821716 -0.1840029534 -0.894396807 -0.4076729875
0.0113834414 -0.004018014934 -0.0685051668 -0.5603810391 0.5496274358 0.619582741
-0.0006258196831 -0.0166042134 -0.05749534925 -0.02504011877 -0.9057627332 -0.4230447536
-0.0006015471419 0.0006918268154 -0.07598435974 0.05534638388 0.4800985778 0.8754668089
0.006746982157 -0.01556773949 -0.0570207777 0.3319756359 -0.8544448552 -0.3996450509
-0.01784602737 -0.01006685352 -0.04303837967 0.8652705202 0.4987271657 0.05077539776
-0.004114524937 -0.003933643746 -0.0724870575 0.1642551288 0.6044564318 0.7795207981
0.01957898331 -0.006388454437 -0.03755596924 0.8763228957 -0.4816230859 -0.009868416997
-0.01273722959 -0.01357506394 -0.05338987446 -0.6274399371 -0.7231889819 -0.2886465342
0.01822877312 -0.008133755445 -0.04869416237 0.8844010689 -0.4468179278 -0.1348647051
0.02029453278 -0.001380745173 -0.04956290817 0.9514107943 -0.283774916 -0.1195378496
-0.004399449984 0.04748875427 -0.0806769104 0.1970424118 -0.0004062624273 0.9803948811
0.01854672623 -0.008599306822 -0.04295635605 0.8577220567 -0.5109388907 -0.05704667705
-0.01957898331 -0.006388454437 -0.03755596924 0.8807363499 0.47357514 0.005483503156
-0.01767867088 -0.009906991005 -0.04613726044 0.8327611365 0.5403046653 0.1207466698
-0.01884036827 0.04294868279 -0.06888139725 0.9229761775 -0.01093103673 0.3847018172
-0.01515985552 -0.01156000487 -0.05241715495 0.7667129121 0.6017912565 0.2236036539
-0.01964642207 0.0150413599 -0.06607819112 0.8954139845 0.1135241998 0.4305183532
-0.01196820116 -0.01242111254 -0.05723924923 -0.604128282 -0.7124372237 -0.3570185165
-0.01996859296 0.0271615785 -0.06561617788 0.9426383564 -0.007292165028 0.3337360535
0.01832666079 0.02310968018 -0.06998364512 0.8608464925 0.006796236034 -0.5088193467
-0.0006210560004 -0.01509507561 -0.06040222168 -0.07492503055 -0.8559059201 -0.5116749903
0.003273901486 0.01943121967 -0.08083715973 -0.1634280274 0.05053364676 0.9852601841
0.009410276413 -0.01400246191 -0.05776216507 0.4231465046 -0.7976744273 -0.4297237993
0.01196820116 -0.01242111254 -0.05723924971 0.595275829 -0.7106046737 -0.3750835709
0.01515985552 -0.01156000487 -0.05241715495 0.7380622143 -0.6347332938 -0.2288619968
0.01854640198 0.03164068985 -0.06952925873 0.8916782679 0.01002009967 -0.4525587963
0.01836627769 -0.008490214825 -0.04615205765 0.8253325082 -0.5525121737 -0.1164325933
-0.01924742508 -0.00713176012 -0.04287433624 0.8763902117 0.4791908529 0.04812819619
0.01749680614 0.04763625717 -0.07141801453 0.8446747294 -0.009447273069 -0.5351965532
-0.01749324989 -0.009283193111 -0.04974124718 0.8194712507 0.5465508334 0.1724791457
-0.004689511163 -0.01365224007 -0.06177921731 -0.2227657966 -0.8242466439 -0.5205697551
0.006636664033 0.03156221151 -0.08006313801 -0.3222075437 0.01413376934 0.94656354
0.007501868101 -0.01290515393 -0.06123883057 0.3647680956 -0.7790749871 -0.5098886162
0.01619579208 0.04364048719 -0.07317498684 0.7684615703 -0.02749949918 -0.6393047728
-0.01905388451 -0.007073438644 -0.04616685486 0.8996259817 0.4239137795 0.1047387256
-0.01865127277 -0.005321704865 -0.05363887787 0.8826740054 0.4125126782 0.2252107688
0.01818632507 0.003513473272 -0.06486979771 0.8715982229 -0.2667279945 -0.4113061085
-0.01864997546 0.03562483851 -0.06930099742 0.9193232372 -0.01880351124 0.393053703
-0.0166319139 -0.008935906768 -0.05389911652 0.7938127066 0.5565654183 0.2451455118
-0.01460181618 -0.01095619583 -0.05539253235 0.7397063509 0.6004690532 0.3037621284
0.01460181618 -0.01095619583 -0.05539253235 0.7153931338 -0.6296114854 -0.3029885172
0.0166319139 -0.008935906768 -0.05389911652 0.7945851563 -0.5528033588 -0.2510834043
0.01743938637 -0.009029053688 -0.05081605148 0.8099393668 -0.5560915684 -0.1864413838
-0.0158488102 -0.008478246331 -0.05687868404 0.7656144872 0.561855116 0.3132942478
-0.007574943352 0.03528162994 -0.0797302536 0.3695539815 -0.008743767817 0.9291681233
0.01570315762 0.0552029541 -0.07384856262 0.7560374974 0.01697306983 -0.6543081976
-0.004128622055 -0.01180465698 -0.06464737592 -0.1554661679 -0.7738579486 -0.6139822033
0.002919377282 -0.01203557777 -0.06468060112 0.1082561694 -0.7796253096 -0.6168184322
0.01359131336 0.05905542755 -0.07603866959 0.6495956026 0.1498205654 -0.745371955
0.01102453709 -0.01130394522 -0.06050554911 0.5095568041 -0.7296565818 -0.4560187891
0.01434980838 0.02728406016 -0.07537067159 -0.6965620557 -0.001916637898 0.7174939924
0.01557729797 -0.008672725296 -0.05716782455 0.7612107758 -0.5636970211 -0.3206303531
-0.01879337502 -0.006240205288 -0.05088695908 0.8824229896 0.4288788545 0.1933716514
-0.01449124908 -0.009450640678 -0.0583243866 0.7037546116 0.6077198884 0.3679755207
0.01187109649 0.02329437184 -0.07737640381 -0.5876954095 0.005962887095 0.809060288
0.01219628675 -0.009533310481 -0.06165801784 0.6017636241 -0.6470829909 -0.4681497022
0.01411546946 0.004317077518 -0.07159307861 0.7024801137 -0.3271600213 -0.632050639
-0.009576951027 0.05532762718 -0.07879378128 0.4166469606 -0.004464282715 0.9090574131
0.01879337502 -0.006240204811 -0.05088695908 0.8819334019 -0.4308961022 -0.1911073617
0.00799391328 -0.009362052812 -0.06570387014 0.3800193916 -0.701713664 -0.6026468251
0.01865127277 -0.005321704865 -0.05363887787 0.8903023532 -0.4028665087 -0.2122741062
-0.01777680063 -0.004456863284 -0.05800980568 0.8556199939 0.4180456933 0.3052084933
-0.0157458992 -0.007145415306 -0.05935904312 0.7587054779 0.5340884387 0.3729819533
-0.0006113665899 -0.01049283028 -0.06690264638 -0.05170632024 -0.7649070075 -0.6420620892
-0.01302998405 -0.0007238482187 -0.06955931346 0.6306574364 0.4513806339 0.6312897284
0.003059568008 -0.01039386241 -0.06668003591 0.1126666728 -0.745607419 -0.6567920504
0.01157473046 -0.007736286368 -0.06462558256 0.5475056504 -0.635162872 -0.54479876
0.009286396345 0.03095602798 -0.07898560333 -0.4585476417 -0.008066954071 0.8886332115
0.01711001492 -0.005853132725 -0.05800782013 0.8449130812 -0.4384562788 -0.3063951319
-0.01817166964 0.01587938086 -0.06984079234 0.8581659769 0.1059031849 0.5023302415
-0.02029453278 -0.001380745292 -0.04956290817 0.9527227853 0.2746349254 0.1299805837
-0.01853511429 -0.0042599473 -0.05600716019 0.8873114255 0.3937266796 0.240120253
0.01067097549 0.05896531677 -0.07813276672 0.5125723717 0.06649228398 -0.8560656166
-0.01632343531 -0.004592746337 -0.06137213071 0.7652416461 0.487284502 0.420664994
-0.01238953161 -0.007297446251 -0.0643000021 -0.5964301959 -0.6066434059 -0.5255994668
-0.0130864315 0.01952962089 -0.07639885044 0.5954770196 0.04498116704 0.8021120955
-0.00752696991 0.04343364048 -0.07974029541 0.3305258949 -0.001021425718 0.9437963708
-0.004155159603 -0.008168384075 -0.06878106343 -0.1801939176 -0.6997796018 -0.6912587511
-0.01974452591 0.003683251063 -0.06018935267 0.9097014437 0.2698991545 0.3155910799
-0.0006082376639 -0.008223771731 -0.06930168279 0.01698752136 0.6973760753 0.7165040361
0.003043809692 -0.008126595775 -0.06908979988 -0.1335645204 0.6983326503 0.7032012717
-0.01618398205 0.051261144 -0.07317033005 0.7840400231 0.004155347316 0.6206963631
0.01847409566 -0.003460378488 -0.05734358088 0.8868470674 -0.3710427654 -0.2753716495
-0.01432416344 -0.006098720074 -0.06316621017 0.6976572505 0.5455140507 0.4644230628
-0.007706875801 -0.007473714256 -0.0679661438 -0.3528370758 -0.6708129936 -0.6523158174
0.02009003925 -0.0007903011441 -0.05302020073 0.9353834347 -0.3004196539 -0.1865632912
-0.008646225589 0.007373909473 -0.07687575694 0.4303923718 0.2890889709 0.8550964701
-0.01340781943 -0.004922773759 -0.06558268229 0.6517212514 0.5381897077 0.5344260931
-0.01044336987 -0.006509934425 -0.06704865265 -0.491259155 -0.6178536157 -0.6139392088
0.01478523636 -0.003844830418 -0.06483784409 0.7244886392 -0.4909356237 -0.4838371886
-0.01802688713 -0.0007112162963 -0.06170613785 0.8601028054 0.3525830719 0.3686574853
-0.01556981564 -0.00319045794 -0.06432219505 0.7436178109 0.4720764258 0.4734727021
-0.008872760589 -0.00474176935 -0.06974021031 0.4354491025 0.5878505581 0.6817740098
-0.00506095314 -0.005925093333 -0.07063147227 0.2740986457 0.6319635173 0.7249083012
0.007922416353 -0.005160015559 -0.0699644165 -0.3812378977 0.6097764298 0.6948599651
0.01830604458 -0.0004046036527 -0.06135033226 0.8756318113 -0.3267372385 -0.3556848436
-0.005421710014 0.009442564964 -0.07888245392 0.2606633454 0.2698215134 0.9269579124
0.003457033549 -0.004061702865 -0.07251238959 -0.1252838559 0.6068083964 0.7849124317
-0.0006303856505 0.05114686966 -0.08113379839 0.02279180659 -0.005216975218 0.999726621
0.00485499835 -0.00562545681 -0.07094960022 -0.2305838058 0.6257818639 0.7451363414
-0.01631616344 -0.0005265326895 -0.06542037201 0.7897944032 0.390857887 0.4727101785
-0.01421120834 -0.002384454012 -0.06699261475 0.7020695764 0.4608501406 0.542877019
0.003820725534 -0.001054075771 -0.07451818254 -0.1899551762 0.5140738157 0.8364479321
-0.007082177003 -0.003698909998 -0.07162979126 0.348848412 0.5495631813 0.7591344381
0.01548927426 0.0514117403 -0.07410709572 0.7616928062 -0.004158930897 -0.6479249743
0.01596533759 -0.0008361867738 -0.06568241501 0.7452535241 -0.4337666706 -0.5064026662
0.01157773561 0.003402202249 -0.07336735764 -0.5890287731 0.3663725668 0.7202890023
0.0124594272 -0.0008813120474 -0.07003788376 -0.5989621495 0.4690425504 0.6490326874
-0.01790959053 0.003205223417 -0.06521103745 0.853760429 0.3157495111 0.4139992465
0.01857947845 0.05580992203 -0.06932317505 0.8423947444 0.003947893255 -0.5388464611
0.01469122639 3.657595813e-05 -0.06825703125 0.727059964 -0.4078245408 -0.5523250426
0.007863806089 0.01110731284 -0.07839581977 -0.3908219476 0.244291417 0.8874569899
-0.0006089540455 0.02369452307 -0.08115468258 0.0402287322 0.01387602083 0.9990941423
-0.01547141981 0.0007048201337 -0.06773932266 0.7556804183 0.3756482306 0.5365030403
-0.008496063888 -0.0005493488219 -0.07305199146 0.4287436012 0.4876793918 0.760491772
0.007878870726 -0.000684024871 -0.07332218997 -0.3754852658 0.5024916628 0.7787894093
0.01076427921 -3.266294797e-05 -0.07201586533 -0.5139153653 0.454427763 0.7275894485
0.01905918217 0.05134800339 -0.06839238739 0.8431272034 -0.002407733646 -0.5377087703
-0.01159755135 0.0001926538646 -0.07156480408 0.5542479949 0.454143866 0.697540328
0.0116100769 0.01555947759 -0.07717199283 -0.5730245185 0.1067319852 0.8125584192
-0.004395967654 -0.0009641234619 -0.07446739306 0.2345016367 0.5091842377 0.8280944357
-0.01156292009 0.007877104998 -0.07539383698 0.5249478736 0.260104648 0.8104167459
-0.0006024593711 -0.001391624719 -0.07474147034 0.03066427574 0.5626801965 0.8261057431
-0.01966701031 0.006174534321 -0.06236598969 0.9036540699 0.2357613907 0.3575274655
-0.01610225519 0.003694346865 -0.06871614202 0.8042791072 0.2961950315 0.5151733893
-0.01413426161 0.002166683912 -0.07037113571 0.6913230611 0.3677569142 0.6219544013
0.01561025691 0.003312431604 -0.06912988949 0.7598091239 -0.3191906741 -0.5663986307
0.01966701126 0.006174535036 -0.06236598778 0.9181174337 -0.2237644348 -0.3270930383
0.01817166964 0.01587938054 -0.06984079234 0.8565771186 -0.07807530857 -0.5100783137
-0.01255993917 0.003548898114 -0.07263760546 0.616617406 0.3475073833 0.7064146043
-0.003612888634 0.0008261227533 -0.07572171211 0.1371561569 0.4798683641 0.8665532538
-0.01963158035 0.008333063364 -0.06375040245 0.9058242896 0.1887421689 0.3792871605
-0.01814279747 0.006162228584 -0.06661701202 0.8690684289 0.2522560825 0.4255431056
0.01666542873 0.03536806259 -0.07260475922 0.7661254782 0.0265846514 -0.6421409565
0.01894868215 0.04711369324 -0.06864212799 0.8441258119 -0.007105599016 -0.5360980546
0.003749933646 0.003391990056 -0.0769424773 -0.1515789979 0.4233124881 0.8932134934
-0.004229635742 0.01558711423 -0.08037888845 0.1843777766 0.1224368852 0.9751994897
0.01913531939 0.007609451135 -0.06470593898 0.8960031713 -0.202452572 -0.3952104163
-0.0169838349 0.007218883673 -0.06913561885 0.828862091 0.233964992 0.5081810864
-0.0006008894708 0.003393978808 -0.0773390469 0.05035982973 0.4097129426 0.9108233595
0.01641111565 0.006909082055 -0.06996052361 0.7990087509 -0.2465743741 -0.5484396905
0.01812927341 0.00783848691 -0.06748580551 0.8611440818 -0.1984668143 -0.4680190103
-0.01314749467 0.007027748525 -0.07372618484 0.6396359843 0.2827332439 0.7147920819
0.01475609239 0.007439382871 -0.07228996913 0.7261362706 -0.239850661 -0.6443584227
-0.01199595912 0.01164135774 -0.07618666077 0.5637979604 0.1855848989 0.8047919639
0.01961847051 0.01123990218 -0.06506790415 0.9026159088 -0.1618766351 -0.3988489392
-0.007151334095 0.01578074837 -0.07956379089 0.3381330487 0.1189097208 0.9335558471
-0.01766677316 0.01103224643 -0.06951768875 0.8418153199 0.1701146615 0.5122577175
-0.01875505638 0.03966696167 -0.06906941605 0.9266493744 -0.006600497419 0.3758688206
0.007977979183 0.007315621805 -0.07720295792 -0.3895281093 0.2983499515 0.8713524881
0.01812923574 0.01139304781 -0.06884417152 0.863249016 -0.1510783792 -0.4816393461
0.01443513425 0.03182754389 -0.07528737386 -0.7002003734 0.02623808619 0.7134640845
0.01674184799 0.01031064415 -0.07086471939 0.8107156423 -0.1729497788 -0.5593107556
-0.01595099888 0.01190887375 -0.07236991272 0.7865931839 0.1546935744 0.597780111
-0.01385726376 0.0110516367 -0.07445236511 0.6785913603 0.1954800932 0.7080263405
0.01513475566 0.01163311683 -0.07321777005 0.7399388238 -0.1762853567 -0.6491640856
0.01630471916 0.03139665833 -0.07309589539 0.7614345043 1.318088492e-05 -0.6482418495
0.007003369263 0.03527873611 -0.07992819541 -0.3242648471 -0.01713013065 0.945811222
0.01964642207 0.01504135927 -0.06607819112 0.913726017 -0.1038065228 -0.3928472625
0.01144027445 0.01166585816 -0.07656182946 -0.5716059943 0.1897335892 0.7982905188
0.01282851124 0.01010449886 -0.075151474 -0.6231670255 0.2198550841 0.7505508646
0.009386232376 0.03934167099 -0.0789240799 -0.4129360846 0.02012790629 0.9105375651
-0.008480080843 0.01125919946 -0.0781249059 0.4437208481 0.2275030899 0.8668068719
-0.003006309032 0.009195684433 -0.07932634735 0.1428436773 0.2768972435 0.9502229214
-0.01576413453 0.03935371971 -0.07372005177 0.7703580242 -0.02777518988 0.6370063213
0.009198645592 0.02355881437 -0.07902952067 -0.4416627403 0.01565086141 0.8970446334
-0.0006009602944 0.009105968157 -0.07948749034 0.0242351621 0.2688001874 0.9628910199
0.02053467178 0.04167461395 -0.06221349716 0.9663392735 0.02923069179 -0.2556051158
0.002404594958 0.009163416386 -0.07938424683 -0.07897482619 0.2734095473 0.958650195
0.005421710014 0.009442564964 -0.07888245392 -0.2604692355 0.2704942178 0.9268164087
-0.01973225911 0.01928470675 -0.066342453 0.9053823323 0.00718781879 0.4245364149
-0.01612079461 0.01560104179 -0.07291704432 0.7969629343 0.1018068589 0.5953868027
-0.004218166033 0.01175755575 -0.07971798282 0.1694899448 0.2058894108 0.9637856137
-0.0006211634278 0.03935056178 -0.08115056864 0.01922401211 0.01815893035 0.9996502842
0.003614827385 0.01170949475 -0.07980252838 -0.1352542188 0.2067546881 0.9689988624
0.01202332139 0.0436156826 -0.07723614025 -0.5825627153 0.01518586273 0.8126438779
0.01583749853 0.01543456173 -0.07321229226 0.7456559033 -0.1106008679 -0.6570880625
-0.01413772011 0.01443568134 -0.07498377228 0.6798545386 0.1354562694 0.7207283853
-0.01271812856 0.0157778573 -0.07637975311 0.5851325235 0.107510816 0.803779419
-0.01823504162 0.0193650322 -0.07010139847 0.8894317993 0.02666847698 0.4562892359
-0.009468210697 0.01511491558 -0.07841488647 0.4565185621 0.1437934109 0.8780172307
0.006649307251 0.01335007668 -0.07937815094 -0.2916704122 0.1816650687 0.9391092447
0.01884036827 0.04294868279 -0.06888139725 0.9270931093 -0.01542154658 -0.3745137414
0.008802588344 0.0147860136 -0.07872219086 -0.4257118654 0.1461824506 0.8929726193
0.01823504162 0.0193650322 -0.07010139847 0.8567560129 -0.02756218028 -0.514984913
-0.01984581375 0.0231642437 -0.06602970123 0.9064661109 -0.002353267266 0.4222720118
-0.01604798927 0.01937652817 -0.0733779068 0.8042138037 0.0325057572 0.5934505318
-0.0006032071643 0.01535477055 -0.08077502526 0.02321744104 0.1257419878 0.9917912598
0.007151334095 0.01578074799 -0.07956379089 -0.3215451726 0.115023971 0.9398820075
0.01604798927 0.01937652817 -0.0733779068 0.7855040478 -0.04106134585 -0.6174927989
0.01984536552 0.02316091633 -0.06603553391 0.9063657805 0.00224781638 -0.4224878925
0.007088867545 0.04746642637 -0.07988686371 -0.3223023092 0.0004347171743 0.9466366951
0.01165630102 0.01943864822 -0.07746614361 -0.5839562962 0.04706328208 0.8104197009
-0.01626755667 0.02345809746 -0.07314487457 0.8129534929 0.01093000398 0.5822260329
-0.01305812991 0.02735033321 -0.07645566368 0.6050376195 -0.02045903097 0.7959339841
-0.0074211339 0.01909487495 -0.07973184509 0.3622398639 0.0529751498 0.9305782689
0.006863871166 0.01950388936 -0.07993555232 -0.3223244973 0.04325570047 0.9456404511
0.009149289131 0.01924848302 -0.07899704488 -0.4444386681 0.040696537 0.8948843848
0.01996816889 0.02715839005 -0.06562166595 0.9416035917 0.008595363733 -0.3366137189
-0.01282930493 0.02336650205 -0.07665631771 0.602995752 -0.00645320833 0.7977182956
0.01427974701 0.02355339909 -0.07543906403 -0.6914276053 0.008439177254 0.722396461
0.01844462903 0.02772145653 -0.06975189972 0.8728072723 -0.0008176949284 -0.4880643368
-0.004464251961 0.02733150973 -0.08067305211 0.2046311572 -0.01032687001 0.9787846777
-0.007334582726 0.023069568 -0.07982439677 0.364336357 0.01016942609 0.9312118995
0.02010331249 0.0312970314 -0.06506671524 0.9484224795 0.01411039475 -0.3166949593
0.00675618373 0.02732747629 -0.08002045102 -0.3201885911 0.001499543859 0.9473526363
-0.004116170764 0.02376558137 -0.08074877739 0.2096762235 0.01991420832 0.9775680568
0.00304763088 0.02383485773 -0.0809292433 -0.166683453 0.02282876313 0.9857461509
-0.01852585602 0.03085033417 -0.06957453918 0.9105575528 -0.01619875692 0.4130648173
0.01161322939 0.02722394204 -0.07754980659 -0.5890684257 -0.01631752695 0.807918392
0.02023369122 0.03482233047 -0.06435279846 0.957551178 0.02226938917 -0.2874018369
-0.01630471916 0.03139665833 -0.07309589539 0.7769880686 -0.007216010692 0.6294739632
-0.0203439579 0.03759056854 -0.06366751862 0.9606107207 -0.0136816428 0.2775605448
-0.01254373316 0.03140055414 -0.07680827401 0.6136310869 -0.006767094304 0.7895638642
-0.0006117934783 0.02733842945 -0.08115434265 0.01877365724 -0.02031219435 0.9996174091
0.003061891238 0.02748447609 -0.0809255511 0.1612131075 -0.003644174721 -0.9869128908
0.01183431542 0.03123834109 -0.07738191891 -0.5940852866 -0.01646636758 0.8042335053
0.01864997546 0.03562483851 -0.06930099742 0.9047194317 0.01828878136 -0.4256151669
-0.02042635345 0.03952200699 -0.06310310745 0.9631373306 -0.01537800182 0.2685702877
-0.0160245382 0.05491573461 -0.07340802892 0.7871620141 -0.01119098611 0.6166447319
-0.01666542873 0.03536806259 -0.07260475922 0.7724655133 -0.02436385688 0.6345891846
-0.009286396345 0.03095602798 -0.07898560333 0.4319111338 -0.009259445306 0.9018686352
0.02042635345 0.03952200699 -0.06310310745 0.9631373306 0.01537800182 -0.2685702877
-0.01208281122 0.0475956628 -0.07720409611 0.6102808753 0.001270915384 0.7921840935
-0.0074614199 0.05928330358 -0.07974151103 -0.3525158744 0.05879099197 -0.9339572675
-0.02053467178 0.04167461395 -0.06221349716 0.9663392735 -0.02923069179 0.2556051158
-0.00728993969 0.03159496422 -0.07984101105 0.3564296097 0.008054886071 0.9342874569
-0.01254722548 0.03538027153 -0.07682576218 0.6102843204 0.006774445805 0.7921534922
0.01875505638 0.03966696167 -0.06906941605 0.9250907986 -0.01169810948 -0.3795657631
-0.009340403557 0.03549694316 -0.07895407867 0.4201976667 0.01500943905 0.9073084578
0.009340380351 0.03549654007 -0.07895469666 -0.4319412888 0.02589630565 0.9015298688
-0.009528280258 0.05124111176 -0.07882439423 -0.4102187799 0.004263363273 -0.9119771797
-0.00061818454 0.03553870519 -0.08115342373 0.03547064895 0.03293549289 0.9988278562
0.003093987915 0.03569816166 -0.08091683367 -0.1595194663 0.003628734811 0.9871881139
-0.01619579208 0.04364048719 -0.07317498684 0.7735303755 0.02099729329 0.6334112975
-0.0117967068 0.0394070859 -0.07740843678 0.581119136 0.006422053477 0.8137931598
0.01179654229 0.03940457678 -0.07741222286 -0.5953266465 -0.005996201309 0.8034614052
-0.01202347553 0.04361808586 -0.07723261356 0.6052676022 -0.002039696282 0.7960194529
0.009432812373 0.04324792099 -0.07889297994 -0.3726107915 -0.01787268434 0.9278155879
-0.01905918217 0.05134800339 -0.06839238739 0.8586874805 0.003003102856 0.5124907729
0.0175730648 0.05095635223 -0.07130195999 0.8153690844 0.01888608238 -0.5786333659
-0.01914914894 0.05479078865 -0.06818724442 0.8567529518 0.003542282554 0.5157148745
-0.009480223179 0.04721275711 -0.0788571167 -0.411399131 0.01590851916 -0.9113164511
-0.01214640772 0.05166368008 -0.07713603592 0.6072776429 0.01785662195 0.7942889937
-0.0006272633473 0.04715307681 -0.0811394755 0.04127806465 -0.01003504024 0.9990973022
0.003139406959 0.0473249143 -0.08090250651 -0.1367326312 -0.001383154181 0.9906070232
-0.01924605274 0.05833528137 -0.067903759 0.8575075616 0.006337029082 0.5144323316
-0.01768933296 0.05601842308 -0.07112500763 0.8572804261 0.00688834459 0.514803673
0.003155032542 0.05132293616 -0.08089676242 -0.09953245527 -0.003911165782 0.9950266294
0.006783026082 0.05153369958 -0.07998965127 -0.3495055845 -0.003283495504 0.9369285272
0.01349186993 0.05321066666 -0.07612804413 -0.6301236598 0.01992286773 0.7762391723
-0.01776810741 0.05944937515 -0.07100563049 0.8574685963 0.005922692105 0.5145022139
-0.01220790482 0.05577186421 -0.0771009249 0.6026706066 0.008883262268 0.7979406166
0.0110771874 0.05566428539 -0.07787508392 -0.5616047435 0.002135502852 0.8274028956
-0.01564191175 0.05898673344 -0.07389923286 0.7575770027 -0.05606202572 0.6503338637
0.01564189363 0.05898653221 -0.07389950943 0.7481758123 0.04831294696 -0.6617392335
-0.004443674286 0.05555553055 -0.08066072591 0.1991644436 -0.0004618787843 0.9799659745
-0.0006335542798 0.05519988823 -0.08112803777 -0.01624437799 0.01369883086 -0.9997742056
-0.009616466522 0.05864626122 -0.07876925659 0.4923481171 -0.05445499183 0.8686932632
-0.004461766402 0.05885536893 -0.08065397644 -0.1894653895 0.06314640155 -0.9798547842
