# .PCD v0.7 - Point Cloud Data file format
VERSION 0.7
FIELDS x y z normal_x normal_y normal_z
SIZE 4 4 4 4 4 4
TYPE F F F F F F
COUNT 1 1 1 1 1 1
WIDTH 562
HEIGHT 1
VIEWPOINT 0 0 0 1 0 0 0
POINTS 562
DATA ascii
-0.01032781029 0.002484057188 -0.07381790924 0.5098287519 0.4009703822 0.7611158889
0.005547851563 0.03150483131 -0.08043335724 -0.2705384109 0.004149184719 0.9627002402
-0.004441542149 -0.01805991173 -0.05261633682 -0.2016398029 -0.9294658549 -0.3089249333
0.005124901533 -0.01881428337 -0.04925240326 0.2473673065 -0.9414814537 -0.2289587038
-0.0006978546381 -0.02055699539 -0.02055586433 -1.30848348e-06 0.9470047027 -0.3212196958
0.01743938637 -0.009029053688 -0.05081605148 0.8555001903 -0.4853638785 -0.1803921557
-0.002178504229 -0.02045566177 -0.006706682205 -1.956965646e-06 0.9511830273 -0.308627362
0.007789963722 -0.01905562401 -0.0161299324 0.3848191618 -0.9229591222 0.007789190627
-0.005634217739 0.04374777603 -0.08040180969 0.2503145322 0.004837549636 0.9681524844
-0.008755178452 -0.01376912451 -0.05883938026 -0.4024678662 -0.8007652252 -0.4436154538
-0.0007255112529 -0.02054736137 -0.006989425659 -1.956965684e-06 0.9511830273 -0.308627362
-0.01158213711 0.001752603531 -0.07255849457 0.5432014167 0.421352287 0.7262192996
0.01410982513 0.01065958023 -0.07413601685 -0.6710835694 0.2064805182 0.7120481995
0.01157397032 0.01147546864 -0.07648308182 -0.5671308418 0.1953728852 0.8001200185
0.006342236519 -0.01956254959 -0.0176242981 0.3011083657 -0.9535751554 -0.005308023841
-0.004788965225 -0.02003218269 -0.02751224518 -0.2409356102 -0.9705030289 0.008596659638
0.001452007741 -0.02050151157 -0.006848053932 -6.124478732e-06 0.95118964 -0.3086069809
-0.004912997723 -0.01112550259 -0.06529439926 -0.2351580543 -0.7561916866 -0.6106347702
-0.01854640198 0.03164068985 -0.06952925873 0.8655154672 -0.004454399819 0.5008623907
0.009171955109 -0.00589675808 -0.06865124512 -0.4415779244 0.6096987435 0.6582373271
0.003638735294 -0.02023459435 -0.006025460243 0.2029032575 -0.979149474 -0.009827290646
-0.01812749004 0.01137904358 -0.06886832047 0.8874190298 0.1331853528 0.4413038945
-0.006272898436 -0.01576309967 -0.0570918293 -0.3040527549 -0.8627670101 -0.4039616423
0.009392315865 -0.01362509537 -0.05849360657 0.4596050581 -0.7826825154 -0.4197276147
-0.01009732723 -0.01795121574 -0.03378776932 -0.4940209961 -0.8693832641 0.01077012033
-0.006511176586 -0.01949928474 -0.008439296722 -0.314072847 -0.949390329 -0.004031121591
0.01112427855 -0.008138458967 -0.06465692139 0.5473940207 -0.6395421907 -0.5397643675
0.01434975624 0.02728129196 -0.07537071991 -0.6733526913 -0.006202662485 0.7392953943
0.005109600067 -0.0199275341 -0.005079012871 0.279200161 -0.9602087935 -0.006807572241
-0.002215993921 -0.004205019156 -0.07267805227 0.1007689345 0.6015422289 0.7924598215
-0.01969302559 0.005147768974 -0.06156266212 0.9977139965 0.02411275787 0.06312967722
-0.01996183968 -0.004899151802 -0.006606520653 0 0 1
-0.00952213192 -0.01822080421 -0.004558650494 -0.4684339398 -0.883406609 0.01274390979
0.01625559235 0.0553241539 -0.07322668457 0.7767963844 -0.0009631530681 -0.6297511013
-0.002413981557 -0.002871791482 -0.07363573456 0.09998868299 0.5558294928 0.8252610727
-0.003590903521 -0.02024850655 -0.01071383572 0.1885258388 0.9820039115 0.01123948111
-0.01283470535 0.01133114433 -0.0754753952 0.6326838289 0.2102853964 0.7453128368
-0.002149929285 -0.02046664429 -0.01137602425 2.926899871e-07 0.9498142994 -0.3128143164
-0.0139757843 -0.01506010818 -0.004357256413 0.7056382117 0.6799079417 -0.1994991355
0.01581360435 -0.01317694473 -0.02871455574 0.7060459098 -0.6748252621 0.2147324823
0.003675146639 0.02753881216 -0.08084052849 -0.1888228219 0.008409031863 0.9819751678
-0.006175831318 -0.01223391533 -0.06319640732 -0.2826102325 -0.7806673258 -0.5573957148
0.007893509865 -0.01900881195 -0.01152992916 0.3903156908 -0.9206434727 0.008322121412
-0.01063449955 -0.01763288879 -0.01634414673 -0.4958357127 -0.8683982578 0.005604628609
-0.004878151536 0.0233205533 -0.08058834839 0.2496525404 -0.006690730378 0.9683123686
0.009686397552 -0.01742387772 -0.04742633438 0.4745972114 -0.8624472578 -0.1759039922
-0.0007160483599 -0.02055065727 -0.01163126564 -1.961069614e-06 0.9498066361 -0.3128375842
0.009774210453 0.01944873238 -0.07865723419 -0.4774645513 0.03481772586 0.8779608922
-0.01626749706 0.02345536327 -0.07314495468 0.7930912877 0.01307928981 0.6089623483
0.01546156025 0.001208434939 -0.068125 0.742200772 -0.3842244564 -0.549098881
0.01160253334 0.01530262566 -0.07720772934 -0.5697271829 0.1185188331 0.8132430284
-0.006105075359 -0.01964720345 -0.03051994705 0.2860743884 0.9582000531 -0.003755329532
0.003590903521 -0.02024850655 -0.01071383572 0.1964523343 -0.9804723849 0.00896564889
0.003823962927 -0.002434533874 -0.07366240692 -0.1941296314 0.5506229341 0.8118670277
-0.01636360931 0.06044729996 -0.07306565094 0.7780201035 -0.0304839568 0.6274993601
0.001432988822 -0.02050865078 -0.01150364494 -7.778647086e-06 0.949819282 -0.3127991873
-0.01551020241 0.01926561356 -0.07406851196 0.7572317369 0.03278412209 0.6523230013
-0.008776124001 0.04146960068 -0.07920336914 0.4190243424 -0.001085266303 0.9079743513
0.003498968124 -0.02027524567 -0.01972517776 0.1911714978 -0.9815212599 0.008335153282
0.006511176586 -0.01949928474 -0.008439296722 0.3088800427 -0.951090177 -0.004538102807
0.01361156368 -0.01464087486 -0.04741633224 0.6510145764 -0.743620878 -0.1523417575
0.006425580978 -0.01953133965 -0.01309299088 0.3049712463 -0.9523488394 -0.004922090699
0.01838494492 0.02540055752 -0.06987387466 0.8571992067 0.002850097612 -0.514977084
-0.001853891969 -0.01387470436 -0.06231167221 -0.07943073486 -0.8343180569 -0.5455310608
0.01173713446 0.02521680737 -0.07752058792 -0.5818390481 -0.004697477095 0.8132903884
-0.01439983559 -0.007825379372 -0.06089369583 0.6941842066 0.5830312439 0.4221171117
0.005532092094 0.02927176476 -0.08043946838 0.2701436595 0.002643858272 -0.9628163964
0.00952213192 -0.01822080421 -0.004558650494 0.4684339398 -0.883406609 0.01274390979
0.01159979439 0.0595736351 -0.07755322647 0.5674525683 0.003811440746 -0.8233972648
-0.01808461571 -0.00980143261 -0.03880896378 0.8897035473 0.4564110731 0.01079491859
0.01786652946 -0.01017614555 -0.0166218605 0.8792705877 -0.4762696238 -0.007104859231
0.01108331203 -0.01730910301 -0.001791954756 -0.50457128 0.8632864377 -0.01201456579
0.003544331551 -0.02026205063 -0.01527874756 0.1938783466 -0.9809852196 0.008898631125
-0.01818458557 0.003502224088 -0.06489488602 0.8558887622 0.2939641334 0.4254873853
0.001414505929 -0.02051380634 -0.01603186846 -8.347810812e-06 0.9484315139 -0.3169821184
0.01344286156 -0.0135980072 -0.05175365448 0.652445449 -0.7162887126 -0.2474781128
-0.01251471519 -0.0163361454 -0.003538213491 -0.5815394135 -0.813481331 -0.007748209289
-0.01092924309 -0.01742259979 -0.00678655386 -0.507919547 -0.8613913383 0.004764032017
0.01420083904 0.01918350506 -0.07545186996 -0.6740231293 0.04060715829 0.7375933025
0.009268792152 -0.01835548782 -0.01406658363 0.4559681256 -0.8899080348 0.01252030323
-0.009393731117 -0.01828906631 -0.009377570152 -0.4623028762 -0.8866275564 0.01294707746
-0.006649307251 0.01335007763 -0.07937814331 -0.3221675297 -0.170788319 -0.9311495223
-0.008286088943 0.05567227173 -0.07942343903 0.4114670567 0.004783923889 0.9114120777
0.01591817474 -0.009448710442 -0.05510141373 0.7570365526 -0.5839119017 -0.2931595966
-0.01157397032 0.01147546864 -0.07648308182 0.5619354867 0.2059454328 0.8011335641
-0.007893509865 -0.01900881195 -0.01152992916 -0.3903156908 -0.9206434727 0.008322121412
-0.004260077238 -0.02012110519 -0.01485702562 0.2076007152 0.9779677862 0.02193062397
0.01412364769 0.003231242061 -0.07100400543 0.6703257701 -0.3709209108 -0.6427138087
-0.002122179031 -0.02047374535 -0.01591194439 -2.636214265e-06 0.948418719 -0.3170203991
-0.01734954071 -0.00841662693 -0.05268082428 0.8524181387 0.4785980716 0.2105402636
0.01523431015 -0.01385529804 -0.009827413559 0.7056588008 -0.6788700523 0.2029312911
0.0142154541 -0.01486733627 -0.03322979355 -0.7061703402 0.6737837288 -0.2175751306
-0.01361156368 -0.01464087486 -0.04741633224 0.670259681 0.7295797361 0.1358873387
-0.0007068328261 -0.02055386734 -0.01615179253 -2.636214338e-06 0.948418719 -0.3170203991
0.004975822926 -0.01998015976 -0.01443530369 0.2213949255 -0.974947863 -0.02146978055
0.009393731117 -0.01828906631 -0.009377570152 0.4623028762 -0.8866275564 0.01294707746
0.01092924309 -0.01742259979 -0.00678655386 0.507919547 -0.8613913383 0.004764032017
-0.005442559242 0.01572278881 -0.08014477539 0.2599055869 0.1058676228 0.9598130716
0.003700864196 -0.01293959093 -0.06327458954 0.1696530437 -0.8123539886 -0.5579416117
0.01251471519 -0.0163361454 -0.003538213491 0.5815394135 -0.813481331 -0.007748209289
-0.01234143448 -0.01646266556 -0.008488924026 -0.5961768496 -0.8027373449 -0.01363521232
0.01819290733 0.0172370739 -0.07000054169 0.8919718902 -0.04328431122 -0.450014017
0.005417471647 -0.01984709072 -0.03108432293 0.2880465973 -0.9576145143 0.001897297628
-0.01077945232 -0.01753294563 -0.01164246368 -0.5020305523 -0.8648342434 0.005201529998
-0.01505729771 -0.0006719369243 -0.06725398509 0.7392479247 0.4156458394 0.529859455
-0.01083322239 0.0517901535 -0.07807029724 0.5385403472 0.0028540308 0.8425948902
-0.009268792152 -0.01835548782 -0.01406658363 -0.4559681256 -0.8899080348 0.01252030323
-0.007789963722 -0.01905562401 -0.0161299324 -0.3668884459 -0.9302486131 0.005512353039
0.00718647337 0.02938389651 -0.07988087972 -0.3539317122 -0.01504318139 0.9351502798
-0.006342236519 -0.01956254959 -0.0176242981 -0.3064088297 -0.951888588 -0.004663166556
-0.004911752701 -0.02000144196 -0.01891785049 -0.2370964774 -0.9713083966 -0.01858115064
-0.002403691977 0.007401157975 -0.07882159615 0.1155311313 0.3190538746 0.9406684766
-0.0143803916 -0.01433926535 -0.04487199402 -0.6949005189 -0.7130855682 -0.09285602478
0.0072847054 0.01740355682 -0.07969678497 -0.3644875328 0.08010200993 0.9277567065
-0.02020056915 0.03393182755 -0.06453610992 0.9977146973 0.02411712849 0.06311693017
-0.006891745567 0.04325803947 -0.07998987198 -0.3246558962 0.0006104552696 -0.9458320022
-0.003498968124 -0.02027524567 -0.01972517776 -0.1778224457 -0.9840297391 0.008040545156
-0.01225723712 0.03115353076 -0.07712351481 0.605646851 -0.01085156353 0.79565956
-0.002095221758 -0.02047692108 -0.02031967926 -0.07856685273 -0.9967104808 0.01988635478
-0.01085532665 0.05342405701 -0.07805669403 -0.5361585962 0.001406095456 -0.8441160955
0.004911752701 -0.02000144196 -0.01891785049 0.2179146664 -0.9757259244 -0.02172828946
-0.008525180578 -0.004099866271 -0.07058452225 0.3895380592 0.5806008082 0.7149565035
0.01077945232 -0.01753294563 -0.01164246368 0.5020305523 -0.8648342434 0.005201529998
0.01009732723 -0.01795121574 -0.03378776932 0.4940209961 -0.8693832641 0.01077012033
0.01234143448 -0.01646266556 -0.008488924026 0.5734258777 -0.8192283102 -0.006909307782
0.01808386612 -0.009806144714 -0.038820755 0.8896800404 -0.4564628629 -0.01053947203
0.0139757843 -0.01506010818 -0.004357256413 -0.7056382117 0.6799079417 -0.1994991355
-0.01047687054 0.02546859932 -0.07829689789 0.5143439294 0.005121896007 0.8575687077
-0.01546597576 -0.01356408215 -0.004529568195 0.7056005494 0.679821017 -0.1999281112
-0.004379529953 -0.01602597809 -0.05773962402 -0.1839886797 -0.883381804 -0.431027556
-0.01450546026 -0.01455279541 -0.00962631464 0.7057103511 0.678862895 -0.2027759111
-0.01435888386 -0.006984545708 -0.06208776093 0.6924004521 0.5576370206 0.4578455713
-0.01217294121 -0.01658569145 -0.01330287266 -0.5867592009 -0.8096383428 -0.01412069506
0.005529957294 -0.01106195641 -0.06514969635 0.2774113976 -0.7492651736 -0.6013689518
-0.009147171021 -0.01842014503 -0.01863104439 -0.450007574 -0.89294692 0.01178903475
0.007448424021 0.008993554751 -0.07802224731 -0.3764147623 0.2682202387 0.8867749603
0.007376015425 0.02745962334 -0.0798079834 -0.3649298802 -0.005026290254 0.9310214385
-0.007689131737 -0.01910120964 -0.02060938072 -0.36948802 -0.9292212591 -0.005143419193
-0.006261052132 -0.01959295082 -0.02203815269 -0.2969485764 -0.9548768028 -0.005642201501
0.009238718987 -0.009083460331 -0.06525088882 0.4396125345 -0.6782136422 -0.5888693192
-0.00595687151 -0.01969652939 -0.03857989502 -0.2636541447 -0.9645088546 -0.01446241559
-0.004849573135 -0.02001700974 -0.02327005386 -0.245857505 -0.9693057082 -0.0007288941389
0.01449277973 0.03489685059 -0.07523101044 -0.6824874134 -0.005417405543 0.7308772689
-0.003454765558 -0.0202881012 -0.02405784225 -0.178311139 -0.983974155 5.60821579e-06
0.01168117332 0.02154576302 -0.07756272125 -0.580390656 0.01151280799 0.8142568033
-0.004363043785 -0.01526583672 -0.05918550873 -0.1812994027 -0.8664479539 -0.4651864892
-0.002068948984 -0.02048001671 -0.02461546516 -0.08889006203 -0.9960001652 0.009067950579
0.0172701664 -0.007746022701 -0.0543777504 0.8427780309 -0.4773921049 -0.2486402398
-0.0006891044974 -0.02056004333 -0.02484808731 -8.387250663e-07 0.9455740963 -0.325406866
0.001379026741 -0.02052003002 -0.02473177624 -3.948271774e-06 0.9455811367 -0.3253864069
-0.01060548115 -0.01170532608 -0.06038737869 -0.5183153638 -0.7270695565 -0.4502433161
0.01331146145 -0.0123024931 -0.05531650925 0.6565654399 -0.6884649185 -0.3081199103
0.003454765558 -0.0202881012 -0.02405784225 0.1820357603 -0.983273862 0.005957705279
0.004849573135 -0.02001700974 -0.02327005386 0.2310354336 -0.9729448621 -0.0009611343078
-0.006762450457 -0.01043279934 -0.0652480011 -0.3317815653 -0.7322523958 -0.5947498817
-0.0006191247106 0.03703346252 -0.08118351746 0.07342189459 -0.004677684299 0.9972900003
0.006261052132 -0.01959295082 -0.02203815269 0.2969485764 -0.9548768028 -0.005642201501
0.007689131737 -0.01910120964 -0.02060938072 0.36948802 -0.9292212591 -0.005143419193
0.009147171021 -0.01842014503 -0.01863104439 0.450007574 -0.89294692 0.01178903475
0.01492222118 0.05753736496 -0.07472521973 0.7293605316 0.002552970003 -0.6841247673
0.01063449955 -0.01763288879 -0.01634414673 0.4958357127 -0.8683982578 0.005604628609
-0.004615976334 -0.02007549286 -0.03962041855 0.2416158937 0.970307356 0.01119798519
0.01217294121 -0.01658569145 -0.01330287266 0.5649428376 -0.8250982017 -0.007248988853
0.01377661037 -0.01525029278 -0.009425215721 -0.7056613154 0.6790208454 -0.2024173892
0.003607704103 0.005195094228 -0.07781450081 -0.1863196344 0.3694902323 0.9103636428
0.01368620205 -0.006811000109 -0.0632270298 0.6597640984 -0.5728313636 -0.4863903406
-0.01703295517 -0.01158535576 -0.003331546307 0.8143625568 0.5652463778 0.1315680756
-0.01041735268 0.02107937431 -0.07833743286 0.5113673148 0.004807736815 0.8593487971
-0.01917179489 0.05565739822 -0.06813560486 0.8974223556 -0.009204254763 0.4410764076
0.01146106195 -0.01475920248 -0.05292051697 0.5698834423 -0.7721464675 -0.281109756
-0.01429873323 -0.01476881552 -0.01460873938 0.7057790384 0.6778940828 -0.2057560725
-0.0120090332 -0.01670536995 -0.01798582649 -0.5558458733 -0.831242861 -0.008406619655
-0.01049447536 -0.01771963882 -0.02088971519 -0.5226216713 -0.8525618057 0.002226244837
-0.0006009247303 0.009696220398 -0.07967169189 -0.02846026139 -0.2665953554 -0.9633882551
0.001212151483 -0.006342712998 -0.07104213142 -0.0591469645 0.6528444716 0.7551792718
-0.009028734207 -0.01848310852 -0.02307601929 -0.4147581682 -0.9099159868 0.005344048079
-0.002409898758 0.01347512698 -0.08038108444 0.1185186903 0.1696654574 0.9783490955
-0.007590903759 -0.01914561653 -0.02497311783 -0.3639652457 -0.9313980912 -0.005186096136
-0.00618200016 -0.0196216011 -0.02633643341 0.3081814567 0.9512906795 -0.008380506535
-0.002727506042 -0.02039183331 -0.02854244137 0.1561532616 0.9876296726 0.0142754569
0.009358613968 0.03702563477 -0.07894252014 -0.4686482907 -0.003497233071 0.8833779197
-0.000680573523 -0.02056301498 -0.02903282356 2.121563909e-06 0.944132189 -0.3295670034
-0.01434975624 0.02728129196 -0.07537071991 0.695970208 0.00366290034 0.7180613155
0.01538341808 -0.01368069267 -0.03769171524 0.7279865132 -0.6855880681 -0.002153492135
-0.01412364769 0.003231243014 -0.07100400162 0.6709227591 0.3704791851 0.6423455649
0.01170421505 0.0516695315 -0.07749780782 -0.5662680371 0.00406277196 0.8242111405
-0.01886183357 0.04377437973 -0.06883409119 0.8818375204 -0.002332412157 0.471547609
0.001361953884 -0.02052302456 -0.02891824722 4.918868741e-06 0.9441166714 -0.3296114543
0.003411677837 -0.02030063248 -0.02828121185 0.1705740854 -0.9853338455 -0.004657716247
0.005485482693 -0.0198268919 -0.02692433929 0.2913099367 -0.956598677 -0.007582345904
0.01844440651 0.02771722794 -0.06975404358 0.8599883896 0.004525136867 -0.5102935361
0.01677698421 0.003537708282 -0.06763990402 0.8202599815 -0.2911420169 -0.4923513875
0.007590903759 -0.01914561653 -0.02497311783 0.3679564194 -0.9298427123 -0.0007770162117
-0.008716316223 -0.002735076427 -0.07150655874 0.4221055422 0.5335403816 0.7329130729
0.009028734207 -0.01848310852 -0.02307601929 0.4443844531 -0.8957590435 0.01175558927
0.01049447536 -0.01771963882 -0.02088971519 -0.5169255011 0.8559330079 -0.01291170942
-0.01460348701 -0.01449886131 -0.0243104763 0.7059489701 0.6758852114 -0.2116960855
0.01352004433 0.05486659241 -0.07610272217 -0.6615612194 -0.01003637672 0.7498239954
0.009215974808 0.02501960945 -0.07902085114 -0.4601946358 0.0004886174389 0.8878179196
0.009576832294 0.05532541275 -0.07879681778 -0.4688740532 -0.001283479132 0.8832641026
0.0120090332 -0.01670536995 -0.01798582649 0.5558458733 -0.831242861 -0.008406619655
0.005836612225 -0.01937056351 -0.0452599144 0.2875403473 -0.9516812794 -0.1078113684
-0.0006722531319 -0.02056591225 -0.03311421585 -0.02970017883 -0.9993869546 0.01853683703
0.01358308887 -0.01543508053 -0.0143493681 -0.7057224695 0.6780442647 -0.2054550344
-0.02024828911 -0.003687351942 -0.02727848816 0 0 1
0.01703295517 -0.01158535576 -0.003331546307 0.8139246721 -0.5664756453 -0.128965001
-0.004613907019 0.007780399323 -0.07854932149 0.2104630573 0.3127120925 0.9262377928
-0.01677230072 -0.01193565559 -0.008753694534 0.7719778892 0.6147500472 0.1616555535
-0.01694565201 -0.002862016678 -0.06213378906 0.8269328799 0.4170475189 0.3771649229
-0.01082721996 -0.01532107544 -0.05260924911 -0.5285043689 -0.8005945813 -0.282367577
0.01035502625 0.01554290581 -0.07802076721 -0.48414174 0.1084764099 0.8682393933
-0.01339521694 -0.01561275864 -0.01913043976 0.6263311506 0.7770972917 0.06187963355
0.01562946033 0.02516622925 -0.07398403168 0.75451214 0.008436143794 -0.6562318661
0.009762803078 -0.01780254745 -0.0447832756 0.4788122911 -0.868773633 -0.1263770728
-0.0125310297 -0.01630356169 -0.02316128731 -0.6142154037 -0.7890901803 0.008724976793
-0.008272403399 0.001648864945 -0.07455766805 0.4057707939 0.4425504188 0.7996869323
-0.01035812378 -0.01780411148 -0.02531605339 -0.4979987391 -0.8670034063 0.01738819541
-0.01582615471 -0.008331727982 -0.05733231926 0.7657051295 0.5495916298 0.3341327507
-0.00891335392 -0.01854444885 -0.02740629959 -0.4387004644 -0.898566254 0.01098133576
0.008149003029 -0.01466690826 -0.05772893524 0.4054479292 -0.8146884886 -0.4146017888
-0.01812271881 0.009565742493 -0.06825632477 0.8930295385 0.1590172413 0.4209652721
-0.007495296001 -0.01918724632 -0.02922108459 -0.3591417541 -0.9332643373 -0.005905686186
-0.01787456131 -0.01012514591 -0.01648383904 0.879390218 0.4760128132 0.009200327865
-0.008491267443 -0.0005804469287 -0.07311623001 0.4258734907 0.4874096432 0.7622752847
0.01847135925 -0.009099108696 -0.005174262047 0 0 1
0.01879757595 0.04130257607 -0.06897570801 0.8791219152 0.001231165407 -0.4765953656
-0.01022545624 -0.01615181541 -0.05124221992 -0.5111291264 -0.82205984 -0.2509275506
-0.000632832408 -0.01833049583 -0.05331045914 -0.05555291728 -0.9459865213 -0.3194109812
-0.004729867935 -0.020046978 -0.03164869881 -0.2434280813 -0.9698753047 0.009201224877
0.01902681923 -0.007824683666 -0.02246133614 0 0 1
-0.002694007158 -0.02039941502 -0.03264398193 0.1543093933 0.9879128248 0.01472622437
0.001202369392 0.001766594321 -0.0765381813 -0.05376803085 0.4596525632 0.8864696949
0.01054175758 -0.01005602074 -0.06285573196 0.5125637691 -0.6878815097 -0.5139040875
0.01559554386 -0.01343229389 -0.03326507187 0.7061670945 -0.6737553181 0.2176736225
-0.01622031403 0.05364191437 -0.0732758255 0.7763064556 0.01226622158 0.6302363262
0.001345302701 -0.02052594471 -0.03300132751 0.06916634598 -0.9975735093 0.007944186117
-0.006722278833 0.02364914322 -0.08005770111 0.3273487637 0.009188043287 0.9448589137
0.003369662046 -0.02031285286 -0.03239952469 0.1686137056 -0.9856706216 -0.00477954553
-0.0006025445461 -0.00191791153 -0.07444068146 0.007754859479 0.5565792417 0.8307583342
0.01156434917 0.005586376905 -0.0744819603 -0.5697550714 0.3313695288 0.7520461382
-0.01547491121 0.01716496754 -0.07395809174 0.7590351068 0.0637075952 0.6479251878
0.007495296001 -0.01918724632 -0.02922108459 0.3692680601 -0.9293229153 0.0001370870187
0.00891335392 -0.01854444885 -0.02740629959 0.4233115191 -0.9059508949 0.007767484364
-0.01492313671 -0.01333117676 -0.04763629913 0.709273713 0.6907366831 0.1407609134
-0.006204384327 -0.01345962572 -0.06132854462 -0.3095792112 -0.8026509019 -0.5098158899
0.01035812378 -0.01780411148 -0.02531605339 0.5094161079 -0.8604344553 0.01215635803
0.005228923321 -0.01978848648 -0.0426489296 0.284319115 -0.9564640054 -0.06587296286
0.01184951878 -0.01682184029 -0.02254322815 -0.5545344824 0.8321092196 -0.009260366209
-0.01687778664 -0.0009962486625 -0.06407833099 0.8117596746 0.3864274141 0.437858521
-0.006996125221 0.05528917313 -0.07993030548 0.342980743 -0.005348976711 0.9393272052
-0.01704527855 -0.01156649494 -0.0321931839 0.8176711364 0.5609267026 0.1295189056
0.01339521694 -0.01561275864 -0.01913043976 -0.6256285744 0.7800561778 0.01006212759
0.01753481293 0.0492909565 -0.07136017227 0.8633802699 -8.559362237e-05 -0.5045537655
-0.01440676975 -0.01468618679 -0.02883201408 0.7060539851 0.6748524838 -0.2146203513
0.01501437759 -0.01410255051 -0.01486811066 0.705740168 -0.6778936797 0.2058906852
-0.01986017513 0.001415509641 -0.05749546432 0.9977137796 0.02411511854 0.0631322033
-0.008964912415 0.03946481323 -0.07911899058 0.418377439 0.0009995934324 0.908272712
0.01677230072 -0.01193565559 -0.008753694534 0.8031151338 -0.5873111564 -0.1003577973
-0.009972018242 -0.01801990128 -0.03785905838 -0.4875797079 -0.8730035483 0.01143823309
-0.01847307014 -0.00908850193 -0.005144766331 0 0 1
-0.01652152634 -0.01226205158 -0.01397439766 0.7580704151 0.6381202631 0.1346542812
0.02029453278 -0.001380745173 -0.04956290817 0 0 1
0.008040014267 -0.01149622536 -0.0630525322 0.4066597912 -0.7451614619 -0.5285472637
-0.01169421959 -0.01693523216 -0.02698023224 -0.5740932865 -0.8185688575 -0.01902429965
-0.01022584248 -0.01788077164 -0.02961229515 -0.5016014317 -0.865033155 0.01066041559
-0.0006141933799 -0.01224480534 -0.06478048706 -0.04371297564 -0.7946757176 -0.6054582394
-0.008801597595 -0.01859599876 -0.03160354233 -0.4324969756 -0.9015892277 0.009123084523
0.01540628147 0.008915505409 -0.07215270233 0.7300148806 -0.2410589923 -0.6395067133
-0.005730705738 0.05742386436 -0.08036590958 0.2670085071 -0.004553183065 0.9636834157
0.01924742508 -0.00713176012 -0.04287433624 0.9020687093 -0.4273176149 -0.06059455156
-0.01713798523 -0.006254598618 -0.05734677505 0.8342871775 0.4600753728 0.3038018382
0.01652152634 -0.01226205158 -0.01397439766 0.7896234309 -0.60857143 -0.0783304025
0.003615342081 -0.0002261568233 -0.07511924744 -0.1766177933 0.4989026087 0.84847059
0.009111886024 0.01517175102 -0.07866291046 -0.4364566569 0.1199937329 0.8916877765
-0.00740278244 -0.01921800423 -0.03333518982 -0.3551421298 -0.9347926508 -0.006063638151
-0.006030056477 -0.01967217255 -0.03459978104 0.2874993865 0.9577083806 -0.01177966615
-0.006670624256 -0.003434544325 -0.07201630402 0.309836324 0.5775742735 0.7552545339
-0.01977263641 0.02079265213 -0.06628031158 0.9977142441 0.02411434479 0.06312515685
-0.01604778099 0.04539748001 -0.07350961304 0.7872958949 -0.0009990296698 0.61657455
-0.01657670021 -0.01216748524 -0.04115112305 0.8015929236 0.5978520639 0.004657744708
0.01303516769 -0.0159501915 -0.02829431915 -0.6480640535 0.7612751018 0.02175320541
-0.004672223091 -0.0200614109 -0.03568347168 -0.2436598704 -0.9697476983 0.0148077412
0.01288736439 0.01715374947 -0.07646992111 -0.6275626064 0.08267175825 0.774164424
0.009461061954 0.04561692619 -0.0788741188 -0.4675998278 3.70569543e-05 0.8839402693
-0.002661327779 -0.02040681076 -0.03664525795 -0.1596703068 -0.9871688593 0.001742485211
0.01356517363 -0.002641178846 -0.06753079224 0.6687043449 -0.4840319325 -0.5644002015
0.01757917404 -0.01068599606 -0.02206134796 0.8607483743 -0.5089696576 -0.007881868966
-0.0006641354561 -0.02056874084 -0.03709619522 0.03756903504 0.999275422 0.006099062636
0.01575483513 0.03122973061 -0.07384184265 0.7583410152 0.008406130742 -0.6518038367
0.001329057038 -0.02052879429 -0.03698495293 -0.06592725092 0.9978123566 0.004909028498
0.003328676939 -0.02032477379 -0.03641680527 -0.1676885961 0.9857672848 -0.01197476091
0.001244196177 -0.01547696495 -0.05969890594 0.04766911965 -0.8788182829 -0.4747695026
0.01604192924 -0.01288626862 -0.02395874214 0.7872545857 -0.6165078478 0.01217747655
0.005351139784 -0.01986679173 -0.03514162636 0.2888937923 -0.9572915208 0.01154647201
0.00740278244 -0.01921800423 -0.03333518982 0.3651473757 -0.930949725 -5.921720589e-05
-0.01220372558 0.003587796867 -0.07301009941 0.6017650221 0.3687015958 0.7084758228
0.008801597595 -0.01859599876 -0.03160354233 0.417339448 -0.9087327408 0.005708847053
0.01022584248 -0.01788077164 -0.02961229515 0.5016014317 -0.865033155 0.01066041559
0.01169421959 -0.01693523216 -0.02698023224 0.5750426793 -0.8179622903 -0.01623602985
0.01986017513 0.00141550979 -0.05749546432 0.9977137778 -0.02411514649 -0.06313222012
0.001313557953 -0.02050161266 -0.04079067039 0.02582998783 -0.9989702554 -0.03729933721
-0.01964720249 0.007240413904 -0.06308615303 0.9263586866 0.1894162977 0.3255473083
0.003289078951 -0.02032399178 -0.04030282211 0.1242450907 -0.9918108883 -0.02956889204
0.01321254063 -0.01578528309 -0.02377934647 -0.6182908841 0.7858814946 0.01032759043
-0.01046378899 -0.007435553551 -0.0661060257 -0.5109304425 -0.6318720105 -0.5828274576
0.01444238853 -0.008659622192 -0.05966800308 0.6754526877 -0.6109952656 -0.4128540323
0.01480567837 -0.01430632305 -0.01966312408 0.7058368564 -0.6768982459 0.2088135457
0.01964720345 0.007240414143 -0.06308615112 0.9263588481 -0.1894156212 -0.3255472422
0.003547281742 -0.01634741974 -0.05741790517 0.1726079415 -0.8919249384 -0.4179430616
-0.005596388817 -0.0143638773 -0.06026722336 -0.2786588665 -0.8294628601 -0.4840873886
-0.01816886902 -0.009615393639 -0.01090803623 0 0 1
-0.01616016769 -0.01134160519 -0.04963359451 0.7854194538 0.5901015946 0.1868057539
-0.01627817917 -0.01257877731 -0.01904042816 0.8049293879 0.5932594491 -0.01148506269
0.01540756655 0.007174821138 -0.07146262741 0.7346578847 -0.2664232465 -0.6239362517
-0.005547837734 0.03150444984 -0.08043395233 0.2592723398 0.01819483315 0.9656328504
-0.01303516769 -0.0159501915 -0.02829431915 0.6480640535 0.7612751018 0.02175320541
-0.01675294685 0.005699072599 -0.06890179825 0.8142093055 0.2646726251 0.5167316599
-0.01154296303 -0.01704567146 -0.03130170441 -0.5661479851 -0.8240901381 -0.01875908434
-0.00869271183 -0.01864525414 -0.03569337463 -0.4266354483 -0.9043343464 0.01271157452
0.01542757273 0.00384400034 -0.06979809952 0.7399405934 -0.3289311938 -0.5867641673
-0.007312540531 -0.01924800491 -0.03734829712 -0.3513657491 -0.9362377036 0.001035775546
-0.01275448799 -0.01072697163 -0.05916340129 -0.6140311787 -0.6733307906 -0.4118147133
0.01832658768 0.02310682487 -0.06998377991 0.8552594416 -0.001415856184 -0.5181981117
-0.002629882813 -0.02039484501 -0.04049742699 -0.1266246922 -0.9915781668 -0.02718320016
0.01704527855 -0.01156649494 -0.0321931839 0.816440911 -0.5644558968 -0.1217118702
0.003408872207 0.009636474609 -0.07936463674 -0.1694397703 0.2671367264 0.9486454204
-0.01763088036 0.05347348404 -0.071213974 0.863823947 0.004860526353 0.5037703484
-0.005601351738 0.03908942032 -0.08041403961 0.2753025987 -0.001869140613 0.9613558058
-0.0006564292312 -0.02053752708 -0.04088930893 0.001490784257 -0.9991942779 -0.0401070138
0.001235816389 -0.01389390469 -0.06235716438 0.04835108221 -0.8325932963 -0.5517704013
-0.0006177408099 -0.01391310501 -0.06240265656 -0.05687116395 -0.8394748717 -0.5404142953
0.007252524257 0.01158460331 -0.07878841972 -0.3555741223 0.2046252487 0.9119734378
-0.01848501015 0.02927910805 -0.06966455841 0.8619875889 -0.003674013732 0.5069160663
0.005286423922 -0.01988601112 -0.03910015678 0.2836179743 -0.9588697939 -0.01138257726
0.01569986534 -0.006308771133 -0.0605811882 0.7608016669 -0.5133519683 -0.3970523646
-0.002406922519 0.01158314133 -0.08002342987 0.1177081345 0.2135592907 0.9698129843
0.003786954403 0.05138427544 -0.08080978012 -0.1621675572 -0.008689575256 0.9867249742
0.01744021988 0.04517261887 -0.07150413513 0.8590625831 0.01476043669 -0.5116577057
0.01095450401 -0.01645677567 -0.0485033493 0.5318255553 -0.822279189 -0.2025302794
0.007312540531 -0.01924800491 -0.03734829712 0.3622051795 -0.9320803668 0.005796357404
-0.003051454306 -0.009527276039 -0.06774473572 -0.1633890437 -0.7242548015 -0.66989477
-0.006331049681 -0.01713060951 -0.05371994781 -0.310152535 -0.8943997357 -0.3222646704
-0.0006005674005 0.004486876965 -0.07785721588 -0.0253660377 -0.3911121653 -0.9199933903
0.01154296303 -0.01704567146 -0.03130170441 0.5661479851 -0.8240901381 -0.01875908434
0.01627817917 -0.01257877731 -0.01904042816 0.8024547145 -0.5966247724 0.01026217127
0.003443227212 0.02145087814 -0.0808907547 -0.1551788602 0.01371928235 0.987791123
-0.0006125780344 -0.01139100456 -0.0658992157 -0.03561334024 -0.7790326506 -0.625971101
0.01816346359 -0.009649298668 -0.01100104332 0 0 1
-0.01604192924 -0.01288626862 -0.02395874214 0.7885231873 0.614826515 -0.01481686943
0.01941317177 -0.006817781925 -0.01583297253 0 0 1
-0.006731628418 -0.008655279636 -0.06730153275 -0.3190699867 -0.6950942686 -0.6442346633
-0.01286518383 -0.01608841324 -0.03262875366 0.6388548392 0.7690152763 0.02190888276
-0.01139558887 -0.01715327835 -0.03551226044 -0.5303488687 -0.8477612868 0.005556801373
-0.01343606091 0.04993053818 -0.07617819977 0.6521865318 0.004630472624 0.7580443829
0.008494477272 -0.0185966053 -0.04319200897 0.4116723206 -0.9076162825 -0.08221060914
0.01423423004 -0.003351229906 -0.06613261414 0.6775470484 -0.501112012 -0.5383463093
-0.008586500168 -0.01869329834 -0.039682724 -0.4074854032 -0.9129992895 -0.01969628282
-0.007227524281 -0.01923337173 -0.04114539337 -0.3437513052 -0.9381444816 -0.04147254277
-0.01839104462 -0.002213454306 -0.05922316551 0.8530103847 0.3970883793 0.3386651778
-0.001873503447 -0.01621672058 -0.05820958328 -0.08201600899 -0.8952677851 -0.4379143378
-0.002240823706 -0.01015536245 -0.06714763641 -0.1043494076 -0.7502685887 -0.6528462651
0.009242201805 0.0272305212 -0.07900772476 -0.4419431062 0.002867074115 0.8970385002
-0.0058902812 -0.01963504791 -0.04223332977 -0.2749384671 -0.9599451053 -0.05398364751
-0.004901566267 -0.01023965311 -0.06633317566 -0.2401034978 -0.7457813869 -0.6214180825
-0.004567565441 -0.01994192505 -0.04306452942 -0.2332489326 -0.9702515832 -0.06485985448
0.01847204018 -0.003471362114 -0.05737411118 0.8634796282 -0.4070833327 -0.2978021018
-0.002603434443 -0.0202124691 -0.04379740334 -0.1124140629 -0.9899112641 -0.08624829087
-0.0006499735117 -0.02033658981 -0.04413365936 0.001365476722 -0.9950729899 -0.09913566628
0.003255593061 -0.02015876007 -0.04365187454 0.1301756336 -0.9871079717 -0.09312441504
0.001204472125 0.01342085671 -0.08047500229 -0.06244607776 0.1738513888 0.9827899989
0.001300624669 -0.02030138397 -0.04403829575 0.04741783285 -0.9935758355 -0.102755089
0.001201637983 0.003393829823 -0.07733917236 -0.04055837041 0.4273978662 0.9031534103
-0.002404183507 0.003441473126 -0.07724869537 0.102440276 0.4229868065 0.9003266915
0.007227524281 -0.01923337173 -0.04114539337 0.3535601144 -0.9347114484 -0.03619051998
0.008586500168 -0.01869329834 -0.039682724 0.4045484312 -0.9144068299 -0.01416743636
0.009972018242 -0.01801990128 -0.03785905838 0.4875797079 -0.8730035483 0.01143823309
0.01139558887 -0.01715327835 -0.03551226044 0.5581054925 -0.829547672 -0.01920726636
0.009492008209 0.007490705649 -0.07653900146 -0.4743336944 0.2966730446 0.8288501981
0.005442559242 0.01572278881 -0.08014477539 -0.2887943538 0.1283386748 0.9487502336
0.00362992835 0.01751585913 -0.08070583725 -0.1814059514 0.07732503175 0.9803635654
0.01690199089 0.02173946762 -0.07232325745 0.82722577 -0.01390381128 -0.5616976139
0.01479563141 0.05086345673 -0.07487431335 0.7174405179 0.004680642718 -0.6966040445
0.01286518383 -0.01608841324 -0.03262875366 -0.6388548392 0.7690152763 0.02190888276
0.01440676975 -0.01468618679 -0.02883201408 -0.7060539851 0.6748524838 -0.2146203513
0.0160694828 -0.01076924133 -0.05163029099 0.772292207 -0.5977845758 -0.2149845298
-0.01758421898 -0.01065359116 -0.02197481537 0.8607055592 0.5090236595 0.008991908921
-0.01581360435 -0.01317694473 -0.02871455574 0.7060459098 0.6748252621 -0.2147324823
-0.002458476305 -0.01217790031 -0.06462611008 -0.1081069114 -0.7936898054 -0.5986396149
-0.01659417057 -0.008597366571 -0.05473958206 0.7819047321 0.5548825861 0.2841307896
0.008183157921 -0.01538710308 -0.05616506958 0.3807366328 -0.8448006986 -0.3759672806
-0.0142154541 -0.01486733627 -0.03322979355 0.7061703402 0.6737837288 -0.2175751306
0.007301811099 0.01948598862 -0.07979421043 0.3506102021 -0.03551485888 -0.9358478407
-0.01270117664 -0.0162096653 -0.03681542206 -0.6149810995 -0.7885260245 0.004995586473
-0.01125282764 -0.01724981308 -0.03959397888 -0.5273087785 -0.8496458451 -0.006884038085
-0.01158610249 0.01335944939 -0.07688955688 0.5709125634 0.1541340361 0.8064127627
-0.002684378227 -0.01437033812 -0.06135612742 -0.1287718488 -0.8468677176 -0.5159775963
-0.009855933189 -0.01802111244 -0.04165449524 -0.4831638715 -0.8747796762 -0.03623798284
-0.008494477272 -0.0185966053 -0.04319200897 -0.4080280255 -0.9101773321 -0.07134672141
0.01156464434 0.009052026749 -0.07579811478 -0.5778650917 0.246376484 0.7780556304
-0.006496912479 -0.01920172501 -0.04480879593 -0.3399736553 -0.9343017342 -0.1072295816
-0.0045282197 -0.0196261673 -0.04594289017 0.2197546883 0.9656054388 0.1389748665
0.01371964264 -0.01499680424 -0.04475688934 0.671689043 -0.7346582816 -0.09545176173
-0.01700592804 0.02626459694 -0.07216507721 0.8380624791 0.009464607671 0.5454921653
-0.002581770241 -0.01986519432 -0.04658159065 -0.09056975484 -0.9827014703 -0.1615392825
-0.0006242566705 -0.01625750351 -0.0583100853 -0.06120506383 -0.8904735867 -0.450899913
0.01519080734 -0.01382252121 -0.04174313354 0.7205390259 -0.6923605643 -0.03821467307
-0.0006446837783 -0.01997245216 -0.04686821747 -0.008399034138 -0.9880788013 -0.1537196754
-0.01484274149 0.05334712982 -0.0748188324 0.7064841097 -0.00961346778 0.7076636094
0.001289945394 -0.01994216633 -0.04678729057 0.04978886098 -0.9871411478 -0.1518993865
0.01905388451 -0.007073438644 -0.04616685486 0.8986910027 -0.4302149066 -0.08526204151
0.003228333473 -0.01981850815 -0.04645681763 0.1416601727 -0.9758845076 -0.1660777626
0.0045282197 -0.0196261673 -0.04594289017 0.2163635813 -0.9665362447 -0.1378204934
0.003989742041 -0.01723995781 -0.05513755035 -0.1982557398 0.9094216915 0.3655774182
-0.004816957355 0.00309262383 -0.07661135483 0.2445379538 0.4192280043 0.8743277815
-0.01304824162 -0.007523278713 -0.06328784561 0.6270176682 0.600343619 0.4964235922
-0.006300646067 -0.01646362019 -0.05546327972 -0.2983755801 -0.8795640997 -0.3705927789
0.007789271116 -0.01866163635 -0.04521338844 0.3758384429 -0.9180428495 -0.1262647667
0.009855933189 -0.01802111244 -0.04165449524 0.4895097013 -0.8709546487 -0.04264096959
-0.01033342361 0.001405148983 -0.07324383545 0.5050042587 0.4293197922 0.7487691331
-0.001801872373 0.005635819912 -0.07827198792 -0.08758847022 -0.3537815898 -0.9312179372
-0.01103503132 -0.01688219452 -0.0460177002 -0.5362378205 -0.8295712293 -0.1557580669
0.01125282764 -0.01724981308 -0.03959397888 0.5530584782 -0.8326195942 -0.02951153901
0.01270117664 -0.0162096653 -0.03681542206 0.628603784 -0.7777078165 0.005275868065
0.003640524209 -0.006216225266 -0.07077320671 -0.1769719636 0.6424773546 0.7455895472
0.01848501015 0.02927910805 -0.06966455841 0.8619875889 0.003674013732 -0.5069160663
-0.01719877815 -0.007031864643 -0.05594635391 0.844245037 0.4611618925 0.273093439
0.01996183968 -0.004899151802 -0.006606520653 0 0 1
-0.01830330944 -0.000420889888 -0.06139032936 0.8608664844 0.3534433645 0.3660419158
-0.01828797531 0.02158913422 -0.0700565033 0.8509152781 0.001041462922 0.5253019179
-0.01420083904 0.01918350506 -0.07545186996 0.6884219022 0.02362788274 0.7249255187
-0.01254557896 -0.01629131699 -0.04080016327 -0.6069893748 -0.7938834502 -0.03623487854
-0.01941317177 -0.006817781925 -0.01583297253 0 0 1
0.005578297615 -0.01355784035 -0.06156126404 0.2735457188 -0.8104867188 -0.5179614063
-0.01730182838 -0.01117384624 -0.02731296921 0.8426342309 0.5384357886 0.007379325391
-0.01476274347 0.005170163631 -0.07128725052 0.716963176 0.3018326792 0.6283795334
-0.01466837597 -0.01163585949 -0.05371417999 0.7047749012 0.6535673931 0.2759384014
0.006906713009 -0.01565294933 -0.05682033157 0.3258762386 -0.8571259623 -0.398923253
-0.0131009903 -0.0088083601 -0.0615653801 0.6409294189 0.6203679429 0.4520543058
-0.01432416344 -0.006098720074 -0.06316621017 0.6909566531 0.544421497 0.4755882013
0.003703066468 0.03348964214 -0.08083184433 -0.1912852901 0.0003623081925 0.9815344143
0.0203439579 0.03759056854 -0.06366751862 0.9977138283 -0.02411362035 -0.06313200609
-0.01559554386 -0.01343229389 -0.03326507187 0.7061670945 0.6737553181 -0.2176736225
-0.01470635223 -0.01436173439 -0.03760063171 0.7062999839 0.6726581155 -0.2206159384
-0.0111310215 -0.01717744064 -0.04313566589 -0.5271663776 -0.8473290506 -0.06425799854
0.01001864847 -0.006305994034 -0.06758655039 -0.4840727746 0.611324312 0.6260640019
-0.01860829163 0.03402139282 -0.06939286041 0.8689959429 -0.003119654791 0.4948093764
0.003416553974 0.01376122888 -0.08029065959 -0.1564644611 0.1620601294 0.9742973811
0.0132995615 0.0419078331 -0.0763008728 -0.657123763 0.00531042786 0.7537639945
-0.004914265871 0.02918207741 -0.08057747269 0.2495629944 0.00308712274 0.9683536448
-0.008421328545 -0.0182903862 -0.04606910324 -0.4177716515 -0.896160102 -0.1495457083
0.0181561203 0.005075150013 -0.06597667694 0.8890628143 -0.2393666106 -0.3902190897
0.001254143983 -0.01695722008 -0.05669588661 0.04660916436 -0.9097937107 -0.412435437
-0.006446174622 -0.01881051445 -0.04744007874 -0.3262582128 -0.9263123475 -0.188417126
-0.007863193989 0.01169966602 -0.07858462143 0.3744068257 0.2091116393 0.9033780223
-0.004495542526 -0.01917655945 -0.04840493011 -0.1900433245 -0.9583025687 -0.2134003789
0.009207382202 -0.007745404243 -0.06678668976 0.4436961252 -0.6552274327 -0.6114006542
-0.01170836639 -0.006155673981 -0.06627984619 -0.5554832862 -0.5935670416 -0.5823370895
-0.01879337502 -0.006240205288 -0.05088695908 0.886362794 0.4324804638 0.1652926065
-0.002563371837 -0.01940717983 -0.04901281548 -0.1033956941 -0.9718728983 -0.211594896
-0.0006401359439 -0.01950750732 -0.04927727127 -0.03367160209 -0.9762411079 -0.214054952
0.001280780107 -0.01948062706 -0.04920641899 0.06438670066 -0.9731088506 -0.2211640062
-0.0006158742905 -0.01309247398 -0.06363193893 -0.05590796081 -0.8174767347 -0.5732417363
0.003205319405 -0.01936061287 -0.04889006424 0.1416152328 -0.9652051448 -0.2198275556
0.01559854889 0.02367122841 -0.07401908875 0.7454684435 0.001396238511 -0.6665394589
-0.004467092991 -0.01864509201 -0.0506019516 -0.2054636352 -0.9431735945 -0.2611671213
0.005792417049 -0.0189572773 -0.04782692337 0.2792814853 -0.9412998659 -0.1896217666
-0.01894853592 0.04710954666 -0.068643013 0.8853030798 -0.001589709461 0.4650117522
0.007099932194 -0.0186637516 -0.0470532341 0.3551972354 -0.9211962155 -0.158847274
0.01177542305 -0.01666141415 -0.04361862755 0.5626212636 -0.8237337454 -0.07014292842
0.01254557896 -0.01629131699 -0.04080016327 0.6211937691 -0.7827496215 -0.03770054723
0.01402928638 -0.01504277611 -0.03750954819 0.6610096213 -0.7502619929 0.01316140738
-0.01054175758 -0.01005602169 -0.06285573578 -0.5134741036 -0.6876497546 -0.5133051333
0.01730182838 -0.01117384624 -0.02731296921 0.8426342309 -0.5384357886 -0.007379325391
0.001223471448 0.02734777308 -0.08113965607 -0.05285377718 -0.001379932846 0.9986013088
-0.01902681923 -0.007824683666 -0.02246133614 0 0 1
-0.01452355957 -0.01448531723 -0.04162559319 -0.7045530226 -0.7086704663 -0.03729890802
-0.0124198246 -0.01614538765 -0.04410159302 -0.6153033491 -0.7834986619 -0.08678499541
-0.01813924408 0.01324836063 -0.06938372803 0.8529893606 0.1327958333 0.5047518374
-0.009686397552 -0.01742387772 -0.04742633438 -0.4612684662 -0.8696907045 -0.1756971273
-0.008360342026 -0.01785138321 -0.04853803253 -0.4166471233 -0.8849975512 -0.207808828
-0.00640259099 -0.01832123566 -0.04975982285 -0.3031955726 -0.9224698723 -0.2390016304
0.003680792928 -0.01124313974 -0.06556240463 0.182898953 -0.7673234717 -0.6146240012
-0.002547784388 -0.01884957314 -0.05113366699 -0.1033269699 -0.9566732543 -0.2722128244
-0.0006362897158 -0.01894417572 -0.05137966156 -0.03326092013 -0.9608390258 -0.2751037579
0.001273074985 -0.01891766453 -0.05131072235 0.06568987392 -0.956765033 -0.2833469818
0.003185708523 -0.01880799294 -0.05102555084 0.1246795519 -0.954460162 -0.2710365446
0.005490717411 0.02340420341 -0.08045365143 0.2685004741 -0.001119628086 -0.9632789014
0.01353393873 -0.008480699698 -0.06134148534 0.6506442441 -0.6070905621 -0.4561832056
0.005093658209 -0.01826576138 -0.05138663864 0.2515285189 -0.9307034304 -0.2655645474
-0.002408553302 -0.0003077126816 -0.07528067207 0.1090424786 0.5111895984 0.8525226873
0.007705631733 -0.01802092361 -0.04897890091 0.3787520884 -0.901003486 -0.211517313
0.01427616024 -0.004746002913 -0.06470610809 0.6747583617 -0.5283895942 -0.5152723456
-0.008870988528 -0.0110392402 -0.06303718567 -0.4350960194 -0.7306886142 -0.526104175
0.01103503132 -0.01688219452 -0.04601770401 0.5406207744 -0.8306064226 -0.1334996215
0.009984488805 -0.004410610914 -0.06933699799 -0.4905370501 0.5633705007 0.6648210897
-0.01869378281 -0.005654706001 -0.052793396 0.8775350355 0.4302576799 0.2116851209
-0.01446681881 -0.009055131435 -0.05899619484 0.6881562584 0.603939254 0.4021173232
0.01385631084 -0.01514811325 -0.04150805283 -0.6493673062 0.7588678912 0.04941280598
0.009587617874 0.02127746582 -0.07880759176 -0.4585240787 0.01422595428 0.888568113
-0.0186772728 -0.008658553123 -0.02848773575 0 0 1
-0.01680321693 -0.01190118217 -0.03681150055 0.7756453535 0.6136860859 0.1475251627
0.00766132609 -0.01293966262 -0.06116224289 0.3846955608 -0.7863029858 -0.4834634835
-0.01231844521 -0.01581086922 -0.04684593201 -0.5977672392 -0.7881117571 -0.1468134396
0.01763088036 0.05347348404 -0.071213974 0.8628330506 -0.01867758896 -0.5051438157
-0.01028792334 -0.01669757652 -0.04912119102 -0.5139579872 -0.8339542738 -0.2009165414
-0.00857586503 0.02338409805 -0.07930922699 0.3947868885 0.003096587653 0.9187675026
0.003611927152 0.001361203969 -0.07600469589 -0.191534295 0.4599256951 0.8670541902
-0.0164033432 -0.01210620308 -0.04457357407 0.79139991 0.6057403338 0.08224858994
-0.008308426857 -0.01731382751 -0.05070228577 -0.4143661996 -0.8719612463 -0.2607378714
-0.006364223719 -0.01776238537 -0.05185309219 -0.3322608232 -0.8999560168 -0.282279849
-0.01847204018 -0.003471362114 -0.05737411118 0.8673124849 0.4068850252 0.2867291923
-0.002533688664 -0.01824477291 -0.05309056473 -0.1025195408 -0.9449803564 -0.3106475009
-0.0006104672253 -0.01006328583 -0.06744205856 -0.02890985353 -0.7503927473 -0.6603597089
0.01869378281 -0.005654706001 -0.052793396 0.8785514669 -0.4285088703 -0.2110153268
0.01032781029 0.002484056711 -0.07381790924 -0.4964133307 0.4088305891 0.765788061
0.001266108334 -0.01830655098 -0.05324903107 0.04919743611 -0.9420703571 -0.3317876648
0.007132557551 0.02350341924 -0.07990144094 -0.3513463173 0.01302359335 0.9361549826
0.003690734148 -0.01209147739 -0.06442665482 0.1764921189 -0.7980984469 -0.57609843
0.003804767609 -0.01813342571 -0.05280493164 0.1879517054 -0.9326610979 -0.3079243947
0.009428236961 -0.01437982845 -0.05703072357 0.4633283788 -0.7991558233 -0.3829840511
0.01588310146 0.03743310165 -0.07369637299 0.7635348914 -0.00066585714 -0.6457662318
0.01074883699 -0.01433329058 -0.05524785042 0.5178176088 -0.7824373879 -0.345914235
0.007264394879 -0.0008066034839 -0.07356957054 -0.3638333121 0.50828314 0.7805597803
-0.006805323124 0.03326924133 -0.08002870178 0.319588159 -0.008894458033 0.9475148005
0.00700822401 -0.01763834 -0.0515348587 0.3379883581 -0.89934387 -0.2773886685
0.009621342659 -0.01693837738 -0.04973903275 0.47561181 -0.8481417879 -0.2333429104
-0.01755387688 0.05012096024 -0.0713311615 0.8653235358 -0.002023028477 0.5012096225
0.013154109 0.03335886383 -0.07643159485 -0.6315148709 -0.000637215095 0.775363503
0.01231844521 -0.01581087017 -0.04684593201 0.6024564135 -0.787459005 -0.130209774
0.01544660854 0.002252442122 -0.06881694031 0.7377579329 -0.3650930494 -0.5678206563
0.003627868652 -0.003783559799 -0.07273662567 -0.1890869266 0.5886121928 0.78599098
0.01899246788 0.04879502487 -0.06854450989 0.8869766906 0.002819880443 -0.4618055854
0.01680321693 -0.01190118217 -0.03681150055 0.8017268235 -0.5887659316 -0.1029017893
-0.01031775093 0.005230209351 -0.07515703583 0.5125643044 0.3405333284 0.7882352987
0.0186772728 -0.008658553123 -0.02848773575 0 0 1
-0.01546156025 0.001208434463 -0.068125 0.7435179578 0.3862342514 0.5458975632
-0.01210233212 0.04916705322 -0.07724312592 0.6006165452 -0.002465958764 0.7995334168
-0.01837236404 -0.009262928963 -0.03379150009 0 0 1
-0.0160694828 -0.01076924133 -0.05163029099 0.7893534349 0.5744512143 0.2166263078
-0.01287732744 -0.01475595951 -0.04946241379 -0.6159588334 -0.7575747375 -0.2160445155
-0.004340104342 -0.01409738541 -0.06123963165 -0.1830404923 -0.8380734782 -0.5139348434
-0.008888001919 -0.01623883724 -0.05319031143 -0.4362554512 -0.8445344682 -0.3105522714
-0.002429883331 0.02160228014 -0.08103509331 0.1114137824 0.01671398168 0.99363354
0.01618477821 0.05196538544 -0.07333220673 0.7748678546 -0.009182136935 -0.6320565609
0.00365312469 -0.008095091224 -0.06902597427 -0.1846740123 0.6887783217 0.7010562978
0.001232064903 -0.01307416344 -0.06358911896 0.04504133061 -0.8174016143 -0.5743046921
-0.004408709049 -0.01707615089 -0.05529334068 -0.1898697663 -0.9076373821 -0.374357923
0.0141470089 0.00112024954 -0.06969972992 0.6715471704 -0.4042054756 -0.621001072
-0.006634344101 0.008447717667 -0.07817293549 -0.3303466466 -0.2814301382 -0.9009262847
-0.003151808023 -0.01756757164 -0.0548259697 -0.1649746306 -0.9186535368 -0.3589694284
-0.001889693141 -0.01764303398 -0.05501691818 -0.07115776042 -0.9293738117 -0.3622166359
0.001259660989 -0.01766500378 -0.05507252312 0.07290257832 -0.929442479 -0.3616930913
0.005690754414 -0.0172495327 -0.05402097321 0.2947778375 -0.8942638263 -0.336746545
0.007616697788 -0.01686558437 -0.05304908943 0.3681973046 -0.878375034 -0.3047754001
0.009563975334 -0.01638282585 -0.05182709503 0.4712069927 -0.8411981964 -0.265234923
0.01088693714 -0.01592080498 -0.05065734482 0.5417622891 -0.8066078719 -0.2363839316
0.01223340321 -0.01535165882 -0.04921624756 0.5852599615 -0.783807011 -0.2076471693
0.01337292385 -0.01297957993 -0.05362282181 0.6528834761 -0.7027305002 -0.282688894
0.005713366508 0.05495785904 -0.08036917877 -0.2873650584 -0.004177528898 0.957812023
-0.005419151783 0.007091966152 -0.07812405396 0.2616267259 0.3321537789 0.906214833
0.01504114056 -0.01368172646 -0.04498709869 0.702231578 -0.7046090482 -0.1019651904
0.01657670021 -0.01216748524 -0.04115112305 0.8175811998 -0.5757074406 -0.01104195019
