# .PCD v0.7 - Point Cloud Data file format
VERSION 0.7
FIELDS x y z normal_x normal_y normal_z
SIZE 4 4 4 4 4 4
TYPE F F F F F F
COUNT 1 1 1 1 1 1
WIDTH 577
HEIGHT 1
VIEWPOINT 0 0 0 1 0 0 0
POINTS 577
DATA ascii
0 0.05993939209 -0.04006546783 0.03978064446 -0.0335373925 -0.9986454544
0.003194689751 0.01675146675 -0.01474306917 -0.1508330716 -0.9883425394 -0.020698049
-0.005301251411 0.05730493355 -0.04074520206 -0.2493329759 0.03154759842 0.9679038259
0.01140170574 -0.01710345078 -0.008540760994 0.544581995 -0.8386991871 -0.003758221584
-0.01158654499 0.05971930313 -0.0435681572 -0.6024885968 0.01714397647 0.7979433406
-0.002646224976 0.0570283947 -0.04019407463 0.1275148713 -0.01051197096 -0.9917809517
-0.008567011356 0.05757299296 -0.04194172796 -0.4359454996 0.01898358488 0.8997728296
0.003539739966 0.06009412956 -0.04036855316 0.1592216647 0.01595891479 0.987113861
0.008222866058 -0.01884454727 -0.003095734596 0.3503586353 -0.899302191 0.2617334444
0.01717517662 0.06058398819 -0.04932466507 0.8477041221 -0.01499057105 0.5302574886
-0.01342358875 0.06045529556 -0.04503024292 0.6703554568 -0.08207400949 -0.7374872328
0 0.01706422424 -0.01549804306 0.02561797501 -0.9996636045 0.004049346868
0.006385188103 0.01581386614 -0.01456922913 -0.4009933437 -0.9160167271 -0.01084868863
0.01214057986 0.05462861888 -0.04401434708 0.5746733022 0.006462621168 0.8183573977
-0.01688930893 0.04248231888 -0.04886070633 0.8192192249 0.002338277453 -0.5734757135
0.006204317093 0.06039971161 -0.04096698761 0.3275548437 0.01356430031 0.9447347957
0.008338220596 -0.01879583168 -0.008221647263 0.4002805683 -0.9163800633 -0.004800644615
0.01047690392 0.01344063282 -0.01937451553 -0.5963931487 -0.8026633821 -0.006834270411
-0.01147414827 0.04880264091 -0.04349683762 -0.590976301 -0.002207376778 0.8066858987
0 0.05696187782 -0.04006176567 -0.03092048412 0.007361473051 0.9994947385
-0.0167585144 0.006583720684 -0.0001483429819 0.8081330136 -0.3036816296 0.5046766294
-0.01721013451 -0.01042009258 0 0.4843160773 0.3239783571 -0.8126967216
0 0.01814554882 0 -0.09542592072 0.9049274036 -0.4147291742
0.003530407667 0.05711311626 -0.04036304092 0.1647282856 0.007596974361 0.9863097272
0.007079751849 0.05758746338 -0.04130837917 0.3253181528 0.007044256573 0.9455783827
0.00977525425 0.05919142914 -0.04252111816 0.4768488182 0.01997247102 0.8787583883
-0.01762541771 -0.01055667686 -0.008904082298 0.8472380001 0.5291134316 -0.04718842624
-0.01036947441 0.01352630329 -0.01528812313 0.6548709387 -0.7548347286 -0.03699440575
-0.01269480038 -0.01199764252 0 0.4157226929 0.3860449056 -0.8234949748
0.01250506687 0.06008729553 -0.04429919052 -0.6194785196 -0.0210640766 -0.7847309529
0.01191462135 -0.01678193474 -0.02518997574 -0.5889647291 0.8081320908 -0.006562897738
-0.01338744116 0.05743620491 -0.04500141335 -0.6364602495 0.01072206196 0.771234976
-0.01717517662 0.06058398819 -0.04932466507 0.824278836 -0.0451994008 -0.5643770147
-0.005232422113 0.04265705681 -0.04071219444 -0.2315025048 -0.00675628124 0.9728108464
-0.01438804913 0.009219351768 -0.04074512482 0.849437948 -0.5272029688 0.02263188457
0.009731864929 0.0542123909 -0.0424879055 0.487395475 0.004724769635 0.8731685562
0 0.008244225502 -0.07553760529 -0.05073257241 -0.2846162858 -0.9572981646
-0.01526328087 0.05935236359 -0.04684592819 0.7229105718 -0.01681957806 -0.690736858
0.01526328087 0.05935236359 -0.04684592819 0.7383029811 0.02018903141 0.6741669757
-0.008222866058 -0.01884454727 -0.003095734596 -0.3503586353 -0.899302191 0.2617334444
-0.01426742601 -0.01479876661 -0.02354797554 -0.6747350271 -0.7375743442 -0.02677181509
0.01561876297 0.00692416048 -0.02965032387 0.8415317686 0.5402030101 -0.002233887597
-0.01156590843 0.05771489716 -0.04355506134 -0.6035164162 0.005268319559 0.7973331676
-0.009587932587 0.03767076111 -0.04238723755 0.4686380335 0.03184274144 -0.8828161946
0.009757838249 0.05719284821 -0.04250778961 0.4769714158 0.02442327574 0.8785794057
0.01278025373 0.05752897135 -0.04451903025 0.6187202629 0.01042417522 0.7855422158
-0.005722155094 -0.01977414894 -0.03779615402 0.268230081 0.9632744986 0.01244443464
0.01755804062 0.008994552612 0 0.7578446655 0.3782714665 -0.5315845752
0.01519037914 0.00782663393 -0.01824913597 0.8826294563 0.4700693076 0.0002980504897
0.01556436825 -0.01346880054 -0.03603582382 0.7349205286 -0.6780550365 -0.01154054191
-0.01913920212 0.06036435318 -0.05299723816 0.8810843474 -0.0003805890876 -0.4729590129
0.009706041336 0.05124902344 -0.04246813965 -0.4816051044 -0.003633508488 -0.8763808082
-0.01523530865 0.05732814407 -0.04681214523 0.7160943104 -0.005440989094 -0.6979823309
0.01253263283 -0.01595074558 -0.04508106232 -0.624557665 0.7782654368 -0.06504331596
0.003511917055 0.05120667362 -0.04035212135 0.176978709 -2.811556124e-05 0.9842146797
-0.008521775723 0.05163628642 -0.04191466649 -0.437508922 -0.01295413095 0.8991207559
-0.01081871748 -0.01748287201 -0.01496822882 -0.50106156 -0.8653884028 0.006342353725
-0.009138091723 0.05440354665 -0.04220802943 -0.4606956447 -0.01588654174 0.8874159908
-0.01153513193 0.05472574806 -0.043535532 -0.5938107543 0.00027442577 0.8046046935
0.01712675571 0.05751789474 -0.04924607849 0.8464462744 -0.003193983902 0.5324645557
-0.005287288904 0.05433680725 -0.04073745918 -0.2316910051 0.009343191431 0.972744562
0.009604535103 0.03958599472 -0.04239610672 0.4881806012 -0.02137745192 0.8724807764
0.01707862663 0.05447023392 -0.04916796494 0.8467158133 0.007948970252 0.5319860387
0.01519359875 0.05430970764 -0.04676177406 0.7246472414 -0.01394544793 0.6889788821
-0.004619910955 0.01542196226 -0.07663696289 0.2495285545 0.1342882592 0.9590110343
0.01523530865 0.05732814407 -0.04681214523 0.7276310542 0.004318561123 0.6859550999
0.007061068773 0.05461364746 -0.04129881287 0.3636612213 -0.01511917767 0.9314085712
0 0.05400157166 -0.0400580864 -0.03094542349 -0.004009447187 0.999513034
0 0.01564966774 -0.07729032135 -0.01823155972 0.1435775431 0.989471121
-0.00739684391 -0.01922020531 -0.03973305893 -0.3460507702 -0.9378874126 -0.02482066935
-0.01150453186 0.05175373077 -0.0435161171 -0.5951174579 -0.004239844822 0.8036275475
0.00352112937 0.05414935684 -0.04035756111 0.1735875559 0.00236485898 0.984815601
-0.003215414047 -0.01775177701 0 0.1570150667 0.850073432 -0.502714063
0.005398436546 -0.01985065269 -0.01513604927 0.2401065888 -0.9707150029 0.007823632401
0.01913919449 0.06036428833 -0.05299710846 0.8810446112 0.0004888714589 0.4730329313
0.007276429971 0.04232209651 -0.04137719472 0.3562683713 -0.004673015286 0.9343719872
0.002424617529 0.01688419151 -0.01928328514 -0.1295961241 -0.9915553472 0.004778915332
-0.01515213108 0.05130882645 -0.04671169662 0.7103961169 -0.01332517751 -0.7036759174
-0.01908326817 0.05726106071 -0.0528766346 0.8803272841 -0.0004566342191 -0.4743665929
-0.01519359875 0.05430970764 -0.04676177406 0.7113150438 -0.004634197968 -0.7028580459
-0.01732855988 -0.01113293362 -0.03803069305 0.8212141508 0.4814069962 -0.3063570182
-0.01707862663 0.05447023392 -0.04916796494 0.8258972791 0.003919658957 -0.5638069888
-0.01335150433 0.05443473816 -0.04497275543 -0.6626209078 0.00376653195 0.7489454892
0.008224085808 0.009599184036 -0.07381912231 0.4768228924 -0.2577396038 -0.8403631512
0.007042526007 0.05166124821 -0.04128971386 0.3194995704 -0.0109771808 0.9475228367
-0.01373980045 0.02016267014 -0.07076057434 0.7588122702 0.04107098063 0.6500131638
-0.004070926666 -0.02018327904 -0.03636557007 -0.2238404495 -0.9745693214 -0.01049242332
-0.00263239181 0.05112620163 -0.04018604469 0.1274714506 -0.001561247754 -0.9918410113
-0.00527343297 0.05139002228 -0.04073018169 -0.2341856239 0.009769086353 0.972142818
0.008842817307 0.01460895252 -0.01796585846 -0.5023008276 -0.864656183 0.007972692827
0 0.04813942719 -0.04005080032 -0.03096436646 -0.004245030925 0.9995114745
0 0.05106228256 -0.04005443382 -0.03094089684 -0.004075821343 0.9995129057
0.01677351189 0.003207314014 -0.0195935936 0.9488868027 0.3154249957 -0.01099580886
0.01908318615 0.05726028061 -0.05287500572 0.8802586304 0.0005496057328 0.4744938793
-0.01331582499 0.05145480728 -0.04494430161 -0.636306274 0.007447844368 0.7714005803
-0.005812355995 0.0160671196 -0.03042815781 0.3337078678 -0.9424392603 -0.02114945916
0.009253488064 0.02168357754 -0.07492691422 -0.5769063326 0.0357135811 0.8160291805
-0.01902765465 0.0541765976 -0.05275627136 0.8787744511 -0.0005964343305 -0.477236952
0.006528390169 0.02717545605 -0.07637170029 0.3730502956 0.01481543488 -0.9276928262
0.01209841347 -0.01664864922 -0.03114895821 0.5987262838 -0.8009492943 -0.002658023932
-0.01703085232 0.05144509125 -0.04909042931 0.8230955434 -0.01633007314 -0.5676680853
-0.008791183949 0.04811139393 -0.04203637028 -0.4504717921 0.009303846595 0.8927421817
0.01897227764 0.05111376762 -0.05263322067 0.8653484213 -0.007415355695 0.5011158771
0.01186361504 0.0128172884 -0.07193793488 -0.6508403918 0.1473286171 0.7447825609
0.00601587081 -0.01964851475 -0.005513110399 0.3114710691 -0.9478017356 0.06824692689
-0.005259673119 0.04846029282 -0.04072405052 -0.229917739 0.005528281017 0.9731943647
-0.002625538349 0.04820206833 -0.04018206787 0.1272625372 -0.001522487483 -0.9918678988
-0.008929605484 -0.01514520359 0 0.33885526 0.5518180917 -0.7620196234
-0.00278387332 0.01862579346 -0.07737537384 0.2174262762 0.05988383727 0.9742380307
0.003502756357 0.04828046989 -0.04034671211 0.1736415941 0.002500077357 0.9848057404
-0.01639112473 0.004692883492 -0.01009790134 0.9038545987 -0.4273618602 0.02021645056
0.007314422448 0.04813111496 -0.0413944308 0.3592091316 0.016529962 0.9331106902
0.009680399418 0.04830652237 -0.04244851112 -0.4850819461 -0.001339904928 -0.8744676725
0.003159602046 -0.02032560444 -0.02439591789 0.1628421921 -0.9865857888 -0.01144123457
0.01207619635 0.04869875971 -0.04396938451 0.5818016004 -0.003721651541 0.8133222283
-0.01007962894 0.01338891125 -0.07359046173 0.5842752396 0.1839556078 0.7904320203
0.019659132 -0.006148726463 -0.01698764992 0 0 1
0.01505218601 0.008111520767 -0.01457358646 0.8755124273 0.4831673766 0.005222621738
0.01640461191 0.05139966965 -0.04829751841 0.8151251873 0.01033471899 0.5791926473
0.008936517715 0.01455504608 -0.02216524696 -0.5493890768 -0.8354498018 0.01397393921
0.01902752113 0.05417536163 -0.05275365448 0.8707971713 -0.01154289407 0.4915069156
-0.01328034687 0.04849171066 -0.044916008 -0.6520706189 -0.002653118965 0.7581535919
-0.01897245598 0.0511153965 -0.05263673592 0.8771817011 -0.0007207815447 -0.4801580404
-0.01511096048 0.04832939339 -0.04666197395 -0.7059361339 0.003385431469 0.7082674027
-0.005942876339 0.01603093147 -0.03959010315 -0.3564483918 0.9335299244 0.03829391945
0.008579115868 -0.01869409943 -0.01892609215 0.428972109 -0.903138813 0.0179781587
-0.01013800812 0.01849165821 -0.07424494553 0.5808245987 0.0500001272 0.8124917063
-0.005246010542 0.04555079365 -0.04071810532 -0.2323799007 0.006269957045 0.9726048886
0.01600323963 0.006642308474 -0.0002966859639 0.8310125699 0.3188285801 -0.4558140468
-0.01416493797 0.009470399857 -0.01154878378 0.8391617498 -0.5438366946 -0.007014792572
-0.002618731976 0.04529802322 -0.04017811775 0.1269787742 -0.001428546246 -0.9919044058
0 0.04523675537 -0.04004742813 -0.03096302751 -0.004515986239 0.9995103285
-0.01314065361 0.03682444 -0.04480460739 0.6239584113 0.0632412077 -0.7788943771
0.003493658543 0.04537439346 -0.04034133816 0.1768948108 0.0001854711128 0.9842297453
0.002961334705 -0.0198324337 0 -0.1001264601 0.8179972127 -0.5664408636
0.006709400654 0.04543411891 -0.04115871811 0.3178929417 0.01309224809 0.948036218
0.01664444542 0.003712986708 -0.01638689995 0.9416377926 0.3365063327 -0.009041884566
0.01573509248 0.04836544673 -0.04744576391 0.7683547901 0.0259418131 0.639498193
0.01093422031 0.01313567543 -0.03674710846 -0.6294490174 -0.7769520618 -0.01180797225
-0.01698335648 0.04843755341 -0.04901334381 0.8209511538 -0.01642505394 -0.5707621402
0 -0.02054785347 -0.007681658268 0 -0.999786432 -0.02066616454
-0.01324511576 0.04554918289 -0.04488791466 -0.6318175585 0.005716097304 0.7750960579
-0.01144393253 0.04586791229 -0.04347766113 -0.5898125453 -0.01622807206 0.8073771183
-0.008768127441 0.0451907959 -0.04202150726 -0.4503632465 0.00651399117 0.8928216586
-0.0100593729 0.0137660799 -0.00349534893 0.522156572 -0.8250036307 0.2161516218
0.00329967916 0.01673990154 -0.02763704681 -0.157098357 -0.9875617953 -0.006465810561
0.005182574749 -0.0198339138 0 -0.1793772724 0.9170765853 -0.356081916
0.009654899597 0.04538034058 -0.04242898941 -0.4791872735 -0.001623920461 -0.8777111824
0.01264467589 0.04565484365 -0.04441656113 0.6476490391 -0.01946954143 0.761690002
0.0120126133 0.04284267807 -0.04392498016 0.5837367161 -0.01274115427 0.8118430324
-0.01891758537 0.04807241821 -0.05251791 0.8755576888 -0.0008438179819 -0.4831128456
-0.01693619919 0.04545152855 -0.04893681145 0.818077154 -0.0004813717616 -0.575108284
-0.01507002068 0.04536672974 -0.04661253357 -0.7032264322 0.003422569275 0.710957714
-0.01141392231 0.04295316505 -0.04345862007 -0.583552466 -0.003519514025 0.8120678127
-0.01439015198 -0.01467757797 -0.006191359997 -0.7029666917 -0.7110075505 0.01749552609
-0.01775909805 -0.007768727144 0 0.5590721884 0.302665847 -0.7719013364
0.0186016922 -0.008838592529 -0.02905750275 0.8340229872 -0.5516304287 -0.01046550964
-0.0087452389 0.04229019737 -0.04200716305 -0.4479411088 -0.005297635622 0.894047369
-0.002611962318 0.04240967941 -0.04017418671 -0.1269242368 -0.007396649277 0.9918848359
0 0.04235082626 -0.04004638672 -0.02746451186 -0.01969488771 0.9994287428
0.006282021046 0.01585515213 -0.008477226019 -0.3992752184 -0.9166544962 0.01799540428
-0.003079599261 0.01814625263 0 -0.2502995866 0.7898503248 -0.5598987241
0.01256480249 0.02130541865 -0.07209842682 0.6529159492 -0.03806954578 -0.7564730484
0.003484610081 0.04248405075 -0.04033599472 0.1698785121 -0.01299201725 0.9853793679
-0.002332630634 -0.02044895172 -0.01849856567 0.1131609824 0.9934925278 -0.01293016523
0.009629598141 0.04247450638 -0.04241053009 0.476717946 0.001681182719 0.8790547045
-0.008467007399 0.01482134914 -0.03880796051 -0.5272514207 0.8496936525 -0.005161033569
-0.01140170574 -0.01710345078 -0.008540760994 0.5426469081 0.8397623665 0.01826200715
0.01631413968 0.04542326228 -0.04816205215 0.8116263247 0.001363683402 0.5841753585
0.01891736412 0.04807040787 -0.05251350403 0.8533037425 0.0018149283 0.5214109982
-0.01886311722 0.04505170441 -0.05239995575 0.8737154656 -0.001761833404 -0.4864341487
-0.01502936411 0.04242454529 -0.0465634346 -0.7003057193 0.0009934113384 0.7138423584
-0.01321007729 0.04262273026 -0.04485997009 -0.629539138 0.006259443984 0.7769435585
0.01482868671 -0.01428252888 -0.01735892487 0.7260714142 -0.6875744067 0.007857272402
-0.005398436546 -0.01985065269 -0.01513604927 -0.2735170208 -0.9617920203 0.01202285261
-0.005218923926 0.03978256798 -0.04070632172 0.2316937075 0.05394700672 -0.9712917926
0.0122814126 0.0148015399 0 0.4980796681 0.7288872556 -0.4697233366
0.01605944633 0.005866659641 -0.04142815399 0.8943064035 0.4473898403 -0.007641166002
-0.00260524106 0.03954072189 -0.04017075157 -0.1270752907 -0.01594125884 0.9917649655
0 0.03948441887 -0.04004626846 0.01816538373 0.03796109607 -0.9991140946
0.003475623608 0.03961302662 -0.04033092022 0.1734779591 -0.02264930781 0.984577273
0.006674721877 0.03966162999 -0.04114510345 0.3183325559 -0.02212402213 0.9477209038
-0.01519037914 0.00782663393 -0.01824913597 0.8947161853 -0.4427110164 -0.05907540658
0.01564934572 0.04244380315 -0.04732919184 0.7570139674 -0.00418668173 0.6533852805
0.0188628521 0.04504933167 -0.05239466286 0.8568533118 0.004818856076 0.5155377587
0.01395596218 0.009833310127 -0.02804513741 0.8020309113 0.5972706118 0.003772736663
-0.01317527342 0.03971591187 -0.04483221626 -0.6214187803 -0.01709130106 0.7832921466
-0.01533113098 0.007536473274 -0.02199272919 0.9243268558 -0.381520054 -0.007893801497
-0.01137417603 0.03909277153 -0.0434333992 -0.5900073496 2.202262211e-05 0.807397874
-0.008722522497 0.03940592384 -0.04199479485 0.4504423934 0.02591122149 -0.8924294139
0.01587927294 0.03707954979 -0.04759609604 0.7795295279 -0.05883681172 0.6235959787
0.01227467728 0.0394037571 -0.0441314888 -0.6441158664 -0.001500368733 -0.7649264668
-0.004166903973 0.01658431816 -0.03173975754 0.2390063521 -0.9709555789 -0.01101033808
0.003336168766 0.01673437119 -0.03212031937 -0.1595166761 -0.9871847644 0.004546528138
-0.01880896187 0.04204839706 -0.05228268051 0.8720013511 -0.002168634606 -0.4894986626
-0.01684274197 0.03953365135 -0.04878513145 0.8161142909 0.01730587619 -0.5776313451
-0.007128142357 0.01553639412 -0.01180990791 0.3999622114 -0.9158607531 0.0350615229
-0.01498892879 0.03949837112 -0.04651460266 -0.7039487825 -0.004107104052 0.7102388636
-0.006159680843 0.01814836407 0 -0.3042189818 0.869353201 -0.3894558037
0.01646225357 -0.01234618855 -0.01826702118 0.7891845118 -0.6140940839 -0.008732836237
-0.006912434101 0.01563623238 -1.321661472e-05 -0.4050821639 0.7988331405 -0.444717949
0 0.02466304779 -0.07764564514 0.01758496597 0.005919224107 0.9998278511
0.003079599261 0.01814625263 0 0.2288503099 0.8634553286 -0.4495246724
0.006159680843 0.01814836407 0 0.3620057727 0.8539364925 -0.373823872
0.009587932587 0.03767076111 -0.04238723755 -0.4893586179 0.01444517803 -0.8719630037
0.01622480424 0.03952189128 -0.04802828852 0.7966772352 -0.03411155798 0.6034416166
0.01278877115 0.01553437042 -0.07140473557 0.7434798247 -0.1015257247 -0.6610070177
0.01762121201 -0.01058364964 -0.008824747086 0.8362968885 -0.5480993916 0.0139488808
0.01880865479 0.04204567719 -0.05227650833 0.8492427145 0.003229868488 0.5279927838
-0.01877306557 0.04005757904 -0.0522049408 0.8707438342 -0.002272216305 -0.4917316466
-0.002451090336 0.01689089203 -0.02361043739 0.08388304054 -0.996457202 -0.006056413262
-0.0149621172 0.03755805969 -0.04648222351 0.7139946635 0.003678081657 -0.7001414801
0.01005026436 0.01128052902 -0.07308621979 0.6000926465 -0.1947649131 -0.7758578763
-0.01000262547 0.01731112289 0 -0.3271556533 0.6681343072 -0.6682557341
-0.008463098526 0.01730910873 0 -0.2913407996 0.6878753107 -0.6647917685
0.009232861996 0.01731011581 0 0.3416531997 0.7537967408 -0.5613052331
0.01314054585 0.03682313538 -0.04480160522 -0.6469093654 -0.04843612517 -0.7610270788
0.01191801357 -0.01436223936 0 -0.3296412316 0.3742746715 -0.8667497498
-0.01605944633 0.005866659641 -0.04142815399 0.8943064071 -0.4473898332 0.007641165218
0.01877272797 0.04005463791 -0.05219818497 0.8530100307 0.005137085022 0.5218692345
0.01361266708 0.01204491997 -0.06970410919 0.7885407372 -0.1298021587 -0.6011280274
-0.01873731804 0.03807513428 -0.05212752914 0.8705014484 -0.001344565977 -0.4921640178
-0.01679642868 0.03660103989 -0.04870996857 0.8121598975 0.04893833647 -0.5813788267
-0.01355783208 0.01452491887 0 -0.6172833127 0.6730978361 -0.4073089919
0.01495005083 -0.01120887685 0 -0.4736112391 0.3434942567 -0.8109895744
-0.007286339283 -0.0192565403 -0.03372317886 -0.3433680671 -0.9391502388 -0.009757016701
-0.01074518943 0.01479939342 0 -0.411754019 0.7433809623 -0.5271085018
-0.008448734283 0.01563205814 0 -0.4033133645 0.8510561333 -0.3362168764
-0.005396598339 0.01616703033 -0.001249686003 -0.2651240258 0.9233074432 -0.2778715824
-0.003096084476 0.0167631216 -0.002637929559 0.261280606 -0.9469584715 0.1870884768
0 0.01704641151 -0.003297761917 0.04630667153 -0.9825747833 0.1800069092
0.003096058369 0.01676190376 -0.0026350981 -0.2853057343 -0.9384533679 0.1946944123
0.003253704429 -0.02030999756 -0.03592233467 -0.1572298352 0.986393055 0.04803665225
0.006189745903 0.01588532543 -0.002558102608 -0.3933152825 -0.8980195873 0.1971393148
0.006912434101 0.01563623238 -1.321661472e-05 0.3562443702 0.8475089131 -0.3934699364
0.009467704773 0.01507628059 0 -0.4481597018 -0.8153266747 0.3665996387
0.009276202917 0.0246416626 -0.0749118557 0.5611144251 -0.006110447655 -0.8277156906
0.003709445119 0.0185506649 -0.07716415405 -0.2394762428 0.06463555699 0.9687483543
-0.01870172119 0.0361009407 -0.05205044174 0.8698613932 -0.002736335679 -0.4932886266
0.008382601738 0.02783875275 -0.07549315643 0.37031815 0.001975508308 -0.9289028825
0.0180943017 -0.003229117274 0 -0.2580513988 0.1415756012 -0.9557017446
0.02037785912 -0.002425193787 0 0 0 -1
0 0.01706541443 -0.03295985794 0.03492265598 -0.999260564 0.016085188
-0.00601587081 -0.01964851475 -0.005513110399 -0.3114710691 -0.9478017356 0.06824692689
-0.007733999491 0.01519576597 -0.002905502558 0.4586322061 -0.8584721395 0.2295257834
-0.005452357292 0.01615363121 -0.005162918568 0.2928518055 -0.9530722541 0.07675349183
-0.003128321409 0.01676126862 -0.006594902754 0.2389865595 -0.9710142114 0.004101914192
0 0.01705222702 -0.007280644417 0.02158641678 -0.9996585194 -0.01472654999
0.01870132637 0.03609757614 -0.05204252625 0.8488951866 0.001354447103 0.5285594836
-0.005555366516 -0.01981558418 -0.02612183762 0.2763766912 0.9610414102 0.003915664082
0.003128261924 0.01675849628 -0.006588377476 -0.2296206942 -0.9732674875 0.004973387599
-0.01651594543 0.004199980259 -0.01320055866 0.9199848937 -0.3911474829 0.02512851099
0.005452357292 0.01615363121 -0.005162918568 -0.3208614894 -0.9429189048 0.08917311053
-0.01646225357 -0.01234618855 -0.01826702118 0.7946176683 0.6066376635 0.0239479927
0.008485105515 0.01478791142 -0.001944485903 -0.4554772115 -0.8546791191 0.2491267011
-0.01253263187 -0.01595074654 -0.0450810585 0.6245576406 0.7782654107 -0.0650438627
-0.01608319092 0.0123062067 0 0.7039905754 -0.5411217415 0.4599831852
-0.0116264801 0.01253646183 -0.004569303513 0.6463019845 -0.7270314316 0.2317736879
0.01575046968 -0.008032194614 0 -0.4569546841 0.2591953463 -0.8508878828
0.008910561085 -0.01746432257 -9.811558574e-05 -0.3980695548 0.7756066047 -0.4898724571
-0.01353204886 0.01187158171 -0.00029462864 0.6487886709 -0.6273245674 0.4307402323
0.01651735687 0.00421090889 -0.01322935772 0.9339072445 0.3573583677 -0.01059508176
-0.01151229191 0.01263486576 -0.0007978245616 -0.5594596133 0.6934206213 -0.454062532
-0.01366883802 0.01516217375 -0.07035017014 0.7743739939 0.1255319507 0.6201505035
-0.01404827642 -0.01500593567 -0.0176584692 0.6617002373 0.7497672541 0.001364053552
0.01070073032 0.01329190445 -0.02787706947 -0.6085301003 -0.7932029408 -0.02280815176
-0.008571948051 0.01474648476 -0.005833264828 0.4564799495 -0.8877141487 0.05991365405
-0.007857671022 0.01513728142 -0.008799610853 0.4436305395 -0.8960942964 0.0143859792
-0.005509261608 0.01613995552 -0.009156553268 0.2457724788 -0.9690420734 -0.02352336194
-0.003948717833 0.01662517357 -0.01031369209 0.2240845753 -0.9745206309 -0.009779721626
-0.002373679638 0.01689165115 -0.01094939613 0.1240535734 -0.992271889 -0.00268500994
0 0.01705816269 -0.01134647846 0.04822038777 -0.9987986838 -0.008716847366
0.00316113162 0.01675501728 -0.01062346029 -0.1949401827 -0.9807985312 0.005706701531
0.008571948051 0.01474648476 -0.005833264828 -0.4546283375 -0.889219716 0.05100364069
0.01539045906 0.01508830261 -0.06742234039 0.8356186757 -0.08777629023 -0.5422515576
0.01005934048 0.01376563454 -0.003494290352 -0.4616185076 -0.8528438269 0.2440609767
0.01251961867 0.01198189227 -0.0005604902705 0.5807251747 0.675106813 -0.4549605066
0.01463330555 0.008764873505 -0.003512837887 0.8066072952 0.5362974961 -0.2485350417
-0.01383732271 -0.01519582081 -0.01198342419 -0.6425161373 -0.7662279947 -0.008226391742
0.01531638241 0.01230501986 0 0.7711272872 0.4326638864 -0.4670810083
-0.007075161457 -0.01932597542 -0.02223810196 -0.3280187333 -0.944665394 0.003317228638
-0.01654768689 0.009544543584 0 0.7011401097 -0.5025093808 0.5058526156
0.008835103989 -0.01858084488 -0.03029925537 0.4289494701 -0.9033236496 0.002955708143
-0.01451278019 0.009817649364 0 0.7011401097 -0.5025093808 0.5058526156
-0.01430151558 0.009270141602 -0.01535193396 0.8271378107 -0.5592862953 -0.05515325839
0.01037159443 -0.01779576683 -0.02733208275 0.5104109541 -0.8599272456 0.002406273422
-0.01095122147 0.01305516529 -0.00786520195 0.6612622598 -0.7500391334 0.01317277823
-0.004778969407 0.01637279224 -0.01382894754 0.2286542106 -0.9735076409 -0.0003535658928
-0.01897587681 0.003252476931 0 0.7887050991 -0.1802258777 0.5877609205
-0.0137155714 0.01819996071 -0.07071800232 0.7669457156 0.09584949437 0.6345133125
-0.002398940086 0.0168914032 -0.01508091927 0.1608822013 -0.9869643404 -0.004278791314
0.007128142357 0.01553639412 -0.01180990791 -0.4446643744 -0.8956930411 0.00275139264
0.002987928867 -0.02032886505 -0.003351553321 0.1142199257 -0.9745351051 0.1929640833
0.008660561562 0.0147042141 -0.009801322937 -0.4758991094 -0.8794993686 -0.0009478138921
-0.01534890366 0.01302538776 -0.06701146698 0.8568331625 0.1068968064 0.504390726
0.01016061306 0.01368681049 -0.007345776558 -0.5748675695 -0.8182311929 -0.004999250079
0.01614364815 0.005629497051 -0.003961904764 0.8906610723 0.3823344918 -0.2460552594
0.0116264801 0.01253646183 -0.004569303513 -0.6069466203 -0.7516324537 0.258194606
0.01527764511 0.009818594217 0 0.7467540538 0.4598312834 -0.480534675
0.009228705645 0.01870788383 -0.07484907722 -0.5487104059 0.0664841014 0.8333647189
-0.01423920345 0.009410802841 -0.03637786865 0.8130992701 -0.5820097886 -0.0115837359
0.008705041885 -0.0186400795 -0.02452146339 0.4213093068 -0.9069095599 0.003676715654
-0.01315750504 0.01087861919 -0.004610801697 0.7032768027 -0.6565037216 0.2727720705
-0.008338220596 -0.01879583168 -0.008221647263 -0.3983536036 -0.9171752306 0.01019818359
-0.01106161642 0.01295646524 -0.01177287865 0.6496645648 -0.7596138497 -0.03037684222
0.003373456478 0.01672823429 -0.03670227242 0.1642371694 0.9859374915 -0.03087741836
-0.007977015018 0.0150814023 -0.01487823629 0.4498589978 -0.8927845459 -0.02371996636
-0.004830004215 0.01636281395 -0.0180092268 0.2579228991 -0.965942781 -0.02074420267
0.004602190018 0.01230517292 -0.07608851624 0.2675889725 -0.1849437462 -0.9456172336
-0.002424737692 0.01689114952 -0.01930026817 0.1467824202 -0.9891679365 0.001309419975
0.006496121407 0.02122768974 -0.0763818512 -0.3889940776 0.01953385485 0.9210331352
0 0.01706653023 -0.01972875595 0.0148378058 -0.9998813051 -0.004149129735
-0.01576590919 0.006602873325 -0.03357084274 0.8787208467 -0.4772982747 0.006002549587
0.004033335209 0.0166134491 -0.01862160683 -0.2474169301 -0.968830233 -0.0123629444
0.009116894722 -0.01834867859 -0.04277772141 0.4420562497 -0.8931401665 -0.0829874393
0.005626660824 0.01611174393 -0.01739578819 -0.4021303169 -0.9152625222 0.02420172875
0.01438804913 0.009219351768 -0.040745121 0.8494424079 0.5271930166 -0.02269623176
0.008751003265 0.01466106987 -0.013851264 -0.5320856344 -0.8466111716 0.01159318088
0.01026392078 0.01360640335 -0.0112746191 -0.5904539241 -0.8070713315 -0.0001714997454
-0.01019043159 0.02442063904 -0.07431821823 -0.5256604496 -0.003321017241 -0.8506879937
0.01174176025 0.01242258549 -0.008382375717 0.7082261431 0.7059852701 -0.0007270230224
0.01315750504 0.01087861919 -0.004610801697 0.7294249709 0.6363320374 -0.2510393395
0.006432255268 0.01207112885 -0.07540299988 -0.3815900227 0.1998853123 0.9024604792
-0.01903966045 0.006526635408 0 0.786040211 -0.3907716712 0.4789971687
-0.0128755455 -0.01607998848 -0.006773705482 -0.6059565091 -0.7954846789 -0.004564497182
-0.006974193096 -0.01935917473 -0.01674686623 -0.3374439797 -0.9413389251 -0.003548045404
-0.01732434845 -0.01107814312 -0.002685855865 0.6824356511 0.6354199788 -0.3612797152
-0.01463321209 0.008764035225 -0.003510766268 0.79271105 -0.5510351886 0.26070944
-0.01402919197 0.00965091753 -0.00777740097 0.8386156276 -0.5438063169 0.03159934674
-0.008842817307 0.01460895252 -0.01796585846 -0.5105634128 0.8598171918 0.006276793657
-0.019659132 -0.006148726463 -0.01698764992 0 0 1
-0.007279485226 0.01546634674 -0.02008658409 0.4166293263 -0.9090709204 0.003172728317
0.006876196861 -0.01939030647 -0.01141683865 0.365740193 -0.9307032556 0.005055816031
-0.005687236309 0.01609718704 -0.02164707184 0.3274524758 -0.94475435 -0.01463195921
0.01182724762 0.01069699001 -0.0713755722 0.6476851828 -0.1800785824 -0.7403212871
-0.004076973438 0.01660635948 -0.02290651894 0.2333883826 -0.9723489934 -0.008203528125
0 0.01706616592 -0.02404397392 0.02941651312 -0.9995067059 0.01100062331
0.006367264509 -0.01955368233 -0.02700806046 0.3169639347 -0.9484375892 -5.942307527e-05
0.00326397419 0.01674531364 -0.02325029373 -0.1545290604 -0.9878330408 0.01751151188
0.01222547436 0.01193277264 -0.02438663673 0.7183450086 0.695684501 -0.001877131704
0.006483360767 0.01578176689 -0.02086682796 -0.4055873971 -0.9139828022 -0.01158880966
0.01036932755 0.01352436256 -0.01528332615 -0.5872948022 -0.8093604894 0.004518123549
-0.00555688858 0.01836020088 -0.07662865067 0.3175623905 0.05534179955 0.9466210506
0.01185920525 0.01230509377 -0.01226764107 -0.6907023301 -0.7231162367 0.005761896388
0.01328734398 0.01074438095 -0.008407850266 0.7531783428 0.6578161766 0.0005116220713
0.01491176033 0.008349556923 -0.01085833454 0.8664482194 0.4991292547 0.01172477248
0.01827672482 0.006525884151 0 0.8290426265 0.3342604441 -0.4482837036
-0.01197884655 0.01218347549 -0.01622628975 0.7104884691 -0.7037086443 0.0005284995068
-0.002505521536 0.0168893528 -0.03251337433 0.1330084143 -0.9911115458 -0.002581775872
0.01689141273 0.002595083952 -0.02258023643 0.9533447675 0.3018757478 -0.002187944649
-0.01128900099 0.01275124407 -0.01982287693 0.6379762732 -0.7694441097 0.03069262035
-0.008147040844 0.01499256039 -0.02326093006 0.4809714116 -0.8766518625 0.0121660661
0 -0.02055528259 -0.01814424706 0 -0.9999937199 0.003544036081
0 0.02765588665 -0.07764551544 0.02550004282 -0.02061860238 0.9994621659
-0.0141548214 -0.01477048588 -0.04317993164 0.6761409922 0.7366594275 0.01289366346
-0.004935285568 0.01633888626 -0.0266326952 0.2713798476 -0.9624697814 -0.002213179089
-0.002478017569 0.01689062691 -0.0280145607 0.08404675575 -0.9964582731 0.002655710959
-0.01495005083 -0.01120887685 0 0.4765555804 0.3461783416 -0.8081183915
0 0.01706579399 -0.02845324707 0.03347600224 -0.9994236384 0.005634555071
0.005749119759 0.01608231544 -0.0259901371 -0.4024041693 -0.9152661458 0.01894114135
0.01792986488 -0.01006328297 -0.01520503712 0.8630476905 -0.5038904817 -0.03525714609
-0.01261431503 0.01152922821 -0.03725560379 0.7002102884 -0.713877433 -0.009195794171
0.007357563972 0.01543007469 -0.02435661316 -0.4598291655 -0.8879957326 0.004551643995
-0.002987928867 -0.02032886505 -0.003351553321 -0.1142199257 -0.9745351051 0.1929640833
-0.005045164824 0.01631177425 -0.03563268661 0.2655549323 -0.9638040893 0.02371192339
0.01197884655 0.01218347549 -0.01622628975 0.7233917394 0.6904363538 -0.001425752275
0.01595025444 -0.01296142769 -0.006547516823 0.7585606106 -0.6514487741 0.01415255452
0.01341817951 0.01059180832 -0.01224066639 0.7592565016 0.6507914726 -0.0001548479449
0.01477122974 0.008559158325 -0.00715121603 0.8557433389 0.5173427472 0.007734331399
-0.01097834206 -0.01738865185 -0.02052527714 -0.5315007958 -0.8470406038 0.005396245094
-0.01745513058 0.003251730561 0 0.7890366254 -0.1363935812 0.5990141857
-0.01614364815 0.005629497051 -0.003961904764 0.8742990691 -0.4295179733 0.2260872584
0.01721013451 -0.01042009258 0 -0.4813933105 0.3218739209 -0.8152653922
-0.01140657616 0.01265016079 -0.0239844799 0.6741169415 -0.7386079809 -0.004959814477
0.01587006474 -0.01287424755 -0.04369866562 -0.7056167337 0.6863998609 0.1759552673
-0.01191801357 -0.01436223936 0 0.3296412316 0.3742746715 -0.8667497498
-0.009032212257 0.01449999142 -0.02645400429 0.5246397662 -0.8511861911 0.01533570619
-0.008283635378 0.01491817284 -0.02977637577 0.5020547179 -0.8647043191 -0.01508312859
-0.01235262299 0.01180352306 -0.02859368324 0.726122377 -0.6873113445 0.01869249731
0 0.0125307703 -0.07674917603 0.01896635525 0.204269489 0.9787309402
0.006624829054 0.01572985697 -0.02957286167 -0.4256932297 -0.9048474218 0.006034682266
0.009032212257 0.01449999142 -0.02645400429 -0.5521118306 -0.8337437166 0.00662883722
0.01058767796 0.01336754894 -0.02358232307 -0.6228418337 -0.7819916315 -0.02360377908
0.01210091019 0.01205939579 -0.02026508331 0.7329775416 0.6802527633 -0.0003186351262
-0.005571789503 0.02134571171 -0.07670718002 0.3335327538 0.04064250911 0.9418620327
0.003363606691 0.009554751396 -0.07560056814 0.2087884602 -0.3212941954 -0.9236760357
0.01355084515 0.01042876244 -0.01613028145 0.7671924121 0.6414139931 -0.001972892124
0 0.03066188049 -0.07764537811 0.0007751556014 0.04378460489 -0.9990406936
0.01821550369 0.003252103746 0 0.8227109517 0.1966228829 -0.5333724138
-0.01626941681 0.005188227177 -0.007066958427 0.8965126477 -0.4418163231 0.03260995415
0.00593769145 -0.01749298573 0 -0.2325298813 0.8479809706 -0.4762962605
-0.01368358803 0.01023744202 -0.02003292274 0.7876764898 -0.6160581209 0.006175682875
-0.01070073032 0.01329190445 -0.02787706947 0.6613063017 -0.7498280787 -0.0207804677
-0.007518779278 0.01535429668 -0.03317364883 0.4420701639 -0.8969276612 -0.009733486954
-0.002533610344 0.01688640976 -0.03710851669 0.08055427712 -0.9956236395 0.0473769663
0 0.01706502533 -0.03756724548 -0.05095786155 0.9982400498 -0.03033313954
0.005876992702 0.01605158615 -0.03496445847 -0.3650855476 -0.9309652541 -0.00402971962
0.007518779278 0.01535429668 -0.03317364883 -0.4285000486 -0.9034933992 0.009348040753
0.009129968643 0.01444375134 -0.030835186 -0.5620185045 -0.8270122481 0.01363606044
-0.01923341942 -0.00725280714 -0.009062355042 0 0 1
-0.0188380394 -0.008235186577 -0.001685313821 0.6116179396 0.2675918028 -0.7445254348
0.0136836586 0.01023813248 -0.02003469467 0.7736773378 0.6335187639 -0.008795039938
0.01626941681 0.005188227177 -0.007066958427 0.9153342074 0.4026851627 -0.002819320403
-0.02042890549 6.764829159e-07 0 0 0 -1
0.01156761074 -0.0169994545 -0.01392602253 0.5360943099 -0.8441175727 -0.008271290973
-0.01815470028 6.760060787e-07 0 0 0 -1
0.01533113098 0.007536473274 -0.02199272919 0.8919785699 0.4520441946 0.005502455231
-0.008382601738 0.02783875275 -0.07549315643 -0.3900498016 0.001996277683 -0.9207915981
-0.01381829643 0.01003602982 -0.02399611473 0.7842900618 -0.6203943091 -1.274671394e-05
-0.01164932919 0.01244309616 -0.0325766716 0.6707882041 -0.7416459737 -0.002105914135
0.003719457328 0.02154316998 -0.07725147629 -0.1851605565 0.02451143232 0.9824025438
0.01673537254 -0.01199384308 -0.02450940514 0.8029131897 -0.5960876712 0.003146115572
-0.009229859352 0.01438628292 -0.0353119812 0.5392185187 -0.8419235371 0.02020264363
0.01306856441 -0.01590858078 -0.01227673435 0.6271208199 -0.7788999753 -0.005857114586
-0.004682261467 0.03042353058 -0.07702528381 -0.2271843128 -0.03868115117 -0.9730832732
-0.002812383652 0.03059335518 -0.07746709442 0.1520735037 -0.01029102854 0.9883156096
-0.008361974239 0.02486268616 -0.07550549316 0.4487973056 0.01021782563 0.8935751644
0.003747322559 0.03050844288 -0.07724618912 0.2391194619 0.03693299457 -0.9702875022
0.01192555809 0.01248525333 -0.04223782921 0.7145193757 0.6996142151 0.001418382112
0.0188380394 -0.008235186577 -0.001685313821 -0.6083883633 0.2661603394 -0.7476779207
0.00677246666 0.0156730423 -0.03865914536 -0.4275111287 -0.9038284151 0.01812266229
0.009229859352 0.01438628292 -0.0353119812 -0.5645614875 -0.825368784 0.006057825554
0.005830621243 -0.01937415695 -0.04524571609 -0.3039055011 0.9526612957 0.008826211199
0.01081621647 0.01321463299 -0.03226426697 -0.6263332157 -0.7794261327 -0.01419882187
0.01506140327 -0.01405307674 -0.02327762794 0.7400666218 -0.6723573318 -0.01539524795
0.01235262299 0.01180352306 -0.02859368324 0.7381839977 0.6745625838 -0.007050254138
0.01381847095 0.010037714 -0.02400049591 0.7836166775 0.6211923097 -0.008063317683
-0.005830621243 -0.01937415695 -0.04524571228 -0.284973778 -0.9573389088 -0.04787650379
0.009788514137 -0.01809370232 -0.005444290638 0.5081523049 -0.8595837482 0.05382392384
0.01639219666 0.004701275349 -0.01011972809 0.9269373936 0.3752115755 -0.001828124259
0.01815470028 6.760060787e-07 0 0 0 -1
0.02042890549 6.764829159e-07 0 0 -0 -1
0.01468442631 -0.01389990648 -0.0006049880783 0.6283471384 -0.6029700665 0.4915353218
-0.01468442631 -0.01389990648 -0.0006049880783 0.6289698232 0.6028314863 -0.4909085055
-0.01395568085 0.009830615044 -0.02803803635 0.7928365828 -0.6094264442 -0.003092246509
-0.01093422031 0.01313567543 -0.03674710846 0.6561320707 -0.7536836366 -0.03810094224
-0.01901069832 -0.007864289761 -0.03740347672 0 0 1
-0.005599478364 0.02729876184 -0.07669863892 -0.3207157137 -0.0004759639952 -0.9471753821
-0.002805373073 0.02758896255 -0.07746808624 0.2216695697 -0.01337107083 0.9750301618
-0.008261265278 0.01277892637 -0.07463129044 -0.4717252031 -0.1965013506 -0.8595711442
0.01825437737 -0.009494551659 -0.02190492058 0.8217288144 -0.5698331888 -0.007203651747
0.003737995088 0.02750609493 -0.07724836731 -0.2234026914 -0.02385924285 0.9744341815
-0.01192555809 0.01248525286 -0.0422378273 -0.6877567944 0.7259287399 0.004249274051
0.009331957817 0.01432754517 -0.03988773346 -0.5736448117 -0.8190109617 -0.01235615612
0.0124824419 0.01167155933 -0.03288907623 -0.7048659768 -0.7093399915 0.0008551359581
-0.02037785912 -0.002425193787 0 0 -0 -1
-0.0180943017 -0.003229117274 0 0.2580513988 0.1415756012 -0.9557017446
-0.01664268303 0.003699503183 -0.01635089302 0.945181921 -0.3262522793 0.01380530298
-0.01361266708 0.01204491997 -0.06970410919 0.782830789 0.1179941302 0.6109446301
-0.01547435188 0.007239475727 -0.02580266953 0.9191282701 -0.3932598121 -0.02345086921
0.01591058159 0.006232238293 -0.03744636917 0.8886433789 0.4585700138 -0.005146615755
-0.01409593868 0.009622131348 -0.03216404724 0.8233483107 -0.5675316001 -0.002332837856
0.01261431503 0.01152922821 -0.03725560379 0.7141061331 0.7000231898 0.004468155205
0.01409622097 0.009624794006 -0.03217115784 0.810971002 0.5850679999 0.004633497156
0.01547435188 0.007239475727 -0.02580266953 0.8899703102 0.4528728031 0.05347028384
-0.01677138901 0.003191256285 -0.01955013657 0.9491514441 -0.3146552496 0.01017890736
-0.01561876297 0.00692416048 -0.02965032387 0.8414370658 -0.5403500251 0.002348325872
-0.01197734833 0.02187733746 -0.07276882935 0.6528090826 0.01971499791 0.757265885
-0.005585633516 0.02431516552 -0.07670534897 0.3366381108 -0.001673525353 0.941632615
-0.01114310789 -0.01728885078 -0.02626102924 -0.5541104948 -0.832417458 -0.006537216939
-0.00279839325 0.02459770584 -0.07746907806 0.2226685274 0.002665537205 0.9748905691
0.003728708506 0.02451685905 -0.07725054169 -0.2194561081 -0.008005633824 0.9755895276
0.006512270927 0.02419493866 -0.07638037109 -0.379714473 -0.0004569423465 0.9251036213
0.01423933506 0.009412032127 -0.03638119507 0.8189656411 0.5738421901 -0.000647761561
0.01228815937 -0.0165104599 -0.03730075073 -0.6116380976 0.790982705 -0.01565880007
-0.01804924774 -0.005638325691 0 0.2788120211 0.09968783279 -0.9551576796
0.01901069832 -0.007864289761 -0.03740347672 0 0 1
-0.01689141273 0.002595083952 -0.02258023643 0.9533961059 -0.3017185572 0.001333189726
-0.01016554165 0.0214678421 -0.07433605194 0.5701919397 0.01189076917 0.8214254449
-0.008341434479 0.02189931297 -0.07551777649 0.4684385115 0.03970077859 0.8826036535
-0.002791450858 0.02162246799 -0.07747006226 0.2186368229 0.02275732715 0.975540898
0.01534890366 0.01302538872 -0.06701146698 0.8356186757 -0.08777629023 -0.5422515576
0 0.02168624878 -0.07764578247 0.01523538682 0.02998860703 0.9994341231
0.01576590919 0.006602873325 -0.03357084274 0.8788825432 0.4770002483 -0.006019837402
0.01804924774 -0.005638325691 0 -0.2788120211 0.09968783279 -0.9551576796
-0.01575046968 -0.008032194614 0 0.4598472267 0.2607953954 -0.8488382
-0.01591058159 0.006232238293 -0.03744636917 0.8885961506 -0.4586618652 0.005116104411
-0.01542614365 0.01710645676 -0.06768095398 0.8514357673 0.08519547209 0.5174928653
-0.01194651222 0.01892566681 -0.07273272705 0.6568864556 0.05703369983 0.75182933
0 -0.02052780724 -0.04114907837 -1.628227528e-08 0.9626077949 0.2708989355
-0.008319403172 0.01892410946 -0.07545320892 0.481354424 0.05940468148 0.8745107217
0.01283104181 0.01856281376 -0.07172536469 0.7250214534 -0.0516727193 -0.6867851353
0.01542614365 0.01710645676 -0.06768096161 0.8329697503 -0.08008509765 -0.5474922576
0.01775909805 -0.007768727144 0 -0.5557820799 0.3009711488 -0.7749339631
-0.01539045906 0.01508830357 -0.06742234039 0.8536727107 0.09906826452 0.5113006767
-0.01190870428 0.01590656614 -0.07245930099 0.6685398807 0.1035573466 0.7364307869
-2.980232234e-11 0.01869542408 -0.07757109451 0.02229664554 0.0771129312 0.996773021
0.006478760242 0.01824486542 -0.07630436707 -0.3876297637 0.05850905839 0.9199564426
-0.01010576248 0.01546232414 -0.07396395874 0.5992502413 0.1363326779 0.7888678909
-0.00829326725 0.01589132118 -0.07518692017 0.4761522322 0.1111227482 0.8723134681
0.003306220412 -0.02020684624 -0.04228957176 -0.118802744 0.9923705031 0.03296501921
-0.006457197905 0.01518649864 -0.07596125793 0.3850467239 0.131817097 0.9134348763
-0.002774910331 0.01557458591 -0.07707489395 0.1993152829 0.1558518332 0.9674624665
0.003697410643 0.01549827409 -0.07685592842 -0.2379370569 0.1215907845 0.9636397865
0.006457197905 0.01518649769 -0.07596125412 -0.3738757052 0.1352688187 0.9175616076
0.009199514389 0.01567682266 -0.07457543945 -0.5279111771 0.1152654061 0.8414414271
0.01923341942 -0.00725280714 -0.009062355042 0 0 1
0.01114502716 -0.01671720695 0 -0.4785235604 0.7174818493 -0.5061966002
-0.0109569397 0.01204890871 -0.07251207733 0.645859938 0.1735535012 0.743467634
0.01439015198 -0.01467757797 -0.006191359997 0.7007987652 -0.7130848356 0.01977644867
0.0088673865 0.01298225403 -0.07428434753 -0.5410334135 0.164537196 0.8247486627
0.01269480038 -0.01199764252 0 -0.4130961356 0.384563934 -0.8255072159
0 -0.02056315422 -0.02922883606 0.01504170477 0.9998692411 -0.005936979176
0.01732310104 -0.01108624363 -0.002662368774 0.6822966087 -0.6355096213 0.3613846413
0.007075161457 -0.01932597542 -0.02223810196 0.364897979 -0.9310440865 0.002524658378
-0.01182724762 0.01069699001 -0.0713755722 0.6562746455 0.1914810556 0.7298209335
-0.002764304399 0.01245637608 -0.07653132629 0.1689317627 0.2201792442 0.9607201257
0.002764304399 0.01245637608 -0.07653132629 -0.141002225 0.2190825671 0.9654642413
-0.002400828123 -0.02044091797 -0.02964940071 0.1012836706 0.9948473433 -0.004514603627
-0.01793723869 -0.01001658726 -0.01534437847 0.884968786 0.4656015648 -0.006740229637
-0.01595025444 -0.01296142769 -0.006547516823 0.7583470299 0.6517704597 -0.01024939572
-0.008224085808 0.009599184036 -0.07381912231 -0.4584611435 -0.3244612169 -0.8273682968
-0.005500109911 0.01005209923 -0.07516466904 -0.2946550367 -0.2733139487 -0.915684386
-0.002751361012 0.009246175766 -0.07564058304 -0.2107986868 -0.3076762367 -0.9278465644
0 0.01040379286 -0.07620924377 0.04221664183 0.2469665981 0.9681039482
0.006412121773 0.009932294846 -0.07480879974 0.3785023416 -0.2333234625 -0.8957098522
0.008929605484 -0.01514520359 0 -0.33885526 0.5518180917 -0.7620196234
-0.01826041222 -0.0094568367 -0.02201911545 0.8535804287 0.5209005068 -0.007944413239
-0.01620215988 -0.0126587286 -0.01231353474 0.7863630956 0.6177644554 0.0003993680801
-0.01196644545 -0.01670806313 -0.002424184382 -0.6187522542 -0.7231132107 0.3070064044
-0.01114502716 -0.01671720695 0 0.4785235604 0.7174818493 -0.5061966002
-0.008910561085 -0.01746432257 -9.811558574e-05 0.3980695548 0.7756066047 -0.4898724571
-0.00593769145 -0.01749298573 0 0.2325298813 0.8479809706 -0.4762962605
0.003215414047 -0.01775177701 0 -0.1570150667 0.850073432 -0.502714063
0.01196644545 -0.01670806313 -0.002424184382 0.6187522542 -0.7231132107 0.3070064044
0.01620215988 -0.0126587286 -0.01231353474 0.7738363473 -0.6333802639 0.0025978817
-0.0186016922 -0.008838592529 -0.02905750275 0.8656596151 0.5005698445 -0.007953716407
0 -0.01827228928 0 0 0.7863645717 -0.6177627055
0.0128755455 -0.01607998848 -0.006773705482 0.6056307865 -0.7957399247 0.003053312871
0.01460608101 -0.01448306084 -0.01169011402 0.6901725242 -0.7235763698 0.009956097007
-0.01673537254 -0.01199384308 -0.02450940514 0.8067355126 0.5907529853 0.01373765487
-0.009788514137 -0.01809370232 -0.005444290638 -0.5081523049 -0.8595837482 0.05382392384
-0.006689310551 -0.0194356041 -0.001246722698 -0.3645659025 -0.869645615 0.3328786672
-0.008705041885 -0.0186400795 -0.02452146339 0.3846560323 0.9230517767 -0.003892847067
-0.005182574749 -0.0198339138 0 0.1793772724 0.9170765853 -0.356081916
-0.002961334705 -0.0198324337 0 0.1001264601 0.8179972127 -0.5664408636
0 -0.01983169365 0 0 0.876272422 -0.4818159841
0.006689310551 -0.0194356041 -0.001246722698 0.3645659025 -0.869645615 0.3328786672
-0.01702199173 -0.01160213566 -0.03105197334 0.787803081 0.5863716119 -0.1885063347
-0.009926849365 -0.01803401566 -0.01064134979 -0.4826380549 -0.8758006273 -0.005811127558
0 -0.02054429245 -0.0026670084 0 -0.9651567295 0.2616724815
0.009926849365 -0.01803401566 -0.01064134979 0.4991796131 -0.8664388416 -0.01017091565
0.01326786613 -0.01572934246 -0.01795801353 0.6171936727 -0.7868069849 -0.00259592654
0.01702199173 -0.01160213566 -0.03105197334 0.7971134816 -0.6026083346 0.0383834921
-0.01449695444 -0.01456115675 -0.02970376301 0.690009683 0.7237988649 0.001356662745
-0.00845691967 -0.01874570465 -0.01349617672 -0.3673602694 -0.9300087145 0.01141154932
0.01053042412 -0.01769736671 -0.03328768158 0.5175023391 -0.8556266161 -0.009717147469
-0.006876196861 -0.01939030647 -0.01141683865 -0.3564698711 -0.9342787567 0.007241263397
-0.005323317051 -0.01986743736 -0.009877361298 -0.254255664 -0.9669839962 0.01720489629
-0.003028984904 -0.02032987213 -0.008385181904 -0.1934955668 -0.9810772514 -0.006847810537
0.003028984904 -0.02032987213 -0.008385181904 0.1934955668 -0.9810772514 -0.006847810537
0.005323317051 -0.01986743736 -0.009877361298 0.249601953 -0.9680848795 0.02259493405
0.009263371944 -0.01835599709 -0.01475330591 0.4721478357 -0.8815114141 -0.003748060863
0.01173850346 -0.01689233208 -0.0194732151 0.5583281862 -0.8295706113 -0.009068483056
0.01347344875 -0.01554445648 -0.02381832314 0.6390985325 -0.7682796896 -0.03604697352
0.01530828857 -0.01376866913 -0.02954103088 0.7707943435 -0.6355256613 -0.04453328983
0.01732855988 -0.01113293362 -0.03803069305 0.8242047588 -0.5218908126 0.2198101346
-0.01473454094 -0.01431270409 -0.03607388687 0.7029620454 0.7112199416 0.003249208446
-0.008579115868 -0.01869409943 -0.01892609215 -0.3790177311 -0.9253801459 0.004140663704
-0.003071208477 -0.02033090782 -0.01356192923 -0.1974083823 -0.9803193723 -0.001964391404
0 -0.02055151558 -0.01283862114 0 -0.9997757308 -0.02117753683
0.003071208477 -0.02033090782 -0.01356192923 -0.1681688356 0.9857580275 0.0005949681023
0.006974193096 -0.01935917473 -0.01674686623 0.3340758076 -0.9423822757 0.01757842805
0.01021818066 -0.01788497162 -0.02157733917 0.4828130296 -0.8754276897 0.02275826432
0.01368562031 -0.01535364437 -0.02986649513 -0.649529683 0.7597059472 0.03095262032
-0.01587006474 -0.0128742485 -0.0436986618 0.7056166125 0.686400035 0.1759550743
-0.01131441879 -0.01717300797 -0.03221831989 -0.5666498833 -0.8234610732 -0.02863163765
-0.005475752831 -0.01983337593 -0.02054852104 0.2728148644 0.962059504 0.003682461775
-0.003896680832 -0.02021466064 -0.01927893639 -0.2017870953 -0.979423857 -0.003297960785
0.002332630634 -0.02044895172 -0.01849856567 0.1122595189 -0.993608753 0.01180873878
0.003896680832 -0.02021466064 -0.01927893639 0.2018876599 -0.9793466516 -0.01102310385
0.005475752831 -0.01983337593 -0.02054852104 0.3019184288 -0.95320585 -0.01561633167
0.01390471363 -0.01515660763 -0.03611194992 -0.6601658225 0.750295832 0.03517458196
-0.01149123192 -0.01705314827 -0.0383667202 -0.5666242973 -0.8239260556 -0.009097285382
-0.008835103989 -0.01858084488 -0.03029925537 -0.3909853207 -0.9203904605 0.003446625548
-0.007179162502 -0.01929178047 -0.02789428329 -0.3328416391 -0.9429778843 0.003025404223
-0.003952977419 -0.0202062149 -0.02480004311 -0.2044228525 -0.9788678367 -0.005390338388
