# .PCD v0.7 - Point Cloud Data file format
VERSION 0.7
FIELDS x y z normal_x normal_y normal_z
SIZE 4 4 4 4 4 4
TYPE F F F F F F
COUNT 1 1 1 1 1 1
WIDTH 349
HEIGHT 1
VIEWPOINT 0 0 0 1 0 0 0
POINTS 349
DATA ascii
-0.002650876045 0.05901283836 -0.04019677544 0.14658482 -0.04829334642 -0.988018544
0.0191204958 0.05932801628 -0.0529563446 0.8242255041 0.02725712264 0.5656053108
0.01042080235 0.01343119311 -0.002701416165 0.6386960411 0.7578463723 -0.1331774873
0.009901951313 0.04409476689 -0.0426369618 0.5179864167 0.01579870652 0.8552429321
-0.005310607076 0.05929377365 -0.04075039101 0.2478709338 -0.1523095399 -0.9567454229
0 0.0589454422 -0.04006423187 -0.02002952552 0.02266658429 0.9995424173
-0.0007667113145 -0.02051653926 -0.01295332177 -0.003468939776 -0.9999664031 -0.007426924847
-0.005665772029 0.05412145669 -0.04086659568 -0.3363052389 0.0053598757 0.9417377862
-0.01880269559 -0.005637265046 0 0.8711524239 0.230229816 -0.4336907725
0.01341151667 0.05944738007 -0.04502047348 0.7183199817 0.04808255752 0.6940493293
0.008361974239 0.02486268616 -0.07550549316 0.4108016724 -0.03571514933 -0.911024925
0 0.01704641151 -0.003297761917 -0.003662649307 0.9990010089 -0.04453727898
0.01013283577 0.05851535034 -0.04276283417 -0.5597390547 -0.0622585711 -0.8263268488
0.004424029668 0.0592001152 -0.04056582514 -0.1552029537 -0.07776692609 -0.9848169111
0 0.044274779 -0.04004708099 -0.04328487712 -0.00737850589 0.9990355234
-0.01573047581 0.039514048 -0.04742284012 0.7547193997 0.01526284676 -0.6558701649
-0.01013283634 0.05851536484 -0.04276286163 0.4963117411 -0.05568792234 -0.8663564572
0.01383732271 -0.01519582081 -0.01198342419 0.6671646628 -0.7447666789 -0.01462555446
0.01893564129 0.04908335304 -0.05255335045 0.8221043408 -0.007761467832 0.5692839472
-0.0190277106 0.05417970403 -0.05275639216 0.8255084533 -0.00326640032 -0.5643803011
-0.01341152191 0.05944745255 -0.04502061844 0.6560427374 -0.1318314317 -0.7431207171
-0.01253263187 -0.01595074654 -0.0450810585 0.5624059808 0.8257834449 0.04220444147
0.01646225357 -0.01234618855 -0.01826702118 0.755008103 -0.6557154439 0.0001452500632
-0.0162041533 0.05895033169 -0.0480637331 0.7468002648 -0.04072088207 -0.6638005531
0.0170946455 0.05548459625 -0.049193964 0.7770186744 0.01577900243 0.6292797492
-0.005372305473 -0.0198187294 -0.01349800777 -0.2651489745 -0.9636400333 0.03307427188
0.01342682505 0.01047063017 -0.03681839943 0.7819638538 0.6233058652 0.004725445314
0.01335151037 0.05443723424 -0.04497200394 0.642306244 0.02480698584 0.7660465406
-0.009741516511 0.0549049867 -0.04255839411 0.4945041781 -0.007581540763 -0.8691421852
0.003363606691 0.009554751396 -0.07560056814 0.1578933713 -0.2405254653 -0.9577145628
-0.0160740509 0.005784665585 -0.002277638346 0.8878949925 -0.4073086022 0.2138742268
-0.002639290253 0.05406958516 -0.04019004822 -0.1542641383 0.0173907244 0.9878765805
0 0.05400437291 -0.04005809021 0.05315254262 0.0141252233 0.9984864973
0.004404631217 0.05424960285 -0.04055497572 0.2449672194 0.02852134396 0.9691117553
0.009483665875 0.0546059603 -0.04242720304 -0.4598086419 0.01709078915 -0.8878535452
0.01524929476 0.05834025383 -0.04682903671 0.7411316421 0.03402543843 0.670496949
0.004347696304 0.03970195262 -0.04052779833 -0.2511035378 0.08076261394 -0.9645850991
0.008326746941 0.01991584396 -0.07547473145 -0.4503287714 0.0920077436 0.88810955
0.01715901184 0.05956040955 -0.04929842949 0.7680160896 0.03554086783 0.639443612
-0.01912053108 0.05932834816 -0.05295703125 0.8257293219 -0.0379445343 -0.5627888586
-0.01335153866 0.05443760935 -0.04497278214 -0.6432533092 0.009326154762 0.7655966321
-0.01021818066 -0.01788497162 -0.02157733917 0.538644211 0.8425254665 0.00364036602
0.0180474027 0.007896304448 0 0.8724751477 0.4510296388 -0.1880409039
-0.0187551918 0.03906635666 -0.05216623497 0.8021978419 0.008615123468 -0.5969961492
-0.01632464371 0.05440782471 -0.04820553513 0.7505142705 -0.02400247687 -0.6604182091
-0.0007698872487 0.01814566612 0 0.004810185393 0.9969773474 -0.07754373513
-0.005298057874 -0.01983216476 -0.00829703935 -0.2212774624 -0.9725619292 0.07183020654
0.01317517853 0.03971474266 -0.0448295784 -0.6404278624 0.09353958719 -0.7623007928
0.01581130918 0.05368997701 -0.04754658254 0.7404901574 0.01408573127 0.6719195778
-0.01404827642 -0.01500593567 -0.0176584692 -0.6387476226 -0.7693677179 -0.008648082911
-0.01826041222 -0.0094568367 -0.02201911545 0.8276667013 0.5607617993 -0.02267236242
-0.01096264505 0.01297869086 -0.02259982252 0.5675300781 -0.8224675632 -0.03816697476
-0.01058661143 0.0495368468 -0.04297915904 -0.4933605165 -0.01847538609 0.8696286914
0 0.03948441887 -0.04004626846 -0.06296067245 0.06908201858 -0.9956222318
0.004619640052 0.01814730835 0 0.2317977555 0.951427501 -0.2026215955
-0.01719974613 -0.0111813879 -0.01680569983 0.7992297497 0.6009874992 -0.00677000178
0 0.01706502533 -0.03756724548 -0.07357466179 -0.9947343864 0.07134612518
-0.006397663185 0.04920312119 -0.04111244583 -0.3474691594 0.0156346369 0.9375610601
0.00960807848 0.03961701638 -0.04246377291 -0.4710196212 0.08809403378 -0.877712913
-0.002627819657 0.04917541885 -0.04018339157 -0.1586506398 0.005151155952 0.9873213459
-0.01884506543 0.04405060196 -0.052360864 0.8218660534 -0.01143904909 -0.5695659211
0 0.04911235428 -0.04005200958 0.03833007827 -0.006220616554 -0.9992457701
0.004656570885 0.02441167747 -0.07696048058 -0.2815552841 0.02231753741 0.9592854369
-0.01617492142 0.04443093796 -0.0479853241 0.7556198686 0.004710341576 -0.6549934556
0.01446070862 0.00901762867 -0.01255752913 0.8061608425 0.5902025312 -0.0420198542
-0.01870172119 0.0361009407 -0.05205044174 0.8021978419 0.008615123468 -0.5969961492
-0.01893584824 0.0490852375 -0.05255746078 0.8217212948 -0.00331773721 -0.5698799051
0.004385441581 0.04934879303 -0.04054515902 0.2430462612 -0.001149633103 0.9700140171
0.009694027053 0.04932219527 -0.04252836185 0.526056722 -0.002509378892 0.8504457821
-0.005729975224 -0.01972587776 -0.03796492767 -0.2274887466 -0.9737468662 0.008118545239
-0.01131441879 -0.01717300797 -0.03221831989 -0.5606801622 -0.827980681 -0.009259999323
-0.006095046202 0.03991657575 -0.04100318654 0.3497086336 0.04314873809 -0.9358643374
0.01902757772 0.05417847188 -0.05275377655 0.8260999975 -0.006659179122 0.5634842051
-0.01587447662 0.04936896667 -0.04762272949 0.7493114395 -0.008412768785 -0.662164324
-0.01571234063 -0.01041651467 0 0.7918660437 0.4484268114 -0.4145618937
-0.01329215622 0.04947801781 -0.04492542648 -0.6246693687 -0.004911396452 0.7808739066
-0.01235262299 0.01180352306 -0.02859368324 0.6769135547 -0.735597085 -0.02617189406
0 0.01706579399 -0.02845324707 -0.06070666196 -0.9980348021 -0.01553174389
0.01329210615 0.04947735786 -0.04492402077 0.639822359 -0.007442948625 0.7684867932
0 0.01706616592 -0.02404397392 -0.05183314584 -0.9983024319 -0.02656274712
-0.01029141204 0.01352466679 -0.01246567376 0.571436558 -0.8201844141 0.02752793252
0.01587447662 0.04936896667 -0.04762272949 0.7351482598 -0.00218982002 0.6779028254
-0.005899741173 0.04444837332 -0.04093975973 -0.3463773345 -0.01534426167 0.9379697734
-0.002616475423 0.04433524195 -0.0401768074 -0.1649660941 -0.01570085146 0.98617426
0.01651735687 0.00421090889 -0.01322935772 0.9160394335 0.4006525205 -0.01868994944
0.01323336347 0.04457277425 -0.0448765742 0.6332604801 -0.009342943112 0.7738823384
0.004366479185 0.04450255712 -0.04053635915 0.2440030926 -0.02407025591 0.96947569
-0.01323343627 0.04457369868 -0.0448785998 -0.6236834454 -0.00955708784 0.7816185911
-0.01071293392 0.04411896133 -0.04304798813 -0.4835217787 0.01055474984 0.8752686941
0.008060721636 -0.01891869259 -0.03201121712 0.3637253695 -0.9313989637 -0.01413598497
0.01670897865 0.003460150361 -0.01799024677 0.9254086577 0.3785801642 -0.01720103035
0.01617492142 0.04443093796 -0.0479853241 0.7398722753 -0.004539735147 0.672732047
-0.01031240463 0.03939021759 -0.04281103058 0.5034008629 0.01929058183 -0.8638376264
-0.0102858984 0.01496592636 0 -0.5405211805 0.807145084 -0.2373892725
-0.00260524106 0.03954072189 -0.04017075157 0.1640259419 0.04496612293 -0.9854306359
0.01884478633 0.04404811351 -0.05235527802 0.8216385558 0.01148545164 0.5698931198
-0.01317527342 0.03971591187 -0.04483221626 0.6462699496 0.06145989725 -0.7606298924
-0.01213862562 -0.01659171963 -0.007657233238 -0.5846724538 -0.8084514399 0.06756027825
0.01216319227 0.01199608421 -0.02232586002 -0.6450499506 -0.762453021 0.05075383667
0.01679642868 0.03660103989 -0.04870996857 0.7570901219 -0.008675159182 0.6532528522
0.01573047581 0.039514048 -0.04742284012 0.7398511919 -0.01485574828 0.6726065124
0.005830621243 -0.01937415695 -0.04524571609 -0.3230582247 0.9423265194 0.0874877955
-0.005389632821 0.01814777756 0 -0.3174093579 0.9276851658 -0.1965999306
-0.01314065361 0.03682444 -0.04480460739 0.675232957 0.0762413787 -0.7336536689
-0.01383732271 -0.01519582081 -0.01198342419 -0.6119186885 -0.7905804981 -0.02319471178
-0.009232861996 0.01731011581 0 -0.3944709911 0.8885062397 -0.2344126687
0.01316449642 -0.01410174974 0 0.6527235129 -0.6702293664 0.353192033
-0.005562012196 0.01935850859 -0.076666605 -0.3511364939 -0.06891417136 -0.9337847716
0.009232861996 0.01731011581 0 0.4214735847 0.8617824192 -0.2822960846
0.01314054585 0.03682313538 -0.04480160522 0.7270163845 -0.01859385915 0.6863683013
-0.0009237916734 0.01458508439 -0.07703786129 -0.02353347151 -0.1285096079 -0.9914289972
0.0187548399 0.03906330872 -0.05215918922 0.8019969898 -0.008477555088 0.5972679126
-0.01679642868 0.03660103989 -0.04870996857 0.7674056143 0.008042162529 -0.6411114932
-0.0140537974 0.01341441552 0 -0.696875758 0.699096851 -0.1600867601
0.009056748231 0.01439483007 -0.02768287977 -0.5147345344 -0.8563642032 -0.04109392428
-0.006912434101 0.01563623238 -1.321661472e-05 -0.3944709911 0.8885062397 -0.2344126687
-0.005415653547 0.01613492076 -0.002484527985 0.3085659632 -0.9438901527 0.117721816
-0.002324700117 0.01689213181 -0.002938480377 0.1180072117 -0.9918607096 0.04781872743
0.01762121201 -0.01058364964 -0.008824747086 0.8385467804 -0.5384758679 0.08296406938
0.004642902136 0.0163236146 -0.002596600354 0.236825786 0.9606986624 -0.1448158384
0.006912434101 0.01563623238 -1.321661472e-05 0.3281087751 0.9071110243 -0.2636175663
0.0102858984 0.01496592636 0 0.5652503713 0.7888635118 -0.2412185263
0.0140537974 0.01341441552 0 0.7055309697 0.6801345759 -0.1991055236
-0.01473454094 -0.01431270409 -0.03607388687 -0.7054920635 -0.7085940962 0.01324217452
-0.01042081261 0.01343132973 -0.002701740727 -0.5966234404 0.788700441 -0.1482972852
-0.005481025875 0.01612364483 -0.007101086378 0.2415505711 -0.9645021282 0.1067190997
-0.002348938704 0.01689189339 -0.006902830601 0.153839831 -0.9851696273 0.07598757636
-0.01591058159 0.006232238293 -0.03744636917 0.8133665544 -0.5817513497 -0.0004640175353
0 0.01705222702 -0.007280644417 -0.07034565795 -0.9932732313 0.09197704232
0.01021818066 -0.01788497162 -0.02157733917 0.5264259591 -0.8501069155 -0.01392630123
0.004304535687 0.01645264482 -0.006874056697 -0.1899773148 -0.976624616 0.1005633094
0.01870132637 0.03609757614 -0.05204252625 0.8019969898 -0.008477555088 0.5972679126
-0.009783738136 0.01389025736 -0.007841247916 0.5068472157 -0.8538666031 0.1183964696
-0.005158699751 0.01622678804 -0.01244537377 0.2722094363 -0.9619344816 0.02416766181
-0.01277874279 0.01169864845 -0.04256756973 0.7301456571 -0.6832699312 -0.005433289855
0.01889701949 -0.0008077525496 0 0.6219817603 -0.01059486372 -0.7829600493
-0.01602845028 0.008994292327 0 0.8603239523 -0.4817281688 0.1666753385
-0.002386309862 0.01689152718 -0.0130151577 0.2096698954 -0.9777695811 0.002276236727
-0.01372768593 0.01918131542 -0.07073928833 0.7057722457 0.07296833958 0.7046709577
0 0.01705816269 -0.01134647846 -0.02386694585 0.9997077484 -0.003845355921
0.007890101671 -0.01898302746 -0.02337978268 0.3822966494 -0.9240082745 0.007614487487
-0.004588098049 0.01017190266 -0.07552053833 -0.2512697617 -0.2278015864 -0.9407284114
0.003655798435 0.01662779312 -0.01279326172 -0.1934132687 -0.9809373284 -0.01879535224
-0.01446068732 0.00901744016 -0.01255705134 0.8278240122 -0.5601880538 0.02994577228
0.009237932682 0.01422608871 -0.007832127762 -0.499029057 -0.857430394 0.1256308866
0.01923341942 -0.00725280714 -0.009062355042 0.9269363002 -0.3614911838 0.1005645039
0.009274523616 0.01429116416 -0.03741875267 -0.4710825991 -0.8808536472 0.04666944354
-0.01360692215 0.01021728992 -0.003001817962 0.759746705 -0.6400834885 0.1143593986
0 0.01706537724 -0.01761339951 -0.07089577719 -0.9974827495 0.001397548055
0.009500567913 0.01402724028 -0.01230085802 -0.575140401 -0.8174009962 0.03269756122
0.0136069533 0.01021756935 -0.003002508501 0.7534796488 0.6460530889 -0.1219992837
0.003931652308 -0.02016152827 -0.02311345228 0.1829433319 -0.9830273353 0.01374755915
0.01542252121 0.00932383194 0 0.7826945206 0.5843833123 -0.2142088506
0.01124056816 -0.01720445824 -0.003310245275 0.5203577505 -0.8373899721 0.1673494731
-0.006035630107 0.01592342734 -0.01800256157 0.3437945568 -0.938928175 -0.01480489235
-0.002424737692 0.01689114952 -0.01930026817 0.2098866825 -0.9775996718 -0.01569911127
0.004028204521 0.01653646151 -0.01843356005 -0.2305214089 -0.9728751294 -0.01933552838
0.01595025444 -0.01296142769 -0.006547516823 0.7547283355 -0.6451062984 0.1192602342
0.009358401219 0.01412091748 -0.01747363043 -0.527439985 -0.8493272156 0.02122128535
-0.01905566216 0.007348026752 0 0.9216145487 -0.3189008167 0.2211987631
-0.01402919197 0.00965091753 -0.00777740097 0.7768537115 -0.6051765854 0.1739528998
-0.01041705751 0.01344045591 -0.01721523547 0.5585498646 -0.8294510108 -0.005750606416
-0.005707257907 0.01604454041 -0.02297006798 0.3133611791 -0.9496087802 -0.006923579964
-0.002451090336 0.01689089203 -0.02361043739 0.195615086 -0.9801892717 -0.03104399802
-0.01576590919 0.006602873325 -0.03357084274 0.8120877625 -0.5835289231 0.002731636151
0.00407172823 0.01652927144 -0.02271588643 -0.2267103042 -0.9739595654 -0.002281000695
-0.005225872517 -0.01984522629 -0.003240549564 0.2194880709 0.9541326217 -0.2036072861
-0.01923341942 -0.00725280714 -0.009062355042 0.9007569272 0.4293702457 -0.06540757024
0.01402928686 0.009651769638 -0.007779533148 0.7781081473 0.6053461386 -0.1676417717
-0.00829326725 0.01589132118 -0.07518692017 0.4901672997 0.1463445258 0.8592550833
-0.01899180412 0.004070065975 0 0.9420470911 -0.198582703 0.2703926557
-0.01074723005 -0.01751673508 -0.01228368616 0.5514784741 0.8341410539 -0.0089551504
-0.01746977806 0.004069130977 0 0.9423157398 -0.2509797263 0.2214728507
-0.005769291083 0.01602345562 -0.02732765198 0.3317156373 -0.9424643654 0.04154101379
-0.002478017569 0.01689062691 -0.0280145607 0.1670527593 -0.9859435006 -0.002964658226
0.00411615936 0.01652070618 -0.02708807691 -0.1646984239 -0.9861027033 0.02181485018
0.008960586548 0.01445088991 -0.02336806107 -0.5251897629 -0.850464762 -0.02975569634
0.0160740509 0.005784665585 -0.002277638346 0.8724751477 0.4510296388 -0.1880409039
0.01823079109 0.004069598476 0 0.9605545856 0.2089468419 -0.1835105048
-0.01414160411 0.009497612794 -0.01813744672 0.8519375012 -0.523177776 -0.02207960112
-0.0186016922 -0.008838592529 -0.02905750275 0.8164573984 0.5773996798 0.002631803745
-0.009866471291 0.01389594793 -0.02716553688 0.5746584729 -0.8180357975 0.02418829433
-0.005843757987 0.01601433015 -0.03257650566 0.3989522532 -0.9166245454 0.02522979433
0.01620215988 -0.0126587286 -0.01231353474 0.7503160142 -0.660556432 -0.02628838049
-0.002505521536 0.0168893528 -0.03251337433 0.186451857 -0.9822844751 0.01878603099
0 0.01706541443 -0.03295985794 -0.05853245651 -0.9980846386 0.02002512801
0.008938455105 -0.01849813461 -0.00174409847 -0.3966017578 0.8716088286 -0.2881060492
0.004590421557 0.01639686203 -0.03240831375 -0.2181899708 -0.9756600149 0.02192423101
0.01426742601 -0.01479876661 -0.02354797554 0.6701102492 -0.7421614137 -0.01219384746
0.01414162763 0.009497842948 -0.01813803736 0.8249758707 0.5648355482 0.01938081982
-0.01633027077 0.004940555334 -0.008582429886 0.8453544231 -0.5195185606 0.1244040376
-0.009973092556 0.01382919216 -0.03154972649 0.5937026589 -0.8045553257 0.01441806855
-0.005919423421 0.01597268232 -0.03787306849 -0.4033109038 0.9149949688 -0.01115894169
-0.002533610344 0.01688640976 -0.03710851669 0.1838804765 -0.9821629707 0.03929210406
0.004229929765 0.01649580002 -0.03766488266 0.241337981 0.9691156051 -0.05070426885
0.00915498813 0.01433756034 -0.03209103394 -0.5004121888 -0.8655323139 0.02101082721
0.01633080673 0.004944751263 -0.008593343258 0.8546830812 0.506949576 -0.1118881498
-0.0196543347 -0.0008078471919 0 -0.45420766 0.0149406619 -0.8907705531
-0.009116894722 -0.01834867859 -0.04277771759 0.4622352788 0.884829058 0.05844728546
-0.01738238907 -0.0008075632652 0 -0.13548864 0.0007109144321 -0.9907786448
-0.01457471371 0.008786251545 -0.02299442196 0.8408106171 -0.5393286884 -0.04649808566
-0.009832012494 0.01394983451 -0.03731560771 0.5832922425 -0.8122344916 -0.006729821608
-0.005296822707 0.02900480843 -0.07680602519 -0.2216584371 0.02773488693 -0.9747298668
-0.0009366813898 0.0296361138 -0.07758609136 -0.03627529095 0.07120147155 -0.9968021136
0.004302122927 0.02923946838 -0.07707129364 0.1952286772 0.04983783952 -0.9794906602
0.01392764568 0.009625436306 -0.02748049672 0.7970950603 0.6035707039 0.01848973543
0.01457480097 0.008787093639 -0.02299661255 0.8141285617 0.5786823481 0.04818116879
0.009882746696 -0.01559401349 0 -0.5504913819 0.7823599638 -0.2913282092
-0.01651594543 0.004199980259 -0.01320055866 0.9163169371 -0.4000241423 0.01854605856
-0.01471501637 0.008535045385 -0.02692035294 0.8235332375 -0.566755114 -0.02411737015
-0.0124824419 0.01167155933 -0.03288907623 0.6906831214 -0.7223700207 -0.03373987159
0.01576350594 -0.007235304832 0 0.8915933168 -0.3782102079 0.2490349294
-0.008382601738 0.02783875275 -0.07549315643 -0.3530530718 -0.005402918673 -0.935587696
0.008382601738 0.02783875275 -0.07549315643 0.3409045614 0.01348495633 -0.9400011894
0.01328933144 0.01064817667 -0.03253011703 0.7582989724 0.651700612 0.01640063367
-0.004891538239 -0.01889801445 0 0.1878485204 0.9482372113 -0.256045161
-0.01670703602 0.003445379734 -0.01795051479 0.9256301535 -0.3780437226 0.01708106257
-0.01409593868 0.009622131348 -0.03216404724 0.7776218811 -0.628730421 -0.001505867703
-0.01261431503 0.01152922821 -0.03725560379 0.7175124505 -0.6964436996 -0.01191875384
-0.01107237339 0.01327185726 -0.04190808487 0.7301456571 -0.6832699312 -0.005433289855
-0.01078928661 0.02389891942 -0.07379857127 -0.58404135 -0.02502625663 -0.8113380232
-0.008361974239 0.02486268616 -0.07550549316 -0.4091731697 -0.02744194441 -0.9120439994
-0.005585643371 0.02431728299 -0.07670534388 0.3358775174 0.01812029834 0.9417313566
0.009587845802 0.01082687807 -0.07317169189 0.5944832859 -0.2062005472 -0.7772200185
-0.0009327994188 0.02464340507 -0.0775867903 -0.04885255159 -0.01171132247 -0.9987373394
0.01078926023 0.02389859835 -0.07379770152 0.5507364203 -0.02902649086 -0.8341743572
0.01107237339 0.01327185726 -0.04190808487 0.6868846523 0.726735768 -0.006678165653
-0.01691277456 -0.006035814285 0 0.885330274 0.3518968254 -0.3039061208
-0.01561876297 0.00692416048 -0.02965032387 0.8254886767 -0.5626645308 -0.04446426084
-0.01423920345 0.009410802841 -0.03637786865 0.8014940924 -0.5979972935 -0.002541021673
0.01358339596 0.01045900059 -0.04165634727 0.799412467 0.6007814348 -0.001172690167
0.01561876297 0.00692416048 -0.02965032387 0.8861276304 0.4625490286 0.02874402063
0.01804927985 -0.005636624575 0 0.8980081274 -0.2580517202 0.3563575631
-0.01689141273 0.002595083952 -0.02258023643 0.9266733402 -0.3757067878 -0.01099683034
-0.01438804913 0.009219351768 -0.04074512482 0.8124911691 -0.5829657083 0.003013811349
-0.009587845802 0.01082687831 -0.07317169189 -0.5646740022 -0.2387315759 -0.7900319652
-0.01087115402 0.01965520401 -0.07366741028 0.6432159179 0.07226080607 0.7622674458
-0.008326746941 0.01991584396 -0.07547473145 0.4403575766 0.08347853863 0.8939331845
0.01087115192 0.01965517883 -0.07366734161 0.6169075015 -0.08093834907 -0.782862771
0.01372768593 0.01918131542 -0.07073928833 0.7057748274 -0.07294649893 -0.7046706332
-0.002436482191 -0.02043671608 -0.03547909927 -0.09411287893 -0.9953510978 0.02046846609
0.01576590919 0.006602873325 -0.03357084274 0.8639404267 0.503593869 -0.0003926110854
0.01689141273 0.002595083952 -0.02258023643 0.9210973831 0.3893078301 0.004361673688
-0.01542614365 0.01710645676 -0.06768095398 0.7659724153 0.1003683455 0.6349901214
-0.000928835839 0.0196736056 -0.07754660161 0.04994729009 0.06635390972 0.9965452458
0.004636843959 0.01944877497 -0.07691869863 -0.2999176319 0.06760307145 0.9515667285
0.01542614365 0.01710645676 -0.06768096161 0.7659708468 -0.1003655479 -0.6349924556
-0.0007887422244 -0.02052110481 -0.02373411115 -0.02957131325 -0.9995497432 0.00508411721
0.01591058159 0.006232238293 -0.03744636917 0.8422091709 0.5389621571 -0.01426554456
-0.008938455105 -0.01849813461 -0.00174409847 0.4250779645 0.8628295751 -0.2735577606
-0.0188380394 -0.008235186577 -0.001685313821 0.8848205208 0.3781701308 -0.2721764098
-0.01605944633 0.005866659641 -0.04142815399 0.8418182346 -0.5396987491 0.008204882891
0.004076521317 -0.02013138135 -0.03654694112 0.1614845254 -0.9865241365 -0.02632254094
-0.01478400993 0.01338620377 -0.06804597219 0.7252653225 0.1370709987 0.6746864111
-0.01366883802 0.01516217375 -0.07035017014 0.6840121861 0.1384568525 0.7162101851
-0.01068986003 0.01455144978 -0.07321128082 0.6321223243 0.1522122924 0.7597715348
0.01068985987 0.01455144978 -0.07321128082 -0.6055226981 0.1614593073 0.7792773282
0.01366883802 0.01516217375 -0.07035017014 -0.6840102553 0.1384306783 0.7162170886
0.01478400993 0.01338620377 -0.06804597219 0.7252644975 -0.1370680212 -0.6746879028
0.005199661732 -0.01671042951 0 -0.3087917634 0.9026886521 -0.2996678901
0.01605944633 0.005866659641 -0.04142815399 0.8408137645 0.5411130274 -0.01512960903
0.01470540619 -0.01094370572 0 0.7417541828 -0.5971329429 0.3053407619
-0.01901069832 -0.007864289761 -0.03740347672 0.8362402199 0.5482665704 0.01029866514
0.01722437382 -0.009625505447 0 0.8357493273 -0.4715244896 0.2814031229
0.01808057022 -0.009660715103 -0.002173841298 0.8827253798 -0.4123528909 0.2253020136
-0.005531443834 0.01426553742 -0.07611465963 0.3409901988 0.1392709061 0.9296931209
0.004611420896 0.01435541884 -0.07637434048 -0.2868707473 0.1390526093 0.9478235839
0.01449695444 -0.01456115675 -0.02970376301 0.6685606249 -0.7436399747 -0.005126288302
0.00829326725 0.01589132214 -0.07518692017 -0.4970169351 0.1411156467 0.856189547
-0.019659132 -0.006148726463 -0.01698764992 0.8820476111 0.4710477813 -0.01029560698
-0.01732434845 -0.01107814312 -0.002685855865 0.795808626 0.5772528287 -0.1829420743
-0.01587006474 -0.0128742485 -0.0436986618 0.724931087 0.688810108 -0.003943890698
0.01114310789 -0.01728885078 -0.02626102924 0.5394734725 -0.8417126075 -0.02209657866
-0.01269480038 -0.01199764252 0 0.6580512083 0.6435518385 -0.3909087341
0.019659132 -0.006148726463 -0.01698764992 0.8827411531 -0.4698560386 0.00183292697
-0.01678783607 -0.01175905228 -0.007725799561 0.7985141974 0.5943791202 -0.09533382403
-0.01494337368 -0.0140605526 -0.0009074821174 0.7229985047 0.6404677245 -0.2589869805
-0.01416653156 -0.01357861423 0 0.6575541467 0.6670028751 -0.3503280016
-0.00845691967 -0.01874570465 -0.01349617672 -0.4118215699 -0.9108989482 0.02580892764
-0.01050068718 -0.01532052549 0 0.5437870777 0.7742632914 -0.3237467678
0.01419302336 -0.01477759107 -0.001117695908 0.6781102656 -0.6683600972 0.3057143245
0.007179162502 -0.01929178047 -0.02789428329 0.3591250606 -0.9332802798 0.00413644845
-0.006412121773 0.009932295799 -0.07480879974 -0.3528510307 -0.2429083677 -0.903599289
-0.0009171203375 0.009298064709 -0.0757958107 -0.1015025431 -0.2380022314 -0.9659462571
0.006412121773 0.009932294846 -0.07480879974 0.3780943405 -0.1905060331 -0.905953708
0.01792986488 -0.01006328297 -0.01520503712 0.8389747908 -0.5441275526 0.006819598372
-0.01620215988 -0.0126587286 -0.01231353474 0.7547509308 0.6546984658 0.04148435136
-0.01439015198 -0.01467757797 -0.006191359997 0.7138461684 0.6916232709 -0.1099131428
-0.01732855988 -0.01113293362 -0.03803069305 0.7762676538 0.6302518955 0.01382309387
-0.01196644545 -0.01670806313 -0.002424184382 -0.5662217964 -0.8056386158 0.1741817959
-0.005199661732 -0.01671042951 0 0.3050790111 0.8858258856 -0.3496273694
0.01363284874 -0.01537878323 -0.00648253274 0.6748985291 -0.7315606928 0.09659672982
0.01825437737 -0.009494551659 -0.02190492058 0.8338508432 -0.5515744392 0.02141049639
-0.008158308029 -0.01827741051 0 0.4250779645 0.8628295751 -0.2735577606
-0.0007409292857 -0.01905211004 0 -0.0007726981296 0.9634914535 -0.2677379726
-0.005435436964 -0.01978691769 -0.01801290131 -0.2616162556 -0.965152832 0.006078300771
0.00412903813 -0.01894210952 0 -0.1167346153 0.943567714 -0.3099241823
0.008158308029 -0.01827741051 0 -0.3966017578 0.8716088286 -0.2881060492
0.0186016922 -0.008838592529 -0.02905750275 0.8181980755 -0.5749348705 -0.001343120922
-0.01673537254 -0.01199384308 -0.02450940514 0.7664024071 0.6415096411 -0.0330564799
-0.009063367367 -0.018444767 -0.00683296895 -0.4156018115 -0.9035817559 0.1039958882
0.004478866816 -0.01999427223 -0.00317890805 -0.1907130497 0.9627204598 -0.1918276545
0.009063367367 -0.018444767 -0.00683296895 0.4575239095 -0.8832577917 0.1026038284
0.01140170574 -0.01710345078 -0.008540760994 0.5586659715 -0.8284300821 0.03994910968
0.01404827642 -0.01500593567 -0.0176584692 0.6700472693 -0.7421891582 -0.01385316941
0.01673537254 -0.01199384308 -0.02450940514 0.7629137492 -0.6462552296 0.01779858164
0.01901069832 -0.007864289761 -0.03740347672 0.817207322 -0.576325681 -0.004571901931
-0.01702199173 -0.01160213566 -0.03105197334 0.761255112 0.6484258294 0.005882031824
-0.01426742601 -0.01479876661 -0.02354797554 -0.6705952275 -0.7417436825 -0.01087889062
-0.0007459499041 -0.02050999832 -0.002776000102 0.02196375122 0.9722047555 -0.233099779
-0.0007561852932 -0.02051322301 -0.007793447177 -0.1039047371 -0.9906885377 0.08797742279
0.004540682375 -0.0199851141 -0.008227035761 0.1897425295 -0.9792863191 0.07068293808
0.01074723005 -0.01751673508 -0.01228368616 0.5353744906 -0.844591765 -0.006237415608
-0.01149123192 -0.01705314827 -0.0383667202 -0.5472507702 -0.8363047354 -0.03333142677
0.01702199173 -0.01160213566 -0.03105197334 0.7526987252 -0.6582318732 -0.0132450075
-0.01449695444 -0.01456115675 -0.02970376301 -0.6705011431 -0.7416388248 0.02000176378
-0.01090416384 -0.0174293108 -0.0177418251 -0.5624133156 -0.8265064592 0.0240486034
0.00460426259 -0.0199756937 -0.01341918659 0.195478106 -0.9802647306 0.02948504839
0.00845691967 -0.01874570465 -0.01349617672 0.426615304 -0.9038860776 0.03145379353
0.01090416384 -0.0174293108 -0.0177418251 0.520984873 -0.8535630622 0.002204755963
0.01732855988 -0.01113293362 -0.03803069305 0.7672357314 -0.6412640814 -0.0113890451
-0.01114310789 -0.01728885078 -0.02626102924 -0.57426279 -0.8181400337 -0.02948106702
-0.008579115868 -0.01869409943 -0.01892609215 -0.3976271753 -0.917542424 0.00292055066
0.004401168187 -0.0200075957 -0.01817478943 0.1824706038 -0.9831362169 0.01215145213
0.008579115868 -0.01869409943 -0.01892609215 0.3914850313 -0.9199912288 0.0188576027
0.01391908042 -0.01504528936 -0.03648284149 0.6860043579 -0.7275053748 -0.01157370043
-0.008705041885 -0.0186400795 -0.02452146339 -0.4069295796 -0.9134211794 -0.008370555548
-0.005501297235 -0.01978852208 -0.0225288887 -0.2175501629 -0.9760490212 -0.0004846067874
-0.0007775435448 -0.02051983897 -0.01826235326 0.02691964672 0.9994240467 -0.0206617398
0.01209841347 -0.01664864922 -0.03114895821 0.5554975493 -0.8313526702 0.01658947045
0.01587006474 -0.01287424755 -0.04369866562 0.7213235888 -0.6924836821 0.01259484926
-0.0141548214 -0.01477048588 -0.04317993164 -0.6004364425 -0.798676513 -0.03989869851
-0.008835103989 -0.01858084488 -0.03029925537 -0.4314410196 -0.9020688944 -0.01141736842
0.00397809732 -0.02012825108 -0.02788561916 0.2556497769 -0.9665024613 -0.02271967989
-0.006367264509 -0.01955368233 -0.02700806046 -0.387856881 -0.9216752592 -0.009041927288
0.01053042412 -0.01769736671 -0.03328768158 0.5183144581 -0.85472149 0.02830718941
0.01334372711 -0.01536061621 -0.04413049698 -0.6042104494 0.7949357146 0.05483559522
-0.008969202042 -0.01851977158 -0.03625635147 -0.4083126423 -0.9126504778 -0.01870538746
-0.005644929727 -0.01974957212 -0.03202747917 -0.2921564848 -0.9563222274 -0.009611752469
-0.000800276041 -0.0205224088 -0.02936902428 -0.03014415149 -0.9994072105 0.0166300229
0.004824224949 -0.01999608803 -0.03117962933 0.2453342127 -0.969386041 -0.01009096458
0.008183022976 -0.01886998844 -0.0379947052 0.351630212 -0.93569903 -0.02869702618
0.01069430447 -0.01759583664 -0.03943268967 0.5351375553 -0.8428014489 -0.05756313674
0 -0.02056726837 -0.03502253342 0.004309535841 -0.9999906365 0.0003934345061
0.009116894722 -0.01834867859 -0.04277772141 0.4853611807 -0.8719609356 -0.06409876055
-0.005830621243 -0.01937415695 -0.04524571228 0.3066864424 0.9451129372 0.1127162898
-0.004137645245 -0.02004624939 -0.04286023712 0.2575390792 0.9640999477 0.06469090813
-0.00082493186 -0.02047435252 -0.04133902105 0.04150567836 0.9981166973 0.04517009238
0.003306220412 -0.02020684624 -0.04228957176 -0.1286773788 0.9878129234 0.08756574977
