# .PCD v0.7 - Point Cloud Data file format
VERSION 0.7
FIELDS x y z normal_x normal_y normal_z
SIZE 4 4 4 4 4 4
TYPE F F F F F F
COUNT 1 1 1 1 1 1
WIDTH 371
HEIGHT 1
VIEWPOINT 0 0 0 1 0 0 0
POINTS 371
DATA ascii
-0.0001852506697 -0.01893910456 0 0.01961484837 0.9726843195 0.2313016911
-0.0182604847 0.06060000229 -0.06087751198 0.9866465084 0.1591435816 -0.03466969745
-0.01410473029 -0.009583822727 -0.01086932961 0.8692024107 0.4940381071 0.02033513967
-0.00502494971 -0.01873039118 0 0.2688187955 0.925125013 0.2681047658
-0.006187202045 -0.01618198381 -0.001149859399 0.4382477452 0.8925307368 0.1064321269
-0.01893910456 -0.0001852506697 0 0.971912201 0.01835489429 0.2346268771
-0.01902251244 0.06060000229 -0.0660923996 0.9292521726 0.2066418301 0.3062508019
-0.01259781265 -0.01148189449 -0.002375601292 -0.6976989539 -0.716127048 0.01944790109
-0.01618136774 -0.006186678137 -0.001149291188 0.8871130983 0.4560525062 0.07103845744
0.004425809383 -0.01650657654 -0.006041728258 0.1385594333 -0.9736601283 -0.1810724662
-0.01027280531 -0.01406130018 -0.001355767167 0.6858678036 0.7276985402 -0.006339603478
-0.0003180925591 0.05016574587 -0.07761103058 -0.1143205361 -0.04195160869 -0.9925577452
-0.01203109074 0.05867190552 -0.0726902771 -0.6945799878 -0.05546427857 -0.7172742533
-0.01321516895 0.05094777679 -0.04486403275 0.540964639 -0.03738802131 -0.8402138985
-0.014421211 -0.009964614272 -0.001095139936 0.8511685999 0.5237909955 0.03398540272
0.01449399328 0.05930575638 -0.04641150894 0.706475518 0.121357788 0.697255068
-0.01873039118 -0.00502494971 0 0.9213947374 0.3170531283 0.2247421895
-0.01652347231 0.004775581539 -0.001143575966 0.959081152 -0.2250660542 0.1717807184
-0.01020559486 -0.01362295167 -0.01586335961 -0.6118345622 -0.7906488872 -0.02308258447
0.004587709586 -0.01914762306 0 -0.097109781 0.955024364 0.2801752213
-0.0004251163055 -0.01696805541 -0.001688110068 -0.01200043448 0.9811146045 0.1930547136
-0.01697080676 -0.000427872618 -0.00169066414 0.9855355642 0.06785102748 0.1552929159
-0.005732275009 -0.01603136571 -0.02079956818 -0.4318761959 -0.9018909526 0.008698335593
0.0205460825 0.03981861687 -0.06115871334 0.9971271389 -0.01718627376 -0.07377059569
0.01701026058 0.04021848488 -0.04903252602 0.8083695328 -0.01355106718 0.5885193854
0.01690006574 0.03498173269 -0.04885797755 0.8246249862 -0.02042212706 0.5653110373
0.01450766981 0.01450758982 -0.02615160823 -0.706550827 -0.707638629 -0.005787891578
-0.01022118749 -0.01361229504 -0.01094147068 -0.6628359654 -0.74874814 -0.004970499861
-0.01914762306 0.004587709586 0 0.955775786 -0.09686910032 0.2776851171
0.01841978158 0.04487185287 -0.0515330268 0.9075446943 0.02392415259 0.419273494
0.007828007539 -0.01515005207 -0.006508218129 -0.2353534042 0.9552867551 0.1789860069
-0.014457551 0.01375212574 -4.066156844e-05 0.6030923329 -0.6172353085 0.5052724136
0.004742141187 -0.01656046867 -0.001178139448 0.235444442 -0.9556069731 -0.1771474746
0.01467327865 0.01467274793 -0.0413434852 0.7622199844 0.5715155633 0.3039583134
-0.005698147416 -0.01603720212 -0.005787 0.4202853381 0.9007596049 0.1095096738
-0.01023566008 -0.01360086711 -0.006088634729 -0.6793788611 -0.7336205233 -0.01566176399
-0.01593334365 -0.005989424527 -0.01613324392 0.9082734374 0.4177568927 -0.02277150593
0.004640588284 -0.01644035467 -0.01070952352 -0.1544442867 0.98258659 0.1032983803
0.004915154616 0.03022489802 -0.04066866938 0.2434289533 0.01161526162 0.9698491792
-0.0126049695 -0.01148220634 -0.006210663557 -0.7013549974 -0.7127913531 0.005445596675
0.01801834679 0.05733205795 -0.07054073334 0.7743152866 0.1204954183 -0.6212219338
0.009384303517 0.04998041874 -0.04233518219 0.4672603234 -0.02618811082 0.8837318445
-0.0164445734 0.004481818438 -0.005982735157 0.9736117896 -0.1383594571 0.1814848308
0.005576659203 -0.019782444 -0.00423708868 0.1385594333 -0.9736601283 -0.1810724662
0.01994173622 -0.005105522792 -0.02567401059 0.9896421092 -0.1413465407 -0.0250928489
-0.01408853173 -0.009602171659 -0.006017655611 0.84346576 0.5356033736 0.04116476552
-0.009291509469 0.04528833389 -0.04229571533 -0.4029292136 0.0003437836803 0.9152310805
-0.01602947056 -0.005690930068 -0.00577970022 0.9013289866 0.4202261389 0.1049573726
-0.01262324667 -0.01148300314 -0.01600470543 -0.7031560072 -0.7110339256 0.001544734108
-0.01136322419 0.01523526478 -0.0005219055464 -0.6364867273 0.7692967274 0.05538222805
0.01166901159 0.01711884594 -0.04065109253 0.6916182142 0.5413974789 0.4780721866
0.019852983 -0.005135010004 -0.01107702971 0.9931194938 -0.1168819292 0.007230885992
-0.0152078174 0.007776415984 -0.006563782533 0.9604728654 -0.2213876189 0.1687583986
0.008875202179 -0.01829083443 0 -0.3874899036 0.9118183534 0.1357897827
-0.01536157131 0.01567185688 -0.04480821609 -0.5399813197 0.156771412 0.826947942
0.00898358469 -0.01548043404 -0.0008068516254 -0.3874899036 0.9118183534 0.1357897827
-0.0126140426 -0.0114826018 -0.01107248783 -0.70189545 -0.7122673503 0.004242518209
-0.01585928059 0.05306212616 -0.04747697067 0.8503257129 -0.09938889017 -0.5167862523
-0.0003307405923 -0.01698117283 -0.00577133315 -0.03703564168 -0.9908488844 -0.1297954139
-0.0169918044 -0.000340692286 -0.00578143348 0.9856156376 0.1018634478 0.1348541911
-0.01548222771 0.008981981659 -0.0008085530996 0.9110146856 -0.3737698929 0.1742076627
0.01950249553 7.842577342e-05 -0.0007546928395 0.9256440764 0.0006097200239 0.3783948626
-0.01829083443 0.008875202179 0 0.9110146856 -0.3737698929 0.1742076627
-0.005835996509 -0.01597974122 -0.01091064203 -0.4111036876 -0.9115642192 -0.006665760625
-0.0159705838 -0.005827410817 -0.01090170908 0.9124278924 0.4091915592 0.006132626178
-0.01980174446 0.005559585571 -0.004255024433 0.9736117896 -0.1383594571 0.1814848308
-0.01604341957 0.05039781134 -0.06616667012 0.9212130967 0.01646644403 0.3887097718
0.01941387494 -0.004976056774 -0.0006278393529 0.9224750729 -0.214167691 0.3212038916
0.01844726862 0.03503890446 -0.05154354749 0.9057724208 -0.02162926821 0.4232121177
0.0145670859 0.01445135413 -0.01096237765 -0.7064813851 -0.7077167581 0.004587239072
-0.005991626203 -0.01593573129 -0.01613563442 -0.4183216565 -0.9077687353 0.03103087095
0.009075962748 0.01828056063 -0.001387319616 -0.4021946002 -0.9005554083 -0.1650438131
0.01432388473 -0.01405418181 -0.0007900235429 -0.6218436267 0.6108146798 0.4901182826
0.01830239034 0.05002001715 -0.0513045969 0.8822182842 -0.01782464899 0.4705031146
9.166778717e-05 0.01951432657 -0.0007414229698 -0.0006602395735 0.9564893638 0.2917664494
-0.00018913435 -0.01696042633 -0.01051319218 0.04554816627 0.9971732435 0.0597568989
-0.0169730978 -0.0002009231187 -0.01052550292 0.9929228945 0.1081094953 0.04915752756
0.01160924768 0.01697003937 -0.03044545937 -0.5761185733 -0.8171874437 0.01709009457
-0.006097017288 0.01700977802 0 -0.3494906053 0.906258179 0.2378075478
0.0150668232 -0.01107595539 -2.78283149e-05 0.7682958854 -0.6290942098 0.1181605163
0.01700977802 -0.006097017288 0 0.9140082907 -0.3422045175 0.2179103319
-0.01412116265 -0.00956520915 -0.01579099917 0.874268897 0.4852618117 0.01322383584
-0.0002043170705 0.0207649231 -0.03963664246 0.09660586213 -0.7532612398 -0.650588051
-0.01376202691 -0.01003058398 -0.02110439491 0.8442970423 0.5351639621 0.02760503708
0.01976966381 0.05511031628 -0.06610390091 0.9592178113 0.111236442 -0.2598608176
-0.01639553833 0.004681040446 -0.01066594855 0.982885684 -0.1538795148 0.1012759944
-0.01262883949 -0.0114832468 -0.01900137138 -0.7043250567 -0.7096248508 -0.01894163636
0.01773423767 -0.008605126381 0 0.8781814118 -0.349820226 0.3262257154
0.01699755669 0.01163757133 -0.0304108181 0.8159827802 0.5778868679 -0.01479426602
-0.0003456861423 -0.01697919774 -0.01574950159 0.08501695358 0.9963706051 -0.004211284873
-0.01699620891 -0.0003613848127 -0.01576639307 0.984422368 0.1741685193 -0.02404013735
-0.008605126381 0.01773423767 0 -0.3541329426 0.8745784315 0.3312135657
-0.01602525791 -0.005726537466 -0.02079336707 0.8978314453 0.4398899812 0.01988719139
-0.01018960434 -0.01363364919 -0.02086818716 -0.6115351029 -0.7897036274 -0.04891828732
0.02023564363 0.01469767284 -0.05603332806 0.9852664946 0.08545364283 0.148147256
-0.005141474366 0.04498258654 -0.04073348999 -0.311508865 -0.006886311945 0.9502182937
-0.004973719597 0.01941590691 -0.0006255674834 -0.2160115843 0.9190204101 0.3297582164
0.0145948809 0.02978301557 -0.04619613711 0.7095256792 0.02038844177 0.7043845696
0.01969859727 -0.005624452829 -0.005764440457 0.9409043569 -0.3086896536 0.1393186597
-0.002129354954 -0.01694149017 -0.02039315796 0.3551692413 0.934769656 -0.00777818915
-0.01694347382 -0.002131202221 -0.02039517212 0.9408576096 0.3385864714 0.01208965475
-0.005584454775 0.01973353545 -0.005724515994 -0.3050995465 0.9420047925 0.1397899769
0.0196884799 0.00452551043 -0.001029943988 0.9533350825 0.2200724239 0.2066890144
0.02052384159 0.05499146979 -0.06092618343 0.9967597701 0.06904868457 0.04125820926
0.01750374413 0.02312254333 -0.07145944977 0.9324869935 -0.006857018005 -0.3611384613
0.01185560131 0.04534534836 -0.04377906418 0.5657909501 -0.01402975968 0.8244293582
0.01172567399 0.01687053363 -0.006219273885 -0.5556252907 -0.824362123 -0.1082017866
0.01671306801 0.006435830355 0 0.919038128 0.3209526672 0.2288193712
0.01607040389 0.01061660727 -0.0005295081039 0.7993154109 0.5541251864 0.2324653774
0.01827688626 0.009072139399 -0.001391368985 0.9007700386 0.4009390138 0.1669168797
-0.01017669646 -0.01364236832 -0.02492371241 0.522210528 0.8521822136 0.03288828431
0.01981411266 0.04959475899 -0.06575182629 0.9723050436 0.02578753237 -0.2322884097
-0.01604474878 0.05507238102 -0.06625994015 0.9119307376 0.07494962701 0.4034413008
-0.01364767234 -0.01018187586 -0.02492927488 0.8580438852 0.5096270597 0.06356847562
0.009566108121 0.04488832389 -0.04242938105 0.5289680387 -0.009237332733 0.8485914716
0.01060640359 0.01606047678 -0.0005404375891 0.5523424956 0.8006237666 0.2322054089
0.005414292812 0.01981926346 -0.03151846186 -0.2858089138 -0.9578871706 -0.02766646313
0.006435830355 0.01671306801 0 0.3230686354 0.9167506903 0.2349357969
-0.0002527803537 0.02471485114 -0.04007475185 -0.1692507703 0.3662716609 0.9149859273
0.00452382496 0.01968688989 -0.001031682331 0.2231361573 0.9525124245 0.2071963719
0.0205243756 -0.0003699792822 -0.006223697265 0.9902027454 -0.0009244158202 0.139634052
0.01425494366 0.01425487309 -0.001123480234 0.6786875541 0.6787123096 0.2805936648
0.010879035 0.05993732529 -0.04484890594 -0.5559439711 -0.2639653568 -0.7881932449
0.004705379844 0.06060000229 -0.04367293167 -0.2276628813 -0.2934431486 -0.9284722565
-0.0001609860845 0.04453329754 -0.04008564329 -0.06637678999 0.02310430357 0.9975270988
-0.0005443856716 0.02054802361 -0.005746084499 -0.00167170423 -0.988635044 -0.1503261626
0.02002525449 0.004487243891 -0.005698565364 0.9531865675 0.284997748 0.1010527148
-0.005242985666 0.05480249596 -0.07677085876 0.3000013408 0.107194 0.9478969574
0.004473059535 0.02001219058 -0.005713487804 -0.2916721857 -0.9507523026 -0.1048684663
-0.01374255848 0.04673498917 -0.07071973419 0.73821434 -0.003384938782 0.6745577295
0.01182461707 0.04030759303 -0.043746123 0.5974829074 -0.002972411897 0.8018761376
-0.005082297802 0.01989917326 -0.01102300882 0.1118837575 -0.9937117578 -0.004355126522
0.02052793598 -0.0005434363037 -0.01101632905 0.9998370129 -0.006193159716 -0.01695855125
0.01905322647 -0.007721819401 -0.01197592354 0.9784796944 -0.2063370164 0.001588502313
0.01838449931 0.009109725475 -0.005905710399 0.9059676778 0.4134712691 0.09090696561
0.009123693287 0.01839776063 -0.005890669674 -0.4147407007 -0.9053472111 -0.0913048659
-0.007632609844 0.01913093758 -0.01188488674 -0.2035021359 0.9790743626 -0.0005226283208
0.0205277373 -0.0007245251735 -0.01590676324 0.9958620661 -0.08766620435 -0.02394539482
0.01892817879 -0.008050485929 -0.0160899957 0.9787773235 -0.2042359075 -0.01681205022
-0.005187524239 0.02042396418 -0.0398343455 0.4035342804 -0.6592510331 -0.6344668312
0.01690271823 0.01175876331 -0.006183025837 0.823080465 0.5571909738 0.1098943443
0.01450208791 0.01450199366 -0.005991782308 -0.7048527482 -0.7057401586 -0.07150826426
-0.004975884527 0.05035386324 -0.07686990547 -0.3186258282 -0.05243558764 -0.9464291261
-0.0002837281704 0.02054857979 -0.0104834259 0.003308242477 -0.9999941139 0.0009097467148
-0.008005840143 0.01896704165 -0.01604379209 -0.2010874624 0.979376331 -0.01964267772
-0.01700626278 0.05861235714 -0.06131671906 0.9911026869 0.1008320549 0.08688130228
0.02010001636 0.00415790543 -0.01075540817 0.9748150502 0.222342762 -0.01730069539
0.01433959553 0.03492991118 -0.04594720112 0.7079613387 -0.007261210966 0.7062138612
0.004156175047 0.02009843683 -0.01075730252 -0.2262866798 -0.9739159287 0.01679590134
0.009546269178 0.03969633579 -0.04240774632 0.4715374845 0.02430852629 0.8815109167
0.020044137 -0.0045995965 -0.01644140816 0.9923286789 -0.1234786024 0.006068584203
0.01850973988 0.008892992914 -0.01086345565 0.9111058978 0.4121504831 0.004245258897
-0.01396407318 0.03407660294 -0.04546126175 0.5701004226 -0.01078710439 -0.8215041975
0.0198194898 0.005414567192 -0.03151818053 0.9560239176 0.2923431005 0.02353254169
0.008899806261 0.0185161562 -0.01085594738 -0.4178078092 -0.9085080039 -0.007059850142
0.004733788292 0.05475712903 -0.07693313853 0.2510306628 -0.1604018803 -0.9545966913
-0.0007115225295 0.02053920873 -0.01589304384 0.08358274828 -0.9963922213 0.01471276707
-0.004546203613 0.02009109879 -0.01638493443 0.1206480822 -0.9926924493 -0.00239609846
0.01874600315 -0.008494826317 -0.02134462643 0.9760578132 -0.2169704835 -0.01532822588
0.01692245579 0.01173689222 -0.01085238218 0.8304353931 0.5570304929 -0.009699889298
0.01691887569 0.0297920742 -0.04887871933 0.8233327092 0.01487887666 0.5673639652
0.01170197964 0.01688850594 -0.01089148521 -0.5558236032 -0.8312558568 -0.008592010727
-0.008509257793 0.01873346043 -0.0213599968 -0.2168625663 0.9760148529 -0.01912156707
0.01694403267 0.02451425234 -0.04891091919 0.8069287928 0.06749594502 0.5867795334
0.01999908543 -0.004822180748 -0.02050332546 0.9909475634 -0.1339077557 -0.009572851651
0.02003211117 0.004485715806 -0.01585213709 0.9731371462 0.2302255063 0.000557633142
-0.01377667475 0.06060000229 -0.07508109665 -0.6968134643 -0.1559849755 -0.7000854829
0.004483215988 0.02002974105 -0.01585491598 -0.2351233901 -0.9719646315 -0.001321572352
-0.00479219079 0.02002544212 -0.02047107315 0.1340470482 -0.9908698809 0.01443149204
0.01858905315 -0.008866871357 -0.02564084721 0.9690942368 -0.2466321932 -0.00537787119
0.02050246334 0.0001598852302 -0.02125435829 0.9992790626 -0.01126328979 0.03625594184
0.01836728549 0.009192670405 -0.01600963414 0.8777896846 0.4787670694 0.01635123412
-0.00970731163 0.05939855448 -0.04253779984 -0.3895430942 0.1655210404 0.9060126726
0.01694252459 0.01171456464 -0.01560993703 0.8295525843 0.558243736 -0.01436805745
-0.01200830936 0.02084033394 -0.04386703873 -0.6276944917 0.2955553382 0.7201712762
0.01445273763 0.01454726592 -0.01558331325 -0.7062127595 -0.7078034547 0.0166675684
0.01167783737 0.01690681648 -0.01565199916 -0.5563742672 -0.8309301736 -0.001649665007
7.991112396e-05 0.03464309502 -0.04007869101 0.006366099275 0.005343565906 0.9999654589
0.009198699534 0.01837303114 -0.01600283146 -0.4787787415 -0.877684223 -0.02100765
0.0001591003512 0.02050164541 -0.02125540829 0.01039583128 -0.9993634392 -0.03412686772
0.0121118722 0.05536281776 -0.04398288536 0.5822942663 0.1323632838 0.802130506
-0.008922483921 0.01854075241 -0.02570096874 -0.2484976015 0.9685975711 -0.008227227657
0.01822636223 0.05901381302 -0.05112451935 0.8560417754 0.2471256183 0.4540059554
-0.01347357368 0.02389696121 -0.04505598068 0.4618773594 -0.05524367746 -0.8852216903
0.01997921181 0.004753603816 -0.0208254741 0.9741116904 0.225999723 0.005526278784
0.004750016054 0.0199758393 -0.02082957331 -0.2286907394 -0.9734286867 -0.01171058
0.02055157089 0.02493510628 -0.06085816574 0.9996397867 -0.008518937429 0.02545043464
0.01159956169 0.02879586887 -0.04358321381 0.573995155 0.03850392622 0.8179529386
0.009553294341 0.01822393227 -0.03608287303 -0.5477636763 -0.7898868504 -0.2757421231
-0.005111648719 0.01993636195 -0.02568084399 0.1430957828 -0.9893129518 0.02799071805
0.01832998943 -0.009359883785 -0.03013695431 0.9655123058 -0.2599660165 -0.01427086806
0.0205083549 -0.0002801959438 -0.02598127508 0.9997112138 -0.01512121489 0.01867720113
0.01179341634 0.03416579692 -0.04372000122 0.5697440019 0.02780056577 0.821351874
0.01857494354 0.008754966123 -0.02082105855 0.9041708281 0.4271708976 0.0003713762995
0.02053486681 0.02053139019 -0.06067133904 0.999743879 -0.003307319443 0.02238834726
0.00876538263 0.01858479255 -0.02080908639 -0.4271756032 -0.9041674002 0.001521986215
0.01687899907 0.04911074066 -0.04886194102 0.810876824 0.03019441771 0.584437399
-0.0002851770801 0.02050385928 -0.02598696756 -0.01698107825 0.9997170733 0.01665581809
0.018459512 0.01982038927 -0.05147605276 0.9231813393 0.06243170316 0.3792604609
-0.009378654957 0.01831369781 -0.03015751648 -0.2584084414 0.9659558179 -0.01242720021
0.01696479543 0.01168491077 -0.02143231392 0.8248944495 0.5646111404 0.02762982554
0.01688752111 0.0549960734 -0.04888896434 0.7982665279 0.07687964045 0.5973776622
0.01450635624 0.01450627351 -0.02121408113 -0.7063673649 -0.7076263195 -0.01761073081
0.01165376616 0.01692590237 -0.02049236679 -0.5624690396 -0.8268162464 0.001863931052
0.0002375380682 0.02961963367 -0.04005546633 0.06621694893 0.1512688438 0.9862723014
0.01795145035 -0.01004455471 -0.03594120407 0.9341971039 -0.3563430422 -0.01718741974
0.01986672688 -0.005413086653 -0.03096284866 0.9737987454 -0.226507445 -0.02025785598
0.005059327722 0.03505033875 -0.04068451786 0.2303993858 -0.02157259536 0.9728570019
-0.0046894454 0.04006570892 -0.0405992569 -0.2351364128 -0.0274823788 0.9715737678
0.019994944 0.004777374649 -0.02614806442 0.9749771739 0.2208992724 0.02496040737
0.004781268024 0.01999847946 -0.02614363251 -0.2212834828 -0.9747793985 -0.02896108511
-0.0054371984 0.01984558201 -0.03098995972 0.2214637448 -0.9749410152 -0.02106719462
-0.00998790741 0.01800053914 -0.03587737274 0.4545347103 -0.8265901598 -0.3318838725
0.00921472615 0.0348104105 -0.04223519182 0.4252630951 0.003888218661 0.9050614243
0.02050305094 0.0001339570199 -0.0311480544 0.9999598365 -0.004037938292 0.008001271942
0.01842401528 0.009095685005 -0.02582366014 0.9072212942 0.4202455245 -0.01852626467
0.01445034647 0.02482424488 -0.04602963409 0.73483484 0.07204311601 0.6744090357
0.01163164043 0.0169477183 -0.02542549133 -0.5703189068 -0.8210817205 0.02368866556
0.01992676481 0.02029562696 -0.06550047684 0.9874107711 0.004144949882 -0.158122701
0.01834227626 0.0248407596 -0.05134376017 0.8869238975 0.04869796669 0.4593413851
-0.00394515624 0.02013959885 -0.0358839447 0.05336280584 -0.9399082454 -0.3372312282
0.009099985063 0.01842811847 -0.02581858683 -0.421368553 -0.906661652 0.02032710778
0.01453676062 0.04983338852 -0.04613050156 0.7138879552 0.007227252475 0.7002226462
0.0185342687 0.008863370657 -0.03050806745 0.9124687095 0.4077682335 -0.03355475889
0.0001290828618 0.02049874796 -0.03115359334 -0.007471297957 -0.9929498935 -0.1182991488
0.02016552086 -0.003915780687 -0.03584991226 0.9860117651 -0.1660928595 -0.01392699176
0.01698285389 0.01165881634 -0.02638143158 0.8204484158 0.5711325253 0.02592364709
-0.00488909927 0.0592331605 -0.0770770483 -0.2879501233 -0.1308972606 -0.9486572794
0.01760050011 -0.01065170288 -0.04073038101 0.9335813603 -0.3575563078 -0.0240692831
0.008868389765 0.01853902149 -0.03050205962 -0.4088469516 -0.9119739689 0.03387698721
0.0199942162 0.02997524905 -0.05589249516 0.9552397909 -0.002645535791 0.2958207955
-0.009899347019 0.01920398941 -0.04183646164 0.6011301907 -0.4582061798 -0.6547439123
0.01992439995 -0.004858713675 -0.04121071854 0.9689371207 -0.2471676118 -0.008308302773
0.02055061388 0.0008329659589 -0.03598104572 0.9952179326 0.09448934584 0.02475944459
0.01619663639 0.06029211121 -0.05045533295 0.8050991369 0.1640247972 0.5700098645
0.01450865475 0.01450857131 -0.03118957583 -0.7062848169 -0.7078924511 0.007073539786
0.0008320500441 0.02054981852 -0.03598208618 0.06406256333 0.8371008469 0.5432846032
0.01975092061 0.005606391986 -0.0358942496 0.9692998965 0.245669097 0.01021789358
0.005606743375 0.01975134087 -0.03589372889 -0.2663623357 -0.9283161138 -0.2593844618
0.02056183853 0.0004548065662 -0.04082661667 0.9970054068 0.07475184126 -0.01980860792
0.01822428004 0.009553710461 -0.03608238856 0.8713888328 0.4874415768 0.05551766618
0.01701619339 0.01161045647 -0.03553893026 0.7924224486 0.6098541797 0.012022579
0.01158639304 0.0169928201 -0.03556900279 -0.6240080201 -0.7725499753 -0.1173904874
-0.005480163972 0.02481598028 -0.04081285922 -0.3806451079 0.3567250265 0.8531450975
-0.009434995174 0.02415469837 -0.0423292923 -0.4265785739 0.3146998873 0.8479355525
0.01981201617 -0.004561941544 -0.04622831217 0.980314518 -0.1923204768 -0.0446797495
-0.01557072473 0.06007305336 -0.05081330681 0.9053784265 -0.1981904721 -0.3755135705
0.01979175663 0.005532342166 -0.04079965925 0.9562101287 0.2924238179 0.01226786213
0.01450963986 0.01450955284 -0.03631874704 0.7333236423 0.671395004 0.1070756006
0.005021617379 0.02050769315 -0.03991588593 0.3183389038 0.6223573559 0.7150745862
-0.009469651401 0.05477016592 -0.07473628426 0.4980573369 0.05567764677 0.8653547763
0.01470624638 0.01996729183 -0.046164361 0.7598934389 0.1932571577 0.6206558084
-0.009640238762 0.02926524496 -0.04246278095 0.4495729176 -0.002905550879 -0.8932389096
0.01833436775 -0.007860340595 -0.04929513931 0.9561297171 -0.2832980685 -0.07455312532
-0.004435474539 0.03001482658 -0.04053151627 -0.2106900459 0.06272167167 0.9755386699
-0.01193390369 0.05516440296 -0.07278454399 0.6976487104 0.02976762187 0.7158213224
-0.01168253803 0.03796376038 -0.04363511658 0.4805217882 -0.005166493367 -0.8769675698
-0.01253856564 0.03104134369 -0.04429504013 0.4546086669 0.00943118603 -0.8906413491
0.02053507538 0.0007054530144 -0.04623533173 0.9995592655 -0.02916139754 -0.005557657218
0.01828499699 0.009540963411 -0.0412808342 0.9144255977 0.3841999642 0.1273428983
0.01448027046 0.05465510823 -0.04609179541 0.7103765988 0.06700615415 0.700624909
0.01706280041 0.01161129141 -0.04072528076 0.8389863088 0.5264646552 0.1376115562
0.01893695259 0.04378380203 -0.06867108917 0.9707709341 0.01867435267 -0.2392803003
0.005059263301 0.05470496254 -0.04071603699 0.2908005569 0.1058465088 0.9509109068
0.009614584359 0.01943834045 -0.04173450574 0.625132079 0.4657227032 0.6263483436
0.005045941591 0.0249986674 -0.04069556766 0.3330979254 0.32831274 0.883887163
-0.004920430899 0.03504243088 -0.04067207591 -0.2252352626 -0.03596058025 0.9736405462
0.0002696764208 0.05891798973 -0.07762205124 -0.1305488213 0.1899493077 0.9730756732
-0.009066084703 0.03530143992 -0.0421782163 -0.3782406344 -0.01619987863 0.9255655495
0.01956717682 -0.004209177017 -0.0505136795 0.9768157066 -0.1933980059 -0.09180570019
0.02019661407 0.004932290936 -0.04583224716 0.9831063515 0.1717367604 0.06331182125
-0.009336296399 0.03985836411 -0.04228506978 -0.4072274521 -0.01460218652 0.9132100407
0.01830156898 -0.004599799156 -0.05602736473 0.9457712069 -0.2847998813 -0.1562237237
0.02031616259 6.405693293e-05 -0.05159409332 0.9918954659 -0.1051627128 -0.07130349632
0.01884855779 0.009679032803 -0.04591665734 0.9405933108 0.3033797557 0.1524629382
0.01730758667 0.01183465958 -0.04359810257 0.8851378908 0.4080431369 0.2236776982
0.01931148434 0.06012082958 -0.06541690636 0.9281049584 0.3259641411 -0.1799126591
0.009532371044 0.02470109296 -0.04238995075 0.6302257098 0.1750626234 0.7564182921
0.02008011627 0.01559760427 -0.06458485794 0.9982803476 0.02204619437 -0.05431678296
-0.01299484348 0.04103504181 -0.04468832779 0.4867096731 0.003293158887 -0.8735575821
0.02050798569 0.004670396852 -0.05101786957 0.9961896308 0.07459160984 0.04519193853
0.01598652267 0.01561970615 -0.04576939689 0.8285306176 0.345582985 0.4405785017
0.01957921624 0.05947239685 -0.0556494875 0.9613334309 0.1860213005 0.2030618386
0.01870966805 0.01492011441 -0.05066999605 0.9328590157 0.1458577166 0.3293927492
0.01177919054 0.02049192715 -0.0436715374 0.6653662375 0.4013402414 0.6294551458
0.009363825679 0.02978803277 -0.04231399298 0.423606718 -0.006089212756 0.9058257393
-0.01195269012 0.04789261246 -0.04384291077 -0.5111519537 0.0278165467 0.8590401155
-2.486541122e-05 0.03963646889 -0.04005810165 -0.005836105163 -0.004899869068 -0.9999709652
-0.01486615562 0.04369861984 -0.04638982391 0.6020948446 -0.0131532028 -0.7983162227
0.01897274971 0.02232501793 -0.06858946228 0.9657005262 0.001069239929 -0.2596562157
0.01983562016 0.009872988939 -0.05079526234 0.9680995673 0.1690842655 0.1849154912
0.01787646103 0.01348582125 -0.0474902153 0.9056164751 0.2872954859 0.3119617024
0.01194171762 0.02491675949 -0.04381963158 0.6215761434 0.07132046825 0.7801003069
0.01826148319 0.02980834222 -0.05118347359 0.9054125424 0.004305832507 0.4245109985
-9.546285449e-05 0.05001889992 -0.04007941818 -0.002461882865 0.003007179575 0.999992448
0.00489968884 0.03998346214 -0.04068176765 0.2383928938 0.004162228739 0.9711598756
-0.009533549627 0.0497468427 -0.04239676539 -0.4425900682 0.003828718688 0.8967158817
0.020057621 0.0008253684044 -0.0556879425 0.9831288134 -0.1424179709 -0.1147817834
-0.004888214302 0.04988098068 -0.04065872192 -0.2431036912 0.01250326559 0.9699197202
0.01867895508 -0.0007728510499 -0.05995789719 0.9631889854 -0.2108686104 -0.1667375408
0.02050579707 0.005168189526 -0.05539793396 0.997966967 -0.04636071545 -0.04373347526
0.005084912353 0.04481550217 -0.04071009488 0.2991783409 0.002744390878 0.9541932659
-0.00530499653 0.0546968352 -0.04078506724 -0.3235182766 0.08546439336 0.9423543719
-0.003020907402 0.06060000229 -0.08093560028 -0.1290887973 -0.3430597392 -0.9304010414
-0.009438660622 0.05506835302 -0.04237813059 -0.4363331812 0.1042634255 0.8937239468
-0.01197414811 0.04976839701 -0.07275210571 0.6800426237 -0.01582207433 0.7330018363
0.01975860929 0.005023503959 -0.06089708424 0.9873614209 -0.1148000096 -0.1092629048
0.02048945351 0.009564801407 -0.05564900436 0.9937941751 0.05558070004 0.09635311833
0.01983365583 0.02971033955 -0.06589841843 0.9699759094 0.001662430373 -0.243195336
0.01697594833 0.02024495506 -0.04893244553 0.8697310373 0.124996754 0.477434534
0.004936065012 0.04950413047 -0.04068377474 0.2380769405 0.01018726914 0.9711928696
-0.0001834591813 0.05480895281 -0.0400833478 -0.01137159528 0.1895479448 0.9818056139
-0.01049979115 0.05961228943 -0.04438160833 0.5838875964 -0.2303752087 -0.7784616484
-0.004894921621 0.05956433678 -0.0411203537 0.1285710694 -0.2921615428 -0.9476872443
-0.01362920666 0.06060000229 -0.04632846069 0.7300585846 -0.3364349943 -0.594832714
0.02031831487 0.009450686455 -0.06080693563 0.9983307649 -0.02513537114 -0.05199900938
-7.675772905e-05 0.05976694202 -0.0408630724 0.01649344279 -0.2939906611 -0.9556659759
0.01997842248 0.01997594515 -0.05583600235 0.9826075366 -0.004372863099 0.1856429559
0.01198153925 0.05927999687 -0.07291265488 0.5240888525 -0.2106797076 -0.8251938775
0.01464816586 0.03996143309 -0.04624951267 0.712328683 -0.01746072969 0.701628798
0.009448603948 0.05936291822 -0.04242101796 -0.3939702474 -0.1804279693 -0.9012398083
0.004686857568 0.05916901186 -0.04078909175 -0.2258401728 -0.2182358889 -0.9494047152
-0.005963517189 0.06060000229 -0.04403236771 0.2937283165 -0.3039649583 -0.9062720233
0.01988952065 0.04960200827 -0.0555393922 0.9535043977 0.0072475975 0.3012919447
-0.0163791337 0.05554176331 -0.05614834023 0.9895032441 0.07180128961 -0.1254109432
0.02053128891 0.01540920105 -0.0605014328 0.9997722101 -0.002381471359 -0.0212098213
0.01991965049 0.02473566137 -0.05566731698 0.9713279037 0.001820594663 0.2377368061
0.01448582753 0.0451673336 -0.04609280968 0.7121946909 -0.01260072622 0.7018688937
0.01868525505 0.03726513672 -0.06922231293 0.9747885109 -0.01312347799 -0.2227445473
0.009417521095 0.05505711899 -0.04236814537 0.4494921964 0.1102401024 0.8864557999
-0.01700002289 0.05154275703 -0.06161211205 0.9845712601 0.09013626959 0.1499829544
0.0009463255852 0.06060000229 -0.07880986786 0.1154361811 -0.2709906169 -0.9556351676
0.02055536556 0.05000071049 -0.06020317173 0.9975204716 0.02154183441 0.06699894108
-0.01699283759 0.05486605517 -0.06084653536 0.9860370312 0.1632210043 -0.03301328425
-0.01654164577 0.05932360935 -0.05537086201 0.952967714 0.1536510246 -0.2612353319
0.02010194016 0.01223054314 -0.06354878616 0.99803241 -0.0279096396 -0.0561458865
0.01190094471 0.05031302389 -0.04381107966 0.5972999856 -5.678807439e-05 0.8020179076
-0.017699543 0.06060000229 -0.05703873062 0.9788160187 0.1646336615 -0.1217167165
0.01826897335 0.0396799798 -0.05122520924 0.8505294148 0.006564655754 0.5258865085
0.01983329105 0.03481498273 -0.05527031072 0.9579921509 0.001454473996 0.286790731
0.01675525665 0.04401097679 -0.04866786194 0.8102731022 0.02951304185 0.5853088759
0.01834993172 0.03052179337 -0.06993981934 0.9628863831 -0.0124718829 -0.2696187406
-0.01398172748 0.04964027405 -0.070313591 0.8507905119 0.03043767363 0.524622772
0.02052431221 0.02901315536 -0.0606079628 0.9990406387 0.04347758223 0.005244239678
-0.01634128189 0.05963142141 -0.06589248212 0.9369723834 0.106576049 0.3327526085
0.01999914384 0.05449956894 -0.05604734612 0.956146069 0.07556878979 0.2829735901
0.02012951565 0.02454811096 -0.06490016937 0.9858958875 0.02350640645 -0.1657007781
0.01786585045 0.05115049362 -0.07085154724 0.9190837992 0.05814615561 -0.3897486301
-0.01390058231 0.0548970762 -0.07042413112 0.8347550411 0.09772031358 0.5418807634
0.01997397661 0.03988735199 -0.05588965225 0.9682584319 0.01807293483 0.2492969675
-0.0122580595 0.04601042557 -0.07249282837 0.6711680456 0.01100669941 0.7412235204
0.02053354263 0.03455361938 -0.06057405417 0.9991147841 0.04100675195 0.009385862232
-0.01042017619 0.04626843135 -0.07409335073 0.5815899184 0.02825900525 0.8129911411
-0.0143703531 0.05938673878 -0.0704327898 0.850603069 0.1378044966 0.5074291475
0.0200799645 0.04492827824 -0.05635907473 0.968300291 -0.02842569772 0.2481663276
-0.009377220511 0.04965123653 -0.07482284355 0.5085742218 0.007435616469 0.8609860466
0.01843826697 0.05500903617 -0.051573079 0.8866614632 0.05784266264 0.4587871794
-0.00583243831 0.04680680084 -0.07655971273 -0.4472782067 -0.06802080547 -0.8918045615
0.01984178861 0.03543323644 -0.06581725184 0.9761037227 -0.01714484761 -0.2166277376
0.02055270576 0.04495406914 -0.06066340764 0.9998089268 -0.005949280918 0.01862031241
0.01985305977 0.0403639005 -0.06590497843 0.9802829722 -0.01173439083 -0.197250091
-0.009694607258 0.05965487756 -0.07518083191 -0.5532582982 -0.2953683519 -0.7788856092
0.02017323875 0.04475981013 -0.06457250214 0.9916072505 0.01254191551 -0.1286769643
-0.000325397666 0.05519941984 -0.07758869716 -0.02137262181 -0.2321005997 -0.9724569516
0.01935067122 0.06013373838 -0.06080954797 0.9840584383 0.1710620145 0.04864953389
0.003896664143 0.05165361786 -0.0772057724 0.06413778794 -0.1768019006 -0.9821544848
0.0083098526 0.05531802368 -0.07553637695 0.3557630921 -0.1556464278 -0.9215241786
0.009670353889 0.05974060822 -0.0757335083 0.4544245525 -0.1414063851 -0.8794899433
0.004899170065 0.05946945953 -0.07707978058 0.2725227507 -0.1521195772 -0.9500478854
0.01601557851 0.06060000229 -0.07081448174 0.6988719771 0.2351793871 -0.675476584
0.005757460833 0.06060000229 -0.0796424408 0.3670850819 -0.1666678173 -0.9151340783
