# .PCD v0.7 - Point Cloud Data file format
VERSION 0.7
FIELDS x y z normal_x normal_y normal_z
SIZE 4 4 4 4 4 4
TYPE F F F F F F
COUNT 1 1 1 1 1 1
WIDTH 564
HEIGHT 1
VIEWPOINT 0 0 0 1 0 0 0
POINTS 564
DATA ascii
0.01633019018 0.01414080191 -0.04485486221 0.80880893 0.4720136515 0.3507580755
0.002972581863 -0.02013002777 0 0.008168732299 -0.2726383229 -0.9620819179
-0.01206716251 -0.01206721258 -0.02102577019 -0.7004033888 -0.7137449134 0.001814278386
0.01401144028 0.01508749294 -0.03317398453 -0.6797300861 -0.7334538434 0.003531231749
0.001872753859 -0.0190268383 0 0.07774612521 -0.5588422513 -0.8256215102
0.006914869308 0.04180509186 -0.04123143005 0.3400599558 0.004349948291 0.9403936965
-0.01585928059 0.05306212616 -0.04747697067 0 0 1
0.01714363098 0.05910597229 -0.04927474976 0.8082416515 0.3092919231 0.5010827668
-0.01390819168 0.0538687191 -0.07049110794 0.8147312589 0.004134787368 0.5798240072
-0.01641416931 0.00460188055 -0.008780761719 0.9632041094 -0.2686872947 -0.006706815062
0.007193541527 0.0318887043 -0.04133334732 0.3471997834 -0.0002384846793 0.9377911567
0.009270150185 0.0379214325 -0.04221747589 0.4493938939 0.00975102745 0.8932804966
0.01820638847 0.01929907227 -0.05091660309 0.8809228387 0.08202423104 0.4660976053
-0.01705540276 -0.0005416945219 -0.0002151393145 0.7357745367 0.0906721123 0.6711291971
-0.01701487541 0.05567215729 -0.0622154007 0.9960897897 0.006145011502 0.08813268237
-0.0002014544308 -0.017061306 -0.01349946213 -0.03156757797 -0.9995001942 0.001688129444
0.02059382439 -0.000428524822 -0.04094435501 0.9992780431 -0.03734195246 -0.006997936359
0.02035863876 0.04896725082 -0.06346553421 0.9889948641 -0.01632430758 -0.1470465087
-0.002491626978 -0.01686247063 -0.001058659673 0.2773354133 0.9159077761 0.2901689409
-0.008954792976 -0.01453530502 -0.003044599771 -0.5223568279 -0.845723334 -0.1090659742
-0.002187766314 0.04973535919 -0.04015107727 -0.07616888924 0.001422566183 0.9970939156
-0.001270773411 0.02054537392 -0.00206580615 0.08848827648 -0.9610533101 -0.2618135979
0.01965273094 0.004239935398 -0.0005175012946 0.8561085528 0.04137001582 0.515137523
-0.0102590065 -0.01361022854 -0.003226706028 -0.5920877559 -0.8011677888 -0.08696127578
-0.01212776279 0.05763686371 -0.04399685669 0.5638112088 -0.1464358513 -0.8128182222
0.02056833649 0.02386663818 -0.06162840271 0.9987772387 -0.01295329268 -0.04770995331
0.02015873528 0.01905941582 -0.05635580063 0.9828309798 0.009259548046 0.1842756791
0.02042792702 0.002548168659 -0.01313883305 0.9881248086 0.1536496355 0.001073345079
-0.01205851746 -0.01205861092 -0.003345723867 -0.7043740773 -0.7077434746 -0.05437217454
-0.002240368366 -0.01691727638 -0.01446835423 -0.1622065075 -0.9867540126 -0.00235954529
0.01886098289 -0.008220929146 -0.0181685257 0.9492290011 -0.3145609102 -0.003967019697
0.01976924515 0.03992544937 -0.05489694977 0.9639929821 -0.0007577543989 0.2659265994
-0.0136386261 -0.01028695869 -0.003253723383 0.8035813863 0.5890938855 0.08500205702
0.001673519254 -0.0169989357 -0.001002090573 -0.08787072317 -0.8847841707 -0.4576414616
0.02056170464 0.04500829697 -0.06175906372 0.9988764313 -0.009957757234 -0.04633268805
-0.01694613457 0.002055043221 -0.01228670216 0.9914044217 -0.1307571541 -0.004454122689
-0.01537347031 -0.007428061962 -0.01434989071 0.9042640779 0.4269275113 -0.006275155743
0.02038549805 -0.002939961195 -0.04055613327 0.9877055398 -0.1562911463 -0.003293070136
-0.01689265633 -0.002519810915 -0.001086644173 0.9158854201 0.2807786394 0.286909834
0.02042743683 0.001305593729 -0.05289362717 0.9934033146 -0.09751186314 -0.06034311113
0.01639045525 0.0525712204 -0.04815391922 0.8056764627 0.005516930173 0.5923301452
-0.005963517189 0.06060000229 -0.04403236771 -0.03900791787 0.8798339523 0.4736777372
-0.01536384583 -0.007442895412 -0.01238337326 0.903572565 0.428411691 -0.004476923454
-0.01792423248 0.0007731730938 0 -0.5322906062 -0.01541584495 -0.8464213267
0.01376547241 0.03193122482 -0.045299366 0.6633701199 -0.0001599003407 0.7482914261
0.02042118073 0.002601217985 -0.01121145344 0.9878129035 0.155640789 0.001269871453
0.01762949181 0.01214689159 -0.04531829453 0.8661752065 0.4311690056 0.2526535182
-0.002268696845 0.05783563805 -0.07751518631 -0.1816477765 -0.09560580924 -0.9787050702
0.0062813375 0.05208764458 -0.04100605392 0.3151490896 -0.01535905542 0.9489178841
-0.01205991554 -0.0120600071 -0.005262916803 -0.7047806324 -0.7090819807 0.02206818646
0.00741734457 0.01921526909 -0.02862058258 -0.3445172766 -0.9387489586 0.007631433787
0.00876660347 0.0229029789 -0.04195989609 0.4209897549 0.03073769112 0.9065444394
0.02003868484 0.02555899811 -0.06537368774 0.9809832867 0.01655311884 -0.1933850703
0.00597325182 0.01967920494 -0.01736077118 0.2614163363 0.965226104 0.0002594180598
0.02048404503 0.05186680984 -0.0588150692 0.9975824185 0.001278573957 0.06948153316
0.0160178299 -0.01286872196 -0.003060992718 -0.1243209465 0.9598222956 -0.2515660214
-0.0190268383 0.001872753859 0 -0.550868041 0.08396444536 -0.830357979
0.01795639801 0.04013547516 -0.05057829857 0.8794710039 0.009028438912 0.4758668307
0.02016459084 -0.004004482746 -0.005581225872 0.9762673787 -0.2163967195 0.008629312078
-0.001830802679 0.02051323318 -0.01557553291 0.09866269573 -0.9950419863 0.01253467104
0.00594205904 -0.01920462608 0 0.07856275119 -0.1153804038 -0.9902097033
-0.007702318668 0.03712272263 -0.04153773499 0.3465298131 -0.001452182226 -0.938037835
-0.0004832085669 -0.0170446167 -0.002068984032 -0.03170326014 -0.9390123831 -0.3424188192
-0.01706145859 -0.0004987647533 -0.002084663153 0.9403193901 0.01848536987 0.3397907233
0.01938265991 0.0204760685 -0.05367718506 0.9410492215 0.01748252502 0.3378175898
-0.002456368923 -0.01687016296 -0.002940382004 -0.1975741603 -0.9712845377 -0.1325548867
-0.005773492336 0.04278489304 -0.04083704758 -0.2818892969 -0.002978867943 0.9594423123
-0.01693892097 -0.002171766281 -0.01841140556 0.9837727313 0.1794108923 -0.001716056735
-0.005944105625 -0.0159834013 -0.00420057106 -0.3440679263 -0.9389416705 0.002408630947
-0.01455075169 -0.008901958466 -0.01074793434 0.86975568 0.4934726529 -0.003130157693
-0.001983525395 0.03995045471 -0.04012417984 -0.05901264445 -0.002410217787 0.9982543256
-0.005753996372 -0.01607455254 -0.02184113121 0.3390850983 0.9404897795 0.02236673165
-0.01689825249 -0.002482592344 -0.002966667891 0.9698998164 0.2047056412 0.1318709468
-0.01600097656 -0.00596086359 -0.004217187405 0.938604416 0.3449937713 -0.00102370858
0.02012242699 0.004197980881 -0.02008718109 0.9781142345 0.208051204 0.002690868847
-0.005571574211 0.06022047234 -0.07719541168 -0.2928089752 -0.2560916665 -0.9212382767
0.02045503426 0.00233164835 -0.02099091148 0.9909173512 0.134307308 -0.006659587445
0.01907396698 0.007660159588 -0.009122505188 0.9325972807 0.3609186844 0.0001235596635
-0.007310259342 0.04353371429 -0.04138882446 -0.310806385 -0.003991644595 0.9504648641
-0.007500206947 -0.01532476616 -0.004635429382 -0.4362153329 -0.8997813948 0.01047019267
-0.008945526123 -0.01454305935 -0.004956982613 -0.5250528089 -0.8510692802 -0.0007925452182
-0.01810821533 0.004848487854 0 -0.5275503523 0.2257691285 -0.8189743137
-0.01025325775 -0.01361470222 -0.005140845776 -0.5910729573 -0.8066064187 0.004341016511
-0.01364370918 -0.01028180885 -0.005168702126 0.8081460947 0.588906995 -0.00940430273
0.01785486031 0.01025001144 -0.03794645691 0.8692185953 0.4943989247 -0.005360672663
0.00079595083 0.02054908752 -0.004644899845 -0.06359931519 -0.9979719055 -0.002683842018
-0.004067216873 -0.01660817528 -0.01922579193 -0.2749681067 -0.9614429531 -0.004470811897
0.0173729229 0.04959485245 -0.04958758926 0.8444110703 -0.0001251376891 0.5356957427
-0.0153259306 -0.007501328945 -0.004636535645 0.9019112715 0.4317311388 -0.01281725726
0.006006785393 0.05954393005 -0.07657516479 -0.3074695207 0.5579084949 0.7708440861
-0.01920462608 0.00594205904 0 -0.1101120893 0.07421513067 -0.9911445112
0.007209659576 0.06060000229 -0.07715864563 -0.1210675558 0.8943000253 0.4307784949
-0.004982838631 0.0199722805 -0.02358019066 0.1737632697 -0.9847848683 0.002255956645
0.008875202179 -0.01829083443 0 -0.08793919804 0.2182714932 0.971917822
0.01967293739 0.006104525566 -0.01154788017 0.966003721 0.2585153496 -0.00257390394
0.01144428253 0.03383710861 -0.0434778862 0.5523335796 0.003889999055 0.8336141102
0.007787703991 -0.01720114899 0 0.1123668852 -0.5438359109 -0.8316346464
0.01211768341 0.02614726639 -0.04394490433 0.5910336313 0.0005530532059 0.8066467261
-0.005775650978 -0.01606417084 -0.01983174706 -0.3291026966 -0.9442612336 -0.007882753215
-0.01677770805 0.06004856491 -0.06359832382 0.9176541134 0.3537842774 0.1809630162
0.01348015738 0.0155163331 -0.0004965999871 0.6094899006 0.6882695773 0.3934552708
0.006700602055 -0.01611204338 0 0.1123668852 -0.5438359109 -0.8316346464
0.00173619926 -0.01699025536 -0.002855867147 -0.08056845163 0.9855182286 0.1492063863
0.00972445631 0.01812098503 -0.01704350185 -0.4804468198 -0.877004136 -0.005882066998
0.002572049141 0.04787635803 -0.04017767334 0.1303015716 0.01713411636 0.9913263451
-0.000413669318 -0.01704873562 -0.004890120268 -0.05158031334 -0.9986615528 -0.003817621607
-0.008818281174 0.01858934784 -0.02460631561 0.9954998403 -1.353503844e-05 -0.09476321945
-0.002420904398 -0.01687789726 -0.004833132267 -0.1794889843 -0.9837591902 0.001249084915
-0.005923494816 -0.01599328327 -0.00611305666 -0.3410238307 -0.9400539997 -0.001106622215
-0.007486485481 -0.01533494186 -0.006555358887 -0.4360756614 -0.8999068074 0.002399084937
-0.0145427618 -0.008911300659 -0.008800738335 0.8736695288 0.4864996859 -0.0044283229
0.0008262242079 0.05612392044 -0.04005661392 0.05118842473 0.02201997038 0.9984462259
-0.004643260002 0.0173417263 0 0.005267414068 -0.1642480324 -0.9864050072
0.02036263275 0.005919101238 -0.04983253479 0.9849059663 0.1440166576 0.09601791452
0.02058063698 0.001614941716 -0.04820217133 0.9997335394 -0.02091348684 -0.009771197342
-0.00893620491 -0.01455085945 -0.006880809307 0.4889723567 0.8722810479 -0.005639838321
-0.003336830616 0.05074704742 -0.04027894592 -0.1610127527 -0.002884998904 0.9869481092
0.02059092522 0.0002271370143 -0.02215013123 0.9995954158 0.02804283926 -0.004754358511
-0.01024747562 -0.01361920357 -0.007066441536 -0.5904003228 -0.8071021004 -0.003695721252
0.00462019968 0.0200734024 -0.002830113649 -0.2309829732 -0.9636234007 -0.1344500197
0.002119983912 -0.01693711281 -0.01420638752 -0.1102606523 0.9939015409 0.001521717985
0.001817502737 0.02051712227 -0.0395587883 -0.2396038068 -0.7135844511 -0.6583215376
-0.01206080198 -0.01206088829 -0.007191111326 -0.7009444819 -0.7132144391 0.001413180497
0.006005860806 0.01966643906 -0.01542170238 0.2634283619 0.9646789373 0.0002144881088
-0.002313238621 -0.01690138245 -0.01057926559 -0.1512646359 -0.9884925674 -0.001205905101
0.002771859884 0.02036021614 -0.003676407337 -0.1673479203 -0.9854396283 -0.03005682259
-0.001921779513 0.02050085449 -0.0175718174 0.1032800587 -0.9945623508 0.01337758823
-0.0136486702 -0.01027647686 -0.007095004559 0.8091615827 0.5875784646 0.003013469759
-0.005763092041 0.01992030716 -0.04050884247 0.2910213669 -0.4402809817 -0.8493875565
0.01173506451 0.01686341095 -0.004367562294 -0.5666052919 -0.8239880253 -0.001475568131
0.004580637455 0.02008424759 -0.004687268257 -0.2194748405 -0.9755100236 -0.01452543258
0.009387016296 0.01921943474 -0.04183209991 0.5354424927 0.5246265224 0.6618673198
-0.008603687286 0.05138479233 -0.07535125732 0.4829630142 0.00110043062 0.8756400607
0.0198342514 0.02741396141 -0.05507386398 0.9674297744 -0.0007714376506 0.2531383743
-0.002166591883 -0.01693336868 -0.01840581512 0.1730612485 0.9849070611 -0.002808060298
-0.01453482056 -0.008920585632 -0.006865344048 0.8735402799 0.4867315997 -0.004441760622
-0.0160809536 -0.005791635036 -0.01984882355 0.9445707383 0.3281862555 0.00893880073
0.02050100136 0.001932774544 -0.03532099152 0.9930623691 0.1175069472 0.004387295357
0.01712567139 0.04737176132 -0.0492194519 0.8235766773 0.001337511969 0.5672033742
-0.01533532333 -0.007486852646 -0.006555724621 0.9017957996 0.4321349178 -0.004873262947
-0.01539290142 -0.007398116112 -0.01832000351 0.9037069614 0.4281475155 0.001852825076
-0.008317835808 0.04068959808 -0.04178131866 0.3842632535 0.0007128437813 -0.9232232904
-0.0160124054 -0.005941725731 -0.006131304264 0.9402095078 0.3405675789 -0.004450343431
-0.008883713722 -0.01458542442 -0.01667268944 -0.483817811 -0.8750869017 -0.01196829955
-0.01077878189 0.03456996918 -0.04306014252 0.494144625 -0.005061605254 -0.8693649808
0.007269917488 0.0380993042 -0.04136762619 0.3411618571 -0.005779101805 0.9399868027
-0.01651239014 -0.004238120556 -0.005542859554 0.967041198 0.2544367055 -0.009658374489
-0.01022991562 -0.01363287067 -0.01291375065 -0.5898499067 -0.8075042256 -0.003743427371
0.02059912872 2.182079293e-05 -0.02825815773 0.9999681278 -0.00692443703 0.003974368027
0.02022604752 0.02781651878 -0.05673116684 0.9841484075 0.001348350709 0.1773417434
0.01159183884 0.05198259354 -0.04357151794 0.5549199738 0.0007957776001 0.8319033534
-0.002129354954 -0.01694149017 -0.02039315796 0.1802059287 0.983584697 0.00932561363
-0.01690388107 -0.002445156336 -0.004857673168 0.9824282849 0.186639877 0.0004704784496
0.02002807808 0.004570982933 -0.002881207466 0.9635558374 0.233432421 0.1306501167
-0.01707061195 -0.0004338688403 -0.004910778642 0.998902313 0.04677986279 0.002411116836
-0.01695742607 0.001766196966 -0.002825174809 0.9837050501 -0.1002235644 0.1492635642
-0.01611204338 0.006700602055 0 -0.6572498983 0.2227766574 -0.7199952306
-0.01720114899 0.007787703991 0 -0.5440265412 0.1085401504 -0.8320181237
0.0197563858 0.01423983002 -0.05335021591 0.96562875 0.118124545 0.2315333866
-0.01829083443 0.008875202179 0 0.2171301559 -0.08722059145 0.9722381724
-0.01286262989 0.04755965042 -0.07184153748 0.7528732728 0.01830670572 0.6579108599
7.272782922e-05 0.02058016586 -0.02622690582 0.002748400953 -0.9999882768 -0.003986551142
-0.01019394016 -0.01366113853 -0.02494274139 0.621064235 0.7837587177 -0.001219993635
0.01750374413 0.02312254333 -0.07145944977 0 0 1
0.01069128799 -0.01630528259 0 0.08879617471 -0.1488132634 -0.9848704747
-0.002013449669 0.02048838043 -0.01958331108 0.1076395381 -0.9941744284 0.005561984271
0.005576659203 -0.019782444 -0.00423708868 0.9338326356 0.3544817379 0.0479510813
0.00576772213 0.01975341606 -0.02930632782 -0.2516111908 -0.9678276762 0.001182311766
0.007452250004 -0.01534569168 -0.001125179768 0.1528211183 -0.873222161 -0.4627404925
0.00429848814 -0.0165457592 -0.003272518158 0.2903431505 -0.9561578337 -0.03824986303
0.02058080482 0.03036841202 -0.06137999344 0.9992881918 -0.01490138237 -0.03465629124
-0.01136920738 0.02779808044 -0.04343024445 0.5301852508 -0.01007258082 -0.8478219996
0.001799236894 -0.01698152733 -0.004720219135 0.1122351651 -0.9936782507 -0.002608044554
0.01254054689 0.04992940903 -0.04432472992 0.5924729397 0.001553061286 0.8055888553
0.02058027077 0.0004937508702 -0.01421853924 0.9991453529 0.04120553136 0.00326617423
-0.002385230064 -0.01688567924 -0.006737080574 -0.1753389854 -0.9844925631 -0.005534751234
-0.002612132311 0.0532925148 -0.04018709564 -0.1462160993 0.00305870693 0.989247945
0.01346117926 0.01555043268 -0.01539801216 -0.668320168 -0.7438733246 0.0007937617127
-0.004488862038 0.02010415268 -0.01537525558 0.2390945612 -0.9709120437 0.01279039813
0.01161377144 0.0169655304 -0.02943127823 -0.5682934175 -0.8228209683 -0.002871544003
-0.01365366077 -0.0102711134 -0.009032952309 0.8093363057 0.5873377697 0.003014701438
-0.004247696877 -0.01656138992 -0.007495866776 -0.2502000665 -0.9681940895 -0.0003629361939
-0.01690954399 -0.002407499313 -0.006759829044 0.9828546171 0.1843094872 0.005178279646
0.009707894325 0.01813214207 -0.01898328495 -0.4804010831 -0.8770153361 -0.007674613041
-0.01456687927 -0.008883101463 -0.0146784687 0.8768033671 0.4808490975 -3.033064084e-05
-0.005902760983 -0.01600322533 -0.008037011147 -0.3394696565 -0.9406167102 0.0007462709428
0.02053552437 0.003841696978 -0.04892813873 0.9949894622 0.08700444583 0.04925643558
0.004468408585 -0.01649346733 -0.006968252659 0.2926712764 -0.9562125687 0.001023456863
0.02024377632 0.05980394745 -0.06313002396 0.7420271609 0.6703693275 -0.0008106437525
-0.007472681046 -0.01534517956 -0.008486867905 -0.4351559823 -0.9003510835 0.00268281039
-0.008926826477 -0.01455870724 -0.008816256523 -0.4975198351 -0.8674460475 0.003371704453
0.01605841446 0.01285029793 -0.02922600365 0.7777107922 0.6286154023 -0.002932531715
0.02055892563 0.001659974456 -0.04602247238 0.9993763833 0.03008737188 0.01848227426
-0.008605126381 0.01773423767 0 0.2054850133 -0.6272770749 -0.7511986293
-0.01024165821 -0.01362373161 -0.009003669739 -0.5902674299 -0.8071993369 -0.003686696837
0.007954291344 -0.01508430195 -0.008317334175 -0.3741301576 0.9273618459 0.005160605654
-0.01534477329 -0.007472289085 -0.008486474037 0.9026058229 0.4304609519 -0.002469298027
0.005023941517 0.0538999939 -0.04066633224 -0.2429628777 0.01121927152 -0.9699707047
-0.0160239048 -0.005922473431 -0.008056927681 0.9404916755 0.3397883372 0.004392523225
-0.01252624321 0.04996670532 -0.0722379837 0.7341900767 -0.01964411475 0.678659738
-0.01652158165 -0.004210151672 -0.007457724571 0.9674487477 0.2530627691 0.001468151931
0.02058290482 0.0004278377891 -0.01617941093 0.9992543196 0.03849407926 0.00300175572
0.014528265 0.06060000229 -0.04803231812 0.5677648551 0.675936705 0.469843208
-0.01695519447 0.001823291302 -0.004695373535 0.9917941645 -0.1278437836 -0.0005497950203
0.02019172859 0.007990755081 -0.05073599625 0.9800360034 0.1615446914 0.1158997185
-0.01647474861 0.004362663746 -0.003205859661 0.9562405817 -0.2910807859 0.02959604568
-0.01533942318 0.007457854271 -0.001119325519 0.876630456 -0.1415893224 0.4598603129
0.01695764351 0.01169524574 -0.01947220612 0.8237941485 0.5668808847 0.003043596383
0.01346647358 0.01554217148 -0.01159415913 -0.6719186692 -0.7405924341 -0.006938911812
-0.01374255848 0.04673498917 -0.07071973419 0.7937583796 0.009784293731 0.6081545054
-0.01980174446 0.005559585571 -0.004255024433 0.325858898 0.9443909653 0.04406453407
0.01878454208 -0.008403019905 -0.02028004646 0.9469090194 -0.3214770336 -0.003978180387
0.01804102325 0.009844776154 -0.002924138546 0.8745184902 0.4760228577 0.09284206607
-0.01630528259 0.01069128799 0 -0.1468848258 0.08550017805 -0.9854514536
0.01346771431 -0.01552700901 -9.910145402e-05 -0.01438482395 0.01914517385 -0.9997132285
0.01923302078 0.007312394142 -0.03479420853 0.9395480516 0.3423993531 -0.003484489652
0.01194733095 -0.01380682516 0 -0.01438482395 0.01914517385 -0.9997132285
0.007576773167 -0.01528085804 -0.00290907836 0.2648310017 -0.9452098243 -0.1909003106
0.004383210182 -0.01651968575 -0.005115203857 -0.2134154181 0.9543259798 0.2090831976
0.00186263752 -0.0169727478 -0.006595308781 0.1183897465 -0.9929495377 -0.005923138888
-0.0003435854614 -0.01705288696 -0.007733350754 -0.041912084 -0.9991036064 0.005946495801
0.01970573044 0.02188760757 -0.0546689167 0.9598450372 0.003127231773 0.2805133241
-0.008406839371 0.0187812233 -0.02028408241 0.3259009676 -0.9453685781 0.008173788501
-0.002349342585 -0.016893507 -0.008652400017 0.1580951302 0.98742277 0.00148428963
-0.005871407747 -0.01601825809 -0.01094632673 -0.3514970141 -0.936186507 -0.002161749686
-0.004184601784 0.03189627266 -0.04044301224 -0.1902962478 0.003357240471 0.9817209721
0.006332233667 0.03004510593 -0.04101618195 0.2966293689 -0.01421323536 0.954886905
-0.00745879221 -0.01535547924 -0.01043013477 -0.4341489398 -0.9008355725 0.003157440967
0.009746639729 0.02596498966 -0.04247393608 0.4909158134 -0.0009915977662 0.8712064514
0.02013518333 0.004157072544 -0.02206668282 0.9785894714 0.2058050362 -0.002633174682
-0.008917046547 -0.01456624794 -0.01076315594 0.4972399982 0.8676128625 -0.0005523094462
-0.005844400406 0.02624980927 -0.04085561371 -0.2854955652 0.002804646109 0.9583759264
0.007387766361 0.01922595787 -0.03065627289 -0.341603524 -0.9398290086 0.005335438975
-0.01023580456 -0.01362828732 -0.01095271206 -0.5900841897 -0.807333108 -0.003728520005
0.004180077553 0.02015631104 -0.02204059601 -0.2028677136 -0.9791965599 0.004334498166
-0.01206259108 -0.01206266737 -0.01108271074 -0.7007884513 -0.7133677783 0.001399797744
-0.01365868282 -0.01026571751 -0.0109827261 0.8095102014 0.587098141 0.003001099736
-0.01447563553 0.05230016327 -0.06967962646 0.8514289601 0.003363995442 0.5244591591
0.004263521671 0.01967445755 -0.0004932334125 0.04134056886 0.8581306697 0.511764312
0.00203625679 0.02604007339 -0.04012190628 0.09019378045 -0.0009798497469 0.995923753
-0.0001397255659 0.06012266159 -0.04013915825 -0.02282089731 -0.6445581772 -0.7642146052
-0.01535428047 -0.00745763731 -0.01042896271 0.9030166611 0.4295936805 -0.003190528995
0.01925511742 0.007251725197 -0.03897869492 0.9386537213 0.3448386209 0.003939170342
-0.01603547287 -0.005903103828 -0.009994235992 0.9411238163 0.338057094 0.001833990984
-0.01694841957 0.001996588588 -0.0103719492 0.9907234441 -0.1358915172 -0.0007434922941
-0.01653082657 -0.004182014942 -0.009384109497 0.9679818184 0.2510193287 0.0007042289648
0.01700126076 0.01163221931 -0.03142585945 0.8182486876 0.5748450188 0.004721178662
-0.01691523933 -0.002369618416 -0.008673307419 0.9830968493 0.1829512395 0.00703056939
0.02020139122 -0.00331824851 -0.04518104172 0.9800058752 -0.1965595495 -0.03086791442
0.02047503471 0.01046115494 -0.0554790535 0.9920959936 0.07094989346 0.1034971114
-0.0170798378 -0.0003684619665 -0.007759144783 0.9992244212 0.03824886375 -0.009358445935
-0.01043885708 0.05103268433 -0.04289087677 -0.5343904039 -0.000839223003 0.8452373583
0.01509789467 0.01401452446 -0.03729533005 0.7343475562 0.6787678987 -0.002793984612
-0.001009778023 0.06060000229 -0.04256272507 -0.01094712433 0.8728480721 0.4878692484
-0.006976054192 0.01934974766 -0.00294032675 0.3654147795 -0.9205419582 -0.1381106156
0.020057621 0.0008253684044 -0.0556879425 0.9731226728 -0.1841567804 -0.138269823
0.01031744957 0.06060000229 -0.04479693985 0.4347875858 0.7166828264 0.5452756015
-0.01695294952 0.001880717993 -0.006576456547 0.9910848914 -0.1332060702 0.002623134023
0.002977427006 0.0216282196 -0.0402181282 -0.2293368244 -0.3922824459 -0.8907968924
-0.01529609489 0.007563153744 -0.00292343998 0.9385417407 -0.3008415664 0.1692151085
-0.01380682516 0.01194733095 0 0.02362138562 -0.01763479826 -0.9995654276
0.01532524109 -0.01347653484 0 0.5157137594 -0.3676191079 0.7738833955
0.02048023415 0.05778133583 -0.05877293015 0.9867936408 0.1371467847 0.08619205284
0.0006687220931 0.02055455399 -0.008441586494 -0.0593495936 -0.9982263386 0.004669340886
0.01372177267 -0.01187373352 0 0.5157137594 -0.3676191079 0.7738833955
0.01167786026 0.01690679932 -0.01564740467 -0.5725659908 -0.8198377267 -0.005855597898
0.007701947689 -0.01521568584 -0.004702308178 -0.3638272878 0.9314333161 0.007853807931
0.008317516327 0.06060000229 -0.04203934097 -0.3024202082 -0.630627733 -0.7147381899
0.00192640686 -0.01696391869 -0.008481301308 0.1243740091 -0.9922027005 -0.008056490875
-0.0002964928448 -0.01705567741 -0.00964385128 -0.0382541853 -0.9992327232 0.008401319988
0.02027421379 0.03632731247 -0.05718152618 0.9875240431 0.002295814069 0.1574515593
0.002372274876 0.02043536758 -0.01902173996 -0.130273496 -0.9914777011 0.000885740756
0.00534217453 0.02174429703 -0.04072410965 0.2521254779 0.3523706771 0.9012589247
-0.004190023899 -0.01657865143 -0.01135978413 -0.2473072547 -0.968936614 -0.0009797462008
-0.007444818497 -0.01536584187 -0.0123853426 -0.4329876741 -0.9013910576 0.003979356206
-0.01206349421 -0.01206356525 -0.01304648066 -0.7007104764 -0.7134443312 0.00141934194
0.01873564529 0.03265037155 -0.0521073494 0.9054666503 0.0001197548154 0.4244174017
0.01802965546 0.009859498978 -0.001097229004 0.8194900259 0.47194476 0.3251218865
-0.01669901848 0.05939648819 -0.05712440109 0.944056105 0.3134928463 -0.1023733655
0.004030183792 0.02684721756 -0.04040604401 0.2363315013 0.01005934078 0.9716204152
0.007667159557 0.01911632919 -0.01097626781 -0.3580522451 -0.9336995044 -0.001955800723
-0.01538315487 -0.007413136005 -0.01632870293 0.9037057631 0.428139305 -0.003553756479
-0.01366373444 -0.01026028728 -0.01294451046 0.8096840207 0.5868584685 0.002987390414
-0.01455879021 -0.008892559052 -0.01270711613 0.8701602974 0.4927676779 -0.00103563665
0.01913665199 0.007533856392 -0.01870201874 0.9365100275 0.3506139008 -0.004342926341
0.01867594337 0.05676115036 -0.05202842712 0.9048178794 0.007894571362 0.4257255934
0.001415517211 0.04290435791 -0.04008511353 0.06046269734 -0.0001404048569 0.9981704476
-0.001771461248 0.01799772263 0 0.03319442027 -0.4776734317 -0.8779101453
0.008867339134 0.03550807571 -0.04200699997 0.4387813569 -0.001816835255 0.8985920209
-0.0160501976 -0.005871172905 -0.01292128706 0.9375568436 0.3478295403 0.001332641281
0.01973210716 0.005889097691 -0.02324646568 0.966322936 0.2572859826 -0.004889436342
0.02003296089 -0.004654815197 -0.01744908905 0.9695531741 -0.24484321 0.004294769379
-0.01654013062 -0.004153706551 -0.01132219124 0.9679821053 0.2509956214 0.003441211188
-0.01692097092 -0.002331509829 -0.01059828281 0.9864798984 0.1638780261 -0.00118430182
0.02050366783 0.01716728401 -0.06199031448 0.9959084395 -0.02855486584 -0.08573797196
0.01977412891 -0.002026289463 -0.0001188746169 -0.6414376478 -0.007959851346 -0.7671338767
0.009583881378 0.01820820999 -0.03297820473 -0.4865792543 -0.8735554105 -0.01189848763
0.01834993172 0.03052179337 -0.06993981934 0 0 1
0.02008761215 0.004322065353 -0.01423166084 0.9767167144 0.2145190101 0.00246051737
-0.01708603859 -0.0003245101869 -0.009673175812 0.99927022 0.03631816213 -0.01183293801
0.01359557533 0.05959290695 -0.04516727066 0.605555167 0.3873829503 0.6951527814
-0.01695069122 0.001938481927 -0.00846859169 0.9903603692 -0.1384343784 0.004718257254
-0.01643447685 0.004521686554 -0.006911858559 0.959296371 -0.2823965492 -0.001631468871
-0.01249056244 0.06037806702 -0.07300349045 -0.4487263377 -0.7738301194 -0.4470253014
0.02058788681 0.02168989754 -0.06092540741 0.9997942228 0.01417787198 -0.01450861828
-0.01525253201 0.007669024944 -0.004737355232 0.937621487 -0.347651764 0.002048914556
-0.009911309242 0.05231459618 -0.07448822784 0.5789419775 -0.003869058144 0.815359563
-0.01187373352 0.01372177267 0 0.2371937623 -0.4588461863 -0.8562705743
0.01107412815 0.03141822624 -0.04324300385 0.5503797416 0.001742133193 0.8349126331
0.01935024452 -0.006931137562 -0.001989287972 0.8548355729 -0.2766375826 0.4390077347
0.004640294075 -0.01644054794 -0.01070604706 -0.1896267287 0.9818510885 0.003184914238
0.007504740238 0.01918368912 -0.02260569572 -0.3475556446 -0.9376524788 0.003592056673
0.01694153023 -0.01170375729 -0.0001391415745 -0.5794521373 0.500308009 -0.6433716785
0.01547452021 -0.009964276314 0 -0.02765680483 0.01665866979 -0.999478659
0.0205434761 0.03248066711 -0.06211820221 0.9972340252 -0.01547253941 -0.07269731432
-0.01535878372 0.05554756546 -0.06803885651 0.8971769801 -0.01713853866 0.4413385739
0.01784492874 0.0102661314 -0.03586362839 0.8679961033 0.4965500857 -0.004558180494
0.01974488258 0.04600518799 -0.05484745407 0.9599181585 0.002676006562 0.280267672
0.01692643929 0.01173247719 -0.0117949276 0.8223540407 0.5689432359 0.006117687084
0.007827783585 -0.01515016842 -0.006505012035 0.3693162815 -0.9292783884 -0.006867391096
0.003572823286 0.06060000229 -0.04344958496 -0.1780791534 -0.8905041338 -0.4186767282
-0.01486615562 0.04369861984 -0.04638982391 0 0 1
0.004554090977 -0.01646710014 -0.008831824303 0.2762094253 -0.9610760349 0.006419386143
0.001990550518 -0.01695503616 -0.01037836456 0.1227399299 -0.9924364496 -0.002191589201
0.01862973404 -0.008771792412 -0.02455631065 0.7379658687 -0.674106353 0.03141657976
-0.008872463226 -0.01459189701 -0.01866730309 -0.4835954843 -0.8752111073 -0.01187119596
-0.0002491172701 -0.01705848312 -0.01156582928 -0.03508793717 -0.9993830718 0.001520646832
0.008292140007 0.05192375755 -0.04177962112 0.4090770969 -0.002887627434 0.912495255
0.01854837227 -0.008961950302 -0.02672538376 0.7375156468 -0.6745961155 0.03147620758
-0.002276915073 -0.01690930367 -0.0125178566 -0.1488177514 -0.9888548407 -0.004402382463
-0.01481349087 0.06015758896 -0.0690338974 0.806425138 0.3851573448 0.4487006981
0.01717425919 0.02899375343 -0.04925650787 0.8259716936 -0.002851021848 0.5637043845
0.01025744534 0.0178619957 -0.03793713379 -0.4919041035 -0.86989783 -0.03616791761
-0.005839797497 -0.01603341484 -0.01387948036 -0.3346790017 -0.9422742718 0.01044808238
0.006158851624 0.04609956932 -0.04096464729 -0.2941720762 0.007389796762 -0.9557239039
0.01906169319 0.00768488884 -0.007246889591 0.9319938666 0.3624728821 -0.0009177619133
-0.01457501888 -0.008873584747 -0.01666218185 0.8767675634 0.4808414761 0.008373442947
-0.007430757999 -0.01537626934 -0.01435267639 -0.4331339772 -0.9013253831 0.002740710037
0.01523540068 0.01632848454 -0.04520014954 0.7432309497 0.3880786483 0.5449795576
0.01806398964 0.009815029144 -0.006615270138 0.8851336447 0.4653320143 0.002132478722
-0.008894893646 -0.01457899284 -0.014690588 -0.4826356132 -0.8758170905 -0.002699781558
-0.01022398949 -0.01363748264 -0.01488697147 -0.5895756326 -0.8077047377 -0.003691895936
0.00257491827 0.02039725494 -0.01123959351 -0.1509829434 -0.9885339874 -0.002169470404
0.01569382095 0.0379176445 -0.04729325104 0.7544092134 -0.006272104776 0.6563744354
0.02045094299 -0.00221265626 -0.0236681385 0.9924164548 -0.1229103732 -0.001618788892
-0.001657699227 0.02053164864 -0.01163476372 0.08592960539 -0.996297068 -0.002873193427
0.006133991718 0.01961627769 -0.007802535534 -0.2596350947 -0.965703857 0.002382876993
-0.01206440258 -0.01206446886 -0.01502247906 -0.7006325609 -0.713520808 0.001439149575
0.02022034645 0.02353722382 -0.064426651 0.9866073738 -0.02809191531 -0.160675867
-0.00820374012 0.01887593651 -0.0181505146 0.3182031201 -0.9479802258 0.008959124681
0.0202998333 0.03003201294 -0.0573057785 0.9877434622 0.002246724211 0.1560698724
-0.01366881847 -0.01025482368 -0.01491849041 0.809857757 0.586618761 0.002973670267
0.009975002289 0.01798924319 -0.0147330335 -0.4797238235 -0.8774052657 0.005005290285
0.02005561066 0.005691951752 -0.04585012817 0.9695106587 0.2296260427 0.08556262761
-0.0122580595 0.04601042557 -0.07249282837 0.716214136 0.01973649414 0.6976014494
-0.01654948997 -0.004125225067 -0.01327215195 0.9686598392 0.2483839799 0.001874667112
-0.01473093653 0.0582075367 -0.06919176102 0.830750249 0.2634211637 0.4903705888
0.01799772263 -0.001771461248 0 -0.4890767355 0.03337658668 -0.8716019448
-0.01692543221 -0.002291954517 -0.01253365707 0.9868241264 0.1617874782 0.001719151855
-0.017091856 -0.0002799057364 -0.0115983572 0.9993865326 0.03489326934 -0.003003021356
-0.01520872974 0.007775476933 -0.006561220646 0.936345801 -0.3510755436 0.001582260653
-0.009964276314 0.01547452021 0 0.3260251606 -0.5419313506 -0.7746082919
-0.01168253803 0.03796376038 -0.04363511658 0.5503412087 -0.01354707262 -0.8348299413
0.02014803314 0.004115859032 -0.02406098175 0.9790247516 0.2037208922 -0.002886824709
0.001938434243 0.02050613022 -0.0353142662 -0.1178077685 -0.993031518 -0.003119910259
-0.01202345276 0.01666509247 -0.0004413731396 0.4137543222 -0.5415581248 -0.7317937949
0.01773423767 -0.008605126381 0 -0.3809293083 0.09244961776 -0.9199706138
0.01605306816 0.01285569954 -0.02721490479 0.7818184111 0.6234953128 -0.003683321155
-0.01704696465 0.05331373596 -0.05928531265 0.9997015995 -0.005998168835 -0.02367982251
0.02045670891 -0.002127329588 -0.02163384628 0.9928876172 -0.1190431071 -0.001708309934
0.01667782974 -0.007550774574 0 -0.4052427698 0.1610764616 -0.8999070347
0.002524806261 0.02040668106 -0.01316405106 -0.1487544636 -0.9888717534 -0.002182880548
0.02055190659 0.02383846474 -0.05938626099 0.9966391623 0.01352444522 0.08079275632
0.002055074215 -0.01694610214 -0.01228666878 0.118602993 -0.9929394575 0.002136318707
0.01347298551 0.01553201175 -0.006915438056 -0.6652178318 -0.7466263827 -0.005854992561
-0.004129220486 -0.01659355354 -0.01526861095 -0.2756689301 -0.9612525057 -0.0005111626976
0.01669010544 0.02426674652 -0.04853646469 0.8168836414 0.0005589296331 0.5768022226
-0.005818549633 -0.01604360199 -0.01585111713 -0.3331569817 -0.9427830996 0.01290165106
-0.001253966689 0.0261678257 -0.0400668335 -0.05796910863 -0.006267812374 0.9982987013
0.01471399403 0.02015912247 -0.04620791626 0.7396821017 0.1229915547 0.661621845
-0.007416609287 -0.01538676167 -0.01633232689 -0.4321565886 -0.9017922559 0.003377879504
-0.01021802711 -0.01364212418 -0.01687256622 -0.5902669817 -0.8070841359 -0.01414524689
-0.001742257714 0.02052396202 -0.01359606457 0.08875757303 -0.9960501442 -0.002490660938
-0.01206531668 -0.01206537724 -0.01701089764 -0.700477113 -0.713615768 -0.009184217712
-0.01367393398 -0.01024932671 -0.01690485573 0.808969311 0.5876153621 0.01663850989
0.006827446461 0.0356560936 -0.04119287872 0.3382372167 0.003116851991 0.9410557213
0.01735735321 0.06060000229 -0.06846598816 0.6279748322 0.6445361762 -0.4361430129
-0.01606329155 -0.005837308407 -0.01587079048 0.9430990009 0.332342233 -0.01062613578
-0.01655890656 -0.004096567631 -0.01523417664 0.9692694691 0.246000688 0.0005980704294
0.01971404839 0.005964064598 -0.01928725815 0.9655008626 0.2603997441 -0.0002401503382
-0.01692990112 -0.002252138615 -0.01448083591 0.9872527089 0.1591007018 0.004365255953
-0.0002829137743 0.0205894146 -0.03665551376 0.01107733377 -0.9945370563 -0.1037946832
0.01141905499 0.0275760479 -0.04346187592 0.5585972191 -0.0008249638445 0.8294386452
0.01816555691 0.04839506531 -0.05096214104 0.8749925271 -0.01209619504 0.4839852887
-0.01639374352 0.004682538509 -0.01066048431 0.9795709491 -0.2010982062 -0.0005169365369
-0.01516219044 0.007884746075 -0.008392771721 0.935171137 -0.3541954693 0.0007169741524
0.008679553986 0.01787415314 0 0.2856806399 0.744128023 0.6038708946
-0.007550774574 0.01667782974 0 0.003219880929 -0.01054554614 -0.9999392101
0.02049871063 0.05485308456 -0.05876344299 0.9921657758 0.01467226702 0.1240636846
0.003954447031 0.02041928864 -0.04035777664 -0.3149892193 -0.759400134 -0.5692918655
-0.01396407318 0.03407660294 -0.04546126175 0 0 1
-0.0124798727 0.01635391045 -0.002690060139 -0.1707024722 0.680102015 0.7129669804
-6.531042606e-05 0.02058609772 -0.0303461647 0.01255816523 -0.9999130702 -0.004018035128
0.01346909285 0.01553808546 -0.009712256908 -0.6699468633 -0.7423891645 -0.005434036996
0.004040078163 0.0201809864 -0.02808612823 -0.2233407615 -0.9747364612 -0.002781262372
0.0194083004 -0.00677658987 -3.728608042e-05 0.7875181751 -0.3395319172 0.514327912
0.01839156151 -0.005690490723 0 -0.4044927089 0.1049197461 -0.9085028868
0.0173417263 -0.004643260002 0 -0.4044927089 0.1049197461 -0.9085028868
0.009930236816 0.02402773857 -0.04257009888 0.493326422 0.001282875511 0.8698433167
0.02051198769 0.006027647972 -0.05185215759 0.9948007996 0.07613058091 0.06764246953
-0.01368947697 -0.01023262215 -0.02294022179 0.8013298448 0.5982108432 -0.003777150088
0.004727379799 -0.01641341591 -0.0125906992 -0.1929149954 0.9812142553 0.001545879806
-0.00884974575 -0.01460496712 -0.02269484901 0.4930424895 0.8699985007 0.003422326704
0.01033371067 0.02967062092 -0.04279793549 0.4948145367 0.004054713484 0.8689891447
-0.0001534998268 -0.01706414604 -0.01544493198 -0.005227860756 -0.9999852941 -0.001442568413
0.0006541760564 0.03412783432 -0.04003486633 0.03106583083 -0.009447124429 0.999472694
-0.002203595161 -0.01692529678 -0.01643094444 -0.1668797987 -0.9859728995 0.002928193806
-0.01689642334 0.05786412048 -0.06290604401 0.9770998726 0.161992107 0.1379651991
-0.0084885149 0.05055778885 -0.04185609818 0.3957212488 0.001147188522 -0.9183699566
-0.004098535061 -0.01660107422 -0.01724123955 -0.2731233534 -0.9619767702 -0.002080263262
0.02043601036 0.04066096878 -0.05832950211 0.991001963 0.007074631438 0.1336602371
0.01570294094 0.03173677158 -0.04729872704 0.7542504905 -0.006863048616 0.656550909
-0.007402371407 -0.01539732075 -0.01832448196 -0.4330856873 -0.9013488925 -0.002638462812
-0.0102120266 -0.01364679432 -0.01887072563 -0.5899824329 -0.8072943163 -0.01402196937
-0.01206623697 -0.01206629181 -0.0190119276 -0.700397748 -0.7136932836 -0.009213662878
0.004271670818 0.02014016724 -0.01808537865 -0.2068700456 -0.9783666822 -0.001849177015
-0.007811430454 0.01905533409 -0.01394596672 0.3001655524 -0.9538627067 0.006824802684
0.02050299263 -0.001318306565 -0.00211352706 0.9622753688 -0.09064665743 0.2565332299
0.00158220613 0.0181279068 0 -0.05534615886 -0.6288154911 -0.775582285
0.01772952461 -0.006377866745 -0.05535058212 0 0 1
0.01170197964 0.01688850594 -0.01089148521 -0.5673331911 -0.823488301 0.0002617076339
0.004494884014 0.02010082436 -0.008446474075 -0.2167204033 -0.9762322811 -0.001673375888
-0.01367908192 -0.01024379444 -0.01890380096 0.809153323 0.5873643359 0.01655405347
-0.01458320999 -0.008864006996 -0.01865844917 0.8772095719 0.4800333047 0.008449455414
-0.01607209587 -0.005814543724 -0.0178535347 0.9435755808 0.3311107172 -0.005551239072
0.01974123955 0.005851191044 -0.02524843025 0.9667315019 0.2557500684 -0.004701665856
0.01390901184 0.02998834133 -0.04545861053 0.6648656769 -0.0007343283267 0.7469625776
0.007850250244 0.04957976723 -0.0416043148 0.395641889 -0.001070477797 0.9184042409
0.01882620621 0.01991905594 -0.05225046921 0.9045522981 0.03796660216 0.4246689029
-0.01656838417 -0.004067730904 -0.01720845222 0.9698190183 0.2438258752 -0.0001196409123
-0.008036468506 0.05677615738 -0.04168344116 0.3477729683 -0.02626428962 -0.9372108352
-0.0145914526 -0.00885436821 -0.02066746712 0.8774012242 0.4797296882 0.005149566138
-0.01693439674 -0.002212077141 -0.01644002342 0.9846323322 0.1746287229 -0.001994856337
-0.001306919217 0.04254566956 -0.04007654953 -0.0420029294 -0.004693642053 0.9991064626
0.009613066673 0.03415966415 -0.04240066528 0.4557084348 -0.003228117331 0.8901232509
-0.01709471321 -0.0001816853583 -0.01547527027 0.9993316854 0.03654709072 -0.0007019114296
-0.01694383621 0.002113850832 -0.01421302605 0.9926193886 -0.1212711536 0.0002380939048
-0.005690490723 0.01839156151 0 0.1719765093 -0.5985313111 -0.7824221047
-0.007373621464 -0.01541864109 -0.02234710312 0.4436601794 0.8961600849 -0.007921321394
-0.004294150829 0.05774682617 -0.04050531006 -0.2207237571 0.1321357138 0.9663442328
-0.007729214191 0.02030662918 -0.04150541306 -0.4530236529 0.288707686 0.843455655
0.02014605045 -0.003823175073 -0.0008702310324 0.8212363635 -0.1231081937 0.5571491793
0.020112463 0.03212207413 -0.06502371979 0.9839167754 0.0152329013 -0.1779767901
0.02028142166 0.03012122154 -0.06408863068 0.9889015132 -0.02725948252 -0.1460503945
0.02059363747 0.0001592223644 -0.02417054939 0.9996840253 0.02478664596 0.004179917382
0.009810563087 0.06060000229 -0.07492683411 0.4937267665 -0.5821335071 -0.6460297671
0.01693446541 0.01172358513 -0.01369334412 0.8179055008 0.5751906511 0.01364942196
0.002185285568 -0.01692807007 -0.01613769722 -0.05579542083 0.9984422208 -5.286377424e-05
-0.0001052489504 -0.01706700516 -0.01740242004 0.004112906423 0.999978435 0.005119914874
0.02022723007 0.003861864328 -0.03635152435 0.9761681686 0.2169988514 0.002684235459
0.008832012177 0.01859467506 -0.03630182648 -0.4258465479 -0.9047367282 0.01030389143
-0.00738804245 -0.01540794659 -0.02032934189 -0.4308304899 -0.9024047261 -0.00712735986
-0.009741947174 0.01812696457 -0.03356821823 0.9833146422 -0.1543403225 -0.09628800134
0.007640732288 0.01912750244 -0.01287956238 -0.3585982404 -0.9334919918 5.617616123e-05
-0.008861140251 -0.01459841061 -0.02067462158 -0.4841965896 -0.8749370798 -0.006226487151
-0.002006406546 0.01979186344 -9.909079969e-05 -0.008934281313 -0.6334331058 -0.773745875
0.02027398682 0.01028553486 -0.05351661682 0.9875009022 0.09827365958 0.1232244133
0.01789577198 0.01570122957 -0.0492325592 0.872957815 0.2111203673 0.4397417921
0.0007325609326 0.02055181122 -0.0065365448 -0.06222545603 -0.9980563027 0.003407233426
-0.01020598698 -0.01365149498 -0.02088164711 -0.5899426925 -0.8074081017 -0.007731545739
0.01537417157 0.01366544565 -0.004738356431 0.7382332832 0.6745404067 0.002619034177
-0.01540270901 -0.007383000374 -0.02032398415 0.9050260138 0.4252744164 0.008341764038
0.0204347229 0.002494734526 -0.01508019257 0.9884648751 0.151447196 0.0009682163407
-0.01657791901 -0.004038712502 -0.01919516945 0.9620967616 0.2726830086 0.003714582162
0.01738956451 0.03752796173 -0.04959392166 0.8452785925 -0.0009717954248 0.5343249542
0.0196954422 0.006037061214 -0.0153870554 0.9645217179 0.2640034328 -0.0002075200278
-0.01709615517 -0.0001321219504 -0.01743161583 0.9991228809 0.04187443442 -2.281086155e-05
-0.003825838804 0.02014369965 -0.0008728679419 -0.1621854903 0.8435216456 0.5120225582
-0.009092125893 0.05402060318 -0.04212237549 -0.4201500281 -0.0002411459337 0.9074546246
0.01929174995 -0.007086855412 -0.003956067801 0.9621772463 -0.2723511601 -0.006308110338
0.007475827694 0.01919413757 -0.02459554291 -0.3471168599 -0.9377323463 0.01295886606
0.01968293953 3.189445287e-05 0 0.7222795857 0.04908823526 0.689856902
0.02007749748 -0.004434778214 -0.0134336462 0.9719831013 -0.2347097193 -0.01265695223
-0.01459974957 -0.008844667435 -0.02268943405 0.8738088931 0.4862607114 0.002922128592
-0.004728978157 0.02004306984 -0.01944018936 -0.2538526291 0.9672429066 4.849457852e-05
0.0181279068 0.00158220613 0 -0.6305766657 -0.0554092241 -0.7741465536
0.02056863594 0.0006170030832 -0.01034697342 0.9989066678 0.04658475141 0.003915352307
-0.005503022194 0.01982722664 -0.03206342697 0.1959478622 -0.9806137847 0.001020040133
-0.004944283962 0.04547459412 -0.04063599396 -0.2406254613 0.005968142924 0.9705996954
0.002423490524 0.02042573547 -0.0170548954 -0.1323823971 -0.9911982863 0.0009263477271
-0.004035121918 -0.01661470795 -0.02122229385 0.2754832646 0.9611282085 0.01848074133
0.02039934158 0.01708548355 -0.05758908463 0.9895313871 0.03806243469 0.1392080638
0.02007751274 0.004364287853 -0.01230634117 0.9762311888 0.2167178698 0.002455789378
-0.01019990921 -0.0136562252 -0.02290553093 -0.5997306403 -0.8001985188 0.002342995007
-0.007632609844 0.01913093758 -0.01188488674 0.2903576247 -0.9569013062 0.005686824512
0.01163166237 0.01694769669 -0.02542052078 -0.5642082058 -0.8256248956 0.003554190149
0.01959882927 0.006292251587 -0.0003577238321 0.9068025518 0.2582235415 0.3332112464
-0.01206809473 -0.01206813908 -0.0230526228 -0.7003360098 -0.7138108989 0.001863882115
0.01345580816 0.01555881214 -0.01925671101 -0.6680918365 -0.7440784172 0.0007791328815
-0.01608986855 -0.00576857996 -0.02185685539 0.9261939835 0.3769103549 0.01016313806
0.01963177204 0.006217552423 -0.004963016748 0.9540440093 0.2995968107 0.006463701882
0.01730758667 0.01183465958 -0.04359810257 0.8545432999 0.4846764065 0.1866668946
-0.01658751678 -0.004009509563 -0.02119452286 0.9617954839 0.2731850963 0.01787037279
0.01981159401 0.005582259655 -0.03969738388 0.961321729 0.2751543209 0.01227326709
0.01915144348 0.03096714592 -0.05301366806 0.9161762619 0.00610739363 0.4007290318
-0.01694347382 -0.002131202221 -0.02039517212 0.9837634455 0.1794512787 -0.002592648771
3.189445287e-05 0.01968293953 0 0.0536488531 0.7155309845 0.6965179184
0.01920310974 -0.007322820663 -0.006936405897 0.9602728704 -0.2790102755 -0.005411141629
0.02018596649 -0.003898870468 -0.003653914213 0.9782667984 -0.206421693 0.01959989033
0.02043960381 0.01933799171 -0.05820182419 0.9919110349 0.008670192357 0.1266385671
0.01812251663 0.00972619009 -0.01704171562 0.885531419 0.464525747 0.00706656874
0.001998177648 0.0205007 -0.03321736145 -0.1202573705 -0.9927367258 -0.003458046679
0.01568416929 0.00746282196 0 -0.2963643702 -0.111673019 -0.9485237461
0.0123680172 0.06060000229 -0.07273484802 0.5307578603 -0.6320157516 -0.5646699774
0.00746282196 0.01568416929 0 -0.1121713466 -0.2922805034 -0.9497313811
-0.009258296967 0.01837556267 -0.02902755928 -0.6746268214 0.7374873542 0.03148101407
-0.008838275909 -0.01461156559 -0.02472818375 0.5400586721 0.8415254376 -0.01309841568
-0.002105824232 0.020475811 -0.02161026573 0.1137391556 -0.9934964516 0.005310844403
-0.01206903267 -0.01206907129 -0.02509269142 0.7003108582 0.7138205947 -0.004986019253
-0.008002349854 0.01896985435 -0.01603489494 0.3098251659 -0.9507556258 0.008491555451
0.002320679188 0.02044507027 -0.02100317383 -0.1276720382 -0.9917957589 0.006404943608
0.01170769167 0.01934392262 -0.04340978241 0.6005064297 0.3259914508 0.7301517663
0.02049659824 -0.001435647666 -0.004953604221 0.9967394313 -0.08068551118 -0.0005953727172
0.01988481712 -0.005347569466 -0.02988984299 0.982226198 -0.1877010635 8.179934069e-05
0.01286130142 0.01609078217 -0.03326729202 -0.6211713271 -0.7836637598 -0.004158606631
-0.01369472504 -0.01022698212 -0.02497809982 0.783599397 0.6212564284 -0.003526342861
0.02057588577 0.0005572149158 -0.01227405453 0.9990290304 0.04390772672 0.003620503748
0.01722450447 0.01393586826 -0.04654481888 0.8251976653 0.4211361354 0.3764215304
0.006038235664 0.01965376472 -0.01349656391 -0.253690308 -0.9672805355 0.00309728815
-0.01460809994 -0.008834903717 -0.02472455406 0.8518933268 0.5236201777 -0.009983444701
0.005408866644 0.01774236298 0 -0.07750583397 -0.575912115 -0.8138292705
-0.009673276901 0.04765005493 -0.04244332123 -0.452025732 -0.00194371017 0.8920027801
0.002194335739 0.02040410805 -0.0009063905676 -0.06661496068 -0.9424656438 -0.3275987748
0.001503868163 0.04596591187 -0.04009536362 0.07591443336 0.01171853229 0.9970454728
-0.00389572072 0.02018874359 -0.003650768042 0.1979294118 -0.980007221 -0.02024338912
0.01998773575 -0.004878257751 -0.02152666855 0.9705393111 -0.240403218 0.01611639911
-0.007175557613 0.01929229927 -0.005870094299 0.2699851948 -0.9628636878 0.00123020038
0.0199648571 -0.004991291523 -0.02358941078 0.9688890364 -0.2469551411 0.01634605475
0.02054014015 0.0008519722819 -0.002773492336 0.9755816652 0.06345708205 0.2102703337
0.01896134663 0.007708435774 -0.0008484238982 0.7707870207 0.3321558471 0.543654175
0.003419420719 0.04366634941 -0.04030224419 0.1605632028 0.01721851318 0.9868753623
0.01787415314 0.008679553986 0 0.7462633317 0.2865594967 0.6008116964
0.01608021355 0.01282827091 -0.03742688751 0.7791861011 0.6267695464 0.005381038014
0.02045971298 0.03454133606 -0.06292756271 0.9929711561 -0.01676990946 -0.117162508
0.01634020138 0.01021084929 0 -0.6165524225 -0.317595049 -0.7204141137
0.01541198826 0.04170617485 -0.04697555542 0.757717354 0.007730150252 0.6525370918
0.0122530489 0.01429606915 0 -0.4883459776 -0.6149854223 -0.6191212616
-0.007309883118 0.01925362015 -0.007842710018 0.2744131553 -0.9616114404 0.0009262302817
0.01021084929 0.01634020138 0 0.3253745971 0.6190531317 0.7147759032
0.01344760323 0.01557161427 -0.02515154266 -0.6646396587 -0.7470772203 0.01139083189
0.01760050011 -0.01065170288 -0.04073038101 0 0 1
0.01632872391 0.06060000229 -0.05321093369 0.2768393157 0.9505346254 0.1408684462
0.006258605003 0.01956749344 -0.0003925254047 0.2609980955 0.9010759917 0.3463265098
0.0008588988781 0.0205463829 -0.002766439676 -0.07078524907 -0.9752526143 -0.2094559304
-0.001378470004 0.02054755116 -0.004895419836 0.08007017159 -0.9967892292 1.290550836e-05
-0.007362992287 0.05246539307 -0.07598438263 0.4282747794 0.002669966726 0.9036446119
0.002404333353 0.04177041245 -0.04015787125 0.1038440105 0.0216261146 0.9943584528
-0.003992786169 0.02017490005 -0.005569438934 0.2042633856 -0.9788693716 -0.009551056933
0.019113554 -0.007561224461 -0.009947540283 0.9568554981 -0.2905359404 -0.004052534896
0.01248229027 0.04093265152 -0.04426810455 0.6018036064 -0.004137049914 0.7986333978
0.02054718971 0.0007938442826 -0.004647063732 0.9985094774 0.0540422534 0.007632721025
-0.004339647055 0.04775922394 -0.07709925461 -0.279213059 -0.04380410074 -0.9592295181
0.01961268425 0.006263338566 -0.002189016342 0.9400767146 0.2955038086 0.1700978241
0.01687844658 0.01178352737 -0.0006781119704 0.7754267378 0.553143881 0.3045410008
