# .PCD v0.7 - Point Cloud Data file format
VERSION 0.7
FIELDS x y z normal_x normal_y normal_z
SIZE 4 4 4 4 4 4
TYPE F F F F F F
COUNT 1 1 1 1 1 1
WIDTH 517
HEIGHT 1
VIEWPOINT 0 0 0 1 0 0 0
POINTS 517
DATA ascii
-0.00641756773 -0.01866816902 0 0.3221842115 0.8512475831 0.4142159898
-0.004038485169 0.01943000078 -0.0004364339709 -0.1009953984 0.8917700884 0.4410737341
-0.01200393319 -0.01200386679 -0.004250907332 0.7037963606 0.7025218732 0.1055163513
-0.008364643288 -0.01485778637 -0.005214635992 -0.5364489856 -0.8318338522 -0.1423900565
-0.00377565062 -0.01931594849 0 0.209779232 0.8470273706 0.4884028126
-0.008322483619 -0.01574357891 -0.0007833324969 0.5682608058 0.7731335835 0.281680881
0.02024403191 0.005576607227 -0.05903722 0.98707607 -0.1083032017 -0.1181154032
0.006950867653 0.06060000229 -0.07985346985 0.2899726005 -0.2521208701 -0.9232285512
0.0122145853 -0.01539225101 -3.303381801e-05 -0.4999437929 0.8275631424 0.2553339955
-0.0157416358 -0.008320582946 -0.0007815097272 0.7727663008 0.5683862072 0.2824347071
0.02029027653 0.003268347085 -0.0205376358 0.9843743006 0.1760877968 0.0005693808047
-0.01218162425 -0.01218158309 -0.0009254330794 0.7033068377 0.7022623359 0.1103952157
0.01660487779 0.0280770448 -0.04848895137 0.7908668901 -0.01757724665 0.6117357293
0.005576659203 -0.019782444 -0.00423708868 0.2146296169 -0.9410873262 -0.2613212047
0.02052366877 -0.0003355349898 -0.005271991611 0.9855750288 -0.03214792699 0.1661576762
0.01676257951 0.02002881132 -0.04860674722 0.8126515736 0.1075247261 0.5727441428
-0.01086916447 -0.01420960617 0 0.6409443302 0.7478106409 0.1731173329
-0.01420960617 -0.01086916447 0 0.7475874654 0.6405634517 0.1754749152
0.003515950203 -0.01666401405 -0.009073157978 -0.1041543879 0.99169205 0.07549000957
0.01229868317 -0.01230440903 0 -0.533575434 0.8456485005 0.01326159005
0.01878841654 0.0121828955 -0.04884390895 0.9364185264 0.2357650853 0.2598752933
-0.01866816902 -0.00641756773 0 0.8508559032 0.32193032 0.4152169325
-0.01931594849 -0.00377565062 0 0.8402075663 0.2032009826 0.502753027
-0.01719163284 0.000641668129 -0.001218134555 0.9699091796 -0.008770989791 0.2433089664
-0.001140412211 -0.01995738983 0 0.1004097986 0.8942230917 0.4362143218
0.020044137 -0.0045995965 -0.01644140816 0.9880860093 -0.1523105138 -0.02208043339
-0.01980174446 0.005559585571 -0.004255024433 0.9455915524 -0.2039852037 0.2534692341
-0.01657921124 0.003801754653 -0.00543694663 0.9822746182 -0.07646896263 0.1711405043
-0.004430488626 -0.01661721341 -0.0009251944969 0.2871993506 0.8637628313 0.4140414281
-0.01662074916 -0.004433826407 -0.0009284686297 0.8624154591 0.2856610381 0.4178963354
-0.01598717761 0.007377328515 -0.001010691375 0.8906082767 -0.4312137796 0.1444699755
0.02038188934 0.004834032178 -0.04836783028 0.9885360724 0.1439309002 0.04561063014
-0.01995738983 -0.001140412211 0 0.9142956419 0.1229866852 0.385924545
0.01914348316 -0.007481551647 -0.008941241264 0.976324929 -0.2162284144 -0.005908116817
0.008067555904 0.02008018613 -0.04107826424 0.466275507 0.505535685 0.7259619982
0.020057621 0.0008253684044 -0.0556879425 0.9750041363 -0.1864295783 -0.1208757485
0.01667246895 0.0242473423 -0.04856234512 0.7969943193 -0.003198940539 0.603978329
0.002422667861 -0.01957843304 0 -0.009553402697 0.9299916375 0.3674565098
0.02052728462 -0.0007614681274 -0.01689252567 0.996439376 -0.08299987514 -0.01481859147
-0.007981711626 0.05193648911 -0.04165831757 -0.4063197223 -0.01948764255 0.9135231333
-0.01653438595 -0.003963125978 -0.004873551335 0.9515442346 0.1566140219 0.2646424338
0.001290364146 0.06060000229 -0.04300511551 -0.01251281001 -0.5823297483 -0.8128563796
-0.008923535506 0.01994536972 -0.04176706187 -0.4315817318 0.4963519133 0.7532409886
0.0006340942323 -0.01719998627 -0.001225923747 -0.01434387213 0.968710881 0.2477770822
-0.01484841652 -0.008355514431 -0.005205684042 0.8315010774 0.5367855359 0.1430637857
-0.01523063087 0.007722250938 -0.005649287939 0.8687928721 -0.4409711523 0.2252629316
0.003973945924 0.05575220544 -0.04045193372 0.2098361082 0.2098996567 0.9549402818
-0.004094622453 -0.01650800228 -0.01290895081 -0.1872827202 -0.982142413 0.01792939768
0.02059922791 -1.436905097e-05 -0.02929366875 0.9999997099 0.0002985074517 0.0007007383491
0.01920256157 0.02376671944 -0.05325215683 0.9410103258 0.0122731058 0.3381551974
-0.01957843304 0.002422667861 0 0.9414378505 -0.005680234836 0.3371387083
0.007954291344 -0.01508430195 -0.008317334175 -0.6284882494 0.7436935084 0.2278650607
0.00740863061 -0.01874773026 0 -0.2754075487 0.9271079631 0.2542076059
-0.01200455713 -0.01200448155 -0.008105281949 0.707443152 0.7056292658 0.04014381561
0.01867895508 -0.0007728510499 -0.05995789719 0.9444241046 -0.2544510034 -0.2081292806
0.01687011607 0.04811590068 -0.04887028503 0.7931136611 -0.01016348168 0.608988854
0.004272654136 -0.01723076248 -0.0004800132116 -0.1692914278 0.9074559865 0.3845309416
-0.007722020149 0.01909313583 -0.01291542673 0.2221061201 -0.9749604192 0.01100237809
0.0007086339444 -0.01701293659 -0.005273942113 0.07833347519 -0.9821248132 -0.1711569982
-0.004062250793 0.05600052452 -0.04045228195 -0.1561637987 0.1961096374 0.9680670835
-0.00395864749 -0.01652957617 -0.004868989808 -0.2267032089 -0.9427490516 -0.2446014732
-0.01720510419 0.004295849403 -0.0004561480681 0.9150219017 -0.1596985683 0.3704474143
0.02059582996 -0.0003132315725 -0.03771632385 0.9999507648 -0.003461671202 0.009299724178
-0.01650755819 -0.004094228427 -0.01290856838 0.9820928424 0.1883416796 -0.004589187095
0.01687083419 0.01169930506 -0.009024688959 0.804878904 0.5932862079 0.01346942618
-0.009548086643 0.05159219742 -0.07473389053 0.545589481 -0.006852709198 0.8380245573
-0.008118137479 -0.01500749135 -0.0215114789 -0.472008198 -0.8814157611 -0.01773463206
-0.01874773026 0.00740863061 0 0.9304387346 -0.275075166 0.2421103346
0.007379332304 -0.01598493552 -0.001008564532 -0.3859458944 0.8999787352 0.2026919899
0.01645879698 0.01160802138 -0.001228016086 0.8018557616 0.5544145191 0.2228270149
0.01327443838 0.01327443838 0 0.6330703635 0.6318661406 0.4471768054
0.0177980957 -0.01032192993 -0.03829263306 0.935235215 -0.3540023757 -0.004172596424
-0.01142576265 0.06060000229 -0.07682368088 -0.4560938803 -0.3738291539 -0.8076076622
-0.01703213946 0.0003185178737 -0.00483897694 0.9812332469 -0.01437348141 0.1922881125
0.01454450035 0.01454456639 -0.01631415868 0.7077338309 0.7064785218 -0.0009606408635
-0.004026518965 0.05573759995 -0.0771467041 0.2471248865 0.12038612 0.9614761945
0.004340849161 -0.01653272247 -0.004193861008 0.2146296169 -0.9410873262 -0.2613212047
-0.004139792442 0.02015393543 -0.008475276947 0.1271904228 -0.9918098937 -0.01165036919
-0.01921517754 0.06060000229 -0.0674108963 0.868446745 0.4253932998 0.2546385507
-0.004152344267 -0.01649048583 -0.009026553472 -0.1901710258 -0.9814478256 0.02439562614
-0.0001293743886 -0.0170655756 -0.01642367601 0.06275269739 0.9979875024 0.009112847135
-0.008529853185 0.01645178191 0 -0.461040892 0.7826696192 0.4181740823
0.02022034311 0.003646798491 -0.005125057578 0.9722113118 0.1660121252 0.1650610177
0.007900622027 0.0189359842 -0.004815815755 -0.3707513672 -0.9105820792 -0.1827120704
-0.00819383657 -0.01495640349 -0.009624103785 -0.493832135 -0.869077595 0.02887830224
-0.01494814181 -0.00818579638 -0.009616027355 0.8689435557 0.4941019899 -0.02828993681
0.007764865637 -0.01518292713 -0.005603660107 -0.4610527003 0.8543651054 0.2397721297
0.01808494377 0.03821645355 -0.05077442169 0.8840698081 0.009603585596 0.4672561883
-0.01649133269 -0.004153145353 -0.009027431329 0.9801809459 0.197217978 -0.01871850516
-0.01708293819 -0.0003464860767 -0.008716160297 0.9879561819 0.1494267999 0.04017728396
-0.01540046692 0.01220747471 -4.066156844e-05 0.727307395 -0.5562431894 0.4020167501
0.020195924 0.003707444525 -0.02467554474 0.9900538588 0.1400822346 0.01305083499
-0.0003200391531 -0.01705428219 -0.008688601017 0.1377751424 0.9899103055 0.03309980707
-0.0119933116 -0.01199319344 -0.01258575439 0.7078347916 0.7062629298 0.01275075461
-0.008123719454 0.04387963486 -0.04171424103 -0.388942022 0.007276384067 0.921233498
-0.01230440903 0.01229868317 0 0.6769057207 -0.6182242929 0.3994963942
0.02009561348 0.007684163094 -0.06107281303 0.9919319618 -0.07888964878 -0.09923409914
-0.004103394985 0.03948023733 -0.0404448026 -0.2310735955 0.01790705467 0.972771469
0.009930236816 0.02402773857 -0.04257009888 0.524710007 0.1397811312 0.8397265292
-0.007108892918 0.01931149578 -0.004891104817 -0.293268916 0.9405391187 0.1714045187
-0.01667675591 0.003304872394 -0.00957044673 0.9936886612 -0.09747570299 0.05550974689
0.01563215518 -0.01202075601 -3.478539363e-05 0.7288201469 -0.4161775399 0.5437071351
0.003864897609 0.0318978672 -0.04039654922 0.1751467075 0.02226517421 0.9842905531
-0.008169118762 -0.0149734261 -0.01353735352 -0.4932934962 -0.8695880815 0.02186538616
-0.0004485275596 0.02054881668 -0.00906194365 0.07361714232 -0.9969400862 -0.02628651644
-0.0149657464 -0.008161654472 -0.0135297122 0.8676365518 0.4964689198 -0.02693372557
0.01050865078 0.05099875259 -0.0429311142 0.4834113056 0.01001963897 0.875336002
-0.0002252858505 -0.01705989456 -0.0125326457 -0.04352157884 -0.9990518418 -0.001135582338
-0.01217651844 0.01572121868 -0.0006262866557 -0.4128818594 0.7172090956 0.5613730341
0.01899492836 0.03603665988 -0.052780557 0.9060379379 0.01801756598 0.422812751
0.0200830698 -0.004299271166 -0.03738775063 0.9647297046 -0.2630932582 0.008861969535
0.01645178191 -0.008529853185 0 0.7874518271 -0.4280102851 0.4435389676
-0.009620480061 0.01818939877 -0.03242784595 -0.3298126754 0.9439937055 -0.009974125773
0.01458033657 0.05923013051 -0.04610966873 0.6817483365 0.268118636 0.6806846573
-0.01700013924 0.05662556934 -0.06154389572 0.9709857 0.2376479342 -0.02665013498
-0.01200531352 -0.01200521648 -0.01695233774 0.7077985746 0.7063010537 -0.01264908008
-0.0170925684 -0.0002554254085 -0.01256463432 0.9989892514 0.04475723276 0.004155189962
-0.007702454185 0.05175166168 -0.07581626892 0.4221894779 0.01644333314 0.906358462
0.0160178299 -0.01286872196 -0.003060992718 0.7489329523 -0.5332427836 0.3933847566
0.002967479308 -0.01676554362 -0.0130279185 -0.07634023662 0.9965741693 -0.03181341553
-0.004546203613 0.02009109879 -0.01638493443 0.1506050252 -0.9882931548 0.02438783622
-4.00773637e-05 0.04760795898 -0.04006937256 -0.06374714656 0.01453868219 0.9978601746
0.007526211977 0.0556960392 -0.07589606476 0.5032797634 -0.2727315941 -0.8199554606
0.01943117619 -0.004037153304 -0.0004351155162 0.8948126124 -0.1023977611 0.4345400871
-0.00403561008 -0.01652512487 -0.01683881156 -0.182486 -0.983207833 -0.00110310955
-0.008143789411 -0.01499035096 -0.01749920034 -0.467626141 -0.883925767 0.001015185409
-0.01498357129 -0.008137210965 -0.01749233437 0.8644732033 0.5026271035 -0.007216336496
-0.01103092861 0.04458541489 -0.04322213745 -0.4875889361 -0.007546870719 0.8730407059
-0.01652266598 -0.004033332348 -0.01683639717 0.9839764246 0.1772760011 0.01906870006
0.02055178308 0.0005480903238 -0.04460411167 0.9996718499 -0.002465965771 -0.02549728497
-0.01675622431 0.002975865444 -0.01301877594 0.9969411075 -0.07731750064 -0.01142069599
-0.01516219044 0.007884746075 -0.008392771721 0.7503780096 -0.6133954253 0.2463308647
0.01019637203 0.0545968132 -0.04275671768 0.4928716904 0.1009176257 0.8642297898
0.01937927246 -0.006853863716 -0.001013287026 0.9251014503 -0.3184079267 0.2068905482
0.01977289064 -0.000210217841 -0.0008625061022 0.9256732948 -0.0007256022681 0.3783231751
-0.01844885445 0.06060000229 -0.06216661072 0.926476779 0.3733854299 0.04716035083
0.02008011627 0.01559760427 -0.06458485794 0.9836010518 -0.01114864009 -0.1800129957
0.0173417263 -0.004643260002 0 0.871915735 -0.1538200723 0.4648680849
0.01684721375 0.01183313675 -0.04050979462 0.8358751671 0.5402235695 0.09732008992
-0.01176527963 -0.01225899356 -0.02068258531 0.6621540765 0.7491711924 -0.01716110198
0.01201017555 0.05978118642 -0.04445486514 -0.5363215238 -0.3072377079 -0.786106999
-0.01709543419 -0.0001569036543 -0.01645344305 0.9992142469 0.03802919536 0.01116553362
0.01790270042 0.02971637344 -0.05041064453 0.8800559722 -0.01339399182 0.4746810369
0.01906827055 0.0478831155 -0.05301426642 0.924614984 0.01291794667 0.3806839345
-0.004643260002 0.0173417263 0 -0.1620919251 0.8690358829 0.4674428757
-0.006844188452 0.01938771915 -0.001003834508 0.3055660425 -0.928022165 -0.213082742
0.004705379844 0.06060000229 -0.04367293167 -0.1836826145 -0.4626020787 -0.8673292419
0.01894912229 0.007914558479 -0.004800921747 0.9106360312 0.3707435761 0.1824588157
-0.01226462814 -0.01177073765 -0.02416452735 0.7069441026 0.7065878471 0.03104271467
0.002185285568 -0.01692807007 -0.01613769722 0.03244063564 0.999395523 -0.01249775017
-0.004907996535 -0.01634040165 -0.02053024101 0.3652621044 0.9308511363 0.009987853469
0.003873722732 0.02424549961 -0.04042288017 0.2431618892 0.2476668238 0.9378344417
-0.01882984734 0.06060000229 -0.06477390289 0.9012044984 0.4285877241 0.06436625579
0.02054600334 0.001050037036 -0.04073473358 0.9982002332 0.05879034795 -0.01183171697
-0.01500162292 -0.008112455845 -0.02150543308 0.8595297182 0.5110743764 -0.003412529377
-0.01645594635 -0.004347927856 -0.02049810867 0.9796887818 0.1912418896 0.06030282262
0.02056012154 0.02385255146 -0.06050733185 0.9998946109 -0.007546740762 0.01240216721
-0.01693846703 0.002175805092 -0.01614805603 0.9992142469 0.03802919536 0.01116553362
-0.000195084111 0.01978641183 -0.000847340537 8.786054586e-06 0.9243340753 0.3815842203
0.0169352897 0.01162627904 -0.0244400994 0.8014075207 0.5979405239 -0.014598483
0.01926227856 -0.007165308952 -0.004946968675 0.9360985715 -0.3122767756 0.1618724186
0.02017737961 0.003793979883 -0.03677342161 0.9784480321 0.2063157642 0.008558854431
0.01760972977 0.002098931074 0 0.8899322804 0.09038389452 0.4470472995
-0.002129354954 -0.01694149017 -0.02039315796 0.202135147 0.9793271929 0.007722153654
0.0105997591 0.01878289652 -0.04185344696 0.6314085295 0.4336008315 0.6428946942
-0.003870520711 0.02015658426 -0.02884202099 -0.1814850595 0.9833932043 -0.0009894213753
0.002838528156 0.05145398204 -0.077415212 0.08716605374 -0.01693569142 -0.9960498288
0.002098931074 0.01760972977 0 0.09213079917 0.8884412067 0.4496489054
0.0176568327 0.06060000229 -0.06467588234 0.8948467134 0.3477943263 -0.2798007616
0.02017527866 -0.003951676607 -0.004617570043 0.9700898359 -0.1901363309 0.1509101917
0.0147046299 0.04801807117 -0.04622888756 0.7076541505 -0.003779120874 0.7065488812
0.01971605428 0.003941415548 -0.0009488019546 0.9456237272 0.1917927051 0.2627000662
0.01636183667 0.007637092352 0 0.8346593179 0.3536341375 0.422240121
-0.009939651489 0.06051872635 -0.07446251678 -0.5514162354 -0.323081398 -0.7691284325
-0.008838275909 -0.01461156559 -0.02472818375 0.5438983842 0.8391419779 0.003910057898
-0.01460809994 -0.008834903717 -0.02472455406 0.8493413919 0.5277523444 -0.009831737177
0.01592734814 0.05995508739 -0.04897516687 0.7473043956 0.3270405641 0.5784294337
0.007637092352 0.01636183667 0 0.3536020894 0.8345496623 0.4224836369
-0.01536157131 0.01567185688 -0.04480821609 0.6973464619 -0.3894531137 -0.6016927656
0.02057074992 0.04429463577 -0.06077297338 0.9977454722 -0.01784983119 -0.06469432883
0.003950704217 0.01972467677 -0.0009391326408 -0.1964567945 -0.9445632128 -0.2630685557
-0.003944253445 0.02018182182 -0.004610103488 0.187830889 -0.9699374876 -0.1547282368
0.01890778303 0.00810163486 -0.03347348976 0.9017122301 0.431555603 0.0259772138
0.01890237141 0.007643383662 -0.0009150035977 0.9226528381 0.2897564663 0.2544659715
4.165992141e-05 0.03603789291 -0.04004411316 0.06066690592 -0.01310327572 0.9980720569
0.01806427956 0.05027453613 -0.05074757385 0.8841308293 0.009941889233 0.4671336378
0.01161544824 0.0164660449 -0.001220049948 -0.5535084895 -0.8021053772 -0.2241769745
0.003886524459 0.02015629005 -0.03259873803 0.2037128034 0.9787152613 0.02485017304
0.007632247845 0.01889195919 -0.0009265959014 0.290504048 0.9227802497 0.2531481956
-0.009440458298 0.04644360352 -0.07481317902 -0.5519863425 -0.023959371 -0.8335088639
-0.0003071070611 0.02054900026 -0.005243071079 0.03063986453 -0.9853378464 -0.1678407792
-0.01614194822 0.05987618256 -0.053026021 0.9625405566 0.07154505306 -0.2615281672
-0.007386816025 0.01922606087 -0.008845827341 -0.2108152248 0.9775224395 -0.002611767737
0.02013221169 -0.004164451361 -0.008500479221 0.9912711961 -0.1315134688 0.009253281583
0.007686306874 0.04417066511 -0.04154919688 0.3497284086 -0.01844470796 0.9366695431
0.01921912766 0.04297489357 -0.0678985672 0.9797520802 -0.004163321553 -0.200171247
0.01810868835 0.03202254868 -0.05081521606 0.8870865348 -0.002147450173 0.4615981676
0.01453690457 0.01453700757 -0.00136409793 0.6685063194 0.6673276037 0.3282882427
0.003653553903 0.02022674131 -0.005117678761 -0.1691439961 -0.9716107326 -0.1654173297
0.01902282429 -0.007802752256 -0.01299813938 0.9740020115 -0.2263479355 -0.009310942283
0.01858905315 -0.008866871357 -0.02564084721 0.9515745343 -0.3069492699 -0.01697207709
0.02052650356 -0.0004736403227 -0.00908787179 0.9966060236 -0.07810696481 0.02599491794
0.02008850574 -0.004380389929 -0.01244112158 0.9897417684 -0.1413113122 -0.02103199914
0.02023683405 0.003553530097 -0.008896739006 0.991744424 0.1265146453 0.02090555179
0.01685495567 0.01171658738 -0.005305685918 0.8127738523 0.5687965741 0.1259727044
-0.01219918142 0.05587859181 -0.07247293309 0.694739137 0.1242063079 0.7084562969
0.01795194244 -0.01004366589 -0.03593367004 0.9388221093 -0.3438726359 -0.01909600402
-0.008922483921 0.01854075241 -0.02570096874 -0.3091111398 0.9508713075 -0.01714817514
0.003792446613 0.05569176865 -0.07719427872 0.1611231286 -0.13636163 -0.9774685894
0.01453892446 0.01453901982 -0.005024485111 -0.7044900214 -0.7047214842 -0.08403237164
0.01172560676 0.01686376444 -0.005295833349 -0.5680389331 -0.8132475804 -0.1263334616
0.003561129153 0.02024397707 -0.008888369679 -0.1299976553 -0.9912976618 -0.02072571749
0.02019694233 0.03112164783 -0.06455617523 0.9772015829 0.0137163807 -0.2118700718
-0.005963517189 0.06060000229 -0.04403236771 0.2231013143 -0.4240942276 -0.8777071776
-0.004338205099 0.02012563896 -0.01239725304 0.1372200793 -0.9903216145 0.02082665603
-0.0003220291138 0.02058795071 -0.0377267704 0.01639068259 -0.8501122236 -0.5263464191
0.01889605713 -0.008133886337 -0.01712481594 0.971125711 -0.2383638178 -0.009876424465
0.01462883886 0.05220074336 -0.04615194321 0.6858891945 -0.01007277891 0.7276362772
0.02052864838 -0.0006145495474 -0.01295963073 0.9971642002 -0.07522054692 0.0023296434
0.01906132539 0.007651736736 -0.00882363073 0.923834302 0.3826739234 -0.009531567773
0.007641169786 0.01905140177 -0.008835156123 -0.3826967064 -0.9238366493 0.008311218176
0.02027095985 0.003363442063 -0.01660227823 0.9935485086 0.1120032702 -0.01779406085
0.01695128155 0.0116066041 -0.02843827629 0.7961530367 0.6048732775 -0.01639086062
-0.0005964623988 0.02054465389 -0.0129407084 0.07062162664 -0.9975016196 -0.001762043121
-0.01738563029 0.05988258362 -0.06033580399 0.9742433073 0.1832648835 -0.1313923921
-0.008103044987 0.01892289543 -0.01709270477 0.2375231763 -0.9712780234 0.01420359129
0.008093654811 0.03986731911 -0.04171733665 0.437884762 -0.005161159911 0.8990162944
0.02025355816 0.003458934963 -0.01272207212 0.993174697 0.1166215534 0.001853227019
0.01454075742 0.01454084301 -0.008735317469 0.7081235717 0.7060879599 -0.0008944199338
0.01162918727 0.01693814023 -0.02443662135 -0.5978006616 -0.801507798 0.0148195387
0.01170681524 0.01687817065 -0.009016335726 -0.592716391 -0.805299496 -0.0134164668
0.0034670524 0.02026114702 -0.0127130332 -0.1203321707 -0.9927325112 -0.001526401975
0.01874600315 -0.008494826317 -0.02134462643 0.9668249352 -0.2546021588 -0.02067088126
0.01908826038 0.007597831317 -0.01292904881 0.9249087134 0.3801880287 0.0009668374131
0.02057107798 0.05633415985 -0.06059700267 0.9895818331 0.1439534609 0.002279611065
0.007593462399 0.01908417048 -0.01293386691 -0.3804336634 -0.9248076546 -0.001014798755
-0.0007503290772 0.0205370965 -0.01688073063 0.08049443715 -0.996628339 0.01589337715
0.02055834007 0.04769549179 -0.06121983846 0.9976724277 0.02401247134 -0.06382106382
0.02006980324 0.05546899287 -0.06478672282 0.9773293252 0.08542101207 -0.1937282655
-0.008509257793 0.01873346043 -0.0213599968 -0.2563426203 0.9662798226 -0.02432623013
0.02027312088 0.04380374908 -0.06407282257 0.9949157543 0.03307227588 -0.09512552955
0.01999908543 -0.004822180748 -0.02050332546 0.9750090381 -0.2214535942 -0.01776742063
0.01688693555 0.01168178082 -0.01279574521 0.8062044269 0.5916365606 -0.0007760370681
-0.01198636246 0.05941015434 -0.07291392771 0.6767059965 0.2163746678 0.7037407175
0.008154505968 0.01888701963 -0.02937892103 -0.4318159149 -0.9015221924 -0.02815585597
0.008005296787 0.04775742785 -0.04168980535 0.3996530752 0.00610081549 0.9166461692
0.01454261589 0.01454269123 -0.01249798226 0.7079119149 0.7063001202 -0.0009278745062
0.01168776035 0.0168927784 -0.01278897365 -0.5911659565 -0.8065490488 0.001201592723
0.02021659756 0.03521900654 -0.05692392063 0.9705612631 0.01827308718 0.2401602151
0.01888670063 0.00815408051 -0.02937938213 0.9014384319 0.431987737 0.02820192591
0.003371613979 0.02027856493 -0.01659306693 -0.1155589642 -0.9931306308 0.01837595984
-0.00479219079 0.02002544212 -0.02047107315 0.2225895806 -0.9746567965 0.02231608459
-0.004280649821 0.02412368457 -0.04047957993 0.2716630858 -0.1956553366 -0.9422940927
0.01459826946 0.05572944641 -0.04613392925 0.709804445 0.07598380626 0.7002885913
-0.0002841439545 0.04915183449 -0.07766550446 -0.03145934717 -0.04790074916 -0.9983565634
0.007898537477 0.02804906718 -0.04162997945 0.4039906406 0.02117543352 0.9145179951
0.0205245738 -0.0009120766781 -0.02088599968 0.9957927068 -0.08994841596 -0.01749764389
-0.01043607044 0.02434729385 -0.0428455162 -0.4002617388 0.1745683261 0.8996201643
0.01911116823 0.007538010359 -0.01710195176 0.9260495399 0.3769659345 0.0181365322
0.008006266435 0.05199586995 -0.04169999398 0.4389329388 -0.0009595811116 0.8985193122
0.007529060364 0.01910277176 -0.01711196725 -0.3773398058 -0.9259069648 -0.01763415417
-0.0009086935855 0.02052748871 -0.02088245869 0.08945773874 -0.9957931392 0.01983272219
0.01903764191 0.007740775776 -0.02492931213 0.9425635676 0.3337581908 -0.01339369529
0.02020068264 -0.003651952803 -0.02466105366 0.9850917069 -0.1713651173 -0.01511044719
0.02053509283 0.01608852315 -0.06046768475 0.9995013849 -0.008632884377 -0.0303719437
0.0161202898 0.06060000229 -0.06952378464 0.6328643007 0.6374378022 -0.439494966
0.01690324529 0.01166398493 -0.01662056684 0.8068738793 0.5907200959 -0.002076337128
0.01166843367 0.01690759532 -0.01661543735 -0.5903188534 -0.8071661592 0.002538261047
0.01710525131 0.0160081048 -0.04793207169 0.8278344877 0.3013127658 0.4731814432
0.02025181389 0.01583078408 -0.05634079742 0.9785587138 0.06245028891 0.1962722726
0.003274768949 0.02029623938 -0.02053028679 0.1767828262 0.9842498049 -0.000392422645
-0.003646447361 0.02020556545 -0.02465497398 0.1731057949 -0.9847363732 0.01812895475
0.0190789753 0.03173667297 -0.05295557175 0.9278119743 0.008881267295 0.3729424397
0.01840474129 -0.009224678993 -0.02899076653 0.9486317185 -0.3161173392 -0.01294953395
0.01703330517 0.01265315771 -0.04430700874 0.8422476306 0.4724702795 0.2595973108
0.01913294474 0.007482415756 -0.02101298904 0.9259048023 0.377665598 0.008306215781
0.01760050011 -0.01065170288 -0.04073038101 0.935263611 -0.3539138047 0.005195835126
0.005949328899 0.05337063599 -0.07660630798 0.2913260125 -0.187010701 -0.9381663777
0.007476019303 0.01912693214 -0.02102028084 -0.3779025607 -0.9258091921 -0.008185008363
0.0199106617 0.05994723282 -0.06075063019 0.980238212 0.1892370509 -0.0576401453
-0.009258296967 0.01837556267 -0.02902755928 -0.3155380496 0.948847114 -0.01117557651
0.01817977524 -0.009631578445 -0.0324402256 0.9426950174 -0.3333819303 -0.01351268548
0.01227651651 0.02388081224 -0.04413292258 0.6361554678 0.08773333055 0.7665566408
0.02016900635 -0.003856394172 -0.02882621384 0.9835677392 -0.1805268935 -0.002131435489
0.02059500504 0.0001250044368 -0.02518851089 0.9984245111 0.05477313577 0.01218192143
0.02055957174 0.03140235853 -0.06062821007 0.9999084261 0.01282894898 0.004307846526
0.01691923205 0.01164535522 -0.02050155767 0.8056237503 0.5924266814 -0.001000049379
0.01454641271 0.01454646802 -0.02018559027 0.707593907 0.706618613 -0.0009992480534
0.0116489857 0.01692278226 -0.02049729506 -0.5920111289 -0.8059289102 0.001189518287
0.01786585045 0.05115049362 -0.07085154724 0.9427045624 0.004797867219 -0.3335941973
0.003709255981 0.02019758682 -0.02467345467 -0.139949153 -0.9900796053 -0.0125143841
-0.01585928059 0.05306212616 -0.04747697067 0.8989665221 -0.002340676234 -0.4380110881
-0.00758324604 0.04766316071 -0.07584969482 -0.4048525373 -0.01029522662 -0.9143240297
0.0001068391502 0.02057870007 -0.02520897579 -0.05537173192 -0.998420657 -0.009495423865
0.007737765884 0.01903476601 -0.02493282318 -0.3328408583 -0.9428917806 0.01311690206
0.02012741232 -0.004074861526 -0.03307060862 0.9806657547 -0.1955778783 0.00663107445
0.02015470028 0.003208399653 -0.05735956001 0.9812702494 -0.1415937282 -0.1306136048
0.0201377964 0.00398000598 -0.02848600801 0.9893306461 0.1439852216 -0.02220649847
4.314802587e-05 0.02735368252 -0.04005153942 -0.004816809158 0.06841690368 0.9976451903
0.0145483532 0.01454839754 -0.02411408806 0.7074266636 0.7066594482 -0.01341417157
0.003979902466 0.02013766829 -0.02848615678 -0.1424361246 -0.9895468596 0.02256021124
0.02022900009 0.05154659176 -0.05700051785 0.9872783238 -0.01284144646 0.1584822025
-3.066664608e-05 0.02058460903 -0.02931234455 0.000872242073 -0.9999996157 8.816277713e-05
0.01661735233 0.03983586375 -0.04850923793 0.7903022028 0.01342413687 0.6125701762
-0.0040982548 0.02010679913 -0.03309732676 0.2529936617 -0.9665670812 -0.04174068361
-0.009987140656 0.01800093269 -0.03587017441 0.3503650279 -0.9346883197 -0.06001743343
5.966328084e-06 0.03148579063 -0.04006067047 0.05154834019 0.01654838953 0.9985333842
-0.0102346344 0.01787372017 -0.03819372559 0.3681545596 -0.8187176217 -0.4406400756
0.01803908539 0.0245368576 -0.05067255783 0.8895832601 -0.01627173713 0.4564831365
0.02059784031 -0.0001622739807 -0.03347094536 0.999894618 -0.006348066062 0.0130558384
0.02015726884 0.003887545149 -0.03259746774 0.9893202734 0.1441084918 -0.02186639483
0.003759801785 0.05906778844 -0.07722169749 -0.2794201356 0.2206158083 0.9344800977
0.01455032277 0.01455035639 -0.02810153484 0.7067729405 0.7064860197 -0.03673573919
0.01160885874 0.01695350742 -0.02843552176 -0.6050167082 -0.7960420086 0.01648949019
-0.000170338057 0.02059061241 -0.03348033905 -0.02602571589 0.992845054 0.1165390956
-0.004329775691 0.02005618286 -0.0374232378 0.2935904688 -0.8952605407 -0.3351316172
-0.01040835667 0.01781120872 -0.04045228958 0.5736402087 -0.5810898329 -0.5772967323
0.003789022505 0.02017280706 -0.03677946345 -0.1806721533 -0.8954255758 -0.4069036879
-0.01216304064 0.01960648155 -0.04364793587 -0.6614442278 0.3207097224 0.6779651964
0.02054363378 0.02017284203 -0.06130353038 0.9967014454 -0.006346799389 -0.08090702662
0.020122413 -0.004032366037 -0.04141098277 0.968807165 -0.2475557305 0.01135065564
0.01952031898 0.05974646823 -0.0568939813 0.9330642384 0.274384868 0.2326028188
0.01696715736 0.01158625491 -0.03249815528 0.7926376352 0.6096577294 -0.006559902193
0.01455232215 0.01455234456 -0.03214988947 0.7070925319 0.7066952504 -0.02453516591
0.01158815702 0.01696905041 -0.03249578031 -0.6098743499 -0.7924698577 0.006693421139
0.01012050819 0.04868811035 -0.04270323181 0.4853374612 -0.01237652514 0.8742393096
-0.016456987 0.05517246399 -0.06492639923 0.9649654234 0.1582092858 0.2093120959
0.008103985548 0.0189099288 -0.03347067356 -0.432598002 -0.8986164751 -0.07312591374
-0.004091147025 0.02074310621 -0.04035386912 -0.3228728211 0.5739789825 0.7525299124
0.01834993172 0.03052179337 -0.06993981934 0.94348355 -0.02242805857 -0.3306596029
0.01935909367 -0.006545359373 -0.0445562973 0.9556684385 -0.2932451544 -0.02655400269
-0.007600325346 0.02363577557 -0.04148685837 -0.3782259136 0.2187964132 0.8994850126
-0.01347357368 0.02389696121 -0.04505598068 0.5079703148 -0.02655708759 -0.8609650866
0.01882055664 0.008313908895 -0.03718318558 0.8979675842 0.4392267344 0.02709416156
0.01698242664 0.01156469886 -0.03662246386 0.7836195882 0.6201832462 0.03623647565
0.014554353 0.01455436397 -0.03626118946 0.7232753888 0.6896532098 0.03537177002
0.01156674846 0.01698446814 -0.03661985652 -0.6289579534 -0.7719771346 -0.0919956334
0.008313139121 0.01881976954 -0.03718420156 -0.4836135816 -0.8329919887 -0.2687791852
0.01271163559 0.01990201683 -0.04429458771 0.6778102365 0.2857366169 0.6774421518
0.001079688787 0.02090027046 -0.03978850555 0.07770314996 0.6678148802 0.7402604314
0.01198853316 0.05621486064 -0.04392481831 0.6144467323 0.1234160186 0.7792455964
-0.0004672946446 0.02372296476 -0.04004986954 -0.116076164 0.338035763 0.9339476147
-0.004227366924 0.02769126797 -0.04049314117 -0.2693351013 0.01926998954 0.962853712
-0.008296757698 0.02726519966 -0.04179189301 -0.4119686873 0.02273807887 0.9109142552
-0.007882355809 0.03129220581 -0.04164532566 -0.4055902737 0.02375128399 0.9137463578
-0.01136920738 0.02779808044 -0.04343024445 -0.4534383463 0.00828512494 0.8912491362
0.01833436775 -0.007860340595 -0.04929513931 0.9413445755 -0.3072579554 -0.1395096376
0.02047256231 0.0003128524572 -0.04913513279 0.9998556186 -0.01584467381 -0.006139069187
0.02020139122 -0.00331824851 -0.04518104172 0.980939384 -0.1885643452 -0.04691921313
0.02021491737 0.04327737656 -0.05698428268 0.9850527407 0.008102349058 0.1720623433
0.02004812908 0.004667244971 -0.04119302464 0.960098903 0.2734469963 0.05862453997
-0.008624390125 0.03635111745 -0.04193001175 -0.4102608281 -0.02679492609 0.9115745087
0.01896317959 0.008028489113 -0.04077040672 0.9214426714 0.3865910094 0.03861081154
0.01902962227 0.04405379486 -0.05284966278 0.9093056196 -0.00658678851 0.4160768011
0.004462737262 0.02089960814 -0.04025100136 -0.3549350239 -0.6823972943 -0.6390266516
-0.01253856564 0.03104134369 -0.04429504013 0.5198959618 -0.003923346479 -0.8542205782
0.01231915474 0.06060000229 -0.04757717133 -0.6504745597 -0.3847721524 -0.6548536003
0.01980007362 -0.003902082443 -0.04907156754 0.9642725157 -0.2433445583 -0.10469929
-0.00769204998 0.05631677704 -0.07579085236 0.3962669993 0.1038275136 0.9122457524
0.01989605649 0.05996110535 -0.0652460022 0.8948467134 0.3477943263 -0.2798007616
0.01459203148 0.01459199548 -0.04039119625 0.7919123538 0.5638406719 0.2344323368
0.01228286552 0.01664148378 -0.04056159496 -0.6626630181 -0.6809937809 -0.3116491535
0.003873884439 0.03539974289 -0.04041445999 0.2539897132 0.01716299541 0.9670546299
-0.003710767746 0.03231602192 -0.04039103985 -0.1505935638 -0.01584559262 0.9884687632
-0.01237142754 0.03432328606 -0.04426070213 0.5061596006 0.003256381236 -0.8624336813
0.007941290092 0.02423078651 -0.04163637543 0.435756525 0.1350760728 0.8898711735
0.02018870401 0.004708771825 -0.0453384285 0.9756783672 0.2102236565 0.06211069237
0.01923012257 0.008233062387 -0.04471452522 0.9535400956 0.282878171 0.1036398879
0.007579220057 0.05987403488 -0.07680701828 0.3834123436 -0.2532042522 -0.8881906222
-0.004077772856 0.05989214249 -0.04102052612 -0.1384460063 0.3171349675 0.938220718
0.01795326233 0.01029897881 -0.04205803299 0.8903458336 0.4359223749 0.1313620175
0.003838974619 0.02834497375 -0.04040538483 0.2554769011 0.005191859032 0.9668012193
0.02055720615 0.007107758284 -0.05663162231 0.9993245894 -0.02473712498 -0.02717424653
-0.004224025369 0.03598573685 -0.04049113655 -0.2009236819 -0.01559262566 0.9794827942
-0.01233869076 0.03949940109 -0.04416172218 -0.5482915574 0.01034414981 0.8362232756
0.01772952461 -0.006377866745 -0.05535058212 0.9362140579 -0.3065229507 -0.1718921709
0.01827860928 0.01059732437 -0.04484698105 0.9089307257 0.3518287024 0.2237442737
0.0154788239 0.01547694898 -0.04480300283 0.7533175353 0.4608050343 0.4692242656
0.01284925842 0.01721653938 -0.04299024582 0.7264041089 0.4777358099 0.4940704064
-0.007509161472 0.04034280205 -0.04146412849 -0.3267019574 -0.01423099733 0.9450202695
-0.01023735523 0.04116649246 -0.04275836182 -0.4636633255 -0.0005064066735 0.8860113228
0.02020925236 -9.253996611e-05 -0.05286933517 0.9813214088 -0.1620583863 -0.1036598864
0.01989522044 0.008089280605 -0.04904992739 0.970853036 0.1849486393 0.1524414094
0.007525423845 0.03185574436 -0.04148099136 0.3432279549 0.007881745879 0.9392190634
-7.620268166e-05 0.03999696426 -0.04006725082 -0.05906657855 -0.01207339674 0.9981810319
-0.004244269323 0.04366084213 -0.04049715424 -0.2072765145 0.02530963982 0.977954942
-0.01486615562 0.04369861984 -0.04638982391 0.6243513164 0.01026568348 -0.7810762123
0.007893747965 0.05608086141 -0.04164323235 0.3734687699 0.1217686259 0.9196159414
0.01887361336 -0.002821731567 -0.05670414734 0.9439076225 -0.2778743298 -0.1783935454
0.02056489182 0.003781769037 -0.05223825836 0.9998411582 0.01758663653 0.00289285675
0.01468034458 0.03591097546 -0.04619269848 0.7302304885 -0.02177788956 0.6828536866
0.01472836971 0.0196280036 -0.04601716805 0.7551371045 0.265120497 0.5995657391
0.01032191658 0.02651836395 -0.04278316879 0.4879852986 0.05254984818 0.871268536
0.004048874004 0.04007752282 -0.04045183727 0.2550672802 -0.01306726262 0.9668350062
-2.747837454e-05 0.04364922333 -0.04005450439 0.05774079767 0.01569569276 0.9982082175
0.003693363857 0.04450874176 -0.04038960037 0.1687343486 -0.02691706613 0.9852939618
-0.007697251081 0.04772204876 -0.04157476711 -0.3491583357 0.03066932357 0.9365617167
-0.01195269012 0.04789261246 -0.04384291077 -0.5748475459 0.01917227192 0.8180358934
-0.01491916688 0.04839520137 -0.0688533783 0.849026008 0.01470636337 0.5281463439
-0.008330170631 0.06060000229 -0.04359909439 0.4282238563 -0.3504394017 -0.8329565143
0.02050018644 0.007120975614 -0.05332366085 0.9983028311 0.04824270636 0.03262052593
0.01220510483 0.0279858106 -0.0440706234 0.6197750267 0.008778102547 0.7847304386
0.02012951565 0.02454811096 -0.06490016937 0.9693517586 -0.01874189781 -0.2449610366
0.0101574831 0.03157898903 -0.0426991787 0.4706897319 0.008713278915 0.8822557764
0.007836974462 0.0355716114 -0.04161456553 0.3488710505 0.0219824628 0.9369128889
0.02012335968 0.05185274887 -0.06488042831 0.9833188333 0.01028508909 -0.1815992537
-0.01379960155 0.06060000229 -0.04753390503 0.7498089451 -0.3069823659 -0.5861299966
-0.003660421371 0.04852085972 -0.04039152718 -0.1499621609 0.004709207881 0.9886805215
-0.01181510585 0.04791039876 -0.07283492606 0.7337914344 0.01889227453 0.6791120767
-0.01043885708 0.05103268433 -0.04289087677 -0.4789735366 0.02324073039 0.8775216349
-0.01321516895 0.05094777679 -0.04486403275 -0.5784342017 0.008484701086 0.8156849172
0.01992284355 0.01173124809 -0.05276172562 0.9719213453 0.1436248116 0.1863888731
0.01819894218 0.0160042758 -0.04990825462 0.895596596 0.2479784262 0.3693418978
0.01489726543 0.02391610146 -0.04641104762 0.7306374593 0.03385273777 0.6819258722
0.01861194897 0.05677836609 -0.06929195786 0.8206442055 0.1948558878 -0.5371910935
0.01229751723 0.03199718148 -0.04413590131 0.6209763912 -0.001920944047 0.7838269143
-0.004127045453 0.0520669775 -0.04047928047 -0.1828992126 -0.002590704223 0.9831282552
-0.00835484767 0.05605301952 -0.04185464478 -0.4162099471 0.1269944667 0.9003564213
-0.01165757513 0.0560225811 -0.04366271591 -0.5548159111 0.1733070351 0.8137222968
0.01924551697 0.01594357529 -0.05252322159 0.9414767331 0.0825330721 0.3268177674
-0.01384990501 0.05700595474 -0.07055903625 0.7997344179 0.1759438799 0.5739935643
0.01458751202 0.02785123952 -0.04609212748 0.7288286845 -0.003653770213 0.6846863506
0.01205703719 0.03613102468 -0.04396994654 0.6206795399 -0.0179544417 0.7838587544
0.01000633049 0.03657590866 -0.04261745453 0.4838841114 -0.007296048009 0.8751016709
0.004142949867 0.04767337646 -0.04047417068 0.2113744635 0.03033162898 0.9769344034
2.976589203e-05 0.05197646408 -0.04005039825 0.002330014179 0.01606504807 0.999868234
0.02050528908 0.01159934211 -0.05690109539 0.9989346478 0.03098609072 0.03419695173
0.01820638847 0.01929907227 -0.05091660309 0.8979833891 0.1079684269 0.4265778378
0.01478141658 0.03153039042 -0.04629455694 0.7285009518 0.02031064965 0.6847436314
0.01039104271 0.0389681015 -0.0428434906 0.4844191527 0.01185499714 0.8747557051
0.00377275362 0.05126842117 -0.04040725937 -0.18205092 -0.0111358915 -0.9832260444
-5.915423632e-05 0.05578073578 -0.04007726669 0.08414544034 0.2014131741 0.9758853817
-0.007803593636 0.05984937668 -0.04159427261 -0.3263884952 0.2281082904 0.9172988379
-0.01173877557 0.06060000229 -0.04461313121 0.5188743408 -0.4448862116 -0.7299627916
-0.01548538081 0.05999584961 -0.06928350449 0.7940295791 0.3169256396 0.5187245575
0.01914585304 0.004333713531 -0.0629437294 0.9726216619 -0.1459222788 -0.1808695424
-2.865167335e-05 0.05971286011 -0.077866436 0.0646022376 -0.2970698985 -0.9526678468
0.01912401047 0.01977574921 -0.0530263298 0.9281432649 0.04964727129 0.3688973141
0.01246441691 0.04004967826 -0.04428322928 0.6223555921 -0.01144594715 0.7826509486
0.0102504406 0.04385800552 -0.04277033043 0.4715232151 0.002996126444 0.8818485589
7.205770413e-05 0.05970620219 -0.04062098185 0.01012887894 -0.3648017717 -0.931030114
-0.01537502384 0.06060000229 -0.0497628994 0.9267254433 -0.1902536617 -0.3240115691
0.01906795724 0.04023033015 -0.05298271052 0.923888811 -0.01132640803 0.382493369
0.02050120258 0.01154541588 -0.06032534599 0.998607343 -0.04101544436 -0.03318294417
0.0167196854 0.03238605563 -0.04864911016 0.786564685 -0.01386691315 0.6173521727
-0.00985554409 0.05546858215 -0.07452626419 0.5525736661 0.125269615 0.8239962786
0.01249177217 0.04395024999 -0.04429263306 0.6280973499 0.009425084978 0.7780776869
-0.01595769405 0.0557134552 -0.05459896851 0.9923305123 0.009217834206 -0.1232687544
0.02006830025 0.01105736876 -0.06326459122 0.989553301 -0.0706955838 -0.1256439374
0.02024660492 0.02046419411 -0.05708587875 0.9856043805 0.000433321761 0.1690674936
0.01898619461 0.02783568459 -0.052725457 0.901062155 -0.005943491913 0.433649245
0.01668326206 0.03601036758 -0.04857650909 0.7887039882 0.004506057059 0.6147566303
0.01458788904 0.04023942312 -0.04609649277 0.690805591 -0.01826552727 0.7228097993
0.0200593853 0.035263731 -0.06499986076 0.9772551388 -0.001734249008 -0.2120598643
0.01204695293 0.04792764609 -0.0439622454 0.6263910529 0.005166613479 0.7794918569
0.0167369436 0.04399323416 -0.04869625235 0.791635089 0.002596980659 0.6109886592
0.00394359684 0.0597018528 -0.04061667728 -0.159209442 -0.4568345641 -0.8751882852
-0.01702345371 0.05248249149 -0.06098296833 0.9938271949 0.1106862676 0.007487117979
-0.01673418617 0.05673795191 -0.05746890767 0.9908767052 0.1131995652 -0.07313831757
0.02021348763 0.02457309437 -0.05684724712 0.9784836761 -0.009703491422 0.2060959435
0.01478918807 0.04378842799 -0.04631149038 0.7326909063 0.01504762563 0.6803951828
-0.01486458492 0.06060000229 -0.07353074646 -0.646713258 -0.3614426323 -0.6716555557
0.007483469963 0.05955544345 -0.04162947528 -0.343090443 -0.3684627069 -0.8640163086
-0.01648662424 0.05124819088 -0.06490105343 0.9471689097 0.002388214937 0.3207262898
-0.004238140941 0.0596192894 -0.07736626816 -0.2828436685 -0.1952929944 -0.9390740682
-0.01719928074 0.05999824524 -0.05708156586 0.9735536598 0.1705360989 -0.1520220721
0.02012611198 0.0282493 -0.05649308968 0.9688810128 0.0003063155356 0.2475267444
0.01787772369 0.035950634 -0.05036648178 0.8897115105 0.02004557192 0.4560828906
0.01254958153 0.05203083147 -0.0443533189 0.6257635886 -0.007143646969 0.7799800635
-0.01603613091 0.04864748383 -0.06638021851 0.9209116403 0.03651304756 0.388057403
0.01897274971 0.02232501793 -0.06858946228 0.9556654696 -0.0163858192 -0.2939983252
-0.004032697153 0.04865536346 -0.07715350189 -0.2382640658 -0.08296420561 -0.9676503374
0.01008883286 0.0592881031 -0.04270232201 0.4602267689 0.2407657584 0.8545309654
-0.01517444859 0.0516052475 -0.06834560242 0.8993917263 -0.00366329495 0.4371282454
0.02012435722 0.02011929512 -0.06471055412 0.9821825617 -0.005194075469 -0.1878574916
0.02055721664 0.02675044378 -0.06103667577 0.9989675559 0.0174960022 -0.04192507906
0.02014222908 0.0319832077 -0.05655628204 0.9689894704 0.00121442022 0.2470990317
0.008086035728 0.06060000229 -0.04434534836 -0.3316758601 -0.4813544732 -0.8113501063
0.02019014893 0.05525948257 -0.05688643417 0.9740282876 0.1321374885 0.1838710938
-0.01374255848 0.04673498917 -0.07071973419 0.8019657902 -0.00457981298 0.5973524058
-0.01646539021 0.0594320507 -0.06495857906 0.8673231959 0.4844089841 0.1144482855
0.01953157997 0.02064829063 -0.06708032227 0.9657210712 0.008731128047 -0.2594351172
0.01807008743 0.04429855347 -0.05075176239 0.8857518547 0.0009242820961 0.46415816
0.01662153721 0.05181790988 -0.04852990786 0.7911622662 0.01699337325 0.6113701774
-0.01380055141 0.05189997482 -0.07063376999 0.8178272776 -0.006520814575 0.5754268182
0.01910735893 0.05009609985 -0.06828253174 0.9679893901 0.01339361333 -0.2506335009
-0.01499170192 0.05590209707 -0.06868408076 0.8496235098 0.1376368179 0.5091129521
0.02005204296 0.02774730682 -0.06489142609 0.9779859703 0.004470786957 -0.208622755
0.02025841999 0.03942353439 -0.05713871193 0.9722483737 0.004103117389 0.2339150794
0.0167537334 0.05583860922 -0.04873481417 0.7892411763 0.1269037673 0.6008275955
-0.01058195114 0.04542297745 -0.07403051758 -0.6192884618 0.004424769712 -0.7851510826
-0.01181666962 0.05164596367 -0.07286364492 0.7001861907 0.00492369784 0.713943314
0.01750374413 0.02312254333 -0.07145944977 0.9322369287 -0.01386356179 -0.3615827849
0.02054223919 0.03562487125 -0.06090423203 0.9978607626 0.005563161613 -0.06513792755
0.01926595306 0.02919774628 -0.06788707733 0.9664021675 -0.01678781231 -0.256485906
0.0205460825 0.03981861687 -0.06115871334 0.9979578758 -0.009985722026 -0.06309012136
-0.0003161547109 0.0563850975 -0.07762762451 0.04066605513 0.1619922681 0.9859537398
0.01903905137 0.05224658076 -0.05293515078 0.9239637513 -0.01084897478 0.3823261513
0.02024360962 0.04776816711 -0.05716843567 0.9805290866 -0.03600380729 0.1930451663
0.01912952105 0.0562557799 -0.05316186269 0.9330143495 0.1075662867 0.3433856688
0.01806709671 0.0561493454 -0.05076300049 0.8486811423 0.1671065393 0.5018124383
0.01904592514 0.03651869202 -0.06833717346 0.9715154479 -0.008035502016 -0.236839957
0.02002893829 0.0394628582 -0.06529444504 0.9825679509 -0.002865157593 -0.1858817172
0.01871399689 0.05953238831 -0.05255585937 0.9007477804 0.1924578516 0.3893756687
0.01787190056 0.05980921555 -0.0503645134 0.7715060704 0.3979194908 0.4964256865
0.01632872391 0.06060000229 -0.05321093369 0.8254653998 0.3715759377 0.4248978658
-0.004451210785 0.05247665863 -0.07704160767 0.246341752 0.02722598856 0.9688005402
-0.008047168851 0.05963994694 -0.07601108742 -0.4982997438 -0.2261923966 -0.8369793098
0.02055260324 0.05203649998 -0.06091550255 0.9973514588 0.01776350129 -0.07053031744
-0.0002200322628 0.0523327774 -0.07761450958 -0.04062193195 -0.02317483559 -0.9989057942
0.01996834183 0.04801651382 -0.06530426153 0.9717470714 0.001953409564 -0.2360165532
-0.003020907402 0.06060000229 -0.08093560028 -0.0854337128 -0.4897670687 -0.8676573628
0.01198153925 0.05927999687 -0.07291265488 0.5565032695 -0.1914773402 -0.8084803889
0.009556602478 0.0593754158 -0.07490483093 0.4948759508 -0.3086126441 -0.8123152277
0.003361320138 0.06060000229 -0.07922328568 0.1407015916 -0.5131856905 -0.8466661144
0.01591086721 0.06060000229 -0.07210517883 0.5074023008 0.7446947651 -0.4335580836
0.01213812923 0.06060000229 -0.07536361694 0.5976554639 -0.5181699976 -0.6118069958
