# .PCD v0.7 - Point Cloud Data file format
VERSION 0.7
FIELDS x y z normal_x normal_y normal_z
SIZE 4 4 4 4 4 4
TYPE F F F F F F
COUNT 1 1 1 1 1 1
WIDTH 564
HEIGHT 1
VIEWPOINT 0 0 0 1 0 0 0
POINTS 564
DATA ascii
0.01657409573 0.01657317781 -0.04736758995 0.8186371287 0.2902884895 0.4955460062
-0.003020907402 0.06060000229 -0.08093560028 -0.1484731593 -0.6805051952 -0.717543309
-0.0164445734 0.004481818438 -0.005982735157 0.9642282227 -0.2590774262 0.05606087597
0.01804102325 0.009844776154 -0.002924138546 0.8670963108 0.4569616439 0.1983180372
0.02003297043 -0.003594987869 -0.04762945557 0.9790728745 -0.1948386713 -0.05877243095
0.02046346664 -0.0008048395514 -0.04770065689 0.996732553 -0.07571937954 -0.0281210468
0.01532524109 -0.01347653484 0 0.627581388 -0.3886616453 0.6745989378
-0.005627116919 0.04591009331 -0.04081713104 -0.2611924758 0.01031893419 0.9652315837
0.01372177267 -0.01187373352 0 0.627581388 -0.3886616453 0.6745989378
0.0007467514621 0.02054596965 -0.0271809597 -0.03676205447 -0.9991187268 -0.02025638431
-0.002295076847 -0.01690534306 -0.0115485611 -0.1154236188 -0.993239972 -0.01231853525
-0.004736884594 -0.01639600627 -0.01219600455 -0.2542627383 -0.9670076155 0.01570768749
0.01962207476 0.0061512146 -0.03875421143 0.9586304236 0.2844859046 -0.009771436356
0.01834993172 0.03052179337 -0.06993981934 0.9387010971 0.01407502477 -0.3444446893
-0.01637849045 -0.004720448653 -0.01217883905 0.9656194918 0.2594874441 -0.01566088534
0.009768973986 0.01811289469 -0.03878903707 -0.5837098956 -0.7802196239 -0.2248112458
-0.01692320156 -0.002311732173 -0.01156596994 0.9928875558 0.119009047 0.00333890717
-0.01523063087 0.007722250938 -0.005649287939 0.7145715896 -0.6868850887 0.1325757077
-0.01187373352 0.01372177267 0 0.3143716337 -0.5630157391 -0.7643191437
0.01853109042 0.01229729652 -0.04821419779 0.9139617521 0.2881692929 0.2857137978
0.01306293621 0.01587524242 -0.03616327057 -0.6458767608 -0.7624787851 -0.03833160735
-0.01347653484 0.01532524109 0 0.3143716337 -0.5630157391 -0.7643191437
0.01886098289 -0.008220929146 -0.0181685257 0.949585736 -0.3135056084 -0.001078626944
0.01647364616 -0.01109932566 -6.957078725e-05 0.7110707377 -0.4658600663 0.5266429574
0.020057621 0.0008253684044 -0.0556879425 0.9765501819 -0.1718554781 -0.1296743494
0.01819306564 0.009610811234 -0.02991476822 0.8931604429 0.4497057022 -0.005404130469
0.01005054061 0.02485035451 -0.04265416972 0.489966954 0.06389500036 0.8693962347
0.01581055403 -0.008492216587 0 0.7096392291 -0.3615827584 0.6047066011
0.005004661798 0.04308012199 -0.04064632034 0.2496665956 -0.003533995891 0.9683254112
-0.01085980463 -0.01314648151 -0.01794704723 -0.6438248995 -0.765089678 -0.01128199988
0.01266749573 0.03989664612 -0.04442719803 0.6368403239 -0.001713310766 0.7709938174
0.004554090977 -0.01646710014 -0.008831824303 0.2903421677 -0.917865359 -0.270600459
-0.002358126402 0.05156120491 -0.07750735855 -0.1076697094 -0.006518520924 -0.9941653497
-0.004759696245 0.05158930016 -0.07698722458 0.2680329221 -0.01823605258 0.9632371458
0.0009029784724 -0.01700229263 -0.01192624903 0.01315546695 -0.9994784925 0.02949028218
-0.005262522539 -0.01622352346 -0.01499973615 -0.282684702 -0.9592043579 0.004044635836
-0.01086570215 -0.01314174891 -0.01496095037 -0.6525191592 -0.7577722211 8.852497942e-05
0.02039141464 0.002835296154 -0.002706971824 0.9857782541 0.137063502 0.09723595141
0.0159689734 0.03716092205 -0.04762904739 0.7703849304 -0.0125267722 0.6374559898
0.0009925090373 0.05175040817 -0.04008488083 0.07061619176 0.01942818103 0.9973143432
-0.007914086978 -0.01511400795 -0.01512519709 -0.4654784418 -0.885057866 -0.001547281921
-0.01262139034 -0.01148292255 -0.01501002884 0.7251283746 0.688469328 0.01410052485
-0.01536157131 0.01567185688 -0.04480821609 0 0 1
0.01920555115 0.05622467422 -0.06804318237 0.9218543248 0.1108420015 -0.3713470809
0.02048142242 -0.001714134574 -0.01169399166 0.9988677233 -0.04753343597 -0.00196056082
-0.01366881847 -0.01025482368 -0.01491849041 0.8068450398 0.5905908818 0.01426506788
-0.01510783482 -0.00790809981 -0.01511902078 0.8933982709 0.4492514681 -0.003556395807
0.01556832027 0.06060000229 -0.07159731293 0.627472919 0.1558939533 -0.7628727359
0.01577118492 0.01317454052 -0.01210417581 0.7648382808 0.644219131 -0.002028646871
-0.002198915243 0.0204631443 -0.02365294075 0.08856422822 -0.9960614373 0.004241541744
-0.01622558085 -0.005264602502 -0.01500178909 0.946256544 0.3233691322 -0.005563917161
-0.01701899529 0.000887568742 -0.01194252968 0.9992414889 -0.01853361391 -0.0342483863
-0.01641416931 0.00460188055 -0.008780761719 0.9462920943 -0.2658110161 0.1840537313
-0.008492216587 0.01581055403 0 -0.3298662454 0.6708808577 0.6641589682
0.006525125504 0.01950558949 -0.03306207848 -0.2782524706 -0.9602677282 -0.02148145241
0.02055025578 0.04897550392 -0.05985737801 0.998321462 -0.005519872634 0.05765231588
-0.01125917339 0.01633542728 -0.0002206865698 -0.4155852754 0.6760352327 0.6084942424
0.004203060865 0.02015225983 -0.02104811668 -0.2337029141 -0.9722789091 0.007528001378
0.01632872391 0.06060000229 -0.05321093369 0.655134928 0.6570122854 0.3730054732
0.009843765736 0.01804019833 -0.002925139427 -0.4687106816 -0.8601017758 -0.2013336341
0.01823249865 0.02526699781 -0.05112162685 0.8746892028 -0.01458625471 0.4844646939
0.01857126904 -0.007690858126 -1.864304021e-05 0.8729421788 -0.29524074 0.3883360115
0.004683836937 -0.01642698193 -0.01164837313 -0.2450068629 0.9692619977 0.02242357867
0.0009875788055 -0.01699765873 -0.01482211971 -0.05406465002 0.9985369418 0.000994729397
0.01949668884 0.006695511182 -0.04199582291 0.9605314577 0.2726950407 0.05492479873
0.003278110743 0.03750584984 -0.04027518082 0.1243696554 -0.01112899193 0.9921735404
0.02054822636 0.02164846611 -0.05985008621 0.9996947299 0.008835004928 0.02307357254
-0.002221981764 -0.01692128658 -0.01544964933 -0.186571589 -0.9821232594 0.0249989113
-0.008386182785 -0.01485821406 -0.01788815816 -0.5099608565 -0.8601976054 6.719674914e-05
-0.005904633045 0.01971523857 -0.03861296082 0.283027601 -0.8614057811 -0.4217528393
-0.01262697124 -0.01148316526 -0.0180003767 0.7387161526 0.6736282997 0.02287705733
0.0008320500441 0.02054981852 -0.03598208618 -0.09831762711 -0.9764712956 -0.1919308551
0.006950867653 0.06060000229 -0.07985346985 -0.2019054668 0.8543538516 0.4788670784
-0.01485037676 -0.008378569285 -0.01788021151 0.8742911517 0.4853970189 -0.002171637014
-0.0001052489504 -0.01706700516 -0.01740242004 0.1341075781 0.9900170071 -0.04337606577
-0.01692990112 -0.002252138615 -0.01448083591 0.9814642232 0.1916246603 -0.002822788454
0.01284468238 0.0160274059 -0.0242508901 -0.6455253972 -0.7634331129 -0.02160656501
0.01833436775 -0.007860340595 -0.04929513931 0.9365142172 -0.332580892 -0.1110453568
0.01619768791 0.03429715271 -0.04796840668 0.7708170701 -0.008582687844 0.6369987299
-0.01701757431 0.0009692563713 -0.01484181595 0.998341139 -0.05748725306 -0.003191540337
-0.01638622284 0.004720620394 -0.01160854197 0.9707631029 -0.2394459991 0.0168704327
-0.01516219044 0.007884746075 -0.008392771721 0.9354118606 -0.3535560358 -0.001667526755
-0.007691811562 0.01857043648 -1.956542581e-05 -0.3235078916 0.8613834269 0.391613631
0.01907676315 0.0102614193 -0.04777209282 0.9264631953 0.2967661647 0.2315076483
-0.008433919907 0.02396210289 -0.04181306839 0.4624851503 -0.08049774248 -0.882965231
0.01438683796 0.03665418625 -0.04588551712 0.7031649991 0.01044212037 0.7109500307
-0.0124798727 0.01635391045 -0.002690060139 0.3930494092 -0.5066149348 -0.7673678842
-0.006899357319 0.04983851624 -0.04123212814 -0.302572471 -0.002243274852 0.953123742
0.01923823643 -0.004771411657 0 0.861631283 -0.2462759292 0.4437788852
-0.003917034864 0.03828609085 -0.04039115906 -0.1704255078 0.003214060563 0.9853653211
0.0173417263 -0.004643260002 0 0.7526212265 -0.1945892776 0.6290439591
0.01950130272 0.04216598511 -0.06712604523 0.9684871641 -0.01223893393 -0.2487625806
0.003676374793 0.03378363228 -0.04034535408 0.1419639328 -0.01132451456 0.9898070505
-0.00465430673 -0.0164210345 -0.01810072454 -0.2752833943 -0.9612859168 -0.01218355143
-0.01640613302 -0.004640329043 -0.01808571879 0.960335394 0.2786019783 0.01169909018
-0.01077878189 0.03456996918 -0.04306014252 -0.4897026161 -0.01140772778 0.8718148952
-0.01693665886 -0.002191921711 -0.01742571449 0.9890013337 0.1479059232 0.0004470027566
0.02056642151 0.0002701954941 -0.04192822266 0.999996708 -2.852470777e-05 -0.002565754738
0.01301230208 0.01919214122 -0.04442218781 0.6908646703 0.2102772493 0.6917293443
0.003572823286 0.06060000229 -0.04344958496 0.1167721812 0.7255221719 0.6782196074
-0.001869973361 0.0430649929 -0.04011935997 -0.0594270422 -0.00419535254 0.9982238355
-0.004771411657 0.01923823643 0 -0.2477158624 0.8594185654 0.4472544925
0.02053651714 0.05802582169 -0.06197821808 0.9801838821 0.1672239039 -0.1061872087
0.01932099724 -0.007008996487 -0.002972677886 0.9119430861 -0.3274934875 0.2471999664
0.01851938248 -0.002291616797 0 0.8585965157 -0.1372728769 0.4939313521
0.0205072155 -0.00124080658 -0.0002377492338 0.9445917357 -0.1124933431 0.3083694223
-0.002166591883 -0.01693336868 -0.01840581512 -0.147010381 -0.9888555845 0.02350703947
0.0202070961 0.003926432729 -0.03322712898 0.9817545956 0.1900808469 0.005213981533
-0.005188256423 -0.01625114377 -0.02096505737 0.3180837511 0.9475796525 0.03025771721
0.01603545252 0.01285293357 -0.02424104373 0.7624208529 0.6470510987 0.006270462799
-0.007874268055 -0.01514166609 -0.0211170222 -0.4759006099 -0.8794686505 -0.007314528552
-0.005247843266 0.03918504715 -0.04069940948 -0.2854181637 0.00670767011 0.9583796111
0.01893695259 0.04378380203 -0.06867108917 0.9625909648 -0.001662918271 -0.2709536291
-0.01085385656 -0.01315125465 -0.02095849419 -0.6475429944 -0.7620097926 -0.005398739244
-0.0151355807 -0.007868385315 -0.02111076609 0.8753194836 0.4835442455 0.0008742657397
0.02048813629 0.01270592785 -0.05725832367 0.9967703928 0.03123509486 0.0739807599
-0.01625277964 -0.005189908187 -0.02096673393 0.9472012642 0.3195665395 0.02621053208
0.01862973404 -0.008771792412 -0.02455631065 0.94189525 -0.3358698204 -0.004980140934
0.01583324604 0.01310445023 -0.01813978615 0.763673809 0.6455805214 -0.005301308877
-0.01709615517 -0.0001321219504 -0.01743161583 0.9902062691 0.1350324768 -0.03546512139
-0.001533629715 0.0205416975 -0.008722973585 0.03300389769 -0.9994504718 0.003081734653
-0.002291616797 0.01851938248 0 -0.1375853797 0.8544358303 0.5010086578
0.01260752225 0.02503781605 -0.0443553257 0.6415405286 0.005149105883 0.767071859
-0.006976054192 0.01934974766 -0.00294032675 0.3315545866 -0.9079295473 -0.2563893391
0.02019657803 -0.003846444011 -0.002697188139 0.9647804651 -0.1726173189 0.1984991571
0.01864625104 0.001065435571 0 0.9214641931 -0.04738331073 0.3855626572
-0.00884401083 -0.01460826635 -0.02371151638 0.5531250463 0.8324875056 0.03189414155
0.01949763012 0.04875216961 -0.05409301949 0.9582554742 -0.001697960939 0.2859083126
0.01977536392 -0.005743970394 -0.03638186646 0.9469700609 -0.3212041349 0.008695255578
-0.01084788227 -0.01315611672 -0.02400241661 0.6789684094 0.7341404415 0.006301677093
-0.01316519427 -0.01085673046 -0.02401188898 0.734188535 0.6789258511 0.005184952651
-0.01026786772 0.04921261088 -0.07423353831 0.5923789806 0.01867946894 0.8054428724
-0.01460392475 -0.008839785576 -0.02370699406 0.8322387792 0.5535772217 0.03051022879
0.01735735321 0.06060000229 -0.06846598816 0.8267626547 0.4126237218 -0.3823678556
0.02055589199 0.04288587379 -0.05995944405 0.9988600259 0.01280726615 0.04598502509
-0.01694347382 -0.002131202221 -0.02039517212 0.9855992875 0.1685854603 0.01315245034
0.01295347667 0.03681443596 -0.04464728165 0.6414283519 0.008387925607 0.7671370882
0.001065435571 0.01864625104 0 -0.05570663082 0.9175572989 0.3936818188
-0.01071607494 0.06060000229 -0.04316750336 0.399647149 -0.5145506949 -0.7586301725
-0.001201040745 0.02054268456 -0.0001981815994 0.1030238039 -0.9448108767 -0.3109959857
0.01798968887 0.03085470533 -0.0506366539 0.850256168 0.01807532527 0.5260586767
-0.003847532868 0.02019561577 -0.002698251963 0.1722290179 -0.9641615533 -0.2018159176
0.01568298531 0.01568239617 -0.04533239555 0.7755761544 0.4188228702 0.4723018443
0.01923280716 -0.007243762493 -0.005937869549 0.96456789 -0.2611562868 0.03749905875
0.02050086594 -0.001357328236 -0.003057992101 0.9758595942 -0.1032676183 0.1924418131
0.02053314018 0.0009097015858 -0.000912774086 0.9823244226 0.01000423203 0.1869188167
-0.0102346344 0.01787372017 -0.03819372559 0.3940147043 -0.8959345857 -0.2050698194
-0.007175557613 0.01929229927 -0.005870094299 0.2577641286 -0.9652414101 -0.04320502604
0.0194700222 0.004054151654 -0.0002587506473 0.8970661213 0.2473300382 0.3661969774
0.01619865004 0.006949330012 0 0.7929774415 0.3300090137 0.5121336039
0.006949330012 0.01619865004 0 0.3461770535 0.7446349979 0.5706839471
0.004065944791 0.01948088551 -0.0002466167063 0.2485296529 0.9004447252 0.3569766218
0.01817687941 0.009637918472 -0.0268896699 0.8927167838 0.4501700543 -0.02009144643
0.0009214121103 0.02054369545 -0.0009009563327 -0.0008777104848 -0.9768962469 -0.2137123123
0.01943625355 0.006717382431 -0.02095961666 0.956888197 0.2900411111 0.0155284391
-0.00130588156 0.02054672813 -0.003006093383 0.08842566053 -0.9806201855 -0.1748283567
0.009466105143 0.01797783852 -0.0007315195004 0.4336373473 0.8461616646 0.3097887802
0.01914348316 -0.007481551647 -0.008941241264 0.9585995168 -0.2847490547 -0.002223119805
0.02016459084 -0.004004482746 -0.005581225872 0.982187617 -0.1837374967 0.03934485185
-0.00199523888 0.03994213359 -0.04013789622 -0.07781515213 -0.005925432475 0.996950195
0.01920168686 -0.006772588253 -0.04587443924 0.95136582 -0.3000681267 -0.06972944806
0.01924807358 0.006975529432 -0.0001788619161 0.8853579594 0.2764144533 0.3738132338
0.01469079685 0.01905121231 -0.04589157677 0.7661122732 0.2059638555 0.608811034
0.02034281158 0.003752011538 -0.04479127884 0.9943414551 0.1015637824 0.03114271776
0.01797782135 0.00946618398 -0.0007314860026 0.8559843232 0.4217622414 0.2990107862
0.01634020138 0.01021084929 0 0.7824870582 0.508697282 0.3590836658
-0.005274049282 0.02251814461 -0.04070627213 -0.4316614432 0.2918579083 0.8535147098
0.01327443838 0.01327443838 0 0.6455022521 0.6473820442 0.4052447796
0.02051198769 0.006027647972 -0.05185215759 0.998036404 0.05332348256 0.03286247766
0.01261408448 0.01567223954 -0.0004258016273 0.5320771381 0.7748194577 0.341392336
0.01021084929 0.01634020138 0 0.5085139013 0.7826064222 0.3590832774
0.006958706141 0.01923240566 -0.0001962627023 0.2684789521 0.8917051784 0.3643911732
0.003404102008 0.02026157824 -0.002774912119 -0.146009305 -0.9845945719 -0.09620193255
0.02011976369 0.03054832013 -0.05631408691 0.9824562833 0.01045064527 0.1861999877
0.0008588988781 0.0205463829 -0.002766439676 -0.006659973592 -0.9882426973 -0.1527482111
0.003025598884 0.02485521603 -0.04023624229 0.1376555568 0.1259355686 0.9824414386
-0.003992786169 0.02017490005 -0.005569438934 0.1810821962 -0.982476139 -0.0441573844
0.02052264468 0.001368256857 -0.03018680191 0.9955799935 0.09378624499 0.004961525332
0.0182242527 0.009553761959 -0.036076931 0.8770886395 0.4799949016 0.01790008014
-0.008449284792 0.04626543617 -0.07538047409 -0.5169536502 -0.0324211235 -0.8553992017
0.020445014 0.002413797855 -0.01802076435 0.992983886 0.1172366623 -0.01544561891
-0.007386816025 0.01922606087 -0.008845827341 -0.2764193961 0.9610370264 0.0003889275356
0.02023438072 0.05155004692 -0.05699277687 0.9871635591 -0.002015612922 0.1596998586
0.02013221169 -0.004164451361 -0.008500479221 0.9837736304 -0.1792479076 -0.007722164859
0.02049445724 -0.001474945426 -0.005904751301 0.9964098086 -0.08465838452 -0.0006717579196
0.02035863876 0.04896725082 -0.06346553421 0.9916565412 -0.01174368789 -0.128372077
0.02055073929 0.0007645776868 -0.005590379 0.998911456 0.02219282666 0.04102903326
-0.005371374607 0.01986393738 -0.02991649246 0.2980746705 -0.9545298333 0.004928293647
0.01821937688 0.009550756772 -0.0116746966 0.8968557958 0.4422604739 -0.00744007743
0.01006088662 0.05783545399 -0.04269146061 0.4781263759 0.1620886339 0.8632047517
0.02002807808 0.004570982933 -0.002881207466 0.9466026277 0.2278251963 0.2281209003
0.006994014978 0.01932255459 -0.002866642714 -0.3714077126 -0.9018445593 -0.2207548458
0.01941993809 0.006764633894 -0.01801933622 0.9496846633 0.3128152666 0.01567320301
0.02054618835 0.05495241737 -0.05979086113 0.9964084094 0.05844970446 0.06126919073
0.009558357239 0.02788468132 -0.04238901749 0.4469324205 0.003455838851 0.894561048
-0.001415950298 0.02054701996 -0.005844459057 0.05587635982 -0.998437612 0.0004092026209
0.01820654869 0.0397035497 -0.05107190577 0.873785967 0.005861395358 0.4862753622
-0.004139792442 0.02015393543 -0.008475276947 0.1743687782 -0.9846689617 0.004750276067
0.01905322647 -0.007721819401 -0.01197592354 0.9553063465 -0.2956160113 0.000978926802
0.0205638485 0.03033463764 -0.06028033638 0.9998180736 0.0168694082 0.008901837523
0.02048797131 -0.001593965292 -0.008785460472 0.9991501592 -0.04119497826 -0.001390365764
0.02040453148 0.002732152462 -0.006454368353 0.9903593845 0.1383347596 0.007196091846
0.006812065125 0.02172965304 -0.04118297958 0.4696652812 0.4072937147 0.7832792309
0.00956645298 0.06060000229 -0.07758823395 0.5458633879 -0.4461165155 -0.7092342464
0.02004273605 0.004509693623 -0.005675949812 0.971019804 0.2375551642 0.02623135892
0.01597995726 0.01290947008 -0.003290741285 0.7503925407 0.6462907684 0.1386336094
0.02058158779 0.0004607943296 -0.01519897509 0.9999759963 -0.006624492657 0.00203052049
-0.005307402611 0.03091477108 -0.04073828888 -0.2447264001 0.00475905991 0.9695804971
0.01289840476 0.01596905613 -0.003302773436 -0.6447659929 -0.7519029096 -0.1375457336
0.003947451909 0.0201822497 -0.00559810257 -0.1639844242 -0.9859952309 -0.0303729021
0.01820898438 0.009582856655 -0.03297936583 0.8732775764 0.4870500295 0.01298242248
0.02055105972 0.001685512841 -0.04493754196 0.9993841368 0.03342558064 0.01068071372
-0.007632609844 0.01913093758 -0.01188488674 -0.2900179258 0.9570210843 0.0004970172613
0.004063589096 0.02017684269 -0.02707086086 -0.2411506334 -0.970486853 0.001280660145
0.01304827881 0.01632186842 -0.04185403347 0.7060498732 0.6349758221 0.3135271629
-0.01195269012 0.04789261246 -0.04384291077 -0.5580931817 -0.03426284651 0.8290705989
0.0005457924654 0.04281118266 -0.04003933207 0.01031274231 0.001024609422 0.9999462973
0.01468567371 0.03898204041 -0.04619319534 0.7403695577 -0.01274808862 0.6720791651
0.01896177673 -0.00796526432 -0.01505073071 0.9524963497 -0.3045494421 -0.000584071091
0.02008850574 -0.004380389929 -0.01244112158 0.9830452698 -0.1829434713 0.01239692507
0.02056503582 0.0006466846466 -0.009390283108 0.9998964632 0.011953084 0.008011658632
0.01962129784 0.05451464081 -0.06670043945 0.9577446762 0.0009946319211 -0.2876180555
-0.002485300342 0.05209861628 -0.04018969472 -0.156591392 0.005482022297 0.9876482589
0.01805822849 0.009822491169 -0.005689345121 0.8808840237 0.4704741343 0.05193674796
0.009820131302 0.01805611515 -0.00569181931 -0.5042428876 -0.8619376358 -0.05293979869
-0.008296757698 0.02726519966 -0.04179189301 -0.3691950825 0.007070129528 0.9293250262
0.007208667437 0.01925914764 -0.006163669745 -0.3134967293 -0.9495857312 -0.00259611852
0.01949720955 0.006564559778 -0.01455861537 0.9525001141 0.3042564304 -0.01309798185
0.00267407918 0.0203786068 -0.007431499958 -0.1326714989 -0.9910816258 -0.01246933663
0.006705999533 0.04626170222 -0.04117053731 0.3093510198 -0.0107573154 0.9508870736
0.0006365745962 0.02055593586 -0.009400913715 -0.01306525628 -0.9999054028 -0.004299356598
-0.004338205099 0.02012563896 -0.01239725304 0.1767608745 -0.9841853709 -0.01160814083
-0.002482607126 0.02042454147 -0.02987792206 0.1023798204 -0.9947240054 0.006521157062
0.0004564677477 0.05964532089 -0.04003307724 0.04728094863 0.3084842999 0.9500536556
-0.01253856564 0.03104134369 -0.04429504013 -0.5386311188 0.01523328212 0.8424039797
0.009898273706 0.04602017784 -0.04258991623 0.4465995982 -0.01121599657 0.8946636241
-0.007906890154 0.01901259422 -0.01499043083 -0.3060267794 0.951997422 -0.006965548471
0.01569665209 0.0603272845 -0.04804560216 0.7356658966 0.4319196663 0.5217672761
0.02041448402 0.002653888702 -0.009297831535 0.9906896465 0.1353714973 0.01444237053
0.02022723007 0.003861864328 -0.03635152435 0.9838241583 0.1786457915 0.01325544303
-0.01043885708 0.05103268433 -0.04289087677 -0.4618338152 0.003465698187 0.8869597038
0.01946144104 0.006655578295 -0.008845521927 0.9508060303 0.3097858147 0.0008011683259
0.01289141655 0.01597683684 -0.006063312213 -0.6455958148 -0.7633373726 -0.02284949852
-0.01481392002 0.05195918179 -0.0690008564 0.8811883143 -0.007390769883 0.4727076595
-0.00163178283 0.0492173233 -0.04010879898 -0.07684763819 -0.006340886147 0.9970226846
0.00664323012 0.01945006625 -0.008858698368 -0.3082739806 -0.951216433 -0.01242781317
0.01587302074 0.01306071358 -0.03616613007 0.7619109993 0.6475124801 -0.01480598376
0.004472881794 0.020104702 -0.00939658165 -0.2537035212 -0.9672042282 -0.01226801962
0.01276608062 0.02783120298 -0.04450374508 0.6403914424 -0.008739921359 0.7679989676
0.02013654804 0.04944099998 -0.0564279213 0.9800047844 -0.005480236697 0.1988984403
-0.008575536489 0.01953011322 -0.04144853401 0.3729739771 -0.6858380315 -0.6249132795
0.02056585312 0.003813671112 -0.05111355972 0.9999273311 -0.008721725598 -0.008322505421
0.002624673843 0.02038789749 -0.00932881546 -0.1394767819 -0.9901307156 -0.01368917058
-0.001657699227 0.02053164864 -0.01163476372 0.03773807457 -0.9992825278 0.003204260926
-0.002407284021 0.02722168541 -0.0401447258 -0.05893767645 -0.004620618416 0.9982509705
-0.003658605814 0.02819513512 -0.04033792877 -0.1763219775 0.0001501267646 0.9843325341
0.01722450447 0.01393586826 -0.04654481888 0.8407120873 0.3684638991 0.3967839983
0.02047479439 -0.001835776031 -0.01463815212 0.9985282097 -0.05411520692 -0.003599843668
0.0006421084305 0.03411794408 -0.04004970042 0.08419677676 -0.003409735798 0.9964433132
0.0005717141591 0.03095959473 -0.0400304718 -0.01468196134 -0.01488192269 0.9997814603
0.02057588577 0.0005572149158 -0.01227405453 0.9996325106 0.02564735053 0.008778219861
0.02042455387 0.002574693322 -0.01217514324 0.9919909295 0.1262019836 0.00520146003
0.0200877018 0.04572894287 -0.06505021667 0.9828253347 -0.0180072442 -0.1836575637
0.02056255913 0.03667655945 -0.06009745789 0.9999713037 0.00503389591 0.005661422884
0.0205447305 0.000951108103 -0.02109533628 0.9986364381 0.04809189207 -0.02030847931
-0.01516801405 0.05980895615 -0.0683797493 0.8406255299 0.3241231967 0.4339272656
0.01301756191 0.04889992428 -0.04470150948 0.6465624783 0.005107267023 0.7628439404
0.01795173645 0.01001524766 -0.009053116798 0.8860531908 0.4634687265 -0.0103190433
0.01599506871 0.01289489571 -0.008843779643 0.7640219936 0.6451899847 0.0005263203986
0.01002101994 0.01795739683 -0.009046632767 0.4646807263 0.8854660376 -0.004660348788
0.02009370486 0.03682290522 -0.05620279439 0.9814262269 0.005447171095 0.1917625861
-0.001786530197 0.0205185976 -0.01458579874 0.04573402683 -0.9988788092 0.01222797599
0.004893864393 0.02238114452 -0.04060693741 0.3431280596 0.2569591669 0.9034573157
0.01967478561 0.02740031624 -0.06659424591 0.963156775 -0.00226957329 -0.268930987
-0.004488862038 0.02010415268 -0.01537525558 0.1872603522 -0.9822450279 -0.01132544084
0.009553346157 0.01822390556 -0.03607741356 -0.485998066 -0.8693138646 -0.08999602559
-0.00820374012 0.01887593651 -0.0181505146 -0.3173621268 0.9482741317 -0.007579688856
0.003920871735 0.02020199776 -0.03323375702 0.1884035862 0.9820839003 0.003911706733
0.0162049448 0.0488570015 -0.04796388245 0.7711917188 0.004203386796 0.6365890859
0.004888734818 0.03693125343 -0.04061148643 0.2475235911 -0.003640868186 0.968875026
0.01874600315 -0.008494826317 -0.02134462643 0.9459764547 -0.3242283111 -0.002132964108
0.02003296089 -0.004654815197 -0.01744908905 0.9786611133 -0.2051244835 -0.01209841126
0.0023978827 0.02043055153 -0.01803831768 -0.1191826536 -0.9927796601 0.01356619103
-0.002086496731 0.02114079221 -0.03954239782 0.05505198614 -0.6166195008 -0.7853341136
-0.01666359329 0.06060000229 -0.06779497528 0.8511843189 0.4036933363 0.3354354565
0.02007751274 0.004364287853 -0.01230634117 0.973736075 0.2274446661 0.01034312306
0.01928601201 0.007116653442 -0.01182417361 0.9508616244 0.3094635915 -0.009718889334
0.009539366722 0.01820862961 -0.01168722566 0.4486760349 0.8935881959 0.01378230075
0.01944160652 0.02487070274 -0.05384712982 0.9557065314 0.005116756771 0.2942768162
0.007126090527 0.01929500389 -0.0118136549 -0.3090449829 -0.950992254 0.01024360439
0.01619720726 0.01264879646 -0.01473051186 0.7684775494 0.6397871372 -0.01070864757
0.004406561375 0.02011639214 -0.01226046562 -0.2263947414 -0.9740096425 -0.007115999979
-0.01299484348 0.04103504181 -0.04468832779 -0.6181020757 0.01870299133 0.7858753222
0.007216628234 0.06028593572 -0.04166828156 -0.2786995212 -0.4953884524 -0.822749572
0.0004415846467 0.0205643158 -0.01521969271 0.00200910187 -0.9999963712 -0.001794714366
-0.004603545189 0.02007804489 -0.01739461327 0.2033228815 -0.9790322011 0.01248019123
-0.008406839371 0.0187812233 -0.02028408241 -0.3248900053 0.9457325206 -0.006040198457
0.01999908543 -0.004822180748 -0.02050332546 0.9788311053 -0.2038065394 -0.01877662711
-0.009092125893 0.05402060318 -0.04212237549 -0.4293685041 -0.01660026529 0.9029768097
0.01762949181 0.01214689159 -0.04531829453 0.8419119747 0.4403172912 0.3119373493
-0.01374255848 0.04673498917 -0.07071973419 0.7612748437 -0.008990606195 0.6483670113
-0.01680057335 0.05537007141 -0.05769771194 0.9927842752 0.0681176512 -0.09868823892
0.0204681015 -0.001958624125 -0.01761151695 0.9975491052 -0.06980987465 -0.004729080467
-0.01486615562 0.04369861984 -0.04638982391 0.6417000608 -0.002020156739 -0.7669530304
0.003652557611 0.05271679687 -0.04035161209 -0.1592229435 -0.001859120546 -0.9872409017
0.0200926981 0.004300801039 -0.01520129013 0.9730933327 0.2304112742 -0.0001025411401
-0.01680121803 0.05189125633 -0.06352891159 0.9733344635 -0.01500949059 0.2288989674
0.01287671471 0.01599215889 -0.01167431164 -0.6423934024 -0.7660620952 0.02189938076
-0.01023735523 0.04116649246 -0.04275836182 -0.439869298 -0.002432796943 0.8980585071
0.006552737554 0.01948631986 -0.01457157644 -0.3052445473 -0.952169127 0.01413223144
0.004339442968 0.02012822151 -0.01515880299 -0.2267495046 -0.9739522126 0.001322769218
0.002474332333 0.02041617393 -0.01510241032 -0.1281166897 -0.991739574 0.006223446229
0.02053563881 0.05207871246 -0.06204432869 0.9981761463 -0.00370023558 -0.06025520075
-0.001921779513 0.02050085449 -0.0175718174 0.0611709452 -0.9981062861 0.006477427026
0.02038669586 0.02149401093 -0.06350600052 0.990962689 -0.002195311284 -0.1341198329
-0.008714978695 0.0186375227 -0.0235211134 -0.3357231633 0.9419451649 -0.005409619421
0.02024403191 0.005576607227 -0.05903722 0.9906732459 -0.08005109527 -0.1102648724
0.02045956898 -0.002084991336 -0.02062445068 0.9968754361 -0.07872326807 -0.006481667407
-0.0148757689 0.04878614044 -0.06893683434 0.872789246 0.005758756982 0.4880632836
0.02058555794 0.0003614364862 -0.01815480804 0.9997776551 -0.01144374272 -0.01771104455
0.0181118412 0.009741289377 -0.01511725926 0.8877819078 0.4600714461 0.01332474022
0.01286924219 0.01599994644 -0.01452605613 -0.6373812973 -0.7704183919 0.0141627419
0.02005303764 0.01669585609 -0.06496005249 0.9899326587 -0.01476475496 -0.1407669465
0.009739597797 0.01811035395 -0.01511909533 -0.462386562 -0.8865866999 -0.01275503018
0.0003425354362 0.02056857109 -0.01817546272 0.007807238434 -0.999831875 0.01659122765
-0.008330170631 0.06060000229 -0.04359909439 0.3491657989 -0.4523432901 -0.8206514441
-0.00205963695 0.02048209572 -0.02059678841 0.07223682644 -0.997382986 0.003003365022
0.01854837227 -0.008961950302 -0.02672538376 0.9386599182 -0.3448150609 -0.004486844447
0.01619805202 0.05239089737 -0.04799955139 0.7709273133 -0.01235394421 0.6368033116
0.0199648571 -0.004991291523 -0.02358941078 0.9624872258 -0.2713216302 -0.001706816809
0.003145786047 0.03123626137 -0.04025476837 0.1174404889 -0.002035854547 0.9930778352
0.02010976601 0.004238587856 -0.01812224007 0.9731126657 0.2303296277 -4.961526418e-05
-0.003894847631 0.02163634682 -0.04038123322 -0.3029790291 0.425472779 0.852746517
0.006765317202 0.01942071629 -0.01801848078 -0.3137952159 -0.9493406486 -0.01687884426
0.004271670818 0.02014016724 -0.01808537865 -0.2272832446 -0.9738283742 0.0007902134675
0.01864428663 0.009855370283 -0.0450977869 0.9006196481 0.3862915742 0.1991558915
-0.004982838631 0.0199722805 -0.02358019066 0.2745037588 -0.9615783344 0.003846199656
-0.009026686668 0.01849215698 -0.02679562187 0.3488799752 -0.9371622474 0.003112074587
-0.01379960155 0.06060000229 -0.04753390503 0.8552279271 0.1977151899 -0.4790552122
0.01832998943 -0.009359883785 -0.03013695431 0.9317883472 -0.3628235582 -0.01138163481
0.01993017578 -0.005162638426 -0.0267163105 0.9710465834 -0.2385144408 -0.01339381631
0.02045094299 -0.00221265626 -0.0236681385 0.9958565548 -0.09092993461 -0.001212106393
-0.01640414429 0.06052738953 -0.0653006134 0.9528653538 0.2345507073 0.1924411163
0.02012880516 0.004177526712 -0.02107693195 0.9716255853 0.2364685207 -0.005134273539
0.01213812923 0.06060000229 -0.07536361694 0.4771245905 -0.6110611246 -0.6316299765
0.01812783813 0.009715902328 -0.01801022243 0.8922473072 0.4512248002 0.01705645002
0.01309934235 0.01582821007 -0.01814571495 -0.6454085134 -0.7638293522 0.003545634882
0.01957291222 0.04841035843 -0.0668753891 0.956872137 -0.002458855522 -0.2904989974
0.00971489048 0.01812699413 -0.01801130962 -0.4567012255 -0.8893778518 -0.02076119596
-0.005553399563 0.03277415466 -0.04077941895 -0.3078407012 0.008669271647 0.9513984162
-0.005176053762 0.01991840267 -0.02673117065 0.241014143 -0.9704470427 0.01202996653
0.009637348175 0.0181764245 -0.02689029598 -0.4545214056 -0.8904619718 0.02208548498
0.02044220543 -0.002341973782 -0.02675122166 0.9959082977 -0.09035211223 -0.001777158176
0.02050766818 0.001551686923 -0.02405617905 0.9950471467 0.09893022712 -0.009694634943
0.01814403009 0.009690205097 -0.02093842554 0.892012544 0.4520099254 0.0008054315175
0.02002917862 0.0528001709 -0.06537700653 0.9824584278 -0.01172207635 -0.186112951
-0.002627114058 0.02040487957 -0.03304880238 0.1068598423 -0.9942740395 0.0003294173593
0.01626041317 0.01256979346 -0.02083061266 0.7645296997 0.6445810624 -0.003097135413
0.01255342984 0.0162444756 -0.02084977674 -0.643075339 -0.7657976988 0.002827182779
-0.01016276073 0.06060000229 -0.07701591492 -0.3312153718 -0.6154365677 -0.7152161971
-0.01000544596 0.05739612579 -0.07442497253 0.5418575187 0.2223888074 0.810514434
0.009689882517 0.0181438365 -0.02093873119 -0.4551242443 -0.8904274403 -0.0009464911316
0.00672020936 0.01943901157 -0.02095631695 -0.2899488246 -0.956913691 -0.01568015011
0.02022034645 0.02353722382 -0.064426651 0.9871675184 -0.01100890635 -0.159308175
0.001541990211 0.02049892616 -0.02406708972 -0.09852844516 -0.9950681573 0.01146768487
-0.01414403915 0.06060000229 -0.04997060394 0.3608277191 0.8916076279 -0.273567533
0.01983812586 0.006238234361 -0.04491679128 0.9730015472 0.2137992407 0.08693603333
-0.002340014577 0.02044394493 -0.02674904633 0.09077470055 -0.9958637141 0.003926407201
0.004133764744 0.02016447449 -0.02404050064 -0.2377692463 -0.9712158155 0.01433964033
-0.008062847137 0.06010412598 -0.07567258453 0.3507344422 0.3577492438 0.8654483402
0.0181043129 -0.009768068314 -0.03359730911 0.9230600925 -0.3844702637 -0.01194495458
0.01988481712 -0.005347569466 -0.02988984299 0.9589300123 -0.2835142503 0.008538232538
0.007526211977 0.0556960392 -0.07589606476 0.4940193424 -0.2081583981 -0.8441652508
0.02014803314 0.004115859032 -0.02406098175 0.9708101825 0.2395697313 -0.01157296093
0.01945277166 0.006669543862 -0.02393642426 0.9527323385 0.3036138371 -0.0109420775
0.006673735738 0.01945677757 -0.02393151188 -0.3046538114 -0.952396006 0.01130941639
0.01795194244 -0.01004366589 -0.03593367004 0.9202587469 -0.3911566141 -0.0109700522
0.02020139122 -0.00331824851 -0.04518104172 0.987464234 -0.1535212052 -0.03668277621
0.02052915382 -0.0006538627744 -0.04539874649 0.9996079246 -0.02794786014 0.001707077786
0.02043337631 -0.002472646236 -0.02986661339 0.9949302876 -0.1004203473 -0.005429232747
0.01297968841 0.04290853119 -0.04466953754 0.6400440744 -0.009846994709 0.7682750936
0.02016750336 0.004053413868 -0.02708263969 0.970153475 0.2424907207 -0.0006966284244
0.01816038132 0.009664255142 -0.02389551353 0.8935747336 0.4484459452 -0.0205043854
-0.005569395542 0.01980871868 -0.03314585114 0.3107359982 -0.9504116693 -0.01268062699
0.0177980957 -0.01032192993 -0.03829263306 0.9165697308 -0.399769492 -0.009180511529
0.02038549805 -0.002939961195 -0.04055613327 0.9917906584 -0.127833253 0.003154267282
0.02031258965 -0.003107067585 -0.04283253479 0.989147246 -0.1456321414 -0.01946805588
0.02042442989 -0.002605055571 -0.03302341175 0.9944956728 -0.1041921805 0.01106102225
0.01946945572 0.006621223211 -0.02694317436 0.9611548625 0.2759697472 -0.004693510267
0.006625849724 0.01947384167 -0.02693770409 -0.2752892214 -0.9613478089 0.00512200149
0.006961986065 0.06060000229 -0.04412081337 -0.2307105389 -0.7047598453 -0.6708846456
0.001367279626 0.02052180862 -0.03018787702 -0.09190179524 -0.9957595741 -0.004114690443
0.01760050011 -0.01065170288 -0.04073038101 0.9143407153 -0.4047880207 -0.01130109311
0.02018717384 0.003990331411 -0.03013513184 0.9716208318 0.2365025888 0.004414135746
0.01910735893 0.05009609985 -0.06828253174 0.9466108778 -0.007441335937 -0.3222925263
-0.002223774433 0.03362434514 -0.04016057968 -0.09057311973 0.001047559571 0.9958892572
0.01948513937 0.006570993781 -0.02998982906 0.9544327502 0.2982166095 0.01117940704
0.009871724367 0.04301110458 -0.04256115055 -0.4873736506 0.001013520459 -0.8731929326
0.009813373804 0.03690453911 -0.04252687263 0.4846431637 0.01742108461 0.8745384552
0.01604278755 0.01284428279 -0.0272284743 0.7679341567 0.6404952686 0.006553013419
0.006575746775 0.01948963356 -0.0299841404 -0.2982571626 -0.9544219174 -0.01102127805
0.003992692471 0.02018933868 -0.03013235855 -0.2353408646 -0.9719048035 -0.003966157429
0.0009315169007 0.02054489994 -0.03282372665 -0.06815942469 -0.9975669975 0.01464166486
-0.005769632816 0.01975288391 -0.03641135025 0.3627877787 -0.9167196258 -0.1673623476
0.01973826027 -0.005878339767 -0.03858248901 0.9421832579 -0.3345484702 -0.01918410063
0.0204153862 -0.002738889456 -0.03621417618 0.9934221606 -0.1141293138 0.009322579621
0.02055061388 0.0008329659589 -0.03598104572 0.9997715485 0.02126276882 -0.002178430809
0.01605005089 0.01283535417 -0.03025400035 0.7653269509 0.6433876122 0.01808420762
0.003799391747 0.02022340965 -0.03847956848 -0.4269040925 -0.7486322611 -0.5072500699
0.01307525082 0.01585911217 -0.03002048111 -0.6413076901 -0.7670634735 0.0183867928
0.009610445023 0.01819279003 -0.02991516495 0.4508978706 0.8925752886 0.0006814873887
-0.002773191452 0.02038500214 -0.03625414276 0.2165277427 -0.9320367393 -0.2905567985
-0.01622531796 0.05463269234 -0.06582940292 0.954925553 -0.005687750889 0.296790899
0.01290239735 0.02181131859 -0.04460548706 0.6591080734 0.08859026162 0.7468121003
0.02040326881 -0.002835885048 -0.03837247086 0.9914057899 -0.1306947445 -0.005783035896
0.01950028801 0.006519500732 -0.03306888771 0.9600470265 0.27897385 0.02198403643
0.009582550049 0.01820874977 -0.03297970533 -0.4878436944 -0.872793963 -0.0154669979
-0.005763092041 0.01992030716 -0.04050884247 -0.36744629 0.5728143274 0.7327120651
0.02002893829 0.0394628582 -0.06529444504 0.9830694349 0.005842151214 -0.1831402616
-0.008193132162 0.02204266548 -0.04178238297 -0.3959870962 0.2840666652 0.8732126598
-0.001378282994 0.0552720623 -0.04009697533 -0.07028886608 0.05644033706 0.9959286941
0.02055496407 0.0007317231745 -0.03917420769 0.9988892408 0.04576749587 0.01120807533
0.01942166964 0.006750602086 -0.03572142283 0.9414685067 0.33689988 -0.01164138309
0.006759896755 0.01943039958 -0.03571003342 -0.3353611755 -0.9358978133 -0.1078339698
0.003848293066 0.02021479034 -0.03636787796 0.1413982754 0.9671266384 0.2113589198
0.01621687546 0.02804695892 -0.04798771515 0.7697918149 -0.009943685694 0.6382175843
-0.01043607044 0.02434729385 -0.0428455162 -0.4570498364 0.03058253856 0.8889151565
-0.001955808878 0.06017103386 -0.07790048599 -0.1758478828 -0.3906412949 -0.9035911137
-0.01347357368 0.02389696121 -0.04505598068 -0.5377901717 -0.007787002227 0.8430427592
0.006153230349 0.01962399864 -0.0387516772 -0.3145338152 -0.8767877302 -0.3637468285
-0.002100844344 0.02469104067 -0.04013671621 -0.04252586236 0.173628633 0.9838926003
-0.005141045332 0.02582178211 -0.04067350578 -0.2701474875 0.01475092857 0.9627059494
0.02054282093 0.02493468761 -0.06200417328 0.9985223888 0.01130125626 -0.05315374538
-0.01742295456 0.06009660848 -0.06251300303 0.9908268372 0.1282621929 0.04255571054
0.01796511555 0.03706915951 -0.05059440041 0.8497212592 0.00506842371 0.5272078269
-0.01136920738 0.02779808044 -0.04343024445 -0.5217772983 -0.005486543612 0.8530640942
-0.009673276901 0.04765005493 -0.04244332123 -0.4437761244 0.01699374078 0.8959765422
0.0181114769 0.00976752917 -0.03879088847 0.8796368534 0.4756452793 -0.0007578877576
0.01630996847 0.01250562525 -0.03905523205 0.774344573 0.6301067021 0.05793121955
-0.008076088905 0.03060097313 -0.04167856598 0.378588068 0.007199432147 -0.9255372726
0.01249990845 0.0163044672 -0.03906241035 -0.6592414156 -0.7309606227 -0.1763443338
0.006966007829 0.03063998652 -0.04125399208 0.3321750939 0.01300124446 0.9431281327
0.003465937018 0.02102375412 -0.04028795242 0.1747318422 0.6264336403 0.7596378595
0.01439390469 0.02413237762 -0.04589279175 0.6758163802 0.02655557216 0.7365914891
0.0004107605889 0.02453380585 -0.04002803421 0.01246864791 0.2284539561 0.9734748701
-0.004999177456 0.02909844208 -0.04063429642 -0.2204684512 0.01287563131 0.9753091203
0.01432283878 0.06060000229 -0.05038137054 0.6505155717 0.6239612319 0.4330148635
0.01842482885 0.009309810638 -0.04169276555 0.9128716118 0.4035067573 0.06202997102
0.01007368889 0.0190262104 -0.04193238831 0.6479549283 0.5021843641 0.5726825258
-0.005963517189 0.06060000229 -0.04403236771 0.3082806941 -0.4368813239 -0.84504303
0.007890337467 0.01991380978 -0.0413006649 0.4405365967 0.6210219793 0.6482740225
-0.007895118952 0.03387455559 -0.04161263084 0.3469797902 -0.02932507811 -0.9374140307
-0.01396407318 0.03407660294 -0.04546126175 0.5869773347 0.01278349644 -0.809502434
-0.007803593636 0.05984937668 -0.04159427261 0.3492560194 -0.3348236334 -0.8751647659
0.01956717682 -0.004209177017 -0.0505136795 0.9546666569 -0.2641630103 -0.137220546
0.01605620136 0.01321691246 -0.04223539963 0.7753355559 0.5900204808 0.2252345622
0.006969805717 0.02471313032 -0.0412598292 0.3405297945 0.08244793907 0.9366118707
0.004936902523 0.02559707069 -0.0406179924 0.2767497418 0.05473049493 0.9593821727
-0.005408872604 0.03598923683 -0.04074695015 -0.2524760176 0.01032278707 0.967548087
-0.01168253803 0.03796376038 -0.04363511658 -0.5213627246 -0.007353955279 0.8533034799
0.01772952461 -0.006377866745 -0.05535058212 0.9232816598 -0.3389534796 -0.1807249716
0.02030569077 -0.001059570193 -0.05015116501 0.994290456 -0.09787076009 -0.04251827135
0.02058063698 0.001614941716 -0.04820217133 0.9998584535 0.001292895885 0.01677502249
0.02048223209 0.003813797951 -0.0478969059 0.998646956 0.04363066195 0.02829527653
0.01704759026 0.01266867828 -0.04428666687 0.8161628432 0.4979853234 0.2930679631
0.01443010139 0.01552224731 -0.04306232452 0.7297036719 0.5762512846 0.3680584304
-0.01704766846 0.05235873032 -0.05994020844 0.9998254952 0.01165992696 0.01459538208
0.009660556475 0.02234912936 -0.04243726476 0.5230435259 0.1971007847 0.8292024787
-0.01345881176 0.06060000229 -0.04512301636 0.6041625091 -0.5130565107 -0.6097218049
0.006432756106 0.02770851453 -0.04107086817 0.2990688798 0.01754064401 0.9540702966
-0.01268876457 0.06060000229 -0.07663144684 0.4015686915 0.730834713 0.5519268143
0.004784016132 0.03067518616 -0.04058126259 0.2568904367 0.01191652097 0.9663670628
-0.007509161472 0.04034280205 -0.04146412849 -0.3534251179 -0.003892809545 0.9354547194
0.006821869373 0.05224177678 -0.04121315893 0.30325666 -0.002010733047 0.9529067924
0.02054045486 0.001500877857 -0.05048653793 0.9973221488 -0.06448880744 -0.03449239252
0.01997495333 0.007068984509 -0.0478690656 0.9753987793 0.195293366 0.102263007
0.001243493915 0.03670004908 -0.04007262293 0.06501149512 0.01684208175 0.9977423765
-0.005105023623 0.04233835983 -0.04067599297 -0.2451453381 0.004184469522 0.9694773094
0.01887361336 -0.002821731567 -0.05670414734 0.9430647339 -0.2860474065 -0.1697226824
0.02042743683 0.001305593729 -0.05289362717 0.9909675565 -0.1083054867 -0.07907732602
0.02027718067 0.00695492816 -0.05028426552 0.9836479331 0.1417481604 0.1111044674
0.006512767315 0.03400093333 -0.04109857178 0.2972351847 -0.006837078224 0.9547798172
0.001328481078 0.03981576729 -0.04007793808 0.06429431014 0.004768853553 0.9979195858
-0.007906420231 0.04705403137 -0.04162535095 -0.3887178042 -0.01125018486 0.9212881753
0.02056393051 0.003749866962 -0.053362957 0.99840774 -0.04102783882 -0.03871306247
0.02057197857 0.04596038246 -0.05987446022 0.9999705154 0.005436031761 0.005423826179
0.01985608196 0.009898875237 -0.05076333046 0.9689920668 0.1746068605 0.174833689
0.0176364069 0.01544303179 -0.04849655342 0.8633715368 0.3098979356 0.3981869649
0.01636983275 0.01909655952 -0.04796129227 0.7862222234 0.1440292924 0.6009244364
0.01008450826 0.03116671308 -0.04267312113 0.4825100225 -0.02430860662 0.8755530651
0.009784651995 0.03380808163 -0.04251720142 0.4885337865 0.01094206519 0.8724763668
0.007044426322 0.03687571907 -0.04128504086 0.3048034974 -0.003942225591 0.9524071014
0.004250492573 0.03939464188 -0.04046886826 0.2458945292 0.01302128343 0.9692091243
0.02040278053 0.02585183334 -0.05803002167 0.9919837237 -0.0008285676723 0.1263629903
0.003352347612 0.04060342026 -0.04028179169 0.1330183121 -0.002168806705 0.9911112071
0.003081058264 0.04303437042 -0.04025411987 0.1175176081 0.006625089113 0.9930486997
-0.001755831401 0.04615187581 -0.04011780548 -0.04735463067 -0.008521361324 0.998841792
-0.004788523197 0.0485799675 -0.04060492325 -0.2310088209 -0.01162541539 0.9728821996
-0.007981711626 0.05193648911 -0.04165831757 -0.3436617257 0.00746612722 0.9390638292
-0.01321516895 0.05094777679 -0.04486403275 -0.6179619989 0.02119509942 0.7859222199
0.01867895508 -0.0007728510499 -0.05995789719 0.9428776764 -0.2398238767 -0.231227584
0.0204962527 0.007485418161 -0.05381416194 0.9983454937 0.04925580832 0.02966716316
0.01923730342 0.01299091498 -0.05089812597 0.9245292136 0.21021128 0.3178945595
0.01838547262 0.01582368215 -0.05026913834 0.8977922277 0.2035031054 0.3905836684
0.01606206632 0.02203504419 -0.04779442978 0.7749526725 0.05222071674 0.6298582001
0.02052244186 0.01049275637 -0.05654386711 0.9979314139 0.02487337437 0.05928075961
0.01293962669 0.03061324739 -0.04463313484 0.6425028659 0.01614913257 0.766113094
0.02043395233 0.008068945885 -0.05942614365 0.9923977367 -0.07062284635 -0.1007925876
0.006603136698 0.04018308512 -0.04113240306 0.3062732928 -0.003987203523 0.9519352774
-0.01599911213 0.05179444885 -0.06648603439 0.923783764 0.00190594832 0.3829098128
0.001503868163 0.04596591187 -0.04009536362 0.07209546337 -0.006596923024 0.9973759195
-0.005279609442 0.05211417389 -0.04072554016 -0.2787398456 0.001195966565 0.9603659033
-0.01118738747 0.05440829849 -0.04332857513 -0.5131322195 -0.009984944865 0.8582514936
0.0198872776 0.002884314775 -0.05888790512 0.9735773183 -0.1581583049 -0.1647214493
0.02055720615 0.007107758284 -0.05663162231 0.9992269478 -0.02622454851 -0.02928787938
0.02027398682 0.01028553486 -0.05351661682 0.9790536959 0.119929627 0.164531897
0.01992553329 0.01292264207 -0.05340974045 0.9604993366 0.1166409112 0.2526577177
0.01469795513 0.04503488159 -0.04621094513 0.7407241419 -0.01428777345 0.671657357
0.0183263464 0.0188718996 -0.05113005161 0.9086008854 0.1197040036 0.4001442022
0.01600330424 0.02465289831 -0.04766389561 0.7651186666 0.02234274395 0.6435015368
-0.006536816597 0.05109735489 -0.07634763336 0.3976141897 -0.009400748359 0.9175045406
0.01468982887 0.02654603195 -0.04619747162 0.7417685932 0.0002978253086 0.6706558473
0.01264636669 0.03375079575 -0.04440504608 0.6387113275 0.008968754509 0.7693941783
-0.01678628922 0.06060000229 -0.05078893089 0.5848457974 0.733131001 -0.3470941206
0.009836041451 0.03996665668 -0.0425494442 0.4565246852 -0.00537050947 0.8896945372
-0.002268696845 0.05783563805 -0.07751518631 0.148620851 0.2971881745 0.9431813355
0.00713467133 0.04300477886 -0.04132103539 0.3323739447 -0.003257824795 0.9431420611
0.01928160858 0.06048222351 -0.05651475143 0.8966493457 0.3885291214 0.2122853566
0.004377541542 0.04550814056 -0.04050668716 0.2437770434 0.009007094777 0.9697894747
0.003500973701 0.04671331406 -0.04030903625 0.1374473389 -0.0009516999318 0.9905086185
0.003238273223 0.04910812378 -0.0402824173 0.1350747922 -0.01410850236 0.9907349548
0.02041109657 0.05276486206 -0.05817951584 0.9919910513 -0.002143684296 0.1262899785
-0.003820381165 0.05425797653 -0.04039214325 -0.1888135679 0.009114935634 0.9819706485
-0.005787796974 0.05560734367 -0.0408773632 -0.2852642735 0.1145845208 0.951574843
-0.008036468506 0.05677615738 -0.04168344116 -0.3383422174 0.151133662 0.9288073859
0.01929070218 0.0521747729 -0.05353191503 0.9464562145 0.002370355461 0.322823505
-0.009821959496 0.05737371063 -0.04254510498 -0.3987426197 0.2033941878 0.8942231979
-0.01212776279 0.05763686371 -0.04399685669 0.5808920921 -0.1793958766 -0.7939656773
0.01969729233 0.01565504106 -0.05388436635 0.9576765268 0.07353311269 0.2782957984
0.01800918261 0.02199592527 -0.05064251582 0.8764490152 -0.002435316501 0.4814885181
-0.0134497935 0.05805702209 -0.07107077026 0.7782497398 0.2024881236 0.5944122327
0.0009501184722 0.05494221242 -0.04006553268 0.03871761955 0.04147564529 0.9983890608
0.01932154528 0.04014618556 -0.05359181849 0.9469580512 0.006904624198 0.3212830145
-0.002203323245 0.05812882106 -0.04016291555 -0.1825182329 0.2815229991 0.9420360373
-0.01620024872 0.04950664902 -0.065902565 0.9391037506 0.01770596065 0.3431772787
0.01951597881 0.01841870499 -0.05392294312 0.952608243 0.06731189002 0.2966591391
0.01598158288 0.03096517801 -0.04763918686 0.7680817894 0.007745313229 0.6403049078
0.01468233681 0.03282035065 -0.0461897583 0.7410966314 -0.01190730809 0.6712927819
0.006866159821 0.04929105225 -0.04123925629 0.3359844573 -0.006574355402 0.941844585
0.004517910957 0.05152271652 -0.04054740143 0.2451886288 0.002947095478 0.9694709129
0.01941314745 0.02805264521 -0.05381054592 0.9567703147 -0.00687594737 0.2907632822
0.003029067755 0.05508112526 -0.04023780632 -0.1463201975 -0.05083859605 -0.987930077
0.0006292064786 0.05787986183 -0.04005587769 0.04832615715 0.1944817114 0.9797149823
-0.005664485455 0.06060000229 -0.04168358612 0.2641267554 -0.3838257873 -0.8848247409
0.01475123215 0.05683636475 -0.04628955078 0.7420968429 0.1576804183 0.6514822802
-0.01104144001 0.06060000229 -0.0455488739 -0.3653590213 0.7716233331 0.5206824535
0.01975727463 0.007299380302 -0.06271948242 0.9773856702 -0.1085096563 -0.1815018076
-0.01303592682 0.054680233 -0.07160970688 0.7533718657 0.009763855153 0.6575222423
0.02022604752 0.02781651878 -0.05673116684 0.9828722055 0.00947108364 0.1840449029
0.02048633194 0.01039891911 -0.06001426697 0.9954481415 -0.03861158115 -0.08713290681
0.02039551163 0.0159699235 -0.05726010132 0.9933469163 0.03452947179 0.10986182
0.02010539818 0.01679820824 -0.05576032639 0.9735018323 0.03978979761 0.225190929
0.01800633144 0.02770604515 -0.05066151047 0.8590993276 -0.001914928375 0.5118053129
0.009940633774 0.04901474571 -0.04260440254 0.4859559132 -0.02512063971 0.8736222318
