# .PCD v0.7 - Point Cloud Data file format
VERSION 0.7
FIELDS x y z normal_x normal_y normal_z
SIZE 4 4 4 4 4 4
TYPE F F F F F F
COUNT 1 1 1 1 1 1
WIDTH 564
HEIGHT 1
VIEWPOINT 0 0 0 1 0 0 0
POINTS 564
DATA ascii
-0.01198240376 0.01309587002 0 -0.6773549979 0.7041216423 -0.213079609
-0.01476663303 0.01031263542 0 0.7786792338 -0.5738298911 0.2537280175
0.009722789288 -0.01812109852 -0.01704533339 0.4979961748 -0.8671119354 -0.01080284456
0.02053785515 0.05813560867 -0.05902730179 0.9987593507 0.03857935451 0.03148639001
0.003665579319 0.05439894295 -0.04037386513 0.1474532054 -0.007935957225 0.9890371948
0.01286648655 -0.01490608573 -0.0002484253496 -0.5564133944 0.7562821849 -0.344153151
-0.01630528259 -0.01069128799 0 -0.426513698 -0.2402781829 -0.8719819151
-0.005861175776 0.01922605419 0 -0.2329226354 0.614701363 -0.7535842888
-0.01995738983 0.001140412211 0 0.8574189278 0.04896994309 0.5122838343
0.02050833988 0.005809182167 -0.05651540756 0.9954550043 -0.06222299241 -0.07209461575
0.01988772106 0.005211009026 -0.02676977158 0.972098937 0.2342885586 0.01151208404
-0.009682234764 -0.01817874336 -0.03350172424 0.3703294638 0.9288677167 0.007800841648
-0.004866592566 0.01635040792 -0.00258694013 0.2476972474 -0.9288727745 0.2753932505
0.0102309885 -0.01472236252 -0.05511425781 0.526262674 -0.7834492228 -0.3305373099
-0.01598961449 0.005979887962 -0.002314402342 0.9105245752 -0.3528602044 0.2154870625
-0.01884795761 0.00224651742 0 0.8044241025 -0.148509345 0.57519287
-0.01369447422 0.01022673607 -0.02497783661 0.8102590436 -0.5860578495 0.004059467906
0.008875202179 0.01829083443 0 0.05110404875 0.7514457207 0.6578128191
-0.005348552704 -0.019883955 -0.02989094353 -0.297707075 -0.9546529681 0.00286495207
-0.01718486786 0.003905447483 0 0.901086414 -0.1672391641 0.4000929097
0.02054122353 0.0181245079 -0.05904455185 0.9996110216 0.008651466202 0.02651334819
-0.01677362951 0.003028709809 -0.005718561649 0.9843893542 -0.1712493351 0.04063575493
-0.004276204109 -0.02014335823 -0.01139706326 -0.173583803 -0.9847766942 -0.009139251006
0.007514511585 0.01531327486 -0.002017129064 0.3668287961 0.8818976751 -0.29613025
0.003354874372 -0.01980228996 0 -0.1464717447 0.9065727935 -0.3958178851
0.0194454565 0.05046046829 -0.05392194939 0.9483424786 -0.00447092647 0.317216888
-0.01531195211 0.00752287221 -0.001780435354 0.8467163252 -0.4722947922 0.2449675364
0.006864881516 0.01820288754 0 0.4413595615 0.8089977048 -0.3882324705
0.01356848431 -0.01244915485 -0.05438742828 0.6615299793 -0.6823556725 -0.3110768759
-0.01407537627 0.009616276026 -0.002190049857 0.8037883255 -0.5780457928 0.1406676553
0.004747428417 -0.01715449524 -0.05497130585 0.2241165266 -0.9068846619 -0.3568360863
-0.01145906067 0.01257450406 -0.002353519479 0.6809258937 -0.7194945223 0.1366292786
0.009926524162 -0.01802038002 -0.02054443232 0.4991703969 -0.866435708 0.01086640122
-0.01409431577 0.009594221592 -0.007947866321 0.8207316146 -0.5711460472 0.01384953015
-0.01263259888 0.01148341084 -0.02101619911 0.7258551004 -0.6876741173 -0.01544932552
-0.01748981762 -0.0001157392859 -0.0001075696573 0.9402752738 0.0722058823 0.332669085
0.01630516752 -0.01251890723 -0.008569098632 0.8023279307 -0.5968733608 0.003476030903
-0.008240013003 0.01492053699 -0.001936148688 -0.5665505643 0.77558493 -0.2783675169
0.01056554794 0.05185493469 -0.04296536636 0.4785213149 -0.01229950566 0.8779897912
0.01984757328 0.005986771345 -0.04389358711 0.9684009365 0.2427516213 0.0571950752
-0.01695853519 -0.001737813413 -0.001895435154 0.9537077683 -0.06896794831 0.292719857
-0.007746026039 0.05152567291 -0.04156564331 -0.3738032388 -0.00774749335 0.9274756682
0.007775573492 -0.01905926895 -0.00258433342 0.39670325 -0.8917759536 0.2176285366
-0.002799507499 0.01829351139 0 -0.1076362661 0.8950434019 -0.4327952668
0.01495384026 -0.005806189775 -0.06252022171 0.7821656764 -0.4875681612 -0.3879357457
0.01902242184 -0.005630591869 -0.05091732979 0.9216448216 -0.3599419448 -0.1449573012
-0.01145782471 0.01257836946 -0.00522235171 0.675356325 -0.7338811858 0.07288511073
0.009773541689 -0.0180897727 -0.01130690026 0.502790555 -0.8644078273 -0.0008751507405
-0.01408479881 0.009605303764 -0.005054639578 0.8115392195 -0.5725426473 0.1166148027
-0.001922343373 -0.01946432304 -0.04907913971 -0.08935036301 -0.9741026329 -0.207703089
-0.001140412211 0.01995738983 0 -0.004539807496 0.5399212757 -0.8417032768
-0.01708293819 0.0003464860767 -0.008716160297 0.999803801 -0.01724051434 -0.009753159806
-0.01957843304 -0.002422667861 0 0.9447623266 -0.004752916607 0.3277217662
0.01813107109 0.0293319912 -0.07035202789 0.8687159174 0.119450448 -0.4806914242
-0.004437847137 -0.02011192417 -0.01437943745 -0.1834821036 -0.9829553567 -0.01153622234
-0.01669588614 0.003389343619 -0.002358787328 0.9219259397 -0.1749854366 0.3455903048
0.005575719833 0.01978350639 -0.004238075733 -0.2258547751 -0.9267190564 0.3003021995
-0.002473997951 0.0168663168 -0.001999520838 0.1115307668 -0.9285679313 0.3540091596
0.001399029613 0.05163355637 -0.04009421921 0.07357898268 -0.01968909233 0.997095017
0.01652093887 -0.01226297021 -0.02629388762 0.8118406091 -0.583818454 -0.008416546131
-0.0198093071 -0.005552896023 -0.004262051582 0.9324227657 0.2418515652 0.2685062502
0.002972581863 0.02013002777 0 0.2432604376 0.843626416 0.4786635872
-0.01707061195 0.0004338688403 -0.004910778642 0.9823678642 0.02543975406 0.185219325
-0.01920462608 -0.00594205904 0 0.9207564355 0.2524466626 0.2974529694
-0.01711012936 -0.005774544954 0 0.9722025403 0.146159095 0.1829200359
-0.01701238441 -0.003755239248 0 0.9429390284 0.1197828261 0.3106735639
0.02059735298 -0.0001988279 -0.02315403652 0.9998392757 -0.01594813215 -0.008190225842
0.02056931114 0.03354185486 -0.05990215683 0.9983276424 -0.002559396041 0.05775264423
0.006774988174 0.03080957349 -0.04119951121 0.3359452047 -0.0121238867 0.9418034991
0.009822076321 -0.01805798912 -0.005689706922 0.4906495611 -0.8709133589 0.02780160847
-0.01774599171 -0.008331453085 0 0.747697314 0.2050124821 -0.6316000386
-0.01706145859 0.0004987647533 -0.002084663153 0.9413893734 -0.0332684877 0.3356773085
-0.005381232738 0.01617644437 -0.005298235575 -0.2783055094 0.9576729773 -0.07354258549
-0.01600669098 0.005951294661 -0.005174245834 0.9429647107 -0.3237472464 0.07749370873
0.01250942135 0.02749387407 -0.04428104877 0.6315946722 0.0002468327439 0.7752987225
0.0002356274873 -0.0193331852 -0.04992785263 0.002327965592 -0.969812655 -0.2438401009
-0.01533062696 0.007494090796 -0.005596130133 0.9271145268 -0.3693079161 0.06379903825
-0.005310946465 0.01620505587 -0.01108414586 -0.3195200764 0.9475794575 -0.0003041657815
-0.007977406184 0.01506758912 -0.005382590294 0.4539170931 -0.8747207161 0.169773206
0.0009761455357 0.01701056671 -0.001974991759 -0.1218612939 0.9237565935 -0.3630751727
0.003966105103 0.04469142723 -0.04041515541 0.2330710502 0.01651191791 0.9723195165
0.02051604652 0.0008242021799 -0.04985832977 0.9983491518 -0.05214008336 -0.02409113457
-0.004789861043 0.01637826602 -0.008318347613 0.2684568729 -0.9632904382 0.001561760613
-0.0160239048 0.005922473431 -0.008056927681 0.9430920733 -0.3325311006 -0.0006391083562
0.01982062149 0.005510556221 -0.03207193375 0.9660195272 0.2584298291 -0.004505162338
0.006056766033 0.0598213768 -0.04091122055 -0.2929595884 -0.02184711428 -0.9558751923
0.004301863551 0.01756029987 0 0.1976669962 0.9152275869 -0.3511213791
0.01960680199 0.05454927444 -0.06674732971 0.9624525774 -0.02555490429 -0.2702443025
0.01984763527 0.005389959335 -0.02993729973 0.9693333697 0.2455356061 0.01025107645
0.01468230247 -0.01132416439 -0.05439646912 0.7026945456 -0.6492664562 -0.2909870177
-0.01648800087 -0.004320286751 -0.002290213346 0.9675447535 0.07784310665 0.2404113155
0.02013442039 0.0002136191428 -0.05411133194 0.9796086063 -0.1662098006 -0.1128772812
0.01784122276 0.01027214718 -0.03823622894 0.9219763829 0.387244534 -0.001104648905
-0.01145588827 0.01258158096 -0.008119248629 0.6748031802 -0.7379965483 0.001327636756
0.01592842102 0.04588383611 -0.047631972 0.7614023581 -0.01999860562 0.6479710679
-0.008445237478 0.01481824875 -0.008061311245 0.5064024915 -0.8622933241 -0.002596134937
-0.01665089226 0.003582556089 -0.008500241439 0.9800848704 -0.1979955774 -0.01521177809
-0.004782749653 -0.02003373909 -0.02046089554 -0.2648150184 -0.9642934508 -0.003338675136
0.02045527267 -0.002174083471 -0.0260422411 0.9961494404 -0.08766951499 -0.000590377214
0.02022070313 0.005749802589 -0.04782429695 0.9851484042 0.1478755808 0.08726645592
0.01735424042 0.02111552048 -0.04953856277 0.8552474055 0.05417623309 0.5153802588
0.000710045889 0.01701139116 -0.005272475719 0.09302592181 -0.9922697161 0.0821400537
-0.01531775904 -0.007510504007 -0.002021382749 0.8414487882 0.4677409882 0.2705222817
0.006258547306 -0.01956744003 -0.0003925849199 -0.2946899296 0.8529401436 -0.4308723209
0.01214445448 -0.002823702455 -0.06886628723 0.4958380709 -0.4989687518 -0.7107564929
-0.016954072 -0.001852004647 -0.005635915041 0.9961868365 -0.08096886369 0.03249353771
0.01270356305 0.04231226095 -0.04445125707 0.6295886589 -0.002862119988 0.7769233738
0.02043149185 0.01566800594 -0.05749539948 0.9968737802 -0.009464599146 0.07844161992
0.01830327606 0.05085706711 -0.06997050476 0.8701845227 0.1117151567 -0.4798943844
-0.01534477329 0.007472289085 -0.008486474037 0.9264962555 -0.3760086137 -0.01490674467
0.01069128799 0.01630528259 0 0.2264384444 0.2703138092 -0.9357649681
0.02050736809 0.001240634441 -0.0002375779599 0.9281306426 0.07778096643 0.3640379534
-0.01451433325 -0.01438560629 -6.121293455e-05 0.2728088105 0.4335410971 -0.8588465928
0.009054515362 0.05087350464 -0.04214513206 0.4456415415 0.013050236 0.8951163655
0.01790239906 -0.005500923157 -0.05618743515 0.8709932226 -0.4251222587 -0.2462557033
-0.01380682516 -0.01194733095 0 -0.02160369742 -0.007682396742 -0.999737096
0.01599185467 0.01289877415 -0.003089660883 0.5996361663 0.4964288611 0.6276900939
-0.01646189499 -0.004435422421 -0.005060456276 0.9774671622 0.1270127486 0.1685992544
-0.01604066181 0.005892759085 -0.01096820498 0.9422931124 -0.3347294568 0.006315153109
-0.01535906315 0.007450266361 -0.01140616798 0.924146502 -0.382009621 -0.004678930957
-0.01425506592 0.0093524278 -0.01147826258 0.8212527572 -0.5702716611 -0.01827953264
-0.01145393594 0.01258481852 -0.01103965219 0.6750676942 -0.7377518243 0.002419493584
-0.01693846703 -0.002175805092 -0.01614805603 0.9997552717 0.01274721553 -0.01808051793
0.006819390774 0.05435725657 -0.04123231888 0.3305921441 -0.002225427027 0.943771096
-0.00818166554 0.01496504235 -0.0115748601 0.4988918355 -0.8664311527 -0.02009960288
-0.002349342585 0.016893507 -0.008652400017 0.1226289317 -0.99237019 -0.012788712
0.0004301249981 0.01702268346 -0.008618081411 -0.02304101489 -0.9996017061 -0.01629542522
0.007954291344 0.01508430195 -0.008317334175 -0.3727917686 -0.92791227 -0.002261944786
0.01883381176 -0.008262217999 -0.02039884949 0.9050460422 -0.4251206606 0.01280958239
0.004383210182 0.01651968575 -0.005115203857 -0.2194201636 -0.9630767718 0.1560061649
0.01295115121 0.01233888531 0 -0.5911842154 -0.4667440587 -0.6577622725
0.01297603607 0.01493596411 -4.976310581e-05 0.125839825 0.1866541223 -0.9743328882
0.007038410981 -0.01932851156 -0.01758875465 0.374186744 -0.9272006852 0.01682765678
-0.01141412036 -0.01448310248 0 0.3001905016 0.4579944715 -0.8367357569
-0.006910513401 -0.01936824989 -0.001969156146 -0.3691180233 -0.8959385107 0.2470750291
-0.01523063087 -0.007722250938 -0.005649287939 0.7277143065 0.685462568 0.02393650022
0.02055834579 0.005604496479 -0.05299786377 0.9996731824 0.007076774789 0.02456516971
-0.0164355402 -0.004551655054 -0.007857087612 0.9765398891 0.1786753123 0.120187261
0.02041248894 0.002700842142 -0.03515550041 0.9951710541 0.09808952789 -0.003608004578
0.02059485626 0.0001287210882 -0.03242263412 0.9998581954 0.003856165944 0.01639265069
-0.01695069122 -0.001938481927 -0.00846859169 0.9992475767 0.03734070413 -0.01048581606
-0.01679215622 0.00292256093 -0.01148143641 0.9860553394 -0.1664139101 -0.001130592609
0.01290184307 0.02415316518 -0.04459296036 0.6318012553 0.0311825823 0.7745029505
-0.004602656841 -0.0200788269 -0.01739366913 -0.2051540289 -0.9786361219 0.01353385676
-0.01396569316 0.009798638344 -0.01417970467 0.8217236359 -0.5695091985 -0.02072532328
-0.01145196358 0.01258808978 -0.01399012693 0.6758683706 -0.7370062496 0.004871714536
0.02056834793 0.04424322128 -0.05975408554 0.9980461823 0.002965140141 0.06241014351
0.004511249781 0.01648028374 -0.007900038481 -0.2345739723 -0.9603846559 0.1504538609
0.009433346272 0.03982897186 -0.04231581688 0.4696844443 -0.01323488343 0.8827351588
0.007271180948 0.04313370132 -0.04137837219 0.3418067734 -0.0146260349 0.9396564312
0.007764865637 0.01518292713 -0.005603660107 -0.6651249885 -0.7454511841 0.04371820768
0.003806289991 0.03408525721 -0.04039771907 0.1864950828 -0.00583213303 0.9824385835
0.01613279819 0.01259082556 -7.021290064e-05 -0.593979527 -0.4164928101 -0.6882746985
-0.01201940346 -0.01666859436 -0.0004375448227 0.3494813041 0.5089585104 -0.7866537058
0.0007597285807 -0.02054637241 -0.005595397472 -0.000922245833 -0.9997632994 0.02173694271
-0.0094336586 -0.01494327831 0 0.3034207732 0.4798412714 -0.8232181902
-0.007110467672 -0.01931012249 -0.004892663956 -0.3397563738 -0.9357681502 0.09435875913
-0.01694727707 -0.002025815904 -0.01132932568 0.9976597093 0.06796406161 -0.007482697733
-0.017091856 0.0002799057364 -0.0115983572 0.9989866884 -0.0404010154 -0.0198331648
-0.003843779325 -0.02019892693 -0.002694513679 -0.2175496883 -0.9635634416 0.1556201373
0.009872671127 -0.01326855087 -0.05859366989 0.4878284768 -0.7706399839 -0.410045598
-0.01667098554 0.003483349164 -0.01432069556 0.9847040088 -0.1741623279 0.005049622726
0.00426841259 0.02769961739 -0.04047641373 -0.283875548 -0.008319182195 -0.9588250437
0.005809994698 -0.01380838585 -0.0610185585 0.3307512994 -0.8020815895 -0.4972612006
-0.01605454445 0.005859931469 -0.01390040016 0.9446832821 -0.327902843 0.007295339297
-0.006912662029 0.05594591522 -0.04124177933 -0.3334518986 -0.003461780495 0.9427607583
0.01347755766 -0.01552020884 -0.002315277576 -0.5797189071 0.7695274965 -0.2678682904
-0.01537347031 0.007428061962 -0.01434989071 0.9286934881 -0.3708146186 -0.004992369147
0.02052543068 0.003037870407 -0.04695183945 0.9988122758 0.04393157668 0.02107259651
-0.008162825823 0.01497763109 -0.01452163219 0.5043683562 -0.8632011682 -0.02227789441
0.02044682121 -0.002259857416 -0.02300941086 0.9969238173 -0.07747435779 -0.01185859739
-0.004709577878 0.01640434901 -0.01415209325 0.2528496667 -0.9674891225 0.005643041501
0.006700348218 -0.0194242897 -0.005118646145 0.3486004014 -0.9326074333 0.09338702029
0.02019756126 -0.003944723606 -0.03219480133 0.9793904862 -0.2019190533 -0.00479285132
0.01780670357 -0.01030448055 -0.0297231369 0.8646105265 -0.5024422631 0.0006401281664
0.02047246265 -0.001999642193 -0.03221021271 0.9969497539 -0.07803049896 -0.001558634709
0.001268580193 0.01698316701 -0.0114070015 -0.05596625848 -0.9982403521 -0.01959534028
0.01992737961 0.005033963203 -0.0236359539 0.974033235 0.2261316303 -0.01112397473
0.01547452021 0.009964276314 0 -0.5803008739 -0.3463440461 -0.7370866282
-0.01245514107 -0.0163752861 -0.002666467905 0.3001905016 0.4579944715 -0.8367357569
-0.001661821008 -0.0205279808 -0.01163908958 -0.01600156639 -0.9997892177 0.01286351762
0.01537397989 0.04291624959 -0.0469585228 0.74334854 0.001773840727 0.6689019372
0.01788993073 0.06035977173 -0.05040297699 0.8560799368 -0.005159904458 0.5168176827
-0.008077950478 -0.01720603371 0 0.3792780717 0.7844865345 -0.4906414388
-0.01516219044 -0.007884746075 -0.008392771721 0.9347948478 0.3551566647 -0.004726093264
0.0003616869003 -0.02055461502 -0.01720296192 -0.01454381673 -0.9998916703 -0.002263845212
0.00105909054 0.05745831935 -0.04008323034 0.06158060982 0.02666224393 0.9977459362
-0.0164000597 -0.004708133459 -0.01162206602 0.9794768877 0.2004411764 -0.02117454514
0.01889808083 -0.008090345701 -0.01402384631 0.9188056728 -0.3943507775 -0.01684042513
0.01821316433 0.0001538197398 -0.06212798119 0.8905983744 -0.3165381899 -0.3265549109
-0.017093997 0.0002063152194 -0.01450309086 0.9991696928 -0.03985891252 -0.008437535559
-0.002567732096 0.03776822662 -0.04016538239 0.1066605856 -0.001004470767 -0.9942949816
0.01838573551 -0.008169180632 0 0.8462125933 -0.3644262291 0.3887386919
0.01346476746 -0.0155404644 -0.01159610605 0.6520387885 -0.7581024667 0.01122801571
0.0204222126 0.01095845604 -0.06117314148 0.9921393859 -0.05819748098 -0.1107812809
-0.01606769371 0.005825926065 -0.01686216259 0.9437668798 -0.3305939956 0.003418587224
-0.01538802814 0.007405626059 -0.01732435322 0.9247839476 -0.3804744996 -0.003715570138
-0.008502080441 0.04313470459 -0.04190267372 0.3688336416 -0.01364154154 -0.9293953159
0.01045876741 -0.01707882214 -0.04680368805 0.5108004645 -0.8447822441 -0.1594548386
0.000902610891 0.03903245926 -0.04005410957 0.06402294322 -0.0004568649206 0.9979483223
-0.01427629503 0.00932790788 -0.01740738742 0.8254269872 -0.5644483862 0.008264879033
-0.0114499747 0.01259138775 -0.01696522204 0.6677218074 -0.7443342055 0.0106854369
-0.008143789411 0.01499035096 -0.01749920034 0.4936199394 -0.8696597766 -0.00558823551
0.0192626133 0.007164925337 -0.004946588755 0.9313495583 0.3035066174 0.2011758771
-0.005238084316 0.0162328434 -0.01697583294 0.2765269403 -0.9609918737 0.00524118461
-0.002240368366 0.01691727638 -0.01446835423 -0.1013705378 0.9948100883 0.008769395845
0.0005900734216 0.01701895841 -0.01438172086 0.005017250708 -0.9999015573 -0.0131035456
0.02051022434 0.0309505558 -0.05942811203 0.9990526065 -0.0205099429 0.03838270051
0.004683836937 0.01642698193 -0.01164837313 0.2266634529 0.9738299388 0.01670118075
0.01910673523 0.05634736443 -0.05305754852 0.9241771668 0.0009589121109 0.3819628842
0.01667782974 0.007550774574 0 0.8445630969 0.3313744577 0.4205997435
-0.00842047596 -0.0187693634 -0.02029849815 -0.3288196399 -0.9443898582 -0.002332409397
0.01469352818 -0.01359070969 -0.04738538933 0.6942380352 -0.7031176249 -0.1538153311
-0.01093631554 0.04721380234 -0.04317182159 0.4953749096 -0.0100119197 -0.8686215864
0.02054037793 0.0001817232768 -0.01144022592 0.999727238 0.01688548622 0.01613474265
0.02016362953 0.04440885925 -0.05666264534 0.9835774763 0.0126451159 0.1800429095
0.01795538616 0.012975142 -0.04734115982 0.9031798772 0.28713303 0.3190936107
0.01773423767 0.008605126381 0 0.8485200491 0.3709728336 0.3773498152
-0.00677850914 -0.01940662384 -3.914301842e-05 0.3412883515 0.8305807347 -0.4400657955
0.007100811958 0.03639241282 -0.04130876668 0.3513496503 0.007440838397 0.9362147495
-0.005166875362 -0.01786664391 0 0.3537641494 0.8038611195 -0.4781822113
0.0129845403 0.05734042613 -0.0446868515 -0.6215275431 -0.01964520775 -0.78314595
-0.01694383621 -0.002113850832 -0.01421302605 0.9999238802 0.00659444253 -0.01042819333
-0.01680880102 0.002812386513 -0.0173481795 0.9857108972 -0.1684450542 0.0005392745116
0.02012961578 0.05550017738 -0.05653495598 0.9800121155 0.02397533965 0.1974878137
-0.01398427645 0.009778155963 -0.02016158994 0.8218911921 -0.5695909662 -0.007810221423
-0.001990881522 0.04229347356 -0.04014660772 -0.06751946077 0.001264297002 0.9977171563
0.01900846004 0.04812063026 -0.05277885818 0.9282007062 8.681076709e-05 0.3720798859
-0.0112110384 0.01281698284 -0.01976293716 0.674187031 -0.7385255456 -0.007201783573
0.01045127869 -0.0104525795 -0.06240813828 0.4894291147 -0.7272221024 -0.4812558108
-0.002203595161 0.01692529678 -0.01643094444 0.1011215034 -0.9948740683 0.0001726170668
0.0173417263 0.004643260002 0 0.8123317197 0.3216855053 0.4864520664
-0.001942332894 -0.02033155251 -0.04314012146 -0.09833527123 -0.9929150299 -0.06670770451
0.01889993286 0.006233538866 -1.864164323e-05 0.8154772986 0.4113047172 0.4072164106
0.01981187725 0.0006483113617 -0.05685394478 0.9621484284 -0.19950525 -0.1856557482
-0.01023965454 0.05988689041 -0.04279038239 -0.4303863122 0.005675136854 0.9026269524
0.01890139961 0.008127745152 -0.01711838722 0.9521828791 0.305528345 0.0004417341202
-0.007991397858 0.05995619202 -0.0416680603 0.3569445412 0.01278192661 -0.9340381239
0.01506994152 -0.01404409504 -0.005004538059 0.7300817072 -0.6802529934 0.06508890609
0.02052680016 0.0445590477 -0.06228893661 0.9979915283 0.007757737334 -0.06287071594
-0.006069325447 0.0604131279 -0.04091450882 0.2769799296 -0.04418340461 -0.9598593362
0.01842193031 0.009204874992 -0.02896909142 0.9365952826 0.350342504 -0.007028981548
-0.003852332592 -0.02008491135 0 0.1598858008 0.9394486705 -0.3031051407
0.003451424837 0.04004701042 -0.04031011009 0.1419149684 0.001830360628 0.9898771598
0.009599361897 0.0306576252 -0.04239334106 0.4866500259 0.01265280166 0.8735053857
0.02043493271 0.0009938392639 -0.05222158051 0.9909927068 -0.110429207 -0.07575516728
-0.002291616797 -0.01851938248 0 0.1163272472 0.8826699858 -0.4553698143
-0.01709615517 0.0001321219504 -0.01743161583 0.9954918448 -0.0945723215 0.007215471894
0.003988126755 0.03686534309 -0.04041394997 0.19225246 -0.009500993098 0.9812995072
0.01782060051 -0.01028007507 -0.03278411674 0.8662490992 -0.4995674465 0.006698101925
0.01886986923 -0.008191613197 -0.02634947205 0.9090909425 -0.4164578102 -0.01079586426
0.01102808571 0.05680230331 -0.04324052429 0.4990432308 0.001901866571 0.8665750035
-0.01669100062 0.003381866376 -0.02024945005 0.9700371719 -0.2428461542 0.007323294275
-0.004127986431 -0.0201643362 -0.008463214397 -0.1625219767 -0.986699841 0.003167170786
-0.009458352089 -0.01828710747 -0.03124258423 -0.368321977 -0.9296812105 -0.005636319522
0.006227442741 -0.01957926178 -0.002226477861 0.3225304666 -0.8761147585 0.3583253102
-0.0160809536 0.005791635036 -0.01984882355 0.924654403 -0.3806356094 0.01143537834
0.006950262864 -0.0193641332 -0.0234898084 0.3646867989 -0.9311273221 -0.002334259542
0.02039806366 -0.002754641533 -0.005514610767 0.991282821 -0.1202946985 0.05373596865
-0.01540270901 0.007383000374 -0.02032398415 0.8986128956 -0.4383227004 0.0191852587
0.01656343317 -0.01221802711 -0.03855493641 0.8126236524 -0.5827604563 -0.005748916803
0.01611183834 0.01490387964 -0.0453380909 0.7767071593 0.4074808523 0.4802971412
0.018775582 0.0002246952032 0 0.9150979895 0.03387889768 0.4018057862
-0.008124591351 0.0150031786 -0.02050198174 0.5199555278 -0.8541933295 6.981955362e-05
0.02058552742 0.000362216711 -0.03879930496 0.999763633 0.01920769806 0.01018540727
0.000562866807 -0.02055044842 -0.01133621788 -0.01843561769 -0.9998294264 0.001116264124
0.009260274887 0.04528185654 -0.04221220016 0.4440795891 -0.001300186849 0.8959863995
-0.00462599659 0.01642901802 -0.02009327761 -0.2737093384 0.9616620603 -0.01700823054
-0.01132786846 0.05570783997 -0.04341181183 0.485445703 0.008315145446 -0.8742272747
-0.002166591883 0.01693336868 -0.01840581512 -0.1163361061 0.9931958907 -0.005275701298
-0.0001052489504 0.01706700516 -0.01740242004 0.1047816877 -0.994358503 -0.01649137579
0.002190861702 0.01692195511 -0.01613160515 0.04233523555 0.9990155129 0.01325642432
0.01956297684 0.003332052469 0 0.8940593995 0.2437109178 0.3758494095
0.01935037994 0.006930983543 -0.00198913753 0.8642624379 0.4435003066 0.2373982234
0.01378518867 -0.01276368809 0 0.7269935048 -0.6125584275 0.3102460586
0.0006686241962 0.03290428162 -0.0400356369 -0.05635276853 -0.02327397857 -0.9981396132
0.02043021011 -0.002428414583 -0.01704948616 0.9963778104 -0.08502118836 -0.001629881279
0.01929235744 0.01163885832 -0.05002869987 0.9561835394 0.1990820191 0.2146611018
-0.0088263731 0.05547898102 -0.04199221802 -0.4328585045 -0.01432795408 0.9013480043
0.02042298126 0.03136623383 -0.06320045471 0.9906891814 -0.01334992801 -0.135486993
-0.005190734863 0.05663710403 -0.04070834732 -0.2401454279 0.00577697891 0.970719733
-0.002910979271 0.05803944969 -0.04025709534 -0.171828275 0.02774204399 0.98473622
0.00339732933 0.06019512558 -0.04030414963 -0.1855827713 -0.04645466365 -0.9815299278
-0.00085033077 0.05971473312 -0.04006267548 0.03796548855 -0.0415918685 -0.99841311
-0.001201202869 -0.0205425396 -0.0001983428448 0.03651437516 0.9525471868 -0.3021929141
0.02043959427 0.002465635777 -0.02985865402 0.9957299924 0.09227078378 0.002807970326
3.189445287e-05 -0.01968293953 0 -0.003492816794 0.9350702982 -0.3544451123
0.00158220613 -0.0181279068 0 -0.1183415999 0.7269913827 -0.6763717877
0.0164893322 -0.01229437971 -0.01745573616 0.806583365 -0.5909754248 0.01308902746
-0.01608986855 0.00576857996 -0.02185685539 0.9197734829 -0.3922779592 0.01160788029
0.01347382116 -0.01552627206 -0.0050677104 0.6505252753 -0.7559537378 0.07314924781
-0.01541258049 0.007367787361 -0.02234084702 0.881982069 -0.4705625747 0.02604790238
-0.01429820251 0.009303181966 -0.02345045916 0.8103854599 -0.5850939327 -0.03066751316
0.009432716052 -0.01827510707 -0.02330819194 -0.4555404934 0.8900656833 -0.0163076122
-0.01263638306 0.01148357582 -0.02304406357 0.7422819722 -0.6694776026 -0.02858694254
-0.01085071611 0.0131553359 -0.02298426628 -0.6325795185 0.7742397027 0.01990064309
-0.008353881041 0.01487839127 -0.02325671196 -0.5439389773 0.8390641848 -0.01008379067
0.0133724823 0.0363432045 -0.04499699529 0.6461319968 0.006339902044 0.7631993503
0.0107213192 -0.0158290062 0 -0.498874133 0.7712549022 -0.3953359018
-0.005753996372 0.01607455254 -0.02184113121 -0.3638850693 0.9306091157 -0.03942499303
0.003810801506 -0.02023386383 -0.03846570206 0.1816970398 -0.9831632864 -0.01939427613
0.01802948761 0.009954195023 -0.03583316803 0.9232991051 0.3840634461 -0.003745908803
-0.002129354954 0.01694149017 -0.02039315796 -0.1830889722 0.9830537443 -0.00915227547
0.01907143656 -0.002936226606 0 0.9215070826 -0.2183489562 0.3211672928
0.001681641221 0.0540028801 -0.04011820602 0.1092850953 0.005043692797 0.9939976505
0.02019229889 0.003851295471 -0.002702019751 0.9438732361 0.2486990611 0.2173754613
0.01633205223 -0.009629178047 -0.05332656288 0.7900441487 -0.556324873 -0.257551701
-0.01294877148 0.05220471573 -0.04465158844 0.5427613225 -0.007057093823 -0.8398573356
-0.009865373611 0.05130475235 -0.04256021881 -0.4362358298 -0.006852931888 0.8998062781
0.01667350388 0.0006975591183 -0.06586361694 0.8417202762 -0.3448436158 -0.4154393545
-0.005106841326 0.05248096848 -0.040686306 -0.2752623685 -0.0003429285115 0.9613690815
-0.001421875536 0.05088286972 -0.04009504128 -0.02875834284 -0.002228017109 0.9995839103
0.02057008934 0.003117851138 -0.05024608421 0.9999693312 0.006172364428 -0.004820650726
0.01506624222 -0.01397518921 -0.04153711319 0.7294579494 -0.6828992223 -0.03923967693
0.02056685829 0.0004586502314 -0.04098056793 0.9992361021 0.03894199293 -0.003276186574
-0.002142928779 0.05441393661 -0.04015326118 -0.08135653287 0.005290256029 0.9966710228
0.01337661982 -0.01555958509 -0.04160621643 0.6446372741 -0.7633879467 -0.04100765532
-0.001272463322 -0.02054386711 -0.002067502737 0.0610975386 0.9652886424 -0.2539388266
0.01173454523 -0.01687101555 -0.005286751509 0.561352692 -0.8249507646 0.06587405556
0.0008886714876 -0.02054370213 -0.001835205704 -0.07208913806 0.9679071991 -0.2407463605
0.004895387173 -0.01825711441 0 -0.274040738 0.8624689985 -0.4254984143
0.02059880924 1.483583637e-05 -0.02929420948 0.9999766677 0.003156842081 0.006057914395
0.02050628281 0.02406275113 -0.05916496913 0.993285393 -0.006285938657 0.1155188944
0.006843489329 -0.0174411513 0 -0.2926203582 0.7949497478 -0.5314397656
0.007976329327 -0.01516981411 0 -0.3520508744 0.6592955297 -0.6643715725
0.001151558638 0.04526802635 -0.04007144356 0.06195792249 0.006387853421 0.9980583205
0.009876202901 -0.01805147552 -0.02648628553 0.5098182394 -0.8600942903 -0.01797705743
-0.003985033751 -0.02018173409 -0.005561626434 -0.1661777528 -0.9860927316 0.002465592369
-0.01264019203 0.01148374176 -0.02508517075 0.7292407528 -0.6842336012 -0.005683621826
-0.01084676695 0.01315864372 -0.02502239704 -0.6663023736 0.745680579 0.001273214188
0.01782024193 0.02819094944 -0.05033389091 0.8782006144 -0.0146384788 0.4780684007
-0.005151556969 -0.01993990231 -0.02670409679 -0.2816535498 -0.9594972753 0.006021339854
0.01601060534 -0.008838354349 0 0.6771025674 -0.3652716519 0.6388338857
-0.01022762203 -0.01787979507 -0.03818578339 -0.3926000424 -0.9196104732 -0.01348274317
0.01671306801 -0.006435830355 0 0.7370591302 -0.2633465019 0.6224085945
0.01892796707 -0.005593814373 -0.0001788671166 0.8521021625 -0.2275531855 0.4713188436
0.02052520688 -0.0001475541194 -0.001933509409 0.981778414 -0.03411318562 0.1869423345
-0.007624760151 0.04739147186 -0.0415147171 -0.3284517963 -0.00277561219 0.944516656
-0.005015618801 0.04837083054 -0.04065645218 -0.2294997159 0.03392306809 0.9727173823
-0.003469637394 0.04924520874 -0.04030485535 -0.1686314078 0.01427681922 0.9855757813
0.004466581941 0.05756007576 -0.04054439735 0.2165278031 0.02374815209 0.9759875695
0.0004628911912 -0.02055251884 -0.01425167465 -0.0145410267 -0.9997890279 -0.01450717579
0.01152952862 -0.01699266434 -0.04187873077 0.5552242103 -0.8305582019 -0.04357923288
-0.007320652008 -0.01924423027 -0.007853507042 0.2389624637 0.9710280785 -0.001188186417
0.01399229097 -0.01507764578 -0.038367342 0.670258734 -0.7420845135 -0.007987761311
-0.001380348504 -0.02054587555 -0.004897325039 -0.05731148275 -0.9967773429 0.056127735
0.003718511939 -0.02021235275 -0.002327001333 -0.1757385321 0.9601938974 -0.2171258799
0.01587204337 -0.01179151464 -0.000307754159 0.8044455442 -0.4929704558 0.3314324911
0.01988759549 -0.005149911245 -0.002033714771 0.9067910611 -0.2522423652 0.3377924818
-0.005126925349 -0.01958683777 -0.04457932472 -0.207659136 -0.9706827393 -0.1210483491
0.02038993359 -0.002833670497 -0.002708645701 0.9518494943 -0.2093316502 0.2239705346
0.01792165756 0.04512685585 -0.05050293541 0.8582509167 0.0008591881738 0.5132296034
0.02052373981 0.0003354361653 -0.005271915257 0.9983317477 -0.001579413889 0.05771678193
0.02015573502 0.004014528751 -0.005591349602 0.9833305806 0.178313077 0.03557268503
0.01917394829 0.00740126276 -0.007934324741 0.9596953667 0.2810205462 -0.003500820223
-0.005709551334 0.04389358902 -0.04082030487 -0.2532799287 -0.005945625184 0.9673747605
-0.004159893036 0.04475362396 -0.04045592117 -0.1917885875 -0.0100438842 0.9813848675
0.02008498764 0.05269079208 -0.05602313995 0.9677291561 -0.004051107158 0.2519600542
-0.002030519068 0.04626906395 -0.04013518906 -0.1012818367 -0.000482499313 0.9948576565
0.0005311722308 0.04862532234 -0.0400370121 -0.007414060803 -0.01045243991 0.9999178857
0.01728967857 0.05817218018 -0.04948665619 0.8486487758 -0.007268029439 0.5289068264
0.01174636364 -0.01685829163 -0.002530474424 0.5024660647 -0.8262288874 0.2547031203
0.01041308022 0.02850610924 -0.04283906174 -0.4938076076 -0.001639879056 -0.8695696392
0.02047913647 0.0543939991 -0.0626021595 0.9920981397 -0.017958503 -0.1241723531
0.004211659193 0.0510617218 -0.04047683716 0.1924323737 -0.004495225425 0.9812999411
0.007004702806 0.05733564758 -0.04127866554 0.3551382006 0.0007928789007 0.9348134733
0.009823030472 -0.01808166695 -0.03256630325 0.5031673397 -0.8641836247 0.003048125685
0.008440239906 0.0598028183 -0.04184404755 -0.428349431 -0.04854921491 -0.9023080066
-0.007554093838 -0.01915956688 -0.01087293863 0.2890793997 0.9573021345 0.002392470202
0.00985221076 -0.01803555441 -0.002010528073 -0.4478828286 0.8420885063 -0.3004794824
0.01175417233 -0.01684988594 -0.000709410727 0.4678598347 -0.8102708322 0.3529424225
0.01506396961 -0.01404625702 -0.0004349882901 0.7269935048 -0.6125584275 0.3102460586
0.01509350204 -0.01401930809 -0.03214479637 0.7473654836 -0.664390938 -0.005432804805
0.01765819454 -0.01050405645 -0.00186089009 0.8371201147 -0.4667772311 0.2852173384
0.01872154856 -0.008472680449 -0.002388446659 0.8909854638 -0.4041918488 0.2068184052
0.01122070313 0.03014940262 -0.04333601379 0.4872360964 0.01512748535 0.8731392475
-0.004964740276 -0.01998817635 -0.02356045151 -0.2292855266 -0.9733582088 -0.001394471038
0.01908413219 0.007640669584 -0.0109608655 0.9570253717 0.2900033172 -0.0007168588001
-0.005645299673 0.03992221069 -0.04082663345 0.2378235877 -0.002481492442 -0.9713051958
0.01222949648 -0.01655268288 -0.03543384743 0.6021566598 -0.7983769249 -0.001281726426
0.006510802746 0.04841304016 -0.04107813263 0.3539575763 0.003275276895 0.935255744
0.003423941731 0.04795764923 -0.04031113052 0.1307241637 0.007256524357 0.991392221
-0.007426896572 -0.01862957191 -0.04665248108 -0.26189219 -0.958022231 -0.1166442698
0.006745796442 0.05082739067 -0.04117755127 0.3234025959 0.01057508614 0.9462023719
0.009329108238 0.05738425636 -0.04226627159 0.4558288598 0.01891526774 0.88986643
0.01573920568 0.03036246808 -0.04738063049 0.7583558003 0.0001304717554 0.6518408265
0.0106288147 0.06004167557 -0.04301531601 0.492823491 0.02471960255 0.8697781027
-0.001533485711 -0.02054182625 -0.008722830534 -0.06932699638 -0.9975490592 0.0094679526
-0.002979946375 -0.02035010719 -0.04060353088 0.1223766654 0.9917723857 0.03756975883
0.003947984219 -0.02018273163 -0.005597551505 0.1748571867 -0.982940841 0.05702865318
0.01506664848 -0.01404570103 -0.002252628565 0.7370895245 -0.6326946316 0.2374795487
-0.002709845901 -0.02040451145 -0.03516594696 0.110525074 0.9938730269 0.0007837953874
0.02047947502 0.001945828199 -0.01759773064 0.997843225 0.06381204556 0.01539224469
0.01643369961 -0.01234580564 -0.00243479538 0.7950350015 -0.5701636038 0.2069608933
0.02026485252 0.01369733334 -0.06312973022 0.9913988244 -0.04152155533 -0.1241141867
0.01984077978 -0.005367442727 -0.005315454364 0.9645439027 -0.2528620742 0.07560311647
0.02051470566 0.0008346467614 -0.008665554206 0.9989717093 0.0440326351 0.01080050776
-0.001264451981 0.03888404846 -0.04006903076 -0.02965703505 0.01120672508 0.9994973084
0.001761635721 0.04195484352 -0.04010992622 0.1209143638 0.01706158349 0.9925163067
0.01784555626 0.009218728065 -0.06865467072 0.8953905529 -0.1814426057 -0.4066378471
0.02001578617 0.05840974426 -0.05603573799 0.9720630302 0.05560441608 0.2280386244
0.0193355999 0.02415170956 -0.05356043053 0.9405515925 0.006568874957 0.3395873257
0.006800772349 0.04630980428 -0.04121737925 0.3315710324 -0.009388279457 0.9433835438
0.02057958221 0.0006749688387 -0.04754045486 0.9994604164 -0.03055113891 -0.01206250606
0.02056460381 0.03635613632 -0.06170194626 0.9998496746 -0.005118905522 -0.0165657754
0.009737306595 0.0541671505 -0.04249097443 -0.4814628173 0.001807460439 -0.8764646534
0.01320854187 0.05987311172 -0.04485865784 -0.6223431942 -0.04576168075 -0.7814056675
-0.007833901405 -0.01903576851 -0.01396910191 -0.3031206815 -0.9529476445 -0.002939255692
0.02056414604 0.05534026718 -0.05964177704 0.9966996212 -0.00167573613 0.08116068615
-0.002060911417 -0.02048096371 -0.02059817505 -0.05293063205 -0.9985949648 -0.002538597602
0.0006618830562 -0.02054839706 -0.008448738098 -0.006726847951 -0.9999415562 0.008463670196
0.003266951561 -0.02029129855 -0.008399721464 0.1365964122 -0.9905749425 0.01013427185
0.0204746418 0.002068025112 -0.02060592175 0.9976626089 0.06830140387 0.002058408039
0.01644505072 -0.01233755422 -0.005188503981 0.7976929191 -0.6006725347 0.05365177307
0.01767800236 -0.0104779501 -0.005536435366 0.8574182781 -0.5135962487 0.03244672078
0.01864013354 -0.00867907238 -0.005691843987 0.8994188943 -0.4365999736 0.02064256998
0.01509617329 -0.01401649761 -0.03522217941 0.7477610648 -0.6639598515 -0.0032719439
0.0204059763 -0.002674344182 -0.008353805304 0.9866483457 -0.1628644174 0.0004727385181
0.02008134079 0.004346642494 -0.0114699564 0.9792990234 0.2020138963 -0.01279876931
0.01899337196 0.007882594109 -0.0140192318 0.9545948097 0.2979072556 -0.0001279498867
-0.003713322878 -0.01793393326 -0.05345286942 0.07741597314 0.9487127754 0.3065140077
-0.00185772419 0.0344269371 -0.0401082077 0.006322865896 0.003831549445 -0.9999726699
2.790862322e-05 0.03615776634 -0.04003231812 0.01917317769 0.00332865668 0.9998106367
0.005009849548 0.04219396973 -0.04064622498 0.2683165783 -0.003298883449 0.963325143
0.00947909832 0.04769987679 -0.04234630394 0.4859168104 0.006790401422 0.8739786861
0.00663267835 0.03949919637 -0.04114856593 0.3085065425 0.006278386679 0.9512015008
0.01596355724 0.05960016823 -0.04766448402 0.7893000085 0.02994505098 0.6132770911
0.02050938034 0.04833590126 -0.05886356735 0.9982436613 0.02289395163 0.05463936039
0.0123218991 0.05441065725 -0.04416104635 0.6262993111 -0.008082966429 0.779540787
-0.008125555515 -0.01890330791 -0.01711617374 -0.316508914 -0.9485855178 -0.002760949921
0.02015984344 0.03711577988 -0.0647614975 0.9873132178 0.006737768763 -0.158641774
-0.009034675598 -0.01848521996 -0.02680429077 0.3517657332 0.9360839769 0.002767161346
0.006909531593 -0.0193585186 -0.008449411154 0.3748296999 -0.9270618657 -0.007680712122
0.01886234283 -0.008159928004 -0.00833745114 0.9154001522 -0.4025435311 0.001125617428
0.01979315313 -0.005588981469 -0.008632432461 0.9464727533 -0.3227524188 0.004494820593
0.0200434885 0.004515622377 -0.01446100569 0.9796948236 0.2001848765 -0.01113857185
-0.001926317453 -0.02049682045 -0.01757670784 -0.03136675723 -0.9993107491 -0.01985329464
0.02052524567 0.02468852806 -0.06223312378 0.9991375123 -0.002574448215 -0.04144398247
0.01428314304 0.01687082672 -0.04441362 0.7289493212 0.2234073997 0.6470873363
0.01096153355 0.04870044327 -0.04318881989 0.4896969514 -0.002062457419 0.8718902695
0.02045558167 0.002326900959 -0.02673434448 0.9968052358 0.07931645041 0.009392687122
0.0126732254 0.05127992121 -0.04442635727 0.6278123412 -0.0001943776585 0.778364713
0.01575524871 0.05703025055 -0.04744591904 0.7576931295 0.01410411043 0.6524585777
-0.001793410778 -0.02051247787 -0.01459311533 -0.04988250907 -0.9987005051 -0.01044205047
-0.001096812844 -0.02013296509 -0.04594047165 -0.03398840064 -0.9901711623 -0.1356681906
0.003813124339 -0.02020954323 -0.01127973906 0.1420810413 -0.9898404065 0.005380280115
0.009798531055 -0.01807434845 -0.008481409073 0.5000762619 -0.8659028569 0.0116608189
0.01585954905 0.05138247299 -0.04751523781 0.7550215414 0.007169531815 0.6556607887
0.01172261906 -0.01688385582 -0.008068202019 0.5716360515 -0.8204246401 -0.01164622213
0.001850095868 0.03034370613 -0.04010280228 -0.1362599993 -0.03454750742 -0.9900705441
0.02049296761 -0.001723472953 -0.04174700165 0.9966241988 -0.08171524269 -0.007926253337
0.02022010708 -0.003707368016 -0.04170347404 0.9787542866 -0.2045972016 -0.01341758371
0.01346878123 -0.01553444862 -0.008779652119 0.6519353841 -0.7582168261 0.009354126358
0.02048120499 -0.001910929799 -0.0353469429 0.9972941939 -0.07351344247 0.0002541029418
0.0202115612 -0.003873690724 -0.03531905174 0.9806460741 -0.1957888369 -9.312504822e-05
0.01779206181 -0.01032761669 -0.0267021389 0.867592828 -0.4970528634 -0.01487063394
0.01507316446 -0.01404070377 -0.008717161179 0.732718659 -0.6803849424 0.01413141412
0.0176930275 -0.0104581461 -0.008324608803 0.8579666028 -0.5136050881 0.01015489823
0.01507808399 -0.01403552914 -0.01438399839 0.7329156128 -0.6803137621 0.002808842485
0.01994667308 -0.004966340542 -0.01140767129 0.9644593821 -0.2636651739 0.0172851488
0.003675347646 -0.02023693466 -0.0170848306 0.145901272 -0.9892987832 0.0008581854589
0.0006640378684 -0.02053423055 -0.02925658353 0.03492771618 -0.9993896092 -0.0006809915551
0.02041396332 -0.002593284607 -0.01121994209 0.9942945558 -0.1066544263 -0.001780330475
0.02052721786 0.02068666458 -0.0596044178 0.9982438629 0.01278070824 0.05784326882
0.02051463954 0.001053978811 -0.01449267387 0.9982688691 0.05861185096 0.004890379731
0.0199665184 0.004859239101 -0.02054323006 0.9761971873 0.2166962939 -0.009042546841
0.003743664265 0.03077927685 -0.04036718559 0.2111853541 0.006557886988 0.977424033
0.009666513443 0.04218452454 -0.04243045425 0.469176199 0.003278905353 0.88309849
0.01346003151 -0.01554588819 -0.01444653702 0.6530092791 -0.757344701 0.002808066293
0.02046975899 0.002191464663 -0.0236446991 0.9972514981 0.07407522109 0.001520254024
-0.002473842859 -0.02043231583 -0.02986797142 -0.0929867306 -0.9956039589 0.01123499197
0.01649975634 -0.01228402138 -0.0203704958 0.8056973755 -0.5923270195 0.0006642112876
0.01050813961 0.04387756348 -0.04291914368 0.5099904343 0.00299634668 0.8601748536
0.01086914301 0.03693548775 -0.04312565613 0.4986495291 -0.003673216352 0.8667959129
0.006822360992 -0.01939439344 -0.01415120649 0.3548209518 -0.9348277589 -0.01411217141
0.01134877872 0.0455854454 -0.0434172821 0.5462534746 -0.01070037465 0.8375515766
0.01661905416 -0.01212395573 -0.01111842155 0.8062010948 -0.5914778988 -0.01391725231
0.01301388041 0.0481909167 -0.04469965744 0.6287836342 0.01568051988 0.7774221907
0.0151893851 0.053951032 -0.04675936127 0.7522807851 -0.003039638013 0.6588356252
0.01223431015 0.01909321213 -0.04374674606 0.6584949847 0.185349975 0.7294036893
0.003125137568 -0.02032006137 -0.01414629904 0.1398258391 -0.9901731102 0.002438538846
0.01833298397 0.03936646271 -0.05128765297 0.8987250482 -0.01123300835 0.4383686886
0.00686620307 -0.01937634945 -0.01128351164 0.3516087415 -0.9361421623 0.003024059425
0.0117105546 -0.01689684391 -0.0108818779 0.555173638 -0.8316931243 -0.008293289438
0.02042204762 -0.002511249542 -0.01412057734 0.9896571905 -0.1432305463 -0.007978463582
0.006442758083 -0.019535779 -0.03827435493 0.2903586293 -0.9567989691 -0.01508638485
0.01770822716 -0.01043811321 -0.01114518404 0.8710890183 -0.4911236719 -0.001208718293
0.01508058167 -0.01403290081 -0.01726127815 0.7330526723 -0.6801714399 -0.0007694113168
0.01320107587 -0.01503735797 -0.04705555216 0.6445979404 -0.7493732213 -0.151437348
0.01867419052 -0.008615710894 -0.01131852182 0.9009027526 -0.4340070978 -0.00347409599
0.02000525093 0.004686326504 -0.01748256874 0.9788778262 0.2044438496 -0.0009559021086
0.01880843544 0.008375542641 -0.02025100327 0.9492663385 0.3144731213 -0.0002731821426
0.002577224493 -0.01516511917 -0.06003842926 -0.2226309187 0.8709851485 0.4379729958
0.006949928761 0.03357457161 -0.04123929214 0.3640700131 -0.003100940765 0.9313664208
0.009215718269 0.03747389984 -0.04218840027 0.4552970589 -0.01059303521 0.8902765726
0.01090128422 0.04080338669 -0.04314108658 0.5115424054 -0.006204939443 0.8592356291
0.01334106382 0.04514663569 -0.0449851532 0.6286741973 0.01612921935 0.7775015125
0.01565269407 0.04888468679 -0.04730568059 0.7630416336 0.0004339103437 0.6463491913
-0.008722462654 -0.01863101864 -0.02352912712 0.3417773018 0.9397713192 0.0042595257
0.01507560921 -0.01403813171 -0.01153395748 0.732560411 -0.6805085565 0.01622802285
0.01982684771 -0.005481516361 -0.01435447788 0.956578047 -0.2910368964 -0.01599890332
0.0201907196 0.02086320305 -0.05653068924 0.9780413217 0.01922643715 0.2075223293
0.02058487606 -0.0003953540474 -0.01716631985 0.9994914395 -0.02784386411 0.01554289489
0.01508566284 -0.01402755547 -0.02311419296 0.7373749789 -0.6754836194 0.0001426123721
0.02058936119 0.02839963341 -0.06116873169 0.9997704215 -0.01166099763 0.01797569079
0.02059021759 0.0002448392585 -0.0355937748 0.9998763195 -0.01045277557 0.01175096928
0.01868566036 0.008659579277 -0.02346176624 0.944735719 0.3277925136 -0.005146776058
0.007238687515 0.02778930982 -0.04135817464 0.3718774501 0.004820634824 0.9282693163
0.009193187714 0.03364582634 -0.0421820755 0.4516049955 0.01078693058 0.8921527729
0.01304501311 0.03930599721 -0.04471748225 0.6266935143 -0.002549348378 0.7792616634
0.01693181992 0.0529802742 -0.04894896317 0.8505885108 0.005467718169 0.5258034703
0.01791206455 0.05472809982 -0.05052967262 0.8610862815 -0.009458062038 0.5083708891
0.01808994865 0.05733821869 -0.05081267548 0.8901201138 0.02070707338 0.4552553131
0.01893443584 0.05933205223 -0.05262381744 0.9149966036 0.01474903252 0.4031918669
0.009748316765 -0.01810534191 -0.01415904999 0.5022419564 -0.8646841659 -0.008620357173
0.01169427872 -0.01691436577 -0.01467762613 0.5553456406 -0.8315998282 0.005739788729
0.01976527596 -0.005780501842 -0.02929124069 0.9616105224 -0.2737173741 0.01959597866
0.01647903395 -0.01230461454 -0.01457588792 0.804740991 -0.5935611887 0.008777960183
0.01498185444 -0.01388650894 -0.04377433014 0.7229759175 -0.6882362166 -0.06030532985
0.01772356987 -0.01041789055 -0.0139923048 0.8594953915 -0.5109621016 -0.01361626981
0.0199808712 -0.004850616932 -0.01719551468 0.9661865475 -0.2577469952 -0.00707402849
0.007166227102 0.02455116463 -0.04131745338 -0.3843266199 -0.00243456339 -0.9231939786
0.01006949425 -0.01672606468 -0.04946706963 0.5163871097 -0.8296282275 -0.2122766051
0.01084692383 0.03310120392 -0.04309883118 0.4973140346 0.004384511545 0.8675595237
0.01273999659 0.03359330241 -0.04447664515 0.6288731191 -0.002166837136 0.7775049227
0.01717804146 0.04997121048 -0.04930268097 0.8592229903 0.01054153937 0.5114926479
0.01813034153 0.05173228073 -0.05091075897 0.8783664118 -0.003088671482 0.4779779355
0.001292654276 -0.02050324154 -0.02059051609 0.08460206096 -0.9964022908 0.004996610461
0.008669915199 -0.01649611092 -0.05275764847 0.4028826739 -0.8672078544 -0.2926364439
0.003305459499 -0.02029753399 -0.01953167057 0.1289606582 -0.9915976125 -0.01016481698
0.01773909664 -0.01039742708 -0.0168734169 0.8729885075 -0.4876524359 -0.009282643654
0.01881577158 -0.00829657948 -0.0174747858 0.9015755594 -0.4325094902 0.009851473861
0.0205944252 -0.0003014324307 -0.02013736725 0.9998550186 -0.01696046413 0.001511409703
0.01854640198 0.008964219093 -0.02672784424 0.9400164803 0.3410676961 -0.006468646945
0.009357597351 0.02465672016 -0.04227090073 0.4999269926 -0.01072553821 0.8660011345
0.009579609871 0.02690575409 -0.04238278961 0.4514651785 0.01528934104 0.8921577375
-0.002334638953 -0.02044871521 -0.0267430172 -0.09206224614 -0.9957135098 0.008896589698
0.01307515208 0.03067431068 -0.04474624888 0.6288522721 -0.007575429906 0.7774878988
0.01882304637 -0.008242211819 -0.04142490896 0.9127893391 -0.4077779581 -0.02308157961
0.01570610118 0.03947083759 -0.04732406998 0.7687677855 0.01138814158 0.6394266198
0.01770475006 0.04805794525 -0.05012046814 0.8653889182 0.007034082613 0.5010514364
-0.009245578766 -0.0183866024 -0.02901363945 0.3590526142 0.9333033941 0.00509851714
0.02051880646 0.003307944059 -0.05371286011 0.9967760662 -0.05796430703 -0.05547623758
-0.002196888924 -0.02046494293 -0.02365069771 -0.08113563344 -0.9966969975 -0.003479103912
0.006458048344 -0.01952129173 -0.02041140683 0.3275783162 -0.9445980867 0.02066159018
0.0153197813 -0.008539779902 -0.05810600471 0.7318819255 -0.5817577462 -0.3548334424
0.01168192673 -0.0169276638 -0.01755837631 0.575143971 -0.8179459122 0.013187014
0.01596199226 -0.003335893154 -0.06354336166 0.8278944346 -0.409957299 -0.3827869095
0.01345525026 -0.01555136347 -0.01732420158 0.6531025971 -0.7572680196 0.001464264535
0.01987687492 0.0117197094 -0.06435063171 0.9658836116 -0.09745699762 -0.239939539
0.01985873286 -0.005368966579 -0.02020450719 0.9695282506 -0.2449624379 -0.002894024885
0.01166942501 -0.01694112301 -0.02047403526 0.5523441059 -0.8335862507 0.00706762487
0.009760872364 0.02175279903 -0.04247962379 -0.5131723335 -0.01724739789 -0.858112279
0.01079580116 0.025587183 -0.04306639099 0.5106072324 -0.003662978192 0.8598062787
0.01892966557 -0.003116119742 -0.05600553513 0.9277592005 -0.3167675852 -0.197284472
0.01546179422 0.03322283936 -0.04706168747 0.764842877 0.01250746934 0.6440954406
0.01601849333 0.03608333079 -0.04771138382 0.7694809884 0.01491586412 0.6384955172
0.02016905975 0.05931137848 -0.0646282196 0.9930981823 -0.01283144067 -0.1165819645
0.01988991483 -0.005252344926 -0.02618763987 0.9686611157 -0.2483852869 -0.0006262414364
0.01707356453 0.0419850235 -0.04912973404 0.8602178937 0.01173777336 0.5097915261
0.004162459373 -0.02016547775 -0.02303423977 0.236808349 -0.9715276046 -0.007477929135
0.01345041108 -0.01555690551 -0.02023673773 0.650951781 -0.7591033353 -0.004889296534
0.01784410095 -0.01023880291 -0.03796051407 0.8665784684 -0.498970888 -0.008355303343
0.01508310986 -0.01403024101 -0.02017344093 0.7332035046 -0.6800045823 -0.00252763123
