# .PCD v0.7 - Point Cloud Data file format
VERSION 0.7
FIELDS x y z normal_x normal_y normal_z
SIZE 4 4 4 4 4 4
TYPE F F F F F F
COUNT 1 1 1 1 1 1
WIDTH 563
HEIGHT 1
VIEWPOINT 0 0 0 1 0 0 0
POINTS 563
DATA ascii
-0.01695519447 -0.001823291302 -0.004695373535 0.9924995718 0.122246804 -0.0005646963305
0.02034842491 0.01321194267 -0.05593066025 0.9894054408 0.0576376537 0.1332470437
0.01509438801 -0.01401837635 -0.03316529083 0.7319950444 -0.6812990914 -0.00384747887
0.01003939629 -0.01795005798 -0.007174000104 0.5019106995 -0.8649134819 0.003212252507
0.02055459785 0.02573018456 -0.05945768738 0.9972560915 -0.007910688705 0.07360508739
-0.01690954399 0.002407499313 -0.006759829044 0.9839215037 -0.1785324147 -0.004965020491
-0.01651495171 0.004203900337 -0.007451373577 0.9679087782 -0.2511854301 -0.007647012145
-0.0160239048 0.005922473431 -0.008056927681 0.9544088379 -0.2983828591 -0.008452187191
0.02018832397 -0.00399158597 -0.03013365746 0.9775787769 -0.2105293657 -0.00413776416
0.006164596081 -0.01960314751 -0.005931866169 0.262425691 -0.9649465974 -0.003289518244
-0.001370024323 0.04683315659 -0.04008636093 -0.0772207727 0.002796767676 0.9970100954
0.01896757889 0.03478453827 -0.05259295273 0.9200175987 0.002570633659 0.3918686132
-0.01534477329 0.007472289085 -0.008486474037 0.9070716217 -0.4209741756 -0.001347797275
-0.0140975008 0.009590512753 -0.008916152477 0.8262802851 -0.563256884 -0.001604116095
0.01910686874 0.01684865189 -0.05238682175 0.9300257548 0.1052218039 0.3521086018
-0.01261039162 0.01148244286 -0.009115876198 0.7253877835 -0.6883338241 -0.003018305558
0.01400325108 -0.0150442915 -0.01346752644 0.6810123595 -0.7322706545 -0.001361868422
0.02015573502 0.004014528751 -0.005591349602 0.9778809753 0.209157341 0.001415964639
-0.01151299667 0.01264110756 -0.0091460886 -0.6707437132 0.7416888276 0.0007444310609
0.002035487652 -0.01888302994 -0.05122024918 0.1453978983 -0.9557069081 -0.2558979426
0.01840565109 -0.009208057404 -0.001246675014 0.8145957137 -0.356612326 0.4574510599
-0.008199753761 0.0149519434 -0.008651562214 0.480479435 -0.8770037104 -0.002001140278
-0.004247696877 0.01656138992 -0.007495866776 0.2089536853 -0.9779200526 -0.003275375048
0.01221107006 0.055450737 -0.04406266022 0.6223769222 -0.004265751224 0.782706056
-0.01653769112 0.004114104271 -0.01326053333 0.9690250641 -0.2469493834 0.002535205859
-0.002385230064 0.01688567924 -0.006737080574 0.1699682863 -0.9854465522 0.002423706647
0.01585954905 0.05138247299 -0.04751523781 0.7610736075 -0.00181047813 0.6486629989
-0.008838275909 0.01461156559 -0.02472818375 -0.5799563271 0.8144852835 0.0162598171
0.01968293953 -3.189445287e-05 0 -0.6817961826 0.01180573613 -0.7314469153
-0.0003903994858 0.01705011368 -0.005834153175 0.04542140263 -0.9989674637 -0.0009500287391
0.001801593304 0.01697894859 -0.004717785358 -0.1076523074 -0.9941841763 0.002967209793
-0.01692990112 0.002252138615 -0.01448083591 0.9850077794 -0.1724831446 0.003039616305
0.00429848814 0.0165457592 -0.003272518158 -0.296777375 -0.9544661535 -0.03029111162
-0.017091856 0.0002799057364 -0.0115983572 0.9991278217 -0.04165776531 -0.002868191307
0.007452250004 0.01534569168 -0.001125179768 0.1197290658 0.896036937 -0.4275310027
0.02056694412 0.05841427231 -0.06150276947 0.9981806616 0.03083849948 -0.05181074931
0.02053862381 -0.00085029006 -0.002775205374 0.9933500883 -0.03770176901 0.108785011
0.005698560238 -0.0197802639 -0.0334088707 0.272792212 -0.9620712261 0.001834408967
0.005575719833 0.01978350639 -0.004238075733 0.9339653122 -0.3541318668 0.04795223086
0.009504632632 -0.01823076439 -0.01550469685 0.4560020559 -0.8899772053 0.00164288064
0.01960266876 0.04339542389 -0.0667937851 0.8830750592 0.1007991158 -0.4582771848
-0.01555213165 -0.01344597149 -0.0001224258691 0.02415463667 0.01480318251 -0.9995986291
0.02051833534 0.02829946136 -0.05886004639 0.9949537385 -0.0009045657685 0.100330653
0.001185225606 0.04130432129 -0.04006595993 0.04833629227 0.001267386806 0.9988303142
-0.01434446144 -0.01248475361 0 0.01667791437 0.01183835471 -0.9997908284
-0.01693846703 -0.002175805092 -0.01614805603 0.997841661 0.0656415 -0.001792501677
-0.01326918888 -0.01140990829 0 0.01667791437 0.01183835471 -0.9997908284
-0.01529609489 -0.007563153744 -0.00292343998 0.9606974019 0.1880237626 0.2042243046
0.005626444817 -0.0198058033 -0.03757826233 0.2627110462 -0.9648744963 0.0003354195194
-0.01646189499 -0.004435422421 -0.005060456276 0.9561290396 0.289149965 0.04700592964
0.01167361259 -0.01693661499 -0.01949741936 0.580119481 -0.814531212 -0.0005406843037
-0.008027797699 -0.01894770622 -0.01606132507 -0.3125874197 -0.9498574462 -0.007741892059
-0.01695294952 -0.001880717993 -0.006576456547 0.9919571625 0.1263038962 0.008265201214
0.01684768486 0.01915197754 -0.04862246704 0.8336617687 0.1096002438 0.5412909032
0.01969466591 -0.006036225319 -0.01538798332 0.9593239695 -0.2822857025 -0.003507652937
-0.0170798378 0.0003684619665 -0.007759144783 0.9983249382 -0.05545559727 -0.01649225298
-0.01691523933 0.002369618416 -0.008673307419 0.9841424537 -0.1773705135 -0.001825331155
0.02052543068 0.003037870407 -0.04695183945 0.9959920561 0.084391711 0.02962875684
-0.01652248573 0.004174149513 -0.00937604332 0.9681503725 -0.2503417785 -0.003721587294
-0.004722404957 -0.0200488472 -0.01943314362 0.2363378311 0.9715742651 -0.01370682362
0.01933426094 0.04780579758 -0.05353089905 0.945753568 -0.006270884164 0.3248243597
0.01174636364 -0.01685829163 -0.002530474424 0.5898479393 -0.7928106111 0.1533973384
-0.01603547287 0.005903103828 -0.009994235992 0.9543562359 -0.2986146744 -0.005783699311
0.001733986616 0.04592029953 -0.04011255264 0.0773921408 0.002271604622 0.9969981426
-0.01150928688 0.01264436913 -0.0130598402 -0.6694005832 0.7429012971 0.0007224175094
-0.01535428047 0.00745763731 -0.01042896271 0.9075647448 -0.4199103858 -0.001225492465
-0.01410390997 0.009583049774 -0.01086453629 0.8266821716 -0.5626668774 -0.001603836697
0.01006339931 0.03912611771 -0.04265458298 0.4882126064 0.005023767694 0.8727102685
-0.01261403465 0.01148260117 -0.01106846619 0.7252443031 -0.6884848305 -0.003055986622
0.02042165947 0.05310012436 -0.06300943375 0.9967392859 -0.01161475767 -0.07984919186
0.01377272892 0.05922874069 -0.0453085022 -0.6701930153 -0.04192166686 -0.7410019542
-0.01023662567 0.01362912083 -0.01095353508 0.6148780939 -0.7886191213 -0.002193431607
0.02055061913 0.03615056229 -0.05928026962 0.996494257 -0.007025444448 0.08336569392
-0.008187919378 0.01496086359 -0.01059664536 0.4799922144 -0.8772706732 -0.001907885234
-0.005881901264 0.01601322746 -0.009972612381 0.3274877437 -0.9448542958 -0.001461981485
-0.002349342585 0.016893507 -0.008652400017 0.1679533932 -0.9857920749 0.002375449398
0.02006552887 -0.004456526756 -0.008487370491 0.9756469065 -0.2193455524 -0.0008015538558
-0.0003435854614 0.01705288696 -0.007733350754 0.04891272364 -0.9987809324 -0.006647899469
0.01790277863 0.02304826546 -0.05041078186 0.8630573198 -0.008674470422 0.5050315003
-0.01263638306 0.01148357582 -0.02304406357 0.7260562585 -0.6876215206 -0.004353605291
0.001865928888 0.01696914482 -0.006591876984 -0.1127556394 -0.9935516859 0.01188331999
0.007576773167 0.01528085804 -0.00290907836 -0.2444860992 -0.9352494217 0.2559981768
0.004319878578 -0.02013486481 -0.01612636185 0.2089029849 -0.9778834961 0.01016912253
0.02054304123 0.008084149361 -0.05465257645 0.9982694629 0.03384913845 0.04808653852
0.01194733095 0.01380682516 0 -0.01444538941 -0.01922807598 -0.9997107641
0.002480834961 -0.02042208481 -0.01509532833 0.1499585818 -0.988691123 0.00151230422
0.01346731853 0.01552746677 -9.952621162e-05 -0.01444538941 -0.01922807598 -0.9997107641
-0.003985033751 -0.02018173409 -0.005561626434 -0.2083236893 -0.9780408388 0.006112126063
-0.01347653484 -0.01532524109 0 0.1762723349 0.3305214735 -0.9271912529
0.005520039558 0.03901691055 -0.04077068329 0.2527905022 0.01161843321 0.9674512773
0.0205944252 -0.0003014324307 -0.02013736725 0.9993894189 -0.03467861395 -0.004264175501
-0.005709551334 0.04389358902 -0.04082030487 0.2536934615 -0.006256863803 -0.9672644309
-0.01240783787 -0.0142560873 0 0.1666426572 0.3277298872 -0.9299587872
0.01979338646 0.005632146358 -0.03422415161 0.9786947826 0.2053140865 0.001627384619
0.00576815176 -0.0197538147 -0.02930582047 0.2613145563 -0.9652363901 -0.005780481969
0.0200308075 0.004572234154 -0.0154630661 0.970500296 0.2408336593 -0.01132801681
0.02054122353 0.0181245079 -0.05904455185 0.996946854 0.0004978454018 0.07808151177
-0.01644435883 -0.004512762547 -0.006921304703 0.9592290559 0.2826179006 -0.002596258649
0.01701663971 -0.009212643623 -0.05204067612 0.8251189369 -0.5201641407 -0.2204722359
-0.007177447796 -0.01929065132 -0.005871972561 -0.2721425996 -0.9622559505 -0.001375229462
-0.01695069122 -0.001938481927 -0.00846859169 0.9914749248 0.1301930553 0.005219364188
-0.005215754509 -0.01992232895 -0.02775936699 -0.1810761612 -0.9834678057 -0.001580787202
0.01964043236 -0.006204658508 -0.005889303684 0.9562483951 -0.2924933457 0.006053885205
-0.01708603859 0.0003245101869 -0.009673175812 0.9989788658 -0.04461014856 -0.007152641703
0.02040332603 -0.00270123601 -0.007402952671 0.9867000113 -0.1624883041 0.004542993015
-0.01692097092 0.002331509829 -0.01059828281 0.9843531669 -0.1761897856 0.002449961207
0.02029871559 0.01827139473 -0.05703128815 0.9837800261 0.01405399032 0.1788276981
-0.01653006554 0.004144218445 -0.01131236935 0.9684582719 -0.2491646119 0.002360461872
0.01274573898 0.03358634186 -0.04447187424 0.6215396187 -0.0117436205 0.7832947017
0.01907372665 -0.007659904003 -0.009122781754 0.9245096236 -0.3811306036 0.004628049353
0.01818547058 0.04620735931 -0.05099152374 0.8823523959 0.0125682619 0.4704213944
-0.01150741482 0.01264601517 -0.01503492928 -0.6687283146 0.7435065133 0.0007113247913
-0.01604585075 0.005882414341 -0.01194217396 0.9549887835 -0.2965900731 -0.005545437342
-0.01536384583 0.007442895412 -0.01238337326 0.9076206034 -0.4197297942 0.007193063011
-0.01411035824 0.009575541019 -0.01282491541 0.8270825218 -0.5620781841 -0.00161774739
0.00398035717 0.040748806 -0.04040916443 0.1797659767 0.002010894756 0.9837073497
-0.01067920113 -0.01757668877 -0.04076180649 0 0 1
-0.01261770153 0.01148276138 -0.01303312111 0.72509951 -0.6886371476 -0.0030950949
-0.01412354994 0.009560551643 -0.01678258228 0.8254886795 -0.5643865988 0.006017231159
-0.01023088264 0.01363385391 -0.01291473007 0.6144840827 -0.7889262931 -0.002148500128
0.01847378349 -0.009096345901 -0.01241957569 0.8964100308 -0.4432251266 -0.000737460179
-0.00586091423 0.01602328873 -0.01192004108 0.3260721149 -0.9453439665 -0.001326953972
0.01567769432 0.04885109711 -0.04727370453 0.7599111718 0.01472201735 0.6498601951
-0.002313238621 0.01690138245 -0.01057926559 0.1659885672 -0.986124811 0.002377539414
-0.006912662029 0.05594591522 -0.04124177933 0.4183341192 -0.4210919389 -0.8047845325
0.01986959457 0.02441864014 -0.06595310211 0.9791446255 -0.03721658447 -0.1997266336
-0.0002964928448 0.01705567741 -0.00964385128 0.04418659099 -0.9990121399 -0.004721183917
0.01771331787 -0.01043140411 -0.0120897646 0.8597407549 -0.5106604226 0.008471551024
-1.901139319e-05 -0.02056249809 -0.02830476379 -0.005155893341 -0.9999821003 0.003035759699
0.0169403553 0.01170511627 -0.0001404258013 -0.4857490809 -0.4448628791 -0.7524259759
0.01830327606 0.05085706711 -0.06997050476 0 0 1
0.0019304533 0.01695948601 -0.008477042198 -0.117876813 -0.9929908955 0.008610367518
0.01557947159 -0.0122612381 -0.04876379395 0.7615382831 -0.6281163646 -0.1597788343
0.009215718269 0.03747389984 -0.04218840027 0.4709284328 0.002601139672 0.8821675834
0.01204586792 -0.01643251276 -0.0440329361 0.601350511 -0.7931748381 -0.09618336222
0.004468408585 0.01649346733 -0.006968252659 -0.2722534641 -0.9622254524 -0.00047958895
0.007701947689 0.01521568584 -0.004702308178 -0.3637123321 -0.9314803957 0.007590247291
0.02022834206 0.05826251602 -0.05697397995 0.9790938004 0.001924999868 0.2034001582
0.006992087364 0.05324805832 -0.04127044296 -0.3322197085 -0.01111511025 -0.9431365329
0.01557034492 0.01548017406 -0.04494303513 0.7288217034 0.3875808685 0.5644466273
0.01372177267 0.01187373352 0 -0.4787183246 -0.3101830111 -0.8213496608
0.01532524109 0.01347653484 0 -0.5413698253 -0.4908584161 -0.6826248806
-0.01201940346 -0.01666859436 -0.0004375448227 -0.3226150823 -0.3710841546 0.8707560272
0.006863907337 -0.01696271706 -0.05366640854 0.3452593354 -0.8835642542 -0.3164019597
0.01507560921 -0.01403813171 -0.01153395748 0.7320215588 -0.6812793317 -0.001705769601
0.006971298218 0.04523056793 -0.04125592804 -0.3357785598 -0.00222251252 -0.9419383309
0.02050736809 0.001240634441 -0.0002375779599 0.8965876397 0.02183104596 0.4423279438
0.01288556004 -0.0160718441 -0.02518946266 0.6255966331 -0.7800512332 -0.0122035326
-0.01049489403 -0.0160057621 0 0.274527014 0.3778013695 -0.8842516858
0.01943669796 -0.006717864513 -0.02095907021 0.946762395 -0.3219203983 0.002867852436
0.01156632996 0.01981629753 -0.04350009155 -0.5791912875 -0.0826837956 -0.8109875723
-0.001272463322 -0.02054386711 -0.002067502737 -0.06788980151 -0.9851176416 0.1579056907
-0.0094336586 -0.01494327831 0 0.07626986492 0.07778065808 -0.9940488303
-0.01520872974 -0.007775476933 -0.006561220646 0.9358130486 0.3524939218 0.001404696915
0.01566172552 0.03559331703 -0.04725875092 0.7598806566 0.001538666251 0.6500607819
-0.007641597271 -0.01912310791 -0.01189405823 -0.293583671 -0.9559010537 -0.007861531167
0.02049827003 0.001470665336 -0.005900376797 0.9967664715 0.08027130048 0.00362211401
-0.01642672157 -0.004590547562 -0.008792870522 0.9633144104 0.2683213574 -0.00538478918
-0.004098535061 0.01660107422 -0.01724123955 -0.2349590941 0.9720046353 0.001101395959
0.01984763527 0.005389959335 -0.02993729973 0.9801070653 0.1984654389 0.001268888665
-0.01694727707 -0.002025815904 -0.01132932568 0.9904820557 0.1375896841 -0.003791594854
-0.01692543221 0.002291954517 -0.01253365707 0.9846690165 -0.1744104263 0.002816236369
-0.001264451981 0.03888404846 -0.04006903076 -0.07098375643 0.002637503493 0.9974739846
-0.01605454445 0.005859931469 -0.01390040016 0.9555861023 -0.2946839876 -0.004067996003
0.01760972977 -0.002098931074 0 -0.3597067865 0.04788026983 -0.9318360947
0.006132846832 -0.01961521339 -0.007803762436 0.2607290915 -0.9654093388 -0.002269213399
-0.01537347031 0.007428061962 -0.01434989071 0.9082335759 -0.4184384474 0.004586656682
0.008736534119 0.02532780838 -0.04194583511 0.450406814 0.002111885624 0.8928209461
0.01029196644 -0.01784452629 -0.03378497696 0.4959775789 -0.8683291711 -0.00326982718
-0.0141168704 0.009568008423 -0.01479749918 0.8276086842 -0.5613054336 -0.0002757108595
0.02054464912 -0.0007910247445 -0.004649960518 0.9987782105 -0.04939995699 -0.001315493679
-0.01262139034 0.01148292255 -0.01501002884 0.724946494 -0.6887980282 -0.00313961827
0.01037497807 0.02109315681 -0.04280768204 -0.4913264565 -0.04103523579 -0.8700082888
-0.01414384413 0.009537895203 -0.02281402969 0.8243200115 -0.5660253479 -0.01057469735
-0.01022510529 0.01363861656 -0.01488811207 0.6113276199 -0.7913773573 0.0006476597359
-0.002380795956 -0.02044327736 -0.02777918434 -0.125023204 -0.9921404591 -0.005148585103
0.01767780495 0.02579541588 -0.05004562759 0.8628438402 0.005333933883 0.5054424365
-0.008162825823 0.01497763109 -0.01452163219 0.4784026247 -0.878111146 0.007193330408
-0.005839797497 0.01603341484 -0.01387948036 0.3217273549 -0.9468306467 -0.001798786995
0.01802948761 0.009954195023 -0.03583316803 0.7375264942 0.6745843341 0.03147453756
-0.0002491172701 0.01705848312 -0.01156582928 0.03920130847 -0.9992302576 -0.001466215174
0.01652548409 -0.01099009895 -0.04898377609 0.8006064104 -0.574566844 -0.1700068159
0.005802547932 -0.01974074364 -0.02727785683 0.2513681785 -0.9678871344 0.00292127413
0.002027428925 0.01694550896 -0.0113275876 -0.1271828803 -0.9918790241 -0.000718640254
0.004554090977 0.01646710014 -0.008831824303 -0.2724368757 -0.9621358849 -0.00852571141
0.01650858879 -0.008654680252 -0.05497722626 0.8113635373 -0.5184220022 -0.2700515469
0.01294555712 -0.01601459217 -0.003251883507 0.6391598798 -0.7634893766 0.09251280921
0.007891037464 0.01511723518 -0.007411173105 0.3732577564 0.9277192985 -0.003943409603
0.01819292068 0.02781106377 -0.05098297119 0.8740770971 -0.0005746644479 0.4857868855
-0.01149787331 0.01265440083 -0.0251002121 -0.6412990062 0.7672053436 -0.01146932728
0.01702371979 -0.01159949112 -0.03761156845 0.8258255498 -0.5639078673 0.004480906479
0.01494327831 0.0094336586 0 -0.02871879295 -0.02841619931 -0.999183542
0.01875281715 -0.006498770237 -0.05051316833 0.9082758725 -0.3900321367 -0.1513600732
0.01700833511 -0.01162103081 -0.03347215271 0.8247814969 -0.5654303724 0.004896554626
0.0160057621 0.01049489403 0 -0.5149410984 -0.3610426623 -0.7774856019
0.002922492504 0.03934521484 -0.04021105576 0.145935259 0.005377642434 0.9892795263
0.009859693527 -0.01802998352 -0.001096947044 0.3516620204 -0.7916351797 0.4996474413
-0.0088263731 0.05547898102 -0.04199221802 0.4183204462 -0.420762386 -0.804963986
-0.01245514107 -0.0163752861 -0.002666467905 -0.4252126723 -0.7542268603 0.5003359137
-0.008605126381 -0.01773423767 0 0.1180042126 0.398950069 -0.9093480347
0.01784410095 -0.01023880291 -0.03796051407 0.8521452799 -0.5232452104 -0.007929164795
0.0006618830562 -0.02054839706 -0.008448738098 0.05449333545 -0.9984995412 -0.00539839628
0.01834824753 -0.008397761345 -0.04733525467 0.8921548128 -0.436408188 -0.1166519758
0.01995800591 0.04559653091 -0.06562493134 0.9813822209 -0.03504003552 -0.1888415539
-0.007550774574 -0.01667782974 0 0.1490479923 0.4160325483 -0.8970516232
0.0192724514 0.05900410461 -0.05337892532 0.9450120414 0.02639608117 0.3259685392
-0.01640898132 -0.004668785095 -0.01067531776 0.980459632 0.1967203809 -4.241838604e-05
0.01543543768 0.02940983295 -0.04698703194 0.7599093658 -0.00641473957 0.6499973899
0.01940830421 0.006776587009 -3.728328645e-05 0.8258808628 0.3663639163 0.4286003748
0.01368617201 0.03773153305 -0.04526236725 0.6780328663 -0.0005838032024 0.735031354
-0.01694347382 0.002131202221 -0.02039517212 0.9833336008 -0.1818006308 -0.00188684959
-0.01709328079 0.0002309450805 -0.01353091145 0.9992213294 -0.0394462379 0.0008538683343
-0.01654536438 0.004083804607 -0.01522071743 0.9730527319 -0.2305700875 -0.002411567925
0.0128914032 -0.0160670929 -0.02320803452 0.6257503328 -0.7800205882 -0.002098318196
0.02049209595 0.001626755595 -0.009742938995 0.995465345 0.09492355672 0.006185893371
-0.01538802814 0.007405626059 -0.01732435322 0.9015772047 -0.4326117592 -0.002368494511
-0.012625103 0.01148308372 -0.01699938202 0.7259242974 -0.687743029 0.006590934214
-0.01150553036 0.01264767075 -0.01702241325 0.6489968773 -0.7606698062 0.01358304892
0.00575420022 0.04135396194 -0.04085697746 0.2727843047 0.009996879147 0.962023277
0.006227442741 -0.01957926178 -0.002226477861 0.2842756126 -0.9347694667 0.2130573167
-0.01021929073 0.01364340878 -0.01687387085 0.6157304188 -0.7879546574 0.001873317026
0.01102808571 0.05680230331 -0.04324052429 0.5417641174 -0.01316039171 0.8404275372
-0.007900898139 0.01512316895 -0.01710983276 0.4738901648 -0.8805460309 -0.008173078697
-0.003332163572 0.04120610046 -0.04027809143 -0.1580975362 -0.001675419909 0.987422079
0.02003079033 -0.004573928356 -0.002878149509 0.9645010174 -0.2390189351 0.1122841752
0.009996747017 -0.01768927002 -0.04455831146 0.4856119576 -0.8676582066 -0.1065376137
0.006196126938 -0.01959116364 -0.004072838783 0.2641628697 -0.9644733567 -0.003020346119
-0.005818549633 0.01604360199 -0.01585111713 0.3094724562 -0.9508865793 -0.006442991741
-0.004129220486 0.01659355354 -0.01526861095 -0.2364135087 0.9716518149 0.00118466276
-0.002240368366 0.01691727638 -0.01446835423 0.1622065075 -0.9867540126 0.00235954529
0.01693181992 0.0529802742 -0.04894896317 0.8288808485 0.002785687442 0.5594182505
0.01166523743 -0.01694563103 -0.02145065117 0.579760849 -0.8147865079 -0.0005517995676
0.01155739021 0.02352541637 -0.04356290627 0.5699863306 0.006065148665 0.8216317891
0.004640294075 0.01644054794 -0.01070604706 0.1873640399 0.9822821849 -0.004052883956
0.02056607914 -0.0005802392364 -0.01131779623 0.9989518346 -0.04569386482 -0.002702389742
0.01906150246 -0.007684686184 -0.007247107983 0.9335805995 -0.3583614278 -0.002085962408
-0.006234499931 -0.01889909267 -1.957150921e-05 0.1600619967 0.5466077488 -0.8219489803
-0.004643260002 -0.0173417263 0 0.1600619967 0.5466077488 -0.8219489803
-0.01639113808 -0.004747481823 -0.01256881428 0.9795422864 0.20123442 -0.001271783756
-0.008567864418 0.04714886093 -0.04188434601 0.4230114522 -0.4261664335 -0.7996521008
0.01799772263 0.001771461248 0 -0.4858782005 -0.04189624808 -0.8730218088
-0.01694383621 -0.002113850832 -0.01421302605 0.9927385854 0.1201579501 -0.005671692325
-0.01709471321 0.0001816853583 -0.01547527027 0.9989441212 -0.04556964905 0.005835224001
0.005922346115 -0.01722761154 0 -0.2952222632 0.4171275167 -0.8595629414
-0.01693439674 0.002212077141 -0.01644002342 0.9843277638 -0.1763385864 -0.001885811704
-0.01655308533 0.004053316116 -0.01719310951 0.973485456 -0.2287457172 0.001209913711
0.0100210247 0.03146114731 -0.04261859512 0.4827355708 0.000649383735 0.8757659202
-0.01607209587 0.005814543724 -0.0178535347 0.9578939236 -0.2871222611 -0.0001957514861
-0.01413027143 0.009553048134 -0.01878023434 0.825485433 -0.5643243705 0.01057377528
0.02014951897 -0.004172681332 -0.02204898453 0.9808900515 -0.1941494014 -0.01267741536
-0.01262883949 0.0114832468 -0.01900137138 0.7257733121 -0.6879015812 0.006671887462
0.01889731789 -0.007658807278 0 -0.624049022 0.3129977269 -0.7159575694
-0.01150363445 0.01264933681 -0.01902248383 0.6462640152 -0.7630794812 0.00724761965
0.01957549095 0.03266376877 -0.06691370392 0.8728737691 0.1145371127 -0.4743128009
-0.01021343994 0.01364823151 -0.0188721981 0.6149411479 -0.78854978 0.006052192792
-0.0160809536 0.005791635036 -0.01984882355 0.959127151 -0.2828414428 0.00870783379
-0.01023965454 0.05988689041 -0.04279038239 0 0 1
0.01765327644 -0.01051053905 -0.000948207736 0.7292603177 -0.4318533218 0.5307373149
0.008327617645 0.03588364029 -0.04178071594 0.4214885309 -0.01551039945 0.9067010785
0.01594129944 0.02010313034 -0.04757439804 0.7726609409 0.05168989228 0.6327110126
-0.008872463226 0.01459189701 -0.01866730309 0.5111988724 -0.8591515054 -0.02311717314
-0.0001534998268 0.01706414604 -0.01544493198 0.008351346436 -0.9999556138 0.004361815903
0.002125174522 0.01693142319 -0.01420076847 -0.1113713699 -0.9937677144 -0.004706133025
0.01786664391 0.005166875362 0 -0.5529496353 -0.1020435311 -0.8269424518
0.009626826763 -0.01818032932 -0.02789539814 0.4881247361 -0.8727690935 0.002889865146
-0.007991397858 0.05995619202 -0.0416680603 0.41599889 -0.4181666836 -0.8075156644
0.003741462469 -0.02022419167 -0.04061890411 -0.1842636079 0.9825393249 0.02575651214
-0.006069325447 0.0604131279 -0.04091450882 0.2990869855 0.01559206401 -0.9540984554
0.01843011856 -0.009173504829 -0.004917568684 0.8970141776 -0.4419771661 0.004663665011
-0.002291616797 -0.01851938248 0 0.0269279583 0.4993436164 -0.8659854721
-0.01709615517 0.0001321219504 -0.01743161583 0.9990610855 -0.04332189454 -0.0004010263771
-0.01019566059 0.01366288662 -0.02494458199 -0.6217663666 0.7828397193 0.02384447846
-0.01656085396 0.004022635937 -0.01917789841 0.9662056917 -0.257678941 0.006937196381
-0.01540270901 0.007383000374 -0.02032398415 0.910977247 -0.4122878751 0.01179675894
0.01838274193 0.04331446075 -0.0513944664 0.8819629592 0.0084641364 0.4712427156
-0.003993896961 0.03679432678 -0.04040655136 0.1657478285 -0.005166536734 -0.9861546351
-0.01413703585 0.009545495987 -0.02079064941 0.8258246891 -0.5639033282 0.005159388878
-0.01263259888 0.01148341084 -0.02101619911 0.7261978056 -0.6874723626 -0.004300912572
0.01251023674 -0.00201352334 -0.06917990112 0.4958360894 -0.4989701969 -0.7107568607
-0.01150172615 0.01265101433 -0.02103534126 0.6667469879 -0.7452831904 -0.001191734717
0.01056554794 0.05185493469 -0.04296536636 0.519045968 -0.01587137919 0.85459896
-0.008124591351 0.0150031786 -0.02050198174 0.474450749 -0.8802360748 0.008996634413
-0.002473842859 -0.02043231583 -0.02986797142 -0.1308714797 -0.9913856098 -0.005218100058
-0.004067216873 0.01660817528 -0.01922579193 -0.2371761324 0.9714648336 -0.001886618975
0.001789803028 0.03803757858 -0.04010739899 0.09985995381 0.005385048413 0.99498693
-0.002166591883 0.01693336868 -0.01840581512 -0.1730612485 0.9849070611 0.002808060298
0.02013111877 0.004124414921 -0.007536397457 0.9765158537 0.2154384919 0.001744596086
0.01451664352 0.03423497772 -0.04601916122 0.6894602077 -0.01052440874 0.7242470979
-0.009682234764 -0.01817874336 -0.03350172424 0.6746097052 0.7375031142 -0.03147859809
0.01962652779 -0.006234116077 -0.004032836914 0.9556267219 -0.2945495031 0.004261282449
0.02041396332 -0.002593284607 -0.01121994209 0.9874697734 -0.1578047993 0.001044911986
-0.0002336334139 -0.02056694221 -0.03456350327 -0.02011389541 -0.9997969039 -0.001257861859
0.01783464241 -0.01025541592 -0.03587694931 0.8512352238 -0.5247360813 -0.007116091059
-0.0001052489504 0.01706700516 -0.01740242004 -0.002767634277 0.9999823479 -0.005257760173
0.01976592255 0.005754746437 -0.03639424515 0.9779823153 0.2086799915 0.001803380206
0.01956297684 0.003332052469 0 0.8623131844 0.1358033698 0.4878251907
0.01532584286 -0.005024742603 -0.06280678177 0.7613327107 -0.5182447366 -0.3896086454
0.01935996628 0.009030826569 -0.04721969986 0.9611329826 0.2353986973 0.1442596377
-0.01132786846 0.05570783997 -0.04341181183 0 0 1
0.01406370068 0.02208222198 -0.04555281448 0.6874643918 -0.004365645203 0.726204965
-0.002198806047 0.05856588364 -0.04016236877 -0.104103472 -0.007412762169 0.9945388469
0.0159920969 -0.01290781116 -0.006045601368 0.7750076925 -0.6319274203 0.005550849401
-0.00085033077 0.05971473312 -0.04006267548 0.03318257222 -0.01298969877 -0.9993648906
-0.007043487549 -0.01932959366 -0.00391335535 -0.2668337166 -0.9637422088 -0.0008500629387
-0.009953620911 -0.01802998543 -0.03583252335 0.8506496124 0.5216047431 -0.06575506722
0.02040862656 -0.002647452354 -0.009304657936 0.9870812965 -0.1601931595 0.002943761674
0.002841348648 -0.02031751251 0 0.05336425442 -0.9087539984 0.4139063019
-0.003796917439 -0.0202046299 -0.001743332624 -0.2438098085 -0.9313920642 0.2703064926
0.01400775242 -0.01502729225 -0.001385198891 0.6955595078 -0.6663440452 0.268668168
-0.004324377537 0.05291501999 -0.04050523758 -0.2056303015 -0.006310109714 0.978609402
-0.002086910725 0.05031557083 -0.040144207 -0.0961973821 -0.003601330707 0.9953557626
-0.001201202869 -0.0205425396 -0.0001983428448 0.07745069783 -0.8963232153 0.4365845657
0.0202899971 0.02897327423 -0.06404116821 0.9925475443 -0.009172271084 -0.1215123107
3.189445287e-05 -0.01968293953 0 -0.02802451731 0.7985604206 -0.6012619072
0.01084692383 0.03310120392 -0.04309883118 0.5151442621 0.01456703145 0.856979691
0.00158220613 -0.0181279068 0 -0.02774449327 0.6792797544 -0.733354797
-0.0007568403482 0.05145016861 -0.04004587555 -0.04581549558 0.00568342481 0.9989337511
-0.01656867409 0.003991760969 -0.02117527962 0.9621738352 -0.271886052 0.01730564942
-0.004964740276 -0.01998817635 -0.02356045151 -0.169838457 -0.9854712864 -0.001114566623
-0.009865373611 0.05130475235 -0.04256021881 0.4206751296 -0.4233282677 -0.8023874458
-0.01608986855 0.00576857996 -0.02185685539 0.9456849897 -0.3250736312 -0.002652275623
-0.005087359428 -0.01995747566 -0.0256488266 -0.1751884532 -0.9845341498 -0.001230312851
0.01290296078 -0.01605769539 -0.01928894615 0.6260801143 -0.7797546286 -0.002531754709
-0.008111683607 0.0150118041 -0.02252097607 -0.475940452 0.8794577103 -0.00590101574
-0.009458352089 -0.01828710747 -0.03124258423 0.6744155252 0.7376818747 -0.03145077359
0.004580554962 -0.0200841713 -0.004687354088 0.221306316 -0.9752018072 0.002224782055
-0.005753996372 0.01607455254 -0.02184113121 -0.3210343777 0.946785865 -0.02309662505
0.002725524902 -0.02037155151 -0.005544948101 0.1560419682 -0.9877253052 0.007044551262
-0.004035121918 0.01661470795 -0.02122229385 0.2376758556 -0.9713346522 0.004379623045
0.008169180632 -0.01838573551 0 0.2591741239 -0.6532710441 0.7113829605
-0.002129354954 0.01694149017 -0.02039315796 -0.1802059287 0.983584697 -0.00932561363
0.01864608383 -0.001065481186 0 -0.6410685346 -0.003695804577 -0.767474739
0.01665333176 0.01432758522 -0.04573314667 0.7973662439 0.3556413744 0.4875718265
0.01929201698 0.007086548805 -0.003955765724 0.9625225196 0.2711201705 -0.006652250801
-0.01294877148 0.05220471573 -0.04465158844 0 0 1
0.005522481918 0.03134357452 -0.04077132416 0.2541506412 0.002535741557 0.9671613214
0.001882756352 -0.01667660332 -0.05723385239 0.1482149572 -0.9000978731 -0.4097025083
0.0002356274873 -0.0193331852 -0.04992785263 0.03088895873 -0.973863023 -0.2250259644
0.008377137899 0.0476180191 -0.0418109684 0.4270974374 0.004636481511 0.9041937193
-0.007746026039 0.05152567291 -0.04156564331 0.4206383746 -0.4236255496 -0.8022498062
-0.005889305115 0.05204691696 -0.04086737442 -0.2664420415 0.01313640545 0.9637614193
0.0205013237 0.001393449783 -0.003999519587 0.997201844 0.07467984912 0.003376760138
-0.002812495708 0.05384307861 -0.0402027626 -0.1331177259 -0.003074153437 0.9910954649
-0.003469637394 0.04924520874 -0.04030485535 -0.1662203087 -0.002368269099 0.9860857976
-0.0001361467689 0.05612889862 -0.04000725555 -0.01652337521 0.004833852548 0.999851795
0.02039208794 0.05255099487 -0.05805313492 0.9928633827 0.001434506777 0.119248671
0.02028255272 0.03628097153 -0.05724330521 0.9822201723 -0.008538083254 0.187538354
0.01899337196 0.007882594109 -0.0140192318 0.9545242419 0.2981190155 -0.002919626821
0.02017149734 0.04986908722 -0.05655875778 0.9757678634 -0.008180472586 0.2186553375
0.001064348459 0.05745003891 -0.04007603073 0.0406902617 0.01024353109 0.9991192985
-0.01415069675 0.009530245781 -0.02485057735 0.8191619721 -0.5729649798 -0.02616859728
0.00339732933 0.06019512558 -0.04030414963 -0.1784987438 0.01649850052 -0.9838018083
-0.003890641212 -0.02019322395 -0.003645694733 -0.2025830586 -0.9791602872 0.01432607262
0.003868400097 -0.01928706741 0 -0.1735811272 0.8288739208 -0.531824798
0.01855196762 -0.008954521179 -0.02607734871 0.9015140044 -0.4327023401 -0.006417539909
0.008073578358 -0.01891508961 -0.03554642105 0.3890883697 -0.9211897467 0.004437464688
0.004895387173 -0.01825711441 0 -0.1894404997 0.6021877461 -0.7755528451
0.01224508858 -0.01653902435 -0.03133104706 0.6046153558 -0.7965173093 -0.0006689802179
0.006949314594 -0.01619852448 0 0.163637211 -0.2870272478 0.9438422655
0.004504600525 0.03757314301 -0.04052423859 0.2144568579 -0.005074810344 0.9767202785
-0.01264019203 0.01148374176 -0.02508517075 0.7258467112 -0.6877614205 -0.01143592383
0.01399682522 -0.01506573868 -0.02913007164 0.6825047921 -0.730880799 -0.0006829338983
0.000562866807 -0.02055044842 -0.01133621788 0.05231621845 -0.9986250746 -0.003312662093
0.01779745674 -0.01032050514 -0.02770337868 0.8462946765 -0.5327146874 -0.000618302374
0.01516981411 -0.007976329327 0 0.1608751202 -0.1645914804 0.9731540681
0.01619852448 -0.006949314594 0 0.3571285612 -0.1356406224 0.9241541064
0.01944816685 -0.006686573982 -0.02293805218 0.9476896364 -0.3191719838 -0.003687516491
0.007714967251 -0.01908999252 -0.007214475632 0.3633178696 -0.9316652327 -0.0001410152004
-0.004175867558 -0.0201585083 -0.009435081482 -0.2174883215 -0.9760507313 0.004878518221
0.01722761154 -0.005922346115 0 -0.3173022045 0.132006834 -0.9390918522
0.01825711441 -0.004895387173 0 -0.5686028473 0.118458818 -0.8140382733
0.01928706741 -0.003868400097 0 0.7834975146 -0.1226954364 0.6091612877
0.01823217678 0.04079196358 -0.0510882473 0.885901715 -0.003033286871 0.4638630731
0.009662182331 -0.01815850639 -0.02389788723 0.488633968 -0.8724883337 -0.0009761212191
0.02031751251 -0.002841348648 0 0.8517452823 -0.09435353094 0.5153905173
0.02053264046 -0.000909148097 -0.0009133326411 0.911981909 0.04279508978 0.4079921298
0.005904189587 -0.01970211411 -0.02128517723 -0.25927431 0.9658036823 -0.0002819345458
0.01687869453 -0.01178378296 -0.0006778398752 0.7720395338 -0.5408515665 0.3338181261
0.01387303305 0.02353141689 -0.04545694923 0.6770237399 0.008014979904 0.7359175332
0.02050435638 0.001316775799 -0.002111990213 0.9660324644 0.03472124449 0.2560775524
0.02018017006 0.003905443907 -0.003660479546 0.9795367086 0.1922149287 0.05967627437
0.01923320961 0.007243301868 -0.005937411785 0.960996071 0.2765018399 -0.005769231767
0.01292557812 -0.01603930283 -0.01161938 0.626445945 -0.779463159 0.001631468406
0.02010632324 0.004235115051 -0.009495854378 0.9751404086 0.2215782362 0.002066088541
-0.006681655884 0.04763408279 -0.0411450882 -0.2963915876 0.01486537647 0.9549508089
-0.005015618801 0.04837083054 -0.04065645218 -0.2391799914 -0.01123530481 0.9709102428
0.01848624992 0.05137658691 -0.05162446213 0.9001570844 -0.002840069215 0.4355561472
0.001246867776 0.03353206253 -0.04006645584 0.05607602917 0.006113024282 0.9984077874
0.01175417233 -0.01684988594 -0.000709410727 -0.5490588387 0.7528982393 -0.3628755061
0.004486047745 0.04541709518 -0.04053132248 0.2150123904 -0.00569698618 0.9765947042
0.01498185444 -0.01388650894 -0.04377433014 0.7144193985 -0.6944009286 -0.08609456054
0.009177699089 0.02985410309 -0.04216808701 0.4661587222 0.002343022969 0.8846980027
0.007475338459 -0.0191936779 -0.02459611511 0.3494543708 -0.9369224658 -0.007611559864
0.0126971035 -0.01156853867 -0.05782061386 -0.6026815375 0.7147027745 0.3549294416
-0.001155153036 -0.01813918304 -0.05383819199 0.1435385687 0.8557121122 0.4971453112
0.002859279633 0.05533794403 -0.04020803833 0.1442000753 0.007636145171 0.989519089
0.02043959427 0.002465635777 -0.02985865402 0.9899153968 0.1416087086 -0.003805378881
0.003937494516 0.0568079071 -0.0404225502 0.2035329724 0.004736515183 0.979056635
0.005761615276 0.05741383171 -0.04087849426 0.275854354 0.002569551723 0.9611960116
0.006056766033 0.0598213768 -0.04091122055 -0.2876694694 -0.009867841203 -0.9576789139
-0.004383695126 -0.0201224556 -0.01338031483 -0.2330223789 -0.9723848358 -0.01297312568
0.008440239906 0.0598028183 -0.04184404755 -0.3959480877 -0.01906225922 -0.9180750199
-0.007320652008 -0.01924423027 -0.007853507042 0.2771397621 0.960829014 0.001076158971
-0.001344219089 -0.02054520226 -0.003949651718 -0.07766726462 -0.9969791585 0.0005945788562
0.01776532555 -0.01036285686 -0.02174064064 0.8448081125 -0.5350462786 0.004973207315
5.141463876e-05 -0.02056103897 -0.02625102234 -0.00128123889 -0.9999950236 0.002882915179
0.00776419735 -0.01906597137 -0.003502124786 0.3694984685 -0.9287708701 0.02924983245
0.01567700291 0.02285901451 -0.04724297714 0.7712937145 0.01989437137 0.6361683896
0.0008566598296 -0.02054436493 -0.002768719435 0.07286069725 -0.9876171768 0.138937507
0.01717804146 0.04997121048 -0.04930268097 0.8381733668 0.002492485596 0.5453981983
0.01851132965 -0.008605234146 -0.04493728256 0.8923425519 -0.4438922551 -0.08175839997
0.0003955881596 -0.02055391312 -0.01621434402 0.04240535543 -0.9990675007 0.008118791634
0.01785281944 -0.01022120762 -0.04006175232 0.8627659204 -0.5047431764 -0.02948376597
0.01965142822 -0.006171768665 -0.007762042522 0.9571166732 -0.289690417 -0.002671367842
0.01021084929 -0.01634020138 0 -0.2335164755 0.5788111742 -0.7813115129
0.0122530489 -0.01429606915 0 0.5722778934 -0.6261771511 0.5295282694
0.01298939896 0.05733409119 -0.04468358612 -0.6316010245 -0.003100884425 -0.7752873856
0.01429606915 -0.0122530489 0 -0.6128959042 0.5938607804 -0.521236975
0.00971423912 -0.01812637615 -0.01801205254 0.4884672743 -0.8725316585 0.009392918263
-0.005482452393 -0.01984526253 -0.03204019928 -0.1939163035 -0.9810174167 -0.001138122852
0.01917394829 0.00740126276 -0.007934324741 0.9593765179 0.2820792074 -0.005293175233
0.01634020138 -0.01021084929 0 -0.6041625447 0.3066404963 -0.7354993036
0.01787415314 -0.008679553986 0 0.6887709132 -0.2579558074 0.6775348187
0.001927948713 -0.02049662781 -0.03532672501 0.1102481996 -0.9938968438 0.00379451256
0.01596199226 -0.003335893154 -0.06354336166 0.809230813 -0.4484091167 -0.3795718053
0.01960572338 -0.006277759314 -0.001273407474 0.8714259043 -0.3289166909 0.3639102963
0.02038718605 -0.002859837055 -0.00177769351 0.9517244478 -0.08928452876 0.2936815425
0.0170006237 -0.01163156414 -0.03142666435 0.8242259562 -0.566239669 0.004920409125
-0.009502254486 0.04295787048 -0.04234146881 0 0 1
0.01293036747 -0.01603403473 -0.009736678123 0.6260194926 -0.7798023535 0.002807918953
-0.007501906395 0.0433115387 -0.04146387863 -0.3447357485 0.03139366698 0.9381746647
-0.004159893036 0.04475362396 -0.04045592117 -0.2021691976 -0.002571982766 0.9793472318
0.01410144424 0.0560724678 -0.0455916748 -0.6846334837 0.00383745214 -0.7288774019
-0.001574954867 -0.02053821373 -0.009689052582 -0.08434060049 -0.996423664 0.005152185964
-0.002691013813 0.04570497131 -0.04018401718 -0.126896041 -0.004444402458 0.9919060651
0.001123410583 0.04927474594 -0.04007077026 0.04504968738 0.0007192352035 0.9989844886
1.541875396e-05 0.04002733994 -0.04000082016 -0.007771949678 0.002462604042 0.9999667656
0.003422627449 0.05197312164 -0.04029806137 0.1799185006 0.003352148752 0.9836758085
0.01996839714 0.0166433773 -0.06531964111 0.9767355237 -0.04967349668 -0.2086151014
0.004471879005 0.05345994186 -0.04053969193 0.2345340954 0.007099739049 0.9720819676
0.005524372101 0.05495077133 -0.04078206635 0.2829161089 0.01132644941 0.9590777794
0.01880843544 0.008375542641 -0.02025100327 0.9494639334 0.3138585356 -0.003325476126
0.02049519348 0.00154843092 -0.007814776897 0.9959528938 0.08959789653 0.007074621128
-0.007466590405 -0.01919602585 -0.009851819038 0.2847394713 0.9585985643 0.00349657662
-0.004080105305 -0.02017016411 -0.007491347313 -0.2128893861 -0.9770597737 0.005684009479
0.01774429703 -0.0103905735 -0.01783839226 0.8427008965 -0.5383674365 0.003962614699
0.01607043457 -0.0128625288 -0.02921102333 0.7764487436 -0.6301538467 0.005786020479
0.005495763302 -0.01977856064 -0.04188591766 0.2544700569 -0.96601155 -0.04546070283
-0.001416477919 -0.02054654884 -0.00584499836 -0.07510439975 -0.9971667413 0.004221273109
0.01966250229 -0.006138648987 -0.009647884369 0.9577028854 -0.287747068 -0.002609257886
0.0007921901345 -0.02054570007 -0.00464876318 0.05952877331 -0.9982253347 0.001583126881
0.002773440599 -0.02036165619 -0.003674775124 0.1639213222 -0.9856800532 0.03955544116
0.004621081829 -0.02007421494 -0.002829197884 0.2265106012 -0.9686575567 0.1019582533
0.007786949635 -0.01905256653 -0.001666542053 0.3845808751 -0.8527834253 0.3533524869
0.01913256836 -0.006992016315 -0.04559505463 0.9321560291 -0.3561107426 -0.06534735235
0.01295175743 -0.01600619125 -0.0005175750852 -0.6001479533 0.7409775318 -0.3012884525
0.01688697052 0.02661129761 -0.04881811905 0.8308376431 0.002961880345 0.5565069974
0.01506530905 -0.01404597902 -0.001343808427 0.6663367345 -0.6958746926 0.267868939
0.01902532959 -0.007758017063 -0.001696897626 0.8942730259 -0.3121557394 0.3206782649
0.02039268112 -0.002807503939 -0.003639597893 0.9851349527 -0.1676603419 0.03740501001
0.01362477779 -0.007920558453 -0.06196879578 0.495348807 -0.4971317064 -0.7123830612
0.01911422729 0.007560451031 -0.00994675827 0.9577413192 0.2876059871 -0.003789677181
-0.006450574398 0.03953203201 -0.04104851913 0.2599171769 -0.01729919863 -0.9654759442
-0.004840024948 0.04031238937 -0.04060474777 -0.1858895422 0.004836408962 0.9825587449
0.019425313 -0.006748924017 -0.01899468136 0.9473400593 -0.3202253068 -0.001601533545
-0.001973642468 0.04227315521 -0.04012619019 -0.08948844139 -0.003274136636 0.9959824792
0.02013725662 -0.004214121819 -0.02006903839 0.9803716804 -0.197124531 -0.003645218766
0.003957039833 0.04867653275 -0.04041527939 0.206206352 0.001102432742 0.9785079075
0.006039478779 0.05163843536 -0.04090669632 0.2874823223 0.004822438294 0.9577738034
0.01897730064 -0.006782563686 -0.04799514389 0.9208926553 -0.3743301103 -0.1087827464
0.007941712856 0.05487294006 -0.04164444733 0.378221566 0.009165799471 0.9256697225
0.01784122276 0.01027214718 -0.03823622894 0.7374902156 0.6746236206 0.03148257501
0.009762859344 0.05826433945 -0.04251244354 0.4989497705 -0.002753463043 0.8666265314
0.02017901802 0.04799129486 -0.06465538025 0.9901105913 -0.01820222556 -0.1391031845
0.01509261608 -0.01402023983 -0.03112430191 0.7286248956 -0.6849126018 0.0006996150103
0.01458183765 -0.006587636948 -0.06223366165 0.7241085615 -0.5486062098 -0.4179689196
-0.001492016554 -0.02054543877 -0.007756608486 -0.0825490832 -0.9965560206 0.007857910818
0.0007272670269 -0.02054704475 -0.006542031765 0.05774899015 -0.9983101727 -0.006469405673
0.009844727993 -0.0180411253 -0.002924109101 0.4860377752 -0.8676012998 0.1050488726
0.01941991043 0.05605367279 -0.05384266281 0.9520621301 -0.01387907668 0.3055897113
0.01598276854 -0.01291320324 -0.003287037253 0.7572863545 -0.647651695 0.08405152703
0.01688772583 -0.01177661896 -0.002497925043 0.7985156627 -0.5868017705 0.1342997339
0.01766311264 -0.01049757385 -0.002773572445 0.8628079151 -0.4928112698 0.1126922979
0.01903730583 -0.007733739853 -0.003534367323 0.9245402817 -0.3792585718 0.03725859862
0.02004228973 -0.00453506422 -0.004735002518 0.9744813424 -0.2244558268 0.00238645197
0.02041291046 0.04155759048 -0.05817737198 0.9921355547 -0.0004713022001 0.1251671643
0.01601105499 -0.01289685249 -0.01165187454 0.7795399812 -0.6263517395 -0.0009571581843
0.0205507164 -0.0007313457131 -0.006537804127 0.9988652757 -0.04695077156 -0.007986619061
0.01731712341 0.0390783577 -0.04948039627 0.8317744581 0.008988667924 0.5550409487
0.01905403709 0.007720888138 -0.01197497272 0.9561291087 0.2929264532 -0.003349694714
-0.002567732096 0.03776822662 -0.04016538239 0.09914240781 -0.00690729556 -0.9950492813
0.01548259258 0.03319667053 -0.04703533173 0.7447360911 0.008048292744 0.6673105571
0.002338045835 0.04260536575 -0.04015389252 0.134844889 0.003663696128 0.9908599463
-0.005907250881 -0.01971294594 -0.0386159935 -0.2221866365 -0.9749139643 -0.01326124896
0.02048897552 0.001705648303 -0.0116850853 0.9941219839 0.108254545 -0.001560309405
0.02008134079 0.004346642494 -0.0114699564 0.9737562858 0.2275808179 0.002380566014
0.003446162462 0.04396575928 -0.04029898834 0.1848315906 0.00216133161 0.9827678321
0.0204222126 0.01095845604 -0.06117314148 0.9941089315 -0.03057657106 -0.1039831991
0.006017005444 0.04764619637 -0.04092482185 -0.279196663 -0.0004209836227 -0.9602338497
0.008397107124 0.05162601089 -0.04182057953 -0.4078262255 0.008339461472 -0.9130214801
0.01506914139 -0.01404493713 -0.004082746029 0.7314678883 -0.6818627666 0.004230365198
0.02058170891 -0.0004265069067 -0.01618085289 0.999113654 -0.04045528168 0.01163084623
0.01605689812 -0.01287035465 -0.02520776176 0.780004797 -0.6257014986 -0.00949480475
0.01969278336 0.03150295448 -0.05460821152 0.9578883666 0.005202935187 0.2870937246
0.01983299065 0.02879356766 -0.05506909561 0.9665701593 0.003760762964 0.256374694
0.01186277771 0.05861471939 -0.04378529358 0.6034752336 0.006151222249 0.7973580155
0.01776122665 -0.007706474781 -0.05255977631 0.8618757875 -0.4594750742 -0.214599122
0.01990101051 0.005151679039 -0.02571959496 0.9667480605 0.2552610613 0.0154912277
0.01264435482 0.06051748276 -0.04440881348 -0.624916393 -0.005641128266 -0.7806713005
-0.007833901405 -0.01903576851 -0.01396910191 -0.3031030675 -0.9529190329 -0.008593440001
-0.004276204109 -0.02014335823 -0.01139706326 -0.2232524722 -0.9747534286 0.003753286606
0.01400395679 -0.01504162598 -0.01157283211 0.6819258202 -0.7314094129 -0.004176898426
0.002677275896 -0.0203815155 -0.007428139687 0.1619632582 -0.9867891708 0.003877550401
0.004537872791 -0.02009247208 -0.006560352325 0.2188518435 -0.9757402185 -0.005907328732
0.01599837303 -0.01290418339 -0.007901441097 0.7756466516 -0.631155077 0.003942169288
0.01508566284 -0.01402755547 -0.02311419296 0.7321495716 -0.681142142 -0.001545073035
0.007740321636 -0.01907855797 -0.005351233482 0.3651407222 -0.9309520594 0.0007183557641
0.009829661369 -0.01805234241 -0.004763649225 0.4928906956 -0.8700744265 -0.005408742744
-0.00185772419 0.0344269371 -0.0401082077 0.06101629853 -0.003765479313 -0.9981296672
0.01173454523 -0.01687101555 -0.005286751509 0.5840174146 -0.811736783 0.002656056107
0.019979496 0.004801301956 -0.01951770973 0.9680386368 0.2507379702 0.005627430428
-0.0005784623027 0.03555459213 -0.04003083038 -0.03105804923 0.007697767266 0.9994879399
0.01400673199 -0.01503114605 -0.004124675751 0.6800058981 -0.7332056825 0.001185658869
0.01924475288 0.05229872894 -0.06792773438 0.8701845227 0.1117151567 -0.4798943844
0.0176730175 -0.01048452091 -0.004611296177 0.8613396515 -0.5080267399 -0.001684110864
0.01904936218 -0.00770929718 -0.005384370804 0.929481335 -0.3688677412 -0.00101852523
0.02055682755 -0.0006712462306 -0.008438946724 0.9988054693 -0.04884717382 -0.001260227289
0.0006342795491 0.03676094055 -0.04003380585 0.04383133541 0.003174179733 0.9990339026
0.01772356987 -0.01041789055 -0.0139923048 0.8607152684 -0.5090764392 0.00322579469
-0.0001615260988 -0.02056544876 -0.03246073151 -0.01630170384 -0.9998662412 -0.00132443955
0.006026798725 0.04366225815 -0.04090337372 0.2904154856 -0.008010591955 0.9568671152
0.008359342575 0.04365673447 -0.04179938126 -0.4149102904 0.005613976807 -0.9098450056
0.004185235977 -0.02016104889 -0.02203474808 0.2295896952 -0.9732809151 -0.003582208559
0.002325833082 -0.02044975281 -0.02099741364 0.123578311 -0.9923059587 -0.007568707844
0.009711923599 0.05012099838 -0.0424696846 0.4776689174 -0.009648188366 0.878486948
0.01744756317 0.02857083511 -0.04968481064 0.8404394022 0.001859691111 0.5419023461
0.01142311192 0.0535980835 -0.04346445084 0.5545126953 -0.01473043171 0.8320448817
0.00262868762 -0.02039155006 -0.009324558258 0.1590587194 -0.9872641532 0.003132997606
0.02020577621 0.03897809219 -0.05669870377 0.97760964 -0.003588688043 0.2103960862
0.004494891167 -0.02010083008 -0.008446466446 0.2169466879 -0.9761771371 -0.003511651264
0.01293909454 -0.0160228653 -0.00601114893 0.6171141097 -0.7868504753 0.006041949717
0.01400604534 -0.01503373909 -0.005967533588 0.6850789643 -0.7284497206 0.005274205142
0.01507074165 -0.01404325294 -0.00592633009 0.7286079656 -0.6849041607 0.006059957919
0.01768800735 -0.01046476269 -0.007393091679 0.8618020862 -0.5072435504 0.00106995871
0.01222107553 -0.01655907536 -0.03751007843 0.6121410911 -0.7907439275 -0.002706615348
0.01893222046 0.008045590401 -0.01607980537 0.9529275729 0.3031877249 -0.00249886898
9.038061649e-05 0.0322765007 -0.04000481796 -0.02744792141 -0.00357008416 -0.9996168597
0.002388275623 0.03480828476 -0.04014842224 0.1166714147 0.005919333863 0.9931529301
0.008115347385 0.04130696869 -0.04170470619 0.3996824269 -0.004442883105 0.9166429067
0.009260274887 0.04528185654 -0.04221220016 0.4572652963 -0.00273212581 0.8893261406
0.01011173153 0.0469832077 -0.04269536972 -0.4718725213 -0.0008746850732 -0.8816663533
0.01096153355 0.04870044327 -0.04318881989 0.5610817948 -0.004316559533 0.8277491087
0.01509617329 -0.01401649761 -0.03522217941 0.732075423 -0.6812117369 -0.004018030909
0.007585493088 -0.01914838409 -0.01672923279 0.3495195736 -0.9369036562 -0.006899762634
0.01179243183 0.05045700073 -0.04371515656 0.5871289382 -0.01018341771 0.8094293718
0.01692660904 -0.01173265171 -0.01179473114 0.8206615932 -0.571403042 0.003621181043
0.01386676931 0.05358288383 -0.04543115234 0.6792914432 -0.008798727371 0.7338158608
0.02016103745 -0.004130022526 -0.02404478073 0.9813962628 -0.1915469748 -0.01308173264
0.01479533386 0.05808626556 -0.04633932495 -0.70694064 -0.01276197683 -0.707157736
0.01596355724 0.05960016823 -0.04766448402 0.7672114307 0.01991376142 0.6410850666
-0.008223313332 -0.01885890961 -0.01817102242 -0.3210325778 -0.9470401174 -0.007286974322
0.01766696167 0.01830490494 -0.04978623962 0.8586341768 0.105263802 0.5016641131
-0.001749329805 -0.02051767159 -0.01360355282 -0.09098292554 -0.9958516856 -0.001235925513
