# .PCD v0.7 - Point Cloud Data file format
VERSION 0.7
FIELDS x y z normal_x normal_y normal_z
SIZE 4 4 4 4 4 4
TYPE F F F F F F
COUNT 1 1 1 1 1 1
WIDTH 506
HEIGHT 1
VIEWPOINT 0 0 0 1 0 0 0
POINTS 506
DATA ascii
0.01863140068 0.0233292057 -0.05191364365 0.9111092155 -0.01585550878 0.4118599281
-0.01671179962 0.003303622961 -0.007105673194 0.9845135449 -0.1192668923 0.1284853625
-0.01931594849 0.00377565062 0 0.915132687 -0.2639333905 0.3047479789
0.02020592546 0.003562891722 -0.02261577797 0.9822583129 0.1874207397 0.006486380368
0.004298644543 0.01654571088 -0.00327592055 -0.1441965001 -0.9634573412 0.2257372834
0.01977623272 0.01118722153 -0.05163373756 0.9584194754 0.1963408291 0.2070806318
-0.01529870796 0.007442255259 -0.007482470671 0.8900330045 -0.4553266351 0.02277951269
-0.01260965506 0.01145558469 -0.02403473345 0.7289794321 -0.6831840685 -0.04299437347
-0.01866816902 0.00641756773 0 0.7865019027 -0.2276281487 0.5741081631
0.000700682953 -0.02052909565 -0.03921329308 0.07342488907 -0.9967239347 -0.03391435861
0.01995800591 0.04559653091 -0.06562493134 0.9798966195 -0.002099033278 -0.1994948852
-0.01476663303 0.01031263542 0 0.7454849352 -0.5595311439 0.3621838074
-0.01260024516 0.01146052249 -0.01598156198 0.7312750946 -0.6819625804 0.012797458
-0.01595755119 0.007730070114 -0.0004765972078 0.8264674509 -0.5184956754 0.2193485518
-0.01253913689 0.01253913689 0 0.7089722872 -0.6641878574 0.2370923576
-0.008228593349 0.01492944527 -0.003840978622 0.535858934 -0.8395405045 0.08959321481
0.01969428921 0.02337430668 -0.06653621292 0.972496175 -0.0189048244 -0.2321503765
0.01765784454 0.04404635239 -0.05001434708 0.8827576181 0.004545364819 0.4698066915
0.003650984287 0.01664001783 -0.008092373053 0.08242879453 0.9962114961 -0.02771549854
0.01988389206 0.05147918797 -0.05541220665 0.9548754041 -0.009252618682 0.2968625133
-0.01056699228 0.01390774393 -0.0006619715095 0.556377395 -0.8272818335 0.07777507555
-0.015279706 0.007470956961 -0.003644471526 0.8286282069 -0.54407799 0.1317362345
0.007639360428 0.01524827194 -0.003805693269 0.3534901946 0.9259823237 -0.1326703376
0.02049301593 0.03443207296 -0.05898965963 0.9961675036 0.01997029743 0.08515569259
-0.01674068689 0.00315033412 -0.01583367157 0.9768131037 -0.2132121679 -0.01940958393
-0.008722675443 0.01539848161 -0.0004932730645 -0.5648697226 0.8207555632 -0.08533757696
0.01492674398 0.01617550039 -0.04467832756 0.8097723562 0.3126180166 0.4965266426
0.006498550892 0.04051395416 -0.04106772995 0.298994367 -0.00190287049 0.9542529788
0.007313518683 0.01621962802 -0.0003750599225 0.3451952621 0.9311487751 -0.1174827207
0.01142786407 -0.01690516456 -0.04306651052 0.5618535842 -0.8237564396 -0.07580157088
-0.006973960161 0.01811053276 0 -0.3920715455 0.9047064138 -0.1666919556
-0.003634599606 0.01879032071 0 -0.1363920944 0.9541182465 -0.2665625034
0.01756250954 0.01337787533 -0.04675026703 0.9114118865 0.2984350505 0.2833105959
0.008600476424 0.03133228556 -0.04190679042 0.3921192461 0.01060543829 0.9198532608
-0.004311662436 0.0164856507 -0.0004893245598 -0.287417311 0.9264867895 -0.2429269813
-0.0198093071 -0.005552896023 -0.004262051582 0.948773999 0.1561957445 0.2746466607
-0.01949211407 -0.0003661708236 0 0.9759671668 0.01020298961 0.2176786354
-0.01708746401 0.003443568627 -0.0003622147242 0.9563276788 -0.1896273277 0.2224384125
-0.01258499474 0.01146782939 -0.003318611542 0.722768087 -0.6835049875 0.1021137825
-0.00677850914 -0.01940662384 -3.914301842e-05 0.2890193113 0.918465793 -0.2699785636
-0.0001836195588 0.01894081116 0 -0.03746827608 0.9873585601 -0.1540103959
-0.01966732693 -0.004457320452 0 0.8884501808 0.1076130146 0.446179017
-0.01731309319 -0.0006469694773 -0.000393611605 0.9759068043 0.01013057449 0.2179524737
0.004094816566 -0.01548837709 -0.05878251648 -0.2886072907 0.8618727599 0.4169906203
0.003899414778 -0.01947001266 -0.04741671181 0.2166720246 -0.9602465079 -0.1760110161
0.02046579679 -0.0007480743329 -0.04740293376 0.9953486308 -0.09588573721 -0.009328910228
0.01839237404 -0.008515472889 -0.0004155583382 0.8672934181 -0.3807914713 0.3206243632
-0.00818166554 0.01496504235 -0.0115748601 0.5081076566 -0.8612770331 0.005336815493
-0.01669869232 0.003370679975 -0.003301544577 0.9507629077 -0.1751639175 0.2556706777
-0.004262344003 -0.01940488243 -0.04738302803 0.1560087015 0.9751504657 0.1572986149
-0.01025644588 0.01361278391 -0.00418408072 0.6026722705 -0.7966185526 0.04674415484
0.01754882622 0.03621099091 -0.04984350204 0.8468183795 -0.02817460972 0.5311354097
0.01168315252 -0.01690504233 -0.0146896445 0.5751557111 -0.8179061873 -0.01501255292
0.003492461503 -0.0202601161 -0.01174928784 0.1650758952 -0.9859694055 0.02478467845
-0.004236859441 0.01646378088 -0.003289150953 -0.2903428172 0.9341861245 -0.2073579837
0.0005724039674 0.01702013969 -0.0006021301001 0.004036849387 0.9686487373 -0.2484015451
0.01992182255 0.03130782604 -0.05547378159 0.9688748376 0.002660331973 0.2475368089
0.01214630604 0.05142367458 -0.04406110954 0.5723622628 0.01496317554 0.8198643445
0.003231274525 0.01908836047 0 0.02647568036 0.9777251095 -0.2082129883
-0.01756029987 -0.004301863551 0 0.9646653065 0.01474784295 0.2630652916
0.01532524109 0.01347653484 0 0.5831442393 0.4345574067 0.6863691838
-0.01701040697 -0.000658784546 -0.003392567873 0.9836647461 0.06122903824 0.1692769098
0.0006547677368 0.0170149045 -0.003396816194 -0.001054165715 -0.9909496925 0.1342296381
0.02048212528 0.02322903442 -0.05901861 0.9974051185 0.006694675225 0.07168131459
0.01400569963 -0.01503504467 -0.006895288467 0.6821667511 -0.7305846999 0.02990852513
-0.008502080441 0.04313470459 -0.04190267372 0.3417459706 -0.00175380463 -0.9397907298
0.003755239248 0.01701238441 0 0.111538352 0.9675466964 -0.226743437
-0.01531773074 0.007413004955 -0.01136687024 0.8915908958 -0.4528340005 0.002653781203
0.02032007933 0.002789509982 -0.006710725188 0.9878883287 0.1318199362 0.0818544711
0.00740863061 0.01874773026 0 0.1997889693 0.9606211032 -0.1931099788
-0.004180770516 0.01648162222 -0.00710274903 0.2404208417 -0.9568365366 0.1632839892
-0.01259106906 0.01146533712 -0.008128543218 0.7305901467 -0.682485119 -0.02126264254
0.01221445338 0.0153924036 -3.317540387e-05 0.486858008 0.8023392829 -0.3452838762
0.01854042673 0.05549316597 -0.05174465466 0.9071251537 0.007192704736 0.4207995016
-0.01829083443 -0.008875202179 0 0.7312638813 0.5505886593 0.4026229801
-0.01621753852 -0.007315386772 -0.0003731085062 0.9132198719 0.3603473242 0.190208495
-0.01647929891 -0.004358665307 -0.003213627656 0.9543867757 0.07205037715 0.289749246
0.01553637075 0.01101037669 -3.510645032e-05 0.6420081336 0.3729296173 0.6698873464
-0.01024516869 0.01362207937 -0.008035652161 -0.5265967053 0.8496750873 -0.02735244051
-0.008205549479 0.01494742203 -0.007684823155 0.5083359699 -0.8607308813 0.02714574833
-0.01527431345 -0.007616089344 -0.003830397606 0.852600167 0.4223137397 0.3077727415
-0.01540062523 -0.0122073377 -4.080862304e-05 0.7712262448 0.4479901519 0.4522332398
-0.01701428843 -0.0007596464008 -0.007165172577 0.9943467607 0.06567086687 0.08343774201
0.000377314647 0.01702404849 -0.006719793638 0.04125714824 -0.9951286445 0.08953674465
-0.01019864321 0.01366042805 -0.02392596626 -0.6278493111 0.7767617868 0.04946078354
0.005575719833 0.01978350639 -0.004238075733 -0.1441965001 -0.9634573412 0.2257372834
0.01738893318 -0.008459559202 -0.05230022621 0.8200864863 -0.5307409445 -0.2139443967
-0.01199694411 -0.01599986585 -0.0001458482742 0.4185412277 0.6470565254 -0.6372920003
0.02039213244 0.0002218744755 -0.05100205739 0.988646878 -0.1273532408 -0.07974022023
0.002158018112 0.01692668915 -0.01516618681 -0.0461333811 0.9987089215 0.02126502648
-0.01233888531 -0.01295115121 0 0.6251639267 0.5080730085 0.5924794366
0.01229868317 0.01230440903 0 0.5102902274 0.8346613497 0.2072301018
-0.0166873291 0.003411187315 -0.01141617718 0.9790133976 -0.2037220975 -0.005484006885
0.003547356208 0.05910113017 -0.04037893295 -0.1343764053 -0.02849328775 -0.9905206279
-0.01259562874 0.01146294467 -0.01203080177 0.7306930581 -0.6822679707 -0.02445549018
-0.004465192556 -0.02001465225 -0.03963470078 -0.2365613645 -0.9714789087 -0.01635392057
-0.01023375416 0.01363148737 -0.01193413258 -0.5182235354 0.8552440013 0.001437206842
-0.00412883343 0.01651173074 -0.01129713045 -0.2388633742 0.9710474656 0.003332877911
0.02055388006 -0.0004737504274 -0.0355114975 0.9994930825 -0.02351162796 -0.02146581823
-0.0164355402 -0.004551655054 -0.007857087612 0.9898848351 0.1282355888 0.06069305538
0.003627405326 0.03513325246 -0.04036414464 0.1537765985 0.02019619292 0.9878992214
-0.006977000475 -0.01934892178 -0.002941255748 -0.2868791897 -0.9418414498 0.175028609
-0.01701811218 -0.0008618039712 -0.01098254609 0.9996637751 0.02557986231 -0.004243508589
0.006580776978 -0.01948020515 -0.01945425034 0.2925944046 -0.9562267583 -0.004347552525
-0.0002728050575 0.01705708027 -0.01060484028 0.03771814136 -0.999281184 0.003802259568
-0.003843779325 -0.02019892693 -0.002694513679 -0.1703744986 -0.9673640581 0.1875614814
-0.008529853185 -0.01645178191 0 0.3930886808 0.8249724865 -0.4060808854
-0.01518546009 -0.007830111504 -0.007476996183 0.9163550191 0.3742530826 0.1422255572
-0.0153355449 0.007382019202 -0.01529788812 0.915144508 -0.4028715121 0.01432041245
-0.009458352089 -0.01828710747 -0.03124258423 0.3198277458 0.9474530908 0.006546275181
0.01185820325 0.05540183703 -0.04385786438 0.5650844036 0.007227787282 0.82500144
-0.01022219801 0.01364101267 -0.01588099146 -0.5245134446 0.8513827305 -0.005752616389
-0.008156493664 0.01498186207 -0.01551207018 -0.511325919 0.8593795712 -0.003543623847
0.01908413219 0.007640669584 -0.0109608655 0.9679942723 0.2509639289 -0.002048212664
-0.004055011034 0.01651903629 -0.01552329111 0.2777906755 -0.959770556 -0.04090012876
0.01983776665 -0.0006148956344 -0.05486259365 0.9693041402 -0.1978559796 -0.1459537431
0.00469201237 -0.020020504 -0.03908788013 0.2617867482 -0.9649146701 -0.02018360615
0.003355632931 0.01668624544 -0.01148798037 0.1058479951 0.9931338731 0.04981276908
0.009041644573 -0.01846654415 -0.0153178153 0.4443052408 -0.8958693988 -0.003297462465
0.007891037464 0.01511723518 -0.007411173105 0.3534234285 0.9217266375 -0.159724406
0.01116987705 -0.004187932491 -0.06858843613 0.6914649944 -0.475996925 -0.5434179689
-0.01245514107 -0.0163752861 -0.002666467905 0.5198730258 0.8015674419 -0.2953331561
0.02053661346 0.05568787384 -0.06219488525 0.9997820214 -0.0005018649669 -0.02087241977
-0.003968120754 -0.0201456995 -0.03094315147 0.1942266195 0.9808838664 0.01195244338
0.006958677292 -0.01923237896 -0.00019629246 -0.3040940588 0.9324129836 -0.195276295
-0.0164000597 -0.004708133459 -0.01162206602 0.9742296945 0.2254412609 0.007262247519
-0.007991397858 0.05995619202 -0.0416680603 0.3594805124 0.005511551006 -0.9331363159
-0.01701757431 -0.0009692563713 -0.01484181595 0.9996066707 0.02784425819 -0.003346819429
-0.0001774771288 0.01706272602 -0.01447219706 -0.03748379576 0.9992912584 0.003456281855
0.01720603371 0.008077950478 0 0.8230476749 0.4241028975 0.3777952582
0.008717430115 0.05126375008 -0.04199517059 -0.402997503 -0.00220646849 -0.9151984178
0.01599185467 0.01289877415 -0.003089660883 0.7973239761 0.553057198 0.241665498
-0.005166875362 -0.01786664391 0 0.2890193113 0.918465793 -0.2699785636
-0.01535342566 0.007350496054 -0.01927823798 0.9182871269 -0.3948479247 0.02904942237
-0.01260491991 0.01145806932 -0.01998234685 0.7300601965 -0.6833498996 0.006710007183
-0.0001257573292 -0.02056470776 -0.03141765499 0.05016439289 -0.9986456815 0.013796248
-0.01021049595 0.01365065813 -0.01987774467 0.5449558033 -0.8383540133 0.01362794483
-0.008131004333 0.01499889374 -0.01949893713 0.4665977535 -0.8842695368 0.01881283089
-0.004368349981 0.01645485535 -0.01930415802 -0.2995640422 0.953550302 0.03167342892
-0.003579973539 0.03976223882 -0.0403494072 0.1035885982 -0.03064307061 -0.9941480798
0.0173417263 0.004643260002 0 0.91465911 0.2026126319 0.3497811228
0.01889993286 0.006233538866 -1.864164323e-05 0.9118830739 0.3238782458 0.252135165
0.01602585357 -0.01287175533 -0.01933008848 0.7710027179 -0.6368064971 0.005682804014
-0.01023965454 0.05988689041 -0.04279038239 0.373066192 -0.00975331728 -0.9277534636
0.01544464493 0.04748780823 -0.04706199112 0.7658795513 0.01460371833 0.6428182047
-0.00396376133 0.05883067576 -0.04047623316 0.1747734313 -0.1016073762 -0.9793519229
-0.003332052469 -0.01956297684 0 0.120334001 0.9548949619 -0.2714688564
0.02026386881 0.003170384556 -0.01454392552 0.9855982691 0.1673615256 -0.02421098339
-0.001771461248 -0.01799772263 0 0.09937632576 0.9437283921 -0.3154378985
-0.01709615517 0.0001321219504 -0.01743161583 0.9909063769 -0.1314244609 -0.02884724044
0.01880384636 -0.008319294095 -0.01554185534 0.9169071396 -0.3985649993 0.02066975202
0.003789415359 -0.01988876406 -0.0003288722833 -0.1382062397 0.9611747866 -0.2388348067
0.01984225798 -0.0001914723236 -0.0002877276503 0.9438558774 -0.009669588057 0.3302159624
-0.01675298071 0.003079341352 -0.01978993893 0.9730523849 -0.2304556051 -0.007698722216
0.02000149536 -0.004779737651 -0.0348799572 0.973286413 -0.2290409282 -0.01593146172
-0.003993896961 0.03679432678 -0.04040655136 0.1306312497 0.006574047887 -0.9914092286
-0.001117301952 0.01700424767 -0.018897789 -0.1932697336 0.9808313049 0.02483467939
0.01904122543 0.002811855396 0 0.9165353668 0.09968742727 0.3873310449
0.008425761859 0.02732938957 -0.04185204697 0.4136730612 -0.007893619775 0.9103912836
-0.007930849552 -0.01899173737 -0.01501521349 -0.2310356806 -0.9728491781 -0.01367446407
-0.01517696381 0.007703390479 -0.02290228605 0.8577311321 -0.510550766 0.06029278891
0.01932119846 0.007008766174 -0.002972451627 0.9118830739 0.3238782458 0.252135165
0.01728967857 0.05817218018 -0.04948665619 0.8384688666 0.05472409293 0.5421948298
-0.01132786846 0.05570783997 -0.04341181183 -0.4184619756 -0.0346137025 0.9075744964
-0.0088263731 0.05547898102 -0.04199221802 -0.4001583398 -0.01937662042 0.9162411526
-0.006912662029 0.05594591522 -0.04124177933 0.3010708912 0.02914111165 -0.9531563954
-0.004001615286 0.05524009132 -0.04045555496 -0.2553023082 0.01579127329 0.9667323141
0.0001070088446 0.05858238602 -0.0400693531 0.0001857425295 -0.0440862244 -0.9990277125
0.01813107109 0.0293319912 -0.07035202789 0.9548584242 -0.001763926565 -0.2970560187
-0.005753996372 0.01607455254 -0.02184113121 0.3735853488 -0.9275917127 -0.002757118265
0.0002042139787 -0.01985365057 -0.0002750087045 0.009193429056 0.9746503606 -0.2235445267
0.0153197813 -0.008539779902 -0.05810600471 0.7450682989 -0.5733507647 -0.3407963184
0.003497159123 -0.01793342209 0 -0.1380427495 0.9471000894 -0.2897337053
-0.008805699825 0.05141521263 -0.04206293106 -0.4039253842 0.003395348257 0.9147856337
-0.008353881041 0.01487839127 -0.02325671196 0.5307581365 -0.8472460633 0.02167737879
0.01760972977 -0.002098931074 0 0.906539104 -0.09989442882 0.4101316325
0.02019229889 0.003851295471 -0.002702019751 0.9700486276 0.1112672024 0.2159288536
-0.009140127182 -0.01843591118 -0.02790896511 0.3136275671 0.9494924598 0.01009049243
-0.01294877148 0.05220471573 -0.04465158844 0.4952732951 -0.01122410194 -0.8686647125
-0.005106841326 0.05248096848 -0.040686306 -0.2517163582 0.003197501144 0.9677957693
2.404420078e-05 0.05503885778 -0.04007640711 0.01077329472 0.0274986445 0.9995637852
-0.007249049902 -0.0192674408 -0.006862739801 0.2997436856 0.9498920247 -0.08865023626
0.01987687492 0.0117197094 -0.06435063171 0.9733403772 -0.08194131731 -0.2142291547
0.01627070389 -0.01257696095 -0.03872089233 0.7683584416 -0.6393649607 -0.02894394909
0.01990868797 0.01961116524 -0.05544902496 0.9758889056 0.03331558706 0.2157102586
-0.007554093838 -0.01915956688 -0.01087293863 0.2188274809 0.9757509097 0.00496948842
0.01327443838 -0.01327443838 0 0.6881102277 -0.6803964975 0.2521208454
-0.0002419581115 -0.02054478359 -0.003358659267 -0.02809580424 -0.9859488778 0.1646676538
0.008068247795 -0.01695032231 -0.0002124368548 -0.4399544281 0.8685925874 -0.228006619
0.0164682529 -0.008784140587 -0.000237051934 0.8659924979 -0.4135174869 0.2811766021
0.01992503929 0.03481038666 -0.06575206757 0.9797008122 0.0003093696822 -0.2004650167
0.01722761154 -0.005922346115 0 0.9087325133 -0.2930520055 0.2971964693
0.01642539978 -0.001446389675 -0.06454005432 0.8011293695 -0.3853733783 -0.457907297
0.02047443485 0.04292026997 -0.05898781204 0.9986755322 0.01171253956 0.05009987925
0.01554759769 0.05558948669 -0.04719238281 0.7621898626 -0.01399279719 0.6472022983
0.01949597664 -0.004501981163 -0.0002783296645 0.9225224582 -0.1972622063 0.3317226793
0.02052223825 0.0002672276944 -0.003384168923 0.9733418887 -0.01152874057 0.2290691073
0.01920357895 0.007322282314 -0.006935868263 0.9322502901 0.3390254476 0.1263769856
0.01835515785 0.006124083519 -0.06616353607 0.9112670273 -0.2287525734 -0.3424392867
-0.0007792249918 0.05147846603 -0.04007287089 -0.01116897188 -0.01791298104 0.9997771648
-0.01093631554 0.04721380234 -0.04317182159 0.3965638926 -0.04179236756 -0.9170553293
-0.008567864418 0.04714886093 -0.04188434601 0.4055463659 -0.02575538692 -0.9137115547
0.006993679166 -0.01932224083 -0.002866995871 -0.3169249152 0.9356362729 -0.1553813466
-0.006681655884 0.04763408279 -0.0411450882 -0.250926175 -0.006327606498 0.9679855454
0.0202386837 0.003471568982 -0.03058656184 0.9763295084 0.2160595008 -0.009949025425
-0.003725423336 0.0477736702 -0.0403817749 -0.1643022784 -0.01622067826 0.9862766604
0.004198256314 0.05513914108 -0.0404880867 0.1986895616 0.006505145739 0.9800408875
0.006056766033 0.0598213768 -0.04091122055 -0.3094227299 -0.02978426055 -0.9504580328
-0.004032569528 -0.0201759491 -0.006526486874 -0.1202085125 -0.9889644293 0.08659833175
0.003699026346 -0.02021796751 -0.003252185643 -0.1511166125 0.9711697499 -0.1843721408
0.01154149647 -0.0162343132 -0.0004292517543 -0.5764680328 0.7930074315 -0.1970376123
0.01903007603 -0.0008137850612 -0.05863370323 0.9259154852 -0.2768454806 -0.2569768358
0.01571042862 -0.01224246311 -0.0003332009852 0.7983312503 -0.5567030351 0.2296713857
0.02001535034 -0.004545621117 -0.003208726843 0.9522781916 -0.2517108939 0.1726495632
-0.004934722185 0.04432360649 -0.04063811302 -0.2319973582 0.0285914483 0.9722961251
0.008418534994 0.05568855667 -0.04183227348 0.4052743645 0.006517543388 0.9141718717
0.0003565766886 0.0475010252 -0.04006823444 0.01863023255 0.01013855182 0.9997750368
-0.0002533566654 -0.01790503979 -0.0545015831 -0.04479876894 0.940068259 0.3380306773
0.003571767171 0.05090696589 -0.0403711942 0.149970561 0.00454696175 0.9886800069
0.006527561188 0.05651541901 -0.04109074402 0.3084080642 0.035017671 0.9506093986
0.008561647892 0.0587410113 -0.04194102605 0.4056488777 0.03185483837 0.9134737311
-0.008722462654 -0.01863101864 -0.02352912712 0.3083684294 0.951151949 0.01479465003
-0.0003798360974 -0.02054685736 -0.007148094177 -0.01827602442 -0.9968092726 0.07769981373
0.02039894613 0.01937589073 -0.06302035141 0.9949628646 -0.02818638124 -0.09619992687
0.01400809097 -0.01502601337 -0.0004761263132 0.6740674694 -0.7006392958 0.2339607313
0.01872766542 -0.008464042306 -0.003306170076 0.8844750159 -0.389244533 0.2572793031
0.01881546211 -0.008268699265 -0.007434063339 0.9245154327 -0.3732860343 0.07699838507
-0.006450574398 0.03953203201 -0.04104851913 0.1876245359 -0.0225824876 -0.9819811937
0.01399731827 -0.01506444359 -0.02812546921 0.6535057862 -0.7568993157 -0.005797698001
0.003820026398 0.04354554749 -0.04040760708 0.2028994175 -0.005664506691 0.9791832003
-0.000690450112 0.04343002446 -0.04006402206 -0.0005679922488 0.002569014216 0.9999965388
0.004123697201 0.04759821701 -0.04046459071 0.1505752562 -0.007237196887 0.9885720587
0.006515783072 0.05244324684 -0.04108856964 0.3000972894 -0.01208989018 0.9538319828
0.01222716904 0.0596006546 -0.04412948132 -0.5949086784 -0.05731316425 -0.8017473826
-0.004226035833 -0.02015093327 -0.01041607237 -0.1336354366 -0.9907445989 -0.02380566749
0.01885202742 -0.008227382421 -0.02335903263 0.9198517494 -0.3921924868 -0.007603447578
0.003412850475 -0.02026758385 -0.007460892963 0.1685955204 -0.9842552916 0.05307609038
0.009154142857 -0.0183973093 -0.004026711464 0.4433087713 -0.8869766421 0.1294209013
0.0117360789 -0.01685775789 -0.003453360875 0.5821473261 -0.8058656581 0.1080973254
0.01400707293 -0.01502985859 -0.00320947361 0.6777018024 -0.7201710715 0.1485728603
0.01400430727 -0.01504030228 -0.01063211966 0.6802619743 -0.7326537127 -0.02149845571
0.01598097817 -0.01291051165 -0.003289609551 0.7999204016 -0.5837704779 0.1390661003
0.01766806507 -0.01049104738 -0.003692434311 0.8637767687 -0.4851147715 0.1362106913
0.01960266876 0.04339542389 -0.0667937851 0.9818388091 -0.05084216313 -0.1827775352
0.02008875356 -0.004204602276 -0.007280801773 0.9788884393 -0.1928377298 0.06775716462
0.02055377197 -0.0007012959719 -0.007488375425 0.9952539493 -0.09227793645 0.0308927003
0.006490921021 0.02528146362 -0.04105392075 -0.4116882295 0.002271825242 -0.9113219193
0.02029218388 0.002978540361 -0.01059845877 0.9957610968 0.09171063796 -0.006999787816
0.02054279804 0.0388803196 -0.05986408997 0.9995292047 0.002270181267 0.03059763345
0.01572199821 0.04343570646 -0.04743118286 0.758704701 0.01417302258 0.6512805095
0.0004314988519 0.03956332207 -0.04006080246 0.02660985112 -0.001658669611 0.9996445191
0.006510802746 0.04841304016 -0.04107813263 0.3176815695 0.006330101333 0.9481763287
-0.0005277605653 -0.02054177284 -0.01100014448 -0.03502496788 -0.9993432626 0.009289519161
0.007088433647 -0.01929768333 -0.007078402233 0.3360394209 -0.9411971507 0.03500615837
0.01896279621 0.007964092255 -0.01504951859 0.9650469349 0.2620739822 -0.001281155746
0.01774953461 -0.01038366938 -0.01881038761 0.8632187909 -0.5048299361 -0.0002336602452
-0.0001387597919 0.03506863308 -0.04005982494 -0.02870360683 -0.01705664924 -0.9994424314
0.02053188642 0.01983261236 -0.05941779582 0.9998863807 0.009208427611 0.01193442648
0.01772873306 -0.01041108561 -0.01495037317 0.8583264957 -0.5131002071 -0.001950449258
0.004231872439 0.0391710186 -0.04047878551 0.1567250727 0.01539966044 0.9875222033
0.006499048471 0.04444641304 -0.04107965088 0.3016096867 -0.01119144147 0.9533658
0.008377137899 0.0476180191 -0.0418109684 0.4044600965 0.006339776922 0.9145336722
-0.0006820855513 -0.02053284693 -0.01491306233 -0.02507835453 -0.9996819056 -0.002676526315
-0.004437847137 -0.02011192417 -0.01437943745 -0.1463162261 -0.9888576961 -0.0274229615
0.01600190655 -0.01289172999 -0.01071851397 0.7701015898 -0.6377236124 -0.0158787781
0.009117164135 -0.01842006588 -0.007738106966 0.4478411506 -0.8933455216 0.03704163671
0.01171979396 -0.01687437757 -0.007145772854 0.5599516185 -0.827384466 0.04346412655
0.01399921751 -0.01505924463 -0.02413722324 0.672360894 -0.7402087398 0.004674369693
0.006487409115 0.03664679909 -0.04107279205 0.3091492365 -0.0178897376 0.9508452592
0.01599190474 -0.01290173292 -0.006977901777 0.7823974523 -0.6195925661 0.06292279885
0.01768800735 -0.01046476269 -0.007393091679 0.8679046363 -0.494475353 0.04728284576
0.02051716614 -0.001233068426 -0.01192820581 0.9949978141 -0.09841843259 0.01712197524
0.01779206181 -0.01032761669 -0.0267021389 0.8670171447 -0.4979577055 -0.01787160744
0.0009702382423 0.03131010342 -0.04005381012 -0.1330143224 -0.04039705665 -0.9902904967
0.01770822716 -0.01043811321 -0.01114518404 0.8650027569 -0.5017049233 0.007899401265
0.008678383112 0.04330130672 -0.04196859932 -0.4047184324 0.002993252196 -0.9144364554
0.02037879086 0.00693894875 -0.05178355408 0.993018206 0.0969749567 0.0671617468
0.01178258069 0.04733561134 -0.04379777273 0.569522846 0.02469788079 0.8216043711
0.01998906326 0.03915025711 -0.05580139542 0.9673494172 0.002379989388 0.2534352792
0.01777933502 0.03336842346 -0.05020473862 0.8654251652 -0.007928107879 0.5009754769
0.009079670429 -0.01844314194 -0.01150125027 0.4448498791 -0.895604277 0.00125064092
0.01557414945 0.05909553401 -0.04722276433 0.7577668325 0.01996446986 0.6522199379
0.008632818699 0.03899081675 -0.0419242452 -0.4035530634 -0.01123738968 -0.9148872314
-0.008321894646 -0.01881413651 -0.01923476028 -0.2487799202 -0.9684192225 -0.01651547286
0.01988116226 -0.005272531605 -0.01920948639 0.9572674629 -0.2892028658 0.0008407832263
0.006867779136 -0.01937621021 -0.01128463149 0.3194080419 -0.9476166373 -0.001100664777
0.01980515862 0.0433255949 -0.05507304859 0.9652958227 0.01448120444 0.260757108
0.01998329697 -0.004726191044 -0.01101816807 0.9723892453 -0.2331606213 -0.009761163785
0.01562795385 0.03563905652 -0.04730571238 0.7604945051 -0.01732902159 0.649113097
0.0188395071 0.008292721272 -0.01920398617 0.961793698 0.2737704179 -0.001625061297
0.004254529357 0.03147892141 -0.04047751999 0.2789643382 0.01229420893 0.9602227609
0.01206995249 0.04345869732 -0.04400000763 0.561174028 -0.007086623754 0.8276674997
0.01582162174 0.05143731372 -0.04756816292 0.7602103501 -0.009852715825 0.6496022996
-0.004662530899 -0.02006383705 -0.01841340637 -0.2214047531 -0.9750840258 -0.01382309587
0.01170198011 -0.01688997205 -0.01089081907 0.5789320296 -0.8152594714 -0.01377313769
0.01878025103 -0.008364237309 -0.01171733546 0.9200482535 -0.3911295531 0.02299747554
0.01889882183 -0.008129691482 -0.03141642761 0.9231069715 -0.3845235289 0.003895488197
0.02050302362 -0.001456762701 -0.01563669991 0.9934335471 -0.1140603105 0.008946125881
0.02023512077 0.003365136027 -0.01854903603 0.984411671 0.1742959677 -0.02354947414
0.0205693868 0.007301637173 -0.05560480245 0.9994133609 -0.01929760492 -0.02829375323
0.00426841259 0.02769961739 -0.04047641373 -0.2562871193 0.0007110319919 -0.9666004381
0.006718451262 0.03129413509 -0.04114716148 0.3248194459 0.01933291805 0.9455784292
0.008451900164 0.03489285278 -0.04186801783 0.431688321 0.005670456227 0.9020050108
0.01171422704 0.039471838 -0.04374149895 0.5604385888 0.0007368918818 0.8281956564
0.01605701033 -0.01283755859 -0.03160405795 0.7694070973 -0.6385793022 0.01513913421
0.01824317551 0.06000988579 -0.05113584328 0.8817183486 0.03202806433 0.4706877488
-0.0008387186155 -0.02052378607 -0.01888444805 -0.03814032443 -0.9988452836 -0.02921326885
0.003398913503 -0.02027890635 -0.01561353803 0.1568087819 -0.9875730065 0.01051488338
0.006809275627 -0.01940029478 -0.01511282229 0.3185849512 -0.947891051 -0.002486826103
0.01896245241 0.01511335802 -0.05136562347 0.9180097035 0.1703200388 0.3581190705
0.019898386 -0.005185160398 -0.01480401683 0.9561538316 -0.292797908 -0.006263821124
0.01868566036 0.008659579277 -0.02346176624 0.9570863585 0.2896706793 -0.008752133422
0.006018386841 0.02828551483 -0.04090117264 0.3445217934 0.0175785468 0.938613727
0.01215068283 0.03526921692 -0.04404809875 0.6023181237 0.02124577809 0.7979733672
0.017535429 0.05511219788 -0.04983955383 0.884162868 0.001714379245 0.4671756456
-0.004001574516 -0.02015725009 -0.02289993223 -0.1676220184 -0.9853855233 -0.03030230227
0.01229985682 -0.01342143695 -0.05458948771 0.6275130479 -0.7179829216 -0.301210722
0.02053034735 -0.0005586531907 -0.04354184914 0.9970818476 -0.07581920282 0.008901552772
0.01400253868 -0.01504698245 -0.01538027191 0.679826724 -0.7333727362 0.0002348066899
0.01587898363 -0.01304605961 -0.01490468952 0.7709955605 -0.6367159875 -0.01259352625
0.02051485395 -0.001338686273 -0.01957959175 0.9964909845 -0.08270419061 -0.01287379785
0.01143531208 0.03144212456 -0.04353266754 -0.5406828405 -0.0004304615643 -0.8412264146
0.01534704208 0.03959629822 -0.04694250946 0.765625058 -0.002800593672 0.6432809863
0.01777443314 0.05208797455 -0.05019705582 0.8794239669 -0.007575414522 0.4759790957
0.01897864914 0.004133371592 -0.063210783 0.9114831903 -0.2293549301 -0.3414596751
0.0200206728 -0.004692193031 -0.03908763599 0.9736672378 -0.2266872693 -0.02418660762
0.0118744278 0.02734479809 -0.04383827464 0.5611417973 0.001213940866 0.8277187987
0.008574944655 0.02385370509 -0.04189279556 -0.4224999007 0.01343114691 -0.9062634486
0.01976800791 0.05860786438 -0.05515013377 0.9702852367 0.07189500168 0.2310360756
-0.003713322878 -0.01793393326 -0.05345286942 0.08941350886 0.9562541084 0.2785377974
-0.0005980189443 -0.02053113365 -0.02267141978 0.05711767551 -0.9983670676 0.0008772153308
0.003303020179 -0.02029708719 -0.01953551435 0.2032696506 -0.9790905783 -0.007942836518
0.01848416615 0.009084547043 -0.02784846783 0.9505208513 0.3106496118 -0.002632464584
0.01742267609 0.04698987198 -0.04965413666 0.8852305041 0.01427571277 0.4649334992
0.01968437862 0.05582937813 -0.05469895744 0.9635328707 0.01516006352 0.2671602133
0.0184332366 0.04732223988 -0.05150803089 0.9102470615 0.01293521344 0.4138634646
0.01883232975 0.05103460884 -0.05235269737 0.9213105295 0.009133770776 0.3887203139
-0.003743097961 -0.02019430876 -0.026723557 0.1507127618 0.98856446 0.005096252009
0.02053785515 0.05813560867 -0.05902730179 0.999369162 0.0107288358 0.03385513485
0.009003068447 -0.01849028587 -0.01918954372 0.4455637136 -0.8952439028 -0.00336625401
0.01184010724 -0.01679765592 -0.01892871911 0.5755538224 -0.8177632669 -0.001018195811
0.01882778358 -0.008273699522 -0.01942179585 0.9265228728 -0.3760320679 0.01245993905
0.02052349186 -0.001215083439 -0.02358590698 0.9970605099 -0.07551406254 -0.01296016778
0.02017165136 0.003768954992 -0.02675205803 0.9802146999 0.197937022 0.0002784202516
0.01202493874 0.0234408048 -0.04395892207 -0.5880405517 -0.1011699688 -0.8024792502
0.01821316433 0.0001538197398 -0.06212798119 0.8947120275 -0.3132185531 -0.3184093683
0.01382203197 0.03241424561 -0.0453445282 0.6734064087 -0.007085033498 0.7392385346
0.01573924335 0.0232187144 -0.04742751249 0.765629096 0.09066280154 0.6368613222
0.003729244995 -0.02019558182 -0.02386888657 0.1406925165 -0.989967301 0.01305215287
0.01400074005 -0.01505377531 -0.02020836544 0.679452404 -0.7334315285 0.02055781462
0.02054065609 0.003064028621 -0.04804640007 0.9999878236 0.0009202421954 0.004848275983
0.0199474597 -0.005012346268 -0.02364531803 0.9581780802 -0.2859039826 0.01239674528
0.01829631805 0.009447735786 -0.03123086357 0.9472894553 0.320371117 0.002243916552
0.01204880452 0.0199130311 -0.04381024075 0.63719486 0.1058840101 0.7633945813
0.01563324738 0.03133452129 -0.04729808489 0.7603569508 -0.005041567562 0.6494858659
0.01731712341 0.0390783577 -0.04948039627 0.8871398509 -0.00150865482 0.461498222
0.01851297913 0.03945460587 -0.05168179932 0.8864857457 -0.007559692483 0.4626941471
0.00888032198 -0.0185602932 -0.0311584177 0.4435713969 -0.8961833634 -0.009989745251
0.01872752762 0.04297226143 -0.05210977936 0.9090520211 0.01794013033 0.4162962582
1.620162278e-05 -0.02056176853 -0.02727789307 0.06808708795 -0.9975094065 0.01841554841
0.01981398773 0.04741280874 -0.0552846934 0.9694991817 0.004740086519 0.2450487057
0.0204372654 0.05536776924 -0.05857821846 0.9948863694 -0.01210913417 0.1002720346
0.007370102882 -0.01922875404 -0.03168533516 0.3679942136 -0.9298264094 -0.001762734411
-0.009817927837 -0.0181043644 -0.03466712379 0.3373892738 0.9412991689 0.0111513493
0.004667744279 -0.01812726402 -0.05215940285 0.2386541652 -0.9279220735 -0.2863648284
0.006950262864 -0.0193641332 -0.0234898084 0.2974745949 -0.9546915709 0.008536381007
0.02036800194 0.05886282539 -0.06306549454 0.9996419016 0.02635490029 -0.004635488506
0.008963924885 -0.01851437569 -0.02311824131 0.448484429 -0.8936622068 -0.01515180301
0.0116424737 -0.01693716304 -0.0231114432 0.5814165421 -0.8135885908 0.00533005069
0.01868612099 0.01223407507 -0.04859838486 0.9258532597 0.255065233 0.2788143979
0.01603557364 -0.01285896985 -0.02357892513 0.7710149459 -0.6367871379 0.006172053221
0.01777064037 -0.0103558507 -0.02272702122 0.8639896076 -0.5032237554 -0.0169649611
0.0175623436 0.01968287277 -0.07132767487 0.919204148 -0.02496070326 -0.3929894371
0.02053009367 -0.001087169012 -0.02765637112 0.9988050271 -0.04781929268 0.01009123539
0.01809951687 0.009823517323 -0.03467335129 0.9443399044 0.3289679108 -0.001502884749
0.01575001987 0.02739120992 -0.04740835762 0.761942606 0.01174398486 0.6475380638
0.02051128149 0.0511741724 -0.05945040417 0.9924774435 -0.01838407283 0.1210394564
0.01877549998 -0.008154255072 -0.04363753255 0.9201257585 -0.3888806196 -0.04626502248
0.003995178143 -0.02013449637 -0.02780721728 0.1669311114 -0.9856738864 0.02410380958
0.01996736431 -0.004930170298 -0.0276746316 0.9593413746 -0.2819535416 0.01289679768
0.01982062149 0.005510556221 -0.03207193375 0.9761662674 0.215320165 0.02714120323
0.007076023579 -0.01917066574 -0.04337457657 0.3343609365 -0.940147668 -0.06576569458
0.01862602329 0.03512410164 -0.05188706017 0.9080866629 0.002560245469 0.4187744713
0.01980096753 0.002702073018 -0.05901357396 0.9478329293 -0.2304714054 -0.220217323
-0.01045341158 -0.01772824192 -0.03947379494 0.3510956449 0.9361944427 0.01648677088
-0.004199173391 -0.02009425068 -0.03523476791 -0.2523969118 -0.9676225874 -0.001525532352
0.01975165081 0.008126536131 -0.06313259888 0.9485384084 -0.1618966683 -0.2721476741
0.007430565834 -0.01920860004 -0.02761222458 0.3676242825 -0.9298725948 0.01376024399
0.01829513359 0.03980525589 -0.07002400208 0.9487807377 -0.007131993587 -0.315854787
0.008924194813 -0.0185388279 -0.02710578632 0.4503110648 -0.8926353692 -0.02054367455
0.01162264299 -0.01695279916 -0.02708982976 0.5859142851 -0.8103585074 0.004851814292
0.01604621061 -0.01284834512 -0.02756112353 0.7724072287 -0.6350654418 0.008885812598
0.01887573957 -0.008179426074 -0.02735652208 0.9217658704 -0.3876351242 -0.009310783637
0.02053442478 -0.0009546080632 -0.03179351234 0.9993151971 -0.03360505024 0.01548668312
0.02041240311 0.03576690038 -0.06296231079 0.9987705168 0.004624646156 -0.0493565334
0.02054528046 0.04694252396 -0.05913756561 0.9953152559 -0.002100486915 0.09665986405
0.0197796545 0.005693446398 -0.03530919838 0.9726555813 0.2321738983 -0.006033336744
0.01775330925 0.01042445183 -0.03944048119 0.9465060825 0.3202602501 0.03949187304
0.01972765732 0.00593683672 -0.03968139648 0.9743548544 0.2241155442 0.0201206504
0.01555040588 0.01952257957 -0.04701546402 0.7852305552 0.1319239971 0.604986805
0.01756268406 0.0271831255 -0.04986521912 0.8691311598 0.02345012667 0.494025423
0.01857530355 0.03128122425 -0.05178705025 0.9139693786 0.01207481772 0.4056034687
0.02032580439 0.02716920726 -0.06360870488 0.9847778272 0.006040297124 -0.1737128256
0.01983491974 0.03557726974 -0.0552620575 0.967860708 0.01125629146 0.2512348419
0.02036150932 0.0518182106 -0.06342028427 0.98706698 0.000798872823 -0.1603063904
0.008553755442 -0.01709421285 -0.05097106298 0.4062318357 -0.8740681766 -0.2664216928
0.01978746605 0.05567963219 -0.06615828323 0.9870232751 -0.04703548562 -0.1535340921
0.003543668079 -0.02022853088 -0.03160807991 0.1573547003 -0.987519128 0.006743152174
0.01895059299 0.01415802622 -0.06780178833 0.9436282053 -0.05699404435 -0.3260636273
0.02005385272 -0.004559720119 -0.03122223918 0.9604472287 -0.2784571421 -0.001655561868
0.02041248894 0.002700842142 -0.03515550041 0.9922239736 0.1237116958 0.01367488795
0.01686062431 0.01579796092 -0.04724996567 0.8598030773 0.2826003392 0.4252948584
0.01853157139 0.02747386932 -0.05167973518 0.9109083416 -0.02618221797 0.411777227
0.02037333012 0.04758681679 -0.06311933327 0.9940358398 0.03770002035 -0.1023301405
-0.0002699767724 -0.02056769466 -0.03562333679 -0.004895376541 -0.9999849382 -0.002481674601
0.01160251045 -0.01696867212 -0.03112880993 0.592915856 -0.8052503372 0.004762568366
0.01781132412 -0.01029636621 -0.03074083138 0.8686026989 -0.4954318402 -0.00875461435
0.01820560646 0.01010647964 -0.04322405815 0.9185391931 0.3678391847 0.1448450379
0.01916949463 0.01011740208 -0.06604496765 0.9391172793 -0.1586902529 -0.3047558685
0.01751060104 0.01971021271 -0.0496624012 0.8934208906 0.1031784265 0.4372108467
0.01976033897 0.02784472771 -0.05496475677 0.9597124338 -0.0007557230105 0.2809830479
0.02047647476 0.04329650497 -0.06268515587 0.9982314196 0.009343746411 -0.05870883571
0.01924475288 0.05229872894 -0.06792773438 0.9637751539 0.006623304154 -0.2666338023
0.01810249329 -0.00810270977 -0.04986902237 0.875870795 -0.4580535659 -0.1517803719
0.01156103532 -0.01699723721 -0.03869984055 0.5658264614 -0.8238331502 -0.03375435126
0.004211055279 -0.02010203629 -0.03496731033 0.2538680344 -0.9672084307 -0.007672852962
0.01399533081 -0.01506966305 -0.03217472172 0.6508923523 -0.7590833949 0.01146931792
0.02038685131 0.002896432042 -0.03947434616 0.9904999277 0.1374915474 -0.002442886197
0.01844281514 0.01917841085 -0.0513296051 0.8944313586 0.1418302867 0.4241187504
0.01830327606 0.05085706711 -0.06997050476 0.9584940534 -0.007806019645 -0.2850056415
-0.006509522438 -0.01934907532 -0.04346379852 0.2322835708 0.9711910319 0.05321956695
0.008071610808 -0.01891507006 -0.03554892254 0.4490358491 -0.8935121176 -0.001703496241
0.01132797298 -0.01716094933 -0.03479725113 0.5582767781 -0.8293229751 -0.02346149963
0.01606194439 -0.01282262287 -0.03537096252 0.7721661615 -0.6354089624 -0.003856109025
0.01782994938 -0.01026365709 -0.03484332848 0.8641407516 -0.5030016687 -0.01581400287
0.02051022434 0.0309505558 -0.05942811203 0.9959372358 0.01201056199 0.08924555327
0.01892103672 -0.008077875733 -0.03554119682 0.9271294297 -0.3747346683 0.002224621648
0.01893881273 -0.008020144701 -0.03973782444 0.9250105326 -0.3799324193 -0.002621317459
0.02053312826 -0.0007052980959 -0.03920780373 0.9992794232 -0.03685285657 -0.009083019085
0.01245667934 -0.009034128348 -0.06200393677 0.6211452333 -0.6316092722 -0.4639486248
0.01984757328 0.005986771345 -0.04389358711 0.9777613505 0.1950517519 0.07705553519
0.0138572855 -0.01047211266 -0.05777836227 0.6817231476 -0.6253945927 -0.3796513577
0.01970363274 0.007719220543 -0.04746403809 0.9677921799 0.2354014063 0.08924390376
0.019849823 0.02367944813 -0.05518218994 0.9684061217 -0.01930635519 0.2486299422
0.02030582619 0.03955062485 -0.06390248871 0.9855517779 -0.008800683075 -0.1691456208
-0.007426896572 -0.01862957191 -0.04665248108 0.2989642022 0.9438853845 0.1403594907
-0.003191553354 -0.02023784637 -0.04293354416 -0.08839538956 -0.9925894051 -0.0833818207
0.01399331188 -0.01507496405 -0.03628695107 0.6644227602 -0.7472986634 -0.009332922929
0.02040640545 0.003043712854 -0.04380343437 0.9934150801 0.1103871819 0.03067814847
0.02049540949 0.02706910753 -0.05922334003 0.991622381 0.003617367811 0.1291199756
0.01922358131 0.04123419189 -0.06799963379 0.9619356657 -0.00731215203 -0.2731781606
0.0008057553967 -0.02038934835 -0.04311480967 0.02712353005 -0.994827749 -0.09788801699
0.0151810468 -0.01184304015 -0.05149827703 0.7425613308 -0.6309183422 -0.2248215192
0.008005315542 -0.01892480278 -0.03975639725 0.4181719443 -0.9083087485 -0.01036543928
0.02049411392 0.02346879578 -0.06260221481 0.9971729893 -0.03418446144 -0.0669137648
0.0178484602 -0.01023000526 -0.03901113319 0.8628916518 -0.504908054 -0.02204210077
0.01666964722 0.003145657778 -0.06757390594 0.8188419825 -0.3029468326 -0.4875664306
0.01993639501 0.0152298282 -0.05452878952 0.9608190793 0.1036561265 0.2570643973
0.02042298126 0.03136623383 -0.06320045471 0.9926886307 0.004739492577 -0.1206101971
-0.000665219744 -0.0198601284 -0.04727719116 -0.02441834362 -0.9825843398 -0.1842057536
0.01206810989 -0.01582299881 -0.04743292465 0.5821422291 -0.7994599765 -0.1482368751
0.004436268568 -0.01988660765 -0.04357191658 0.205566706 -0.9734139574 -0.1010326529
0.01399177837 -0.01507899189 -0.03941164017 0.6804868231 -0.731273431 -0.04665675276
0.01998176908 -0.004539807558 -0.04344273663 0.9702428327 -0.2378459818 -0.04536666688
0.01935963535 0.03164648533 -0.06755659485 0.958528222 -0.01389932812 -0.2846584908
0.008578331947 -0.01846915245 -0.04391545677 0.463887616 -0.8812774859 -0.09032315634
0.01391486025 -0.01500815296 -0.04267657661 0.6616138584 -0.7476489785 -0.05734201948
0.01600527525 -0.01272255309 -0.04280583191 0.7694830821 -0.6349185008 -0.0690961921
0.01779549599 -0.01012101507 -0.0433420372 0.8677149363 -0.4955606957 -0.03860552117
0.02040418307 0.01150462786 -0.05551635361 0.9884936084 0.06604181155 0.1360840376
0.02050057507 0.01565404844 -0.05857520103 0.9978869292 -0.0221435953 0.06108467645
0.0002356274873 -0.0193331852 -0.04992785263 0.04146789674 -0.9744720843 -0.2206458032
0.006618750572 -0.01880332661 -0.04713886833 0.3009817158 -0.9379643633 -0.1721419761
0.01881937218 -0.007390780449 -0.04697515106 0.9201810563 -0.3798428231 -0.09479585085
0.01975236956 -0.004575891813 -0.0475079422 0.9622532986 -0.2562794772 -0.09159377081
0.02058429718 0.003145515442 -0.05135120773 0.9984775013 -0.0516264955 -0.01942638098
0.02052881479 0.01198146844 -0.05951453686 0.9989609671 -0.02717006125 -0.03658926127
0.003226056337 -0.01890305138 -0.05041345406 0.1584435381 -0.95279254 -0.2590019708
0.008945480347 -0.01779173088 -0.04733852577 0.4370856782 -0.88297165 -0.1712225893
0.01568147182 -0.01236981789 -0.04754212697 0.7532843749 -0.641377606 -0.1455933274
0.01750214195 -0.009760509968 -0.04807302666 0.8448737214 -0.5158463198 -0.1417426163
0.01922113876 -0.004683727932 -0.05142391052 0.9455630549 -0.2877034211 -0.1521093377
0.02045031452 0.003430083632 -0.05495536232 0.9916297297 -0.1020689308 -0.07907219791
0.02023438772 0.01541333516 -0.06354288991 0.9849114114 -0.02378057036 -0.1714176076
0.01342222118 -0.01452795696 -0.04868929291 0.641382741 -0.7501328779 -0.1610243617
0.02033064079 0.006923474789 -0.05926357778 0.9840890303 -0.113478157 -0.136716818
0.01898052025 0.02047634125 -0.06856712341 0.9539390954 -0.01786714458 -0.299467807
0.003315092385 -0.01691554928 -0.05610257912 -0.1580016541 0.914539787 0.3723606522
0.008010802905 -0.01588104534 -0.05510063299 0.3852295247 -0.8572134832 -0.3417356544
0.01098650026 -0.01544423103 -0.05189929962 0.5306440227 -0.8086270849 -0.2540455839
0.01300098419 -0.01411310196 -0.05143574905 0.6486639745 -0.7196133595 -0.2477734066
0.01843620237 -0.00453087457 -0.05574676387 0.8750950475 -0.4091140458 -0.2585234137
0.01468230247 -0.01132416439 -0.05439646912 0.7454096748 -0.6121914724 -0.2637916183
0.01647677231 -0.008618807316 -0.05502375793 0.7805061745 -0.558907298 -0.280058465
0.005809994698 -0.01380838585 -0.0610185585 -0.3587575476 0.827888107 0.4311546177
0.00809572506 -0.01377477932 -0.05946862411 0.4366591088 -0.7966545094 -0.4179358985
0.01132515176 -0.01245743688 -0.05815257517 0.5448365675 -0.7361333651 -0.4015728869
0.017131464 -0.004626780033 -0.05956426748 0.8427611262 -0.4317029317 -0.3215373431
0.01784555626 0.009218728065 -0.06865467072 0.8980990069 -0.1887336485 -0.3972376916
0.008648852587 -0.01094487715 -0.06331578827 -0.4821721693 0.73910577 0.4703537604
0.01458183765 -0.006587636948 -0.06223366165 0.7076898643 -0.5488226434 -0.4449368068
0.01564391756 -0.004180317879 -0.06317507172 0.7649867548 -0.4701466873 -0.4401787789
0.01667350388 0.0006975591183 -0.06586361694 0.800626993 -0.3913337885 -0.453711675
0.0162498188 0.006092677116 -0.06991942596 0.8369339269 -0.2862260591 -0.4664935639
0.01251023674 -0.00201352334 -0.06917990112 0.7038084663 -0.4466468651 -0.5524130888
0.01271504593 0.0001814878434 -0.07057794952 0.7057123768 -0.4140149744 -0.5749449036
