# .PCD v0.7 - Point Cloud Data file format
VERSION 0.7
FIELDS x y z normal_x normal_y normal_z
SIZE 4 4 4 4 4 4
TYPE F F F F F F
COUNT 1 1 1 1 1 1
WIDTH 340
HEIGHT 1
VIEWPOINT 0 0 0 1 0 0 0
POINTS 340
DATA ascii
-0.01582607126 -0.006144663413 -0.00674432985 0.9584697757 0.2370568793 0.1585551168
-0.01829083443 -0.008875202179 0 0.8878776426 0.4220987366 0.1830463013
0.01728967857 0.05817218018 -0.04948665619 0.8445826928 0.03764515029 0.5341001009
-0.01027283945 0.0140613348 -0.001355800056 -0.5595614361 0.8252119718 -0.07691684388
0.004379592001 0.0186138134 0 0.111241496 0.9725200068 -0.2045242427
-0.005415502548 -0.01986460876 -0.0309655714 -0.2253563498 -0.9739208042 -0.02632076519
-0.01309587002 0.01198240376 0 0.7341892221 -0.6789439914 -0.001114765175
-0.01465151906 0.008669881821 -0.01635196972 0.8849298141 -0.4656826787 0.00623432575
-0.005726341793 0.01603785011 -0.001675234697 -0.4305371743 0.8989768031 -0.08048881379
-0.01875978279 0.004330341637 0 0.9380892797 -0.3228644116 0.1254873503
0.01829513359 0.03980525589 -0.07002400208 0.9736073616 0.01162324169 -0.2279333359
-0.0007510339419 0.01692150942 -0.01567696794 -0.1859046183 0.9825336903 0.008186594042
-0.004259592613 -0.02007958698 -0.03632472801 -0.1670344914 -0.9855969362 -0.02642268151
0.02050301628 -0.001496835688 -0.02106374779 0.9880728387 -0.1534055142 -0.01337212357
-0.0192596221 -0.001119524151 0 0.9630361906 -0.03164031603 0.267507357
-0.0100154874 0.01376171793 -0.01626427228 0.5182794373 -0.8552110735 -0.0006668284654
-0.0150449646 0.009030965567 -0.001232107013 0.8712313652 -0.4743181523 0.1264048999
0.0002072777562 0.01797875118 -0.0007659565322 0.02262261746 0.9784270833 -0.2053500911
-0.01259781265 0.01148189449 -0.002375601292 0.736596982 -0.6763306625 0.001311877329
-0.00565130043 0.01843601751 0 -0.3823750308 0.9119728945 -0.1486431147
0.01995379957 0.05423739688 -0.05588213539 0.9686826247 -0.03070133769 0.2463968353
-0.01648316411 0.00428492294 -0.001738904072 0.9183039583 -0.385054388 0.09192909432
-0.01700848293 -0.0006087918878 -0.001522668194 0.9849875524 -0.1116501578 0.1316577528
0.02021324317 0.003513326049 -0.02159649277 0.9939324088 0.108820515 0.01601444085
0.008331453085 0.01774599171 0 0.3268423262 0.9197361972 -0.2173923213
-0.002473997951 0.0168663168 -0.001999520838 0.209909595 -0.9759417073 0.05895545764
0.01261264133 -0.0009160177484 -0.06987892532 0.7438085847 -0.4152096055 -0.5237840899
-0.01865642071 -0.005395273447 0 0.9628283344 0.224733646 0.1498545524
0.0155509367 0.01010481453 -2.808516026e-05 0.7234895808 0.5735476925 0.3841950948
-0.005991626203 0.01593573129 -0.01613563442 0.4024110656 -0.9154457533 0.004940351704
-0.01627672809 -0.005986446687 -0.001231884599 0.9249665205 0.2927452865 0.2423574492
-0.01647354579 0.004185588866 -0.006460723162 0.9268500741 -0.3701047493 0.06301916166
-0.01461245871 0.008722160876 -0.006568369925 0.8665321237 -0.4971213087 0.04463723919
0.009282554865 0.0150502553 -0.001008564532 0.4813501035 0.8714807252 -0.09393308041
-0.0126049695 0.01148220634 -0.006210663557 0.7408425256 -0.6713830756 0.01992782122
-0.01403608767 0.009569781409 -0.02142643589 0.8294015142 -0.5586185234 -0.006202706358
0.01865990829 0.03904672496 -0.05201899529 0.9225216274 0.005251737308 0.3859096608
-9.293171018e-05 0.0345102066 -0.04004882355 -0.1149788212 -0.02134226773 -0.9931386501
-0.01096509865 -0.01559581484 -0.0004434303897 0.5470266384 0.8033910111 -0.2352121173
-0.0100488145 0.01373783425 -0.006478423187 0.5544199686 -0.8310206971 0.04497887749
-7.504153438e-05 0.01699898577 -0.01636348391 -0.07705875029 0.9970260788 -0.000973230176
-0.006094191194 0.01588735449 -0.006388155103 0.4106449196 -0.9100673556 0.05610845017
-0.01701331615 -0.000734381929 -0.006220187306 0.9882519986 -0.1022362725 0.1136033971
0.01960249329 0.01964283371 -0.06643028259 0.9665805787 -0.01562432079 -0.2558864309
-0.002385159016 0.0168856945 -0.006740870953 0.214548251 -0.9749379313 0.05886491323
0.0007378418992 0.01700965627 -0.006216715972 0.02954594046 -0.9956373656 0.08850578313
0.01093276539 -0.01742482452 -0.01616817989 0.5435454868 -0.8391471654 -0.01975698681
-0.008519895554 -0.01872421074 -0.02137127686 0.2171518408 0.9759917377 0.01688804375
0.0050711085 0.01640983009 -0.001570852598 0.1959371175 0.9727648289 -0.1238435853
0.0187695303 0.008467763424 -0.02131589794 0.9569560011 0.290088755 -0.009150196845
-0.002129354954 0.01694149017 -0.02039315796 -0.3081314125 0.951185628 -0.01734744225
-0.01262883949 0.0114832468 -0.01900137138 0.7442106912 -0.6677243674 0.01716439067
-0.01650256702 0.004120207821 -0.01128818512 0.9590003239 -0.2834014352 0.001416090953
-0.0146396443 -0.01152864997 0 0.7448036348 0.5701840146 0.3466377577
-0.00481873955 -0.01952717754 -0.001056760932 -0.2342987326 -0.9380456863 0.2552927618
0.01989641698 0.03930019887 -0.06555454 0.9894594313 0.008950034857 -0.1445334934
0.0001637349129 -0.0178037262 0 -0.001160453518 0.9338698241 -0.3576112485
-0.0126140426 0.0114826018 -0.01107248783 0.7458146712 -0.6661388755 0.00441302424
0.01651897081 -0.007109091123 -0.05752410507 0.7968801619 -0.518599759 -0.309897237
0.01446388012 0.03430422126 -0.04608856752 0.7178386412 0.009220088007 0.6961484577
-0.0198093071 -0.005552896023 -0.004262051582 0.9584697757 0.2370568793 0.1585551168
-0.01451433325 -0.01438560629 -6.121293455e-05 -0.0862771984 -0.1049773958 -0.9907249827
-0.01262324667 0.01148300314 -0.01600470543 0.7424166164 -0.6699128011 -0.005865707434
-0.006097017288 -0.01700977802 0 0.2656514278 0.8967747839 -0.3538704648
-0.014399983 0.009069770268 -0.01131767981 0.8406482666 -0.5415797988 0.001346591317
0.01973636654 -0.005698257889 -0.03139289583 0.9639234402 -0.2652730102 0.0219506589
-0.0170182929 -0.0009939621538 -0.01581699204 0.9917412891 -0.1282422184 0.00177450605
-0.01038329041 0.01349430633 -0.01120743167 0.5571896222 -0.8303850468 0.0006315511161
0.005575719833 0.01978350639 -0.004238075733 -0.1040948741 -0.9882082126 0.1122888494
-0.005602184432 0.01607039288 -0.01125689547 0.3919724506 -0.919973431 0.002546393396
0.01621699028 -0.01203675079 -0.04590122147 0.7816675445 -0.6139557033 -0.1097918223
0.020480124 -0.0004778025001 -0.01142233574 0.9995886392 -0.01427937255 0.02487271342
0.0173417263 0.004643260002 0 0.9125961718 0.3035503369 0.2739076857
0.007633559704 -0.01108158207 -0.06392472839 0.479063323 -0.7159338169 -0.5078750854
0.01845912552 0.01350881481 -0.0688560791 0.9327033956 -0.1118759158 -0.3428529646
0.008308726549 -0.01881043879 -0.01650865682 0.398426116 -0.9171966488 0.002633924189
0.004425809383 0.01650657654 -0.006041728258 0.1052229942 0.988264934 -0.1107273307
0.01430505104 0.01373101501 -0.0006378374189 0.6552261614 0.7506200526 -0.08513644419
0.018416008 0.004817813396 -0.06521746063 0.8900297988 -0.2634591329 -0.3720702118
-0.008028337479 -0.01894746145 -0.0160671498 0.2088467615 0.9777646545 0.01895549054
0.009729856849 0.04977193594 -0.04253757763 0.4375282745 -0.02070026196 0.8989663554
-0.0170331459 -0.0006432541609 -0.01149221916 0.9960289617 -0.06904846921 0.05620156841
-0.002295076847 0.01690534306 -0.0115485611 0.2167029775 -0.9759217912 -0.02482895542
0.0006615586609 0.01701329689 -0.01147286358 -0.05316399433 0.9984678692 -0.01534613331
0.01533352337 -0.005509024906 -0.06201075058 0.7337227177 -0.5215305534 -0.4354961026
0.007828007539 0.01515005207 -0.006508218129 0.3203746291 0.9332764396 -0.162342799
-0.01651145005 0.004035610795 -0.01617135215 0.9587618869 -0.2842095388 -0.0007630566826
0.01846218777 0.05909052372 -0.05161582184 0.9082867741 0.05605130799 0.4145761534
0.004640588284 0.01644035467 -0.01070952352 0.0852900073 0.9946340223 -0.05855575448
0.01087686205 -0.01742614841 -0.04096789646 0.5628081905 -0.8243765481 -0.06041727911
-0.0164000597 -0.004708133459 -0.01162206602 0.9904995547 0.009032575874 0.1372189666
0.01045127869 -0.0104525795 -0.06240813828 0.554343068 -0.6812527755 -0.47811967
0.01854230881 0.007768054962 -0.0009945687652 0.9213199804 0.3269024787 0.2104857789
-0.01035483384 0.01351446462 -0.0211439147 0.5639057281 -0.8254160086 0.02643373882
0.0195517362 0.004472295602 -0.0009068871314 0.9307525584 0.2407199337 0.275233698
-0.009115526199 0.05992154121 -0.04222922134 0.3041262978 0.07923471231 -0.9493308461
0.02054932404 0.0349693346 -0.06082696533 0.9967481267 -0.02245807215 0.07738738199
-0.004846238971 0.05896307182 -0.04063316536 0.1589005906 -0.08837342226 -0.98333145
0.009635307217 0.05897588577 -0.04252473755 -0.4217902446 -0.08276546688 -0.9029080059
0.004816588243 0.0594429156 -0.0406272049 -0.2141538291 -0.04275831285 -0.9758636504
-0.0164487648 0.004341162825 -0.02049080582 0.9303462432 -0.3666815403 0.0007182020918
-0.005732275009 0.01603136571 -0.02079956818 -0.4112025192 0.9114828807 0.01055681452
0.01800282021 -0.009617326355 -0.001608860373 0.8873877919 -0.4237843306 0.1815206546
0.01973789493 -0.0008305057294 -0.001041399781 0.9470614462 -0.03079256053 0.3195722693
-0.01007712078 0.05559341049 -0.04270201492 -0.4190141649 -0.009429080739 0.9079307364
-0.005025915051 0.05427760696 -0.04070510025 -0.2240056294 0.01893983074 0.9744037976
6.607039273e-05 0.05863166904 -0.04011686993 -0.01372797883 -0.1507070915 -0.9884831385
-0.005921345282 -0.01964327469 -0.00613836174 -0.2675069576 -0.9457391998 0.1844380482
0.0205386116 0.004150033188 -0.05160908661 0.9984053821 -0.05637209175 -0.002979988845
0.004329463747 -0.01976197857 -0.00132522979 -0.2034933439 0.9413562321 -0.2691447626
6.684207047e-05 -0.02008380572 -0.000989376165 -0.001160453518 0.9338698241 -0.3576112485
0.01923305829 0.007243704478 -0.00594250075 0.9398899761 0.3060307984 0.1514991196
0.0140052912 -0.01503329076 -0.005972559081 0.6443805948 -0.75842772 0.09778058422
-0.01294877148 0.05220471573 -0.04465158844 -0.4316060812 -0.02137906602 0.901808808
0.004751412551 -0.01997709211 -0.02082804235 0.2048511155 -0.9785668385 -0.02104668664
-0.004843413194 -0.02001855151 -0.02149408086 -0.1292019901 -0.9915920931 0.007208790905
-0.009278894901 0.04929827213 -0.04229550743 -0.3261872837 0.02900273032 0.9448601471
0.000144552175 0.054446558 -0.04006443787 0.07759912626 -0.001971773917 0.9969826918
0.006435830355 -0.01671306801 0 -0.3130980693 0.9182129582 -0.2425995929
0.01037605365 -0.01662329133 -0.0007669080761 -0.5247570545 0.8284087868 -0.1958798504
-0.01364719518 0.01018141111 -0.02492877515 0.8257031921 -0.5620852061 0.04769129555
-0.01017726994 0.01364295101 -0.02492432594 -0.5296988778 0.8474623815 -0.03502300228
0.01506397295 0.01917116261 -0.04643852901 0.7411439104 0.1483627377 0.6547474339
0.01619865004 -0.006949330012 0 0.8817677519 -0.3838192822 0.2741685437
0.01712312317 0.02384956932 -0.04917637253 0.8327724545 0.07184501712 0.5489338144
0.01721626282 0.03136973381 -0.04932233429 0.855866174 -0.008762336248 0.5171231127
0.01930730459 -0.005961814086 -0.001298904833 0.9288077983 -0.3117342748 0.2003442431
-0.003993896961 0.03679432678 -0.04040655136 0.08148787477 -0.01965691524 -0.9964804724
-0.00505563736 0.04841670736 -0.04070213191 -0.2191742496 0.04530346903 0.9746333895
0.0001021153033 0.04992276764 -0.04008480301 0.007984840385 -0.02941698815 0.9995353336
0.02031126722 0.009445685705 -0.06098552704 0.9751892768 -0.1049044629 -0.1949382673
0.004819328751 0.05461330904 -0.04065879931 -0.2110214469 -0.009024908218 -0.977439768
-0.0003452288906 -0.02054638863 -0.006198465268 -0.00381738187 -0.9880706806 0.1539537519
0.008310968399 -0.01875758972 -0.001909698319 -0.314344129 0.9269155038 -0.2049766263
0.0138298957 -0.014849967 -0.001187410487 -0.6517116159 0.6845397124 -0.3266149901
0.01587401974 -0.01179021716 -0.0007625759244 0.7874482002 -0.5798810266 0.2089577159
0.01806197834 -0.009812860012 -0.006621850729 0.8917750532 -0.4438599415 0.08789543083
0.02049354625 -0.000404618524 -0.006282368511 0.9948204213 -0.001201155013 0.101640969
0.0201434269 0.004069471836 -0.006563873529 0.9803541212 0.1616706368 0.1129973546
0.01851517995 0.04907106145 -0.05175067457 0.9104164313 -0.007200239637 0.4136303643
-0.009502254486 0.04295787048 -0.04234146881 0.2427411965 -0.02676234355 -0.9697218614
-0.005015591145 0.04441593075 -0.04073103046 0.2185334558 -0.005924630904 -0.9758114713
0.01813107109 0.0293319912 -0.07035202789 0.9644932545 -0.03490995318 -0.2617901014
0.000105109632 0.04427481588 -0.04009081205 0.004720545063 0.02345781206 0.9997136828
-0.005075589299 -0.01990508699 -0.01101606965 -0.1121443545 -0.9936754023 0.005730499576
0.01908413219 0.007640669584 -0.0109608655 0.9832065381 0.1814300177 0.01969903589
-0.004874254306 0.04035017395 -0.04064378611 0.2053635305 0.00391364731 -0.9786779367
0.0004539879163 -0.02013655853 -0.04564806112 0.06449756357 -0.9875011386 -0.143810867
0.004879771185 0.04922341919 -0.04065254059 0.2074598138 -0.02122626906 0.9780132265
0.009793813467 0.05501863352 -0.04255857849 -0.4764258052 -0.005034135057 -0.8792002671
-0.007641597271 -0.01912310791 -0.01189405823 0.1986391015 0.9800005781 0.01189009064
0.004688711196 -0.01998000813 -0.006309466004 0.2403139999 -0.9640053053 0.113767099
0.01964886761 -0.005936506212 -0.006267838657 0.9437915357 -0.3168128441 0.09427172887
0.02008127785 0.004346922716 -0.01147491868 0.9858776651 0.1674046985 -0.00457125003
-0.0001683473377 0.03920430298 -0.04008171844 0.01114283178 0.02880576806 0.9995229187
0.02046443224 0.01461535788 -0.0613236084 0.9928435114 -0.03260151789 -0.1148864784
0.008189821005 -0.01886816279 -0.02635663637 0.3566694223 -0.9342274881 0.0024338658
0.00524389414 0.04455816714 -0.04073455811 0.2932635478 -0.003637249761 0.9560247183
0.01455934511 0.05876482555 -0.04621067974 0.7164918608 0.05223313029 0.6956371997
-0.0007720744133 -0.02053695259 -0.01152082615 -0.01748496808 -0.999821196 -0.00720083007
0.0162498188 0.006092677116 -0.06991942596 0.797249494 -0.263483408 -0.5431111654
0.008566915703 -0.01868232841 -0.006598028469 0.3992311522 -0.9135659461 0.07753547079
0.0184352726 0.04434367065 -0.05153048248 0.9128518854 0.01105947026 0.4081410582
0.01111629788 -0.01729390812 -0.006323152939 0.5344214654 -0.8406772095 0.08749586703
0.0205882473 0.04025241089 -0.0606973877 0.9994315019 -0.02864886271 -0.01777401759
0.01644850222 -0.01233440129 -0.006115196943 0.7983182769 -0.593919036 0.0997401993
0.01893205706 0.008046028137 -0.01608533541 0.9811618549 0.1929834712 -0.008876620823
0.005063557227 0.03910169029 -0.04070449829 0.2242911319 0.02089185283 0.9742982185
0.009524702489 0.04400089169 -0.04243710661 0.4405481042 0.02569047143 0.8973613361
0.01221107006 0.055450737 -0.04406266022 -0.6178337255 -0.0541688547 -0.784440707
0.004350543022 -0.02004386234 -0.01138702202 0.2031551518 -0.9788123133 0.02558201687
0.004566955964 0.03451694489 -0.04057630984 0.2534105093 0.04629505108 0.9662504241
0.01460592338 0.0543493042 -0.04625090517 0.7178027511 0.02334288007 0.6958551002
-0.004547327995 -0.02009010983 -0.0163861146 -0.1288205531 -0.9916228791 -0.009451494129
0.008230067635 -0.01884513359 -0.01119119549 0.3929018369 -0.9194176203 -0.01730277433
0.01955569863 -0.006251753926 -0.01129734945 0.9483919738 -0.3170786853 0.003710979817
0.01978033733 0.0444959774 -0.06620935822 0.9718617681 0.002997844378 -0.2355328357
0.02017184448 0.003734796286 -0.01684778849 0.9956658921 0.09212250452 0.01276226653
0.001850095868 0.03034370613 -0.04010280228 -0.1908873601 -0.003398829082 -0.9816060634
0.004912629843 0.02991729101 -0.04065848478 -0.3146328741 -0.005932422423 -0.9491949014
0.01890223885 0.00945628198 -0.045612559 0.9484499717 0.2876991895 0.132935426
0.01550227324 0.01555952867 -0.04502993393 0.861152449 0.3508199146 0.3678883622
0.00969071428 0.03911245982 -0.04249046199 0.4962938603 0.01066892019 0.8680890383
0.01213570023 0.04737804413 -0.04399361038 0.5917483905 0.003392748785 0.806115582
0.01490674305 0.0497097106 -0.04653488922 0.7153795732 -0.01604644905 0.6985517717
-0.0005155088425 -0.0205331707 -0.01636339684 -0.03471219165 -0.9992938294 0.01438423635
0.01121086235 -0.01723528976 -0.01154216232 0.5416888338 -0.8405719318 -0.003469111261
0.01400162612 -0.01503960758 -0.01157991664 0.679505455 -0.733553837 0.013080703
-0.01009062147 -0.01795489025 -0.03700915337 -0.3542027263 -0.9349087747 -0.02204567174
0.02013416815 0.003981315792 -0.03095790482 0.9888370856 0.1456848983 -0.03125905463
0.01646884823 -0.01231473621 -0.0117277387 0.7958517604 -0.6052582809 0.01680442814
0.01707356453 0.0419850235 -0.04912973404 0.8356291377 0.006252893557 0.5492584506
0.0180882473 -0.009772102594 -0.01130858302 0.8917074743 -0.4524097257 -0.01353588735
0.006863907337 -0.01696271706 -0.05366640854 0.3392393939 -0.8945688119 -0.290969542
0.02051380062 -0.0007210128109 -0.0160518055 0.9996974109 -0.02459599292 0.0003518900459
0.02001578617 0.05840974426 -0.05603573799 0.9713927411 0.05821582316 0.2302326223
0.0095826337 0.03449946594 -0.04245045526 0.4639195259 -0.002823628942 0.8858728467
0.01475064259 0.04449486732 -0.0463876606 0.7196627024 -0.01640715088 0.6941299592
0.004263611725 -0.02008576066 -0.0161890425 0.2119438587 -0.9772805926 0.001563387089
0.01963860703 -0.005950194776 -0.01643517935 0.9629958358 -0.2683797478 0.024725114
0.005762684822 0.02607299805 -0.04084872818 -0.366672305 0.005736395811 -0.9303324753
-0.004700245976 -0.01988625288 -0.04198171234 -0.2214547449 -0.9731591109 -0.06260304107
0.00979774877 0.02954232379 -0.04255579703 0.4633998595 0.007877383904 0.8861142799
0.01207102013 0.03950414658 -0.0439242897 0.5742995571 -0.004007504718 0.8186354247
0.01485054249 0.03909075377 -0.04648852327 0.7194099466 0.01535795432 0.6944159143
0.01693181992 0.0529802742 -0.04894896317 0.81929939 0.01639627959 0.5731314609
0.02054338932 0.02457832289 -0.06100277424 0.9988476939 0.01249807737 0.04633662066
0.01827632408 0.05436692352 -0.05124051056 0.8586728404 0.007427010421 0.5124702847
0.02046616745 0.005056862513 -0.05640955989 0.9929613975 -0.08369979571 -0.08379741768
-0.008930142879 -0.01853409958 -0.02570924473 -0.2230337642 -0.974810397 -0.0007936833487
0.01970522881 0.01572530746 -0.06603356934 0.9628242018 -0.04368898089 -0.2665723716
-0.0001817802319 -0.02049254363 -0.02160234697 -0.02259052395 -0.999743595 -0.001553225834
0.01811501471 -0.009730572224 -0.01608414157 0.8987137471 -0.4373893008 -0.03168911958
0.01859354877 0.00886169672 -0.02563529205 0.9732400363 0.2296986614 -0.006508209868
0.009620976395 0.02465297741 -0.04247309791 -0.4668715784 -0.001038377601 -0.8843245168
0.01717804146 0.04997121048 -0.04930268097 0.8414042644 -0.005882987516 0.5403741799
0.01399781434 -0.01504428244 -0.01634176048 0.6775892099 -0.7352527835 0.01661947753
0.01648589134 -0.01229779959 -0.01649349666 0.7954033656 -0.605881816 0.01551486349
0.01217904425 0.0303764658 -0.04400067329 0.6042153343 -0.01349211149 0.7967068424
0.02006209469 0.004499785841 -0.04174498844 0.9747816125 0.2171237579 0.05155658744
-0.009462055206 -0.01828415108 -0.03125264931 0.2700397703 0.9625780434 0.02284803986
-0.005151556969 -0.01993990231 -0.02670409679 -0.1441004728 -0.9894913921 0.01190960441
0.01968156733 -0.005880027907 -0.0213141455 0.9619235694 -0.2733126877 0.001794804174
0.02017165136 0.003768954992 -0.02675205803 0.9925128672 0.1220957265 -0.003292706935
0.0182959315 0.009448483467 -0.03123782984 0.9471501081 0.3206046864 -0.01092281259
0.014873474 0.0293812592 -0.04647798204 0.7133490974 -0.004019563371 0.7007973376
-2.047231581e-05 -0.02050185449 -0.02633026368 0.00551969092 -0.9998849106 -0.01413147375
0.01581705284 -0.0111463726 -0.05110385666 0.7552788745 -0.6188529053 -0.2158121946
0.008251103282 -0.01884018326 -0.02138266945 0.3737067013 -0.927532021 0.005258461039
0.01102536106 -0.01736640104 -0.02158720875 0.5489200627 -0.8357443092 0.01477207771
0.01650326506 -0.01228053459 -0.02135161972 0.7966676931 -0.6044173865 -0.0004579241339
0.0139938417 -0.01504896259 -0.02119597075 0.6790126268 -0.7341253609 -0.001344271532
0.01806897926 -0.009820439529 -0.02149515953 0.8826141111 -0.4700916038 0.002492967139
0.02054136429 -0.0009255894825 -0.02614214058 0.9996772211 -0.02505029057 0.004235157536
0.01666964722 0.003145657778 -0.06757390594 0.8388776259 -0.3278189669 -0.4345331446
0.0197631588 0.004392410874 -0.06057058907 0.9577422501 -0.1853938638 -0.2199065657
0.01097065401 0.02045472717 -0.0431538868 -0.6431800494 -0.1430379701 -0.7522363746
0.01486122183 0.02441576333 -0.04649382331 0.730520996 0.03815304082 0.6818235988
0.01731712341 0.0390783577 -0.04948039627 0.8581549434 0.02270144216 0.5128886211
0.02009303665 0.04885186005 -0.05644689484 0.9738070625 0.009963252154 0.2271575196
0.01860179806 0.019442976 -0.05177120717 0.9263167997 0.08397953247 0.367266422
0.02055239964 0.05827494049 -0.06026503563 0.9977674544 0.01740889964 0.06447508966
0.004784046078 -0.02000101624 -0.02614043617 0.1986728497 -0.9797358301 -0.02543230444
0.01969666886 -0.005776382267 -0.02632201672 0.9617062984 -0.2740775642 -0.001576201786
0.01229752064 0.02149453354 -0.04407616425 0.6565082657 0.09297816827 0.7485666018
0.01652093887 -0.01226297021 -0.02629388762 0.7981006174 -0.6021671751 -0.02073879995
0.01697646904 0.03420200729 -0.04896811676 0.8031997397 -0.03444447168 0.5947131716
0.01836821747 0.03408285268 -0.05140160433 0.9138860911 0.01369100023 0.40573978
0.01985910177 0.04397441864 -0.0554405899 0.9611168679 0.01369159429 0.275802296
0.02052741289 0.05417465973 -0.06127622318 0.9965817291 -0.01255418687 -0.08165322808
0.0001197273071 -0.02049028151 -0.03116451618 0.00728885499 -0.9999516097 -0.006606881295
0.01824797363 -0.009503676605 -0.02633035011 0.9065400527 -0.4221165944 0.001647287916
0.01793535519 0.0101131711 -0.03703469849 0.9268212499 0.3749445164 0.02046900718
0.02016905975 0.05931137848 -0.0646282196 0.999247718 -0.004058636734 -0.03856845212
0.01099561095 -0.01738967705 -0.02653897238 0.555905039 -0.831209652 0.007752552168
0.01398972146 -0.01505364593 -0.02613433679 0.6793994292 -0.7335878091 -0.01628932104
0.0205203022 -0.001181172021 -0.03125606003 0.9921217237 -0.124407654 0.01473841882
0.02008641561 0.004251845439 -0.03631568019 0.9859093815 0.1649863065 -0.02760815377
0.01841480923 0.02887496535 -0.0515091025 0.8919583545 0.04079844278 0.4502730071
0.01805806112 -0.009240748405 -0.04589124584 0.8705211376 -0.4806699397 -0.1055905208
0.02020016937 0.04007977905 -0.05693263855 0.9785531555 0.001990857019 0.20598485
0.02056841596 0.04799030177 -0.06054032262 0.9961167506 0.02445293191 0.08457820858
0.0001162572553 -0.01922684606 -0.05007574717 0.05840760505 -0.9768275368 -0.2059041405
0.01960656166 0.05455266444 -0.06674810028 0.977808331 -0.01359023931 -0.2090602142
-0.01067920113 -0.01757668877 -0.04076180649 0.3502377525 0.9362209519 0.02870271671
0.02049103851 -0.0006572042108 -0.04629589615 0.9862966526 -0.1580143433 -0.04743817345
0.005418325424 -0.01982296944 -0.03151369095 0.3231705757 -0.9461790098 0.01749458216
0.02052398396 0.01953528452 -0.06113212872 0.9995453159 0.00118662519 0.03012894695
0.01783114815 0.01043647194 -0.04152209473 0.9224909828 0.370323205 0.108954626
0.01832218475 0.02414073486 -0.05128032379 0.8948822777 0.001836185165 0.4462984848
0.02002783241 0.03489656601 -0.05607837296 0.9596676054 -0.01802505988 0.2805587005
0.02050709915 0.04361207708 -0.06170813243 0.9963823729 -0.003947802343 -0.08489158866
0.0202401886 0.04926379585 -0.06424325752 0.9939355337 0.0245915091 -0.1071793471
0.0005755411118 -0.02054110374 -0.03656641388 0.09439180986 -0.9955287547 0.003561566384
0.008381993135 -0.01878142103 -0.0309920063 0.3626425241 -0.9318000826 -0.0154598086
0.01096519629 -0.01741336632 -0.03159136645 0.5615610448 -0.8272024607 0.01962860121
0.01398539935 -0.01505830606 -0.03117292023 0.6569863058 -0.7537121421 -0.01694109777
0.01653897127 -0.01224504916 -0.03133632183 0.8005026283 -0.5993113355 -0.004633049213
0.01812032204 -0.009732032013 -0.03151320343 0.8858401431 -0.4635124064 0.02105920215
0.02054685249 -0.0005820383996 -0.03655883942 0.995694088 -0.09190824867 0.012089542
0.01735424042 0.02111552048 -0.04953856277 0.844987898 0.05729395646 0.5317074899
0.02007134552 0.03016277199 -0.05624109344 0.9772634373 -0.02486392658 0.2105658075
0.005354771444 -0.01982448578 -0.03625562341 0.2614655747 -0.9652100408 -0.002308781937
0.01982057599 -0.005350523131 -0.03626075472 0.9652812392 -0.2600598678 -0.02451518802
0.005710556848 -0.01966575704 -0.04121764537 0.3288922109 -0.9428901633 -0.05280202307
0.01777782313 0.01400094954 -0.04773378245 0.9125286334 0.2563720993 0.3186923909
0.01997244708 0.02485859044 -0.0558606294 0.9627909268 0.005580194992 0.2701897347
0.01830327606 0.05085706711 -0.06997050476 0.9665171719 0.02979030565 -0.2548668163
0.008822929382 -0.01858614222 -0.03631846237 0.3933358233 -0.9189101911 -0.0298494674
0.01829663773 -0.009402300453 -0.03654658279 0.8904323282 -0.4550797018 0.005721356875
0.01896245241 0.01511335802 -0.05136562347 0.9295128267 0.1331125673 0.3439286982
-0.005585612416 -0.01922708607 -0.046173666 0.2216137383 0.9663899403 0.1302990189
0.0005737520009 -0.02047932816 -0.04143679523 0.0801142796 -0.9940115032 -0.07431577079
0.01093239594 -0.01743571281 -0.0367377367 0.5682344981 -0.8228569534 0.003998681695
0.01398099852 -0.01506305059 -0.03630273883 0.6587735757 -0.7523228321 -0.005266146368
0.01655695963 -0.01222642589 -0.03647054863 0.7999238066 -0.6000752032 0.005626200295
0.02053086948 -0.0006312665939 -0.04136705685 0.9951020607 -0.09868641749 -0.005734089303
0.02026424522 0.004708668518 -0.04647226486 0.9900058713 0.1215740157 0.07147120692
0.01983987236 0.02445823352 -0.06599777985 0.9675910838 -0.008383135058 -0.2523830771
0.0198069814 0.009910647233 -0.05078476397 0.9641332017 0.1738157538 0.2005872708
0.02012480774 0.01993018456 -0.05641952972 0.9696057694 0.0416708233 0.2410978938
0.02052844906 0.02975564337 -0.0609398737 0.999718852 -0.01327542705 -0.01964637333
0.01968772643 -0.005734237501 -0.04118809618 0.9430088984 -0.3309962781 -0.03428821068
0.02018961906 0.01461186584 -0.05583224678 0.9796132152 0.07318987541 0.1870860517
0.01975026512 0.03373707771 -0.06633288574 0.9727485733 0.01244170149 -0.2315284373
-0.004780359745 -0.01898516464 -0.04907120514 0.03433298321 0.9789750258 0.2010700007
0.01007445173 -0.01435282516 -0.05592203903 0.4997086423 -0.790901343 -0.3532227887
0.008721027851 -0.01857126999 -0.04162951088 0.3742992334 -0.9253022922 -0.06095696809
0.01407578611 -0.01489301777 -0.04132590055 0.6631598447 -0.7470027363 -0.04696735348
0.0165520072 -0.01219116044 -0.04067961216 0.7965034206 -0.6025362157 -0.05032305344
0.01822288847 -0.009475885153 -0.04136361217 0.8857577014 -0.4622553585 -0.04187216252
0.01971688843 0.02980123806 -0.066120327 0.9907835173 -0.01031639044 -0.1350614449
0.004945616921 -0.0193591156 -0.04644151688 0.2917895962 -0.9385382557 -0.1844038343
0.01961197063 -0.005210803032 -0.04646172496 0.9569774948 -0.2821050121 -0.06790314071
0.02051746826 0.009633137321 -0.05614865799 0.9959527767 0.07823644141 0.04423941481
0.008314313889 -0.01825231552 -0.04637718391 0.3624863548 -0.9202767747 -0.147289852
-0.003713322878 -0.01793393326 -0.05345286942 -0.003046739927 0.9652456703 0.2613264496
0.01058096766 -0.01718544865 -0.04557852077 0.5471706156 -0.8251257364 -0.1406123629
0.01361207183 -0.01471060642 -0.0466424853 0.6380630525 -0.7538815097 -0.1566467698
0.0201825325 -0.0006148275971 -0.05175519562 0.9703482843 -0.2114046032 -0.1171849005
-0.001155153036 -0.01813918304 -0.05383819199 -0.0396646396 0.9545936879 0.2952585432
0.00458403786 -0.01839253362 -0.05130848821 -0.2196798973 0.9389803816 0.2646820465
0.01883357391 -0.005651834106 -0.05147054062 0.9257457273 -0.3409792013 -0.1634871025
0.001265598029 -0.01717374992 -0.0561994133 -0.1324701637 0.9272771661 0.3501552698
0.01008791133 -0.01628752586 -0.05068800517 0.528561762 -0.8155882896 -0.2354531918
0.01774557781 -0.008865557194 -0.04959501076 0.879732535 -0.4518134888 -0.1481054971
0.01962352867 -0.0003410221159 -0.05630942688 0.9332932369 -0.2732965988 -0.2329650255
0.005179918528 -0.01648306513 -0.05624895477 0.2606315341 -0.8962831908 -0.3588142212
0.01300098419 -0.01411310196 -0.05143574905 0.6102511906 -0.748843474 -0.2585090633
0.01843620237 -0.00453087457 -0.05574676387 0.9008595293 -0.3508631748 -0.2556308685
0.01908290434 0.009585374236 -0.06574159813 0.951323265 -0.1568357783 -0.2653047007
0.0175623436 0.01968287277 -0.07132767487 0.9231413768 -0.01596538349 -0.3841290214
0.004193609595 -0.01448675251 -0.06052849388 -0.2671005162 0.8562176212 0.4422088865
0.01454966777 -0.01053652218 -0.05598461206 0.7089681653 -0.6315919615 -0.3137765681
0.01832710695 -0.0005892242119 -0.0609684515 0.9123440887 -0.3015981226 -0.2768877685
0.00809572506 -0.01377477932 -0.05946862411 0.4291102784 -0.8111856487 -0.3972936096
0.01140568066 -0.0125352211 -0.05804344177 0.5567273186 -0.7331605707 -0.390551239
0.01250684834 -0.009084839821 -0.06193358612 0.6609324866 -0.6125150773 -0.4335822047
0.01654945183 -0.0003744152784 -0.06520183563 0.8115822135 -0.4025143553 -0.4234577954
0.01116987705 -0.004187932491 -0.06858843613 0.6398502052 -0.5409514493 -0.545860096
