# .PCD v0.7 - Point Cloud Data file format
VERSION 0.7
FIELDS x y z normal_x normal_y normal_z
SIZE 4 4 4 4 4 4
TYPE F F F F F F
COUNT 1 1 1 1 1 1
WIDTH 557
HEIGHT 1
VIEWPOINT 0 0 0 1 0 0 0
POINTS 557
DATA ascii
0.01452692699 0.008929815292 -0.004941571712 0.8584634449 0.5096841483 -0.05711902278
-0.006700602055 0.01611204338 0 -0.4566997977 0.8528846454 -0.253008056
-0.01774471601 0.03341277059 -0.05025239182 0.8571874209 -0.003625882532 -0.5149918237
-0.004256361723 0.01655872345 -0.002356278896 0.123730818 -0.9618070159 0.2441678701
-0.02052373981 0.0003354361653 -0.005271915257 0.9954072814 -0.008251243359 -0.09537432128
0.003025968393 0.01677052943 -0.005715629737 -0.1770571076 -0.9821344126 0.06373991051
0.01774599171 -0.008331453085 0 0.8131143324 -0.3461652832 0.4679900417
-0.02059875679 -9.344241768e-05 -0.02620346642 0.9997052249 -0.001113224302 -0.02425332938
0.003421830535 -0.0202573514 -0.02052953529 -0.1626512891 0.9858900198 -0.03956547681
-0.006828537464 -0.01897937202 -0.0458030777 -0.3559544231 -0.9229824784 -0.1462866815
0.000693112433 -0.02042525864 -0.04334669876 0.06411021583 -0.9940055346 -0.08856002158
0.008931515694 0.01455478334 -0.007848532915 -0.5088207139 -0.8607125464 0.01659498787
-0.008495676041 -0.01739326382 -0.05007777023 -0.4160838757 -0.8785362498 -0.2346236694
-0.005518324137 0.04292811394 -0.04077479935 -0.2692036553 -0.002138137556 0.9630809002
0.01024456692 0.01362146759 -0.008035055637 -0.6165511546 -0.7873141952 0.001015826677
-0.02006361008 0.008967413902 -0.06234907532 0.9767946541 0.1202941947 0.1772047135
-0.01549283218 0.06011650467 -0.04709469604 0.7514966388 -0.06908266076 -0.6561100425
0.01206124806 0.01206133175 -0.008161046863 -0.7068917862 -0.7073217105 2.091730324e-05
0.0002491172701 0.01705848312 -0.01156582928 0.003287014196 -0.9999063105 -0.01328780337
0.01365116549 0.01027379513 -0.008063978434 0.7844063174 0.6202470282 -0.0005942692268
-0.002657098015 0.04839668147 -0.04023101044 -0.14405892 -0.003531414821 0.9895628109
0.008878088474 0.01458866072 -0.01766999626 -0.5204532698 -0.8538142209 0.01138728352
-0.01959114838 0.04341096878 -0.06681082153 0.9645992837 0.02463486194 0.26256684
0.01453879118 0.008915943146 -0.007833041191 0.8666007118 0.4989299162 -0.008493821426
0.01707061195 0.0004338688403 -0.004910778642 0.9851264561 -0.05457197458 -0.1629348489
0.006509522915 -0.01934907532 -0.04346379852 0.2883591674 -0.9542551504 -0.07903226225
0.01648473072 -0.004323242426 -0.002287151933 0.9610107059 -0.1235137419 -0.2473919534
0.006604890823 0.04360158157 -0.0411411171 -0.3287237292 -0.01287645488 -0.9443383434
0.003604309877 0.01667387072 -0.008522365252 -0.2170106796 -0.9758191096 -0.02614250082
-0.02027726555 0.01578465366 -0.05654504967 0.9920388934 -0.02756027745 -0.1228790672
0.006687721014 0.01567420244 -0.008261939526 -0.3977660392 -0.9173916719 -0.01321734871
0.0003200391531 0.01705428219 -0.008688601017 0.03482545579 -0.9993445683 -0.009880356247
-0.0204059763 -0.002674344182 -0.008353805304 0.9866346728 0.1629472471 -0.0004658487761
0.01568433905 0.006697381258 -0.008271700859 0.9246324619 0.3806708046 0.0120228529
-0.01191252947 0.04495737839 -0.04384358788 -0.5847964346 0.008380132127 0.811136797
-0.01140990829 0.01326918888 0 0.1214253997 -0.1652943303 -0.9787408527
0.01652086544 0.004191048622 -0.008415775299 0.9663029835 0.2570099735 0.01429746851
0.004964740276 -0.01998817635 -0.02356045151 -0.2288948868 0.9734330073 0.005942314047
0.016954072 -0.001852004647 -0.005635915041 0.9949610124 0.07893684515 -0.06181875375
-0.02054037793 0.0001817232768 -0.01144022592 0.9997195186 -0.01736289126 -0.01610633908
0.01531775904 -0.007510504007 -0.002021382749 0.8460979529 -0.4993898386 -0.1863546169
0.0198093071 -0.005552896023 -0.004262051582 0.9035523478 -0.3329392017 -0.269712148
0.01571400738 0.006643996716 -0.01412514544 0.9262452247 0.3769214547 2.766682712e-05
-0.004383210182 0.01651968575 -0.005115203857 0.1846703293 -0.9725007165 0.1419127401
0.009953620911 -0.01802998543 -0.03583252335 0.3897487971 -0.9207766786 -0.01631512681
0.00666160655 0.01568945932 -0.01117703271 -0.4059160978 -0.913909646 -0.001131604803
-0.007400450706 -0.01921863842 -0.02964093876 -0.3642578224 -0.9311633068 0.01584723473
-0.01819138432 0.003727516174 0 0.8979358846 -0.05773654296 -0.4363228606
-0.00576815176 -0.0197538147 -0.02930582047 -0.2406451352 -0.9706115604 0.001765714604
0.008911525726 0.01456942415 -0.01174198151 0.5513862352 0.8342281883 0.00604561868
0.01023580456 0.01362828732 -0.01095271206 -0.6162757109 -0.7875304694 8.940709405e-05
0.01206259108 0.01206266737 -0.01108271074 -0.7067289393 -0.7074783115 0.00294024508
-0.00566266791 0.0538864034 -0.04086420695 -0.3022650347 0.003846472943 0.953216163
0.01365868282 0.01026571751 -0.0109827261 0.7845422207 0.6200753823 0.0001551793463
-0.01887669182 0.04552188492 -0.05242879868 0.9106432891 0.002142335295 -0.4131878634
0.01455477095 0.008897258759 -0.01172752523 0.8675516721 0.49722269 0.01112172474
-0.005716025591 -0.01977362633 -0.03237913799 -0.2400592033 -0.9707466247 0.004750747748
0.01569986248 0.006671512723 -0.01118718648 0.9253479351 0.3791189723 -6.149870874e-05
0.01691523933 0.002369618416 -0.008673307419 0.9891653958 0.1456984528 0.01799390243
-0.01988991483 -0.005252344926 -0.02618763987 0.9723972442 0.2333309803 -0.0005031823269
0.01708293819 0.0003464860767 -0.008716160297 0.9999671629 -0.003658795361 0.00723092689
-0.01516981411 -0.007976329327 0 0.5779757329 0.3081194195 -0.7556497043
-0.01911422729 0.007560451031 -0.00994675827 0.9582572724 -0.2859043355 0.001308025068
0.01645466995 -0.004441950321 -0.005053611755 0.973630181 -0.1778644633 -0.142858333
-0.01758502642 0.05414589691 -0.05000317128 0.8532521613 0.01123649036 -0.5213774933
0.01326918888 -0.01140990829 0 0.01182855207 0.02771164746 -0.9995459719
0.01693846703 -0.002175805092 -0.01614805603 0.9982060135 -0.05961353216 0.005566091671
0.0008836717866 0.0333517189 -0.04005651283 0.01692880985 -0.02483168298 -0.9995482994
-0.008625014782 0.05408246422 -0.0419433918 -0.4555209725 0.001615393914 0.8902235866
0.01555213165 -0.01344597149 -0.0001224258691 -0.3223749863 0.3872673742 -0.8637698473
-0.02039806366 -0.002754641533 -0.005514610767 0.9927841381 0.1183274746 -0.01944900683
-0.01982684771 -0.005481516361 -0.01435447788 0.967886462 0.2512664907 0.007806872467
-0.007764865637 0.01518292713 -0.005603660107 0.6651249885 -0.7454511841 0.04371820768
-0.01976527596 -0.005780501842 -0.02929124069 0.9625418392 0.2711113834 -0.003438835279
-0.004511249781 0.01648028374 -0.007900038481 0.1823574439 -0.9754288541 0.123629743
0.01638622284 -0.004720620394 -0.01160854197 0.9793645379 -0.2009791664 0.02127149687
-0.00192640686 0.01696391869 -0.008481301308 0.03174426929 -0.9994700997 -0.007198698708
0.002923848152 0.01679336039 -0.01148262437 -0.1429565357 -0.989723799 -0.003198537737
0.01022695255 0.01363517666 -0.01390036106 -0.615946447 -0.7877875388 -0.0008764296273
-0.01949193668 0.02148666573 -0.05400269127 0.959136552 -0.009267202586 -0.282791785
0.01206394839 0.01206401706 -0.01403447986 -0.7064860616 -0.7077006445 0.00610266039
0.01294583797 0.05220124054 -0.04464821625 -0.5425393166 -0.007025184455 -0.8400010338
-0.01854640198 0.008964219093 -0.02672784424 0.9414881663 -0.3369417243 0.008384941332
-0.01984077978 -0.005367442727 -0.005315454364 0.9632509838 0.2545043191 -0.08587836638
-0.01081155396 -0.01635216904 -0.04921897507 -0.5188752328 -0.8272637738 -0.2154138836
0.01366627645 0.01025755548 -0.01393150043 0.7847503537 0.6198112456 0.0009498861473
0.01653295135 0.004146939278 -0.0113151865 0.9667839904 0.255524727 -0.005985791249
-0.01959881973 -0.006292241573 -0.0003577342331 0.8468218042 0.3147125815 -0.4287759588
-0.01385320902 0.03625012016 -0.04539694214 -0.6832010234 0.007239444462 0.7301944618
-0.01538576984 0.05189958954 -0.04696455765 0.7349733244 0.002842711939 -0.6780900614
0.01692320156 0.002311732173 -0.01156596994 0.9897850313 0.1423958449 0.007001082616
0.01695069122 -0.001938481927 -0.00846859169 0.9973922844 -0.07152602532 0.009625939123
-0.02056965828 0.01564009094 -0.05965500259 0.9999012912 -0.003606598364 -0.01357941035
0.01642432308 -0.004561783552 -0.007846310139 0.9763847988 -0.179142314 -0.1207508015
0.004840024948 0.04031238937 -0.04060474777 0.2355096071 0.01753570634 0.9717138077
-0.002098931074 -0.01760972977 0 0.04390442072 0.6288603085 -0.7762777301
0.01523063087 -0.007722250938 -0.005649287939 0.731449219 -0.6809386584 -0.03611901886
-0.01898861313 0.05365062714 -0.05267495346 0.9193284589 -0.01654150047 -0.3931431844
-0.01547452021 0.009964276314 0 0.5446051338 -0.4092078326 -0.7320889276
0.008125555515 -0.01890330791 -0.01711617374 0.2847439363 -0.9584165021 -0.01893935564
0.01240800063 -0.01425626214 0 -0.3523890643 0.4243426535 -0.8341194517
0.002812495708 0.05384307861 -0.0402027626 0.1226665727 0.008239657207 0.9924137343
0.002567635059 -0.02042126465 -0.03197349167 0.0977233933 -0.9951959947 -0.005922039168
-0.01781964588 0.02819169617 -0.05033471298 0.8716119982 0.01046863204 -0.4900846175
-0.01693940163 0.01170622063 -0.0001414699554 0.5446051338 -0.4092078326 -0.7320889276
-0.002022812366 0.01695056915 -0.01133251667 -0.06094669637 0.998132737 0.004066873343
0.006635277748 0.01570484209 -0.01411607838 -0.3974224716 -0.9176341926 -0.001693431646
-0.02045527267 -0.002174083471 -0.0260422411 0.9909490542 0.1337558909 -0.01137249533
-0.008945480347 -0.01779173088 -0.04733852577 -0.4423920619 -0.8805947872 -0.1698295745
0.01206531668 0.01206537724 -0.01701089764 -0.7060930526 -0.7078599472 0.01915453427
0.006817225218 0.05178576088 -0.0412159977 0.3034149189 0.001739238722 0.9528569473
0.008894893646 0.01457899284 -0.014690588 -0.5055504152 -0.8626062712 -0.01814382948
-0.005826279004 0.03695581945 -0.04089018377 -0.2470172269 -0.01574976442 0.9688830861
-0.01753469563 0.006620632648 0 0.8699277302 -0.3584992286 -0.3386798597
0.01456687927 0.008883101463 -0.0146784687 0.8683066746 0.4958546895 0.01310136532
0.01654516125 0.004102378845 -0.01424422073 0.9620464219 0.272885525 -0.0004151311041
-0.0192274189 -0.007348037243 -0.03271974182 0.9385627141 0.3449549131 -0.01030241204
0.017091856 0.0002799057364 -0.0115983572 0.9997585345 0.01570361877 0.01537104304
-0.01935037994 0.006930983543 -0.00198913753 0.9053998012 -0.3846011715 -0.1798141789
0.01694727707 -0.002025815904 -0.01132932568 0.9980974191 -0.06128290659 0.006778443648
-0.01110591269 -0.01730337906 -0.008179336548 -0.5512871916 -0.834315317 0.000619794714
0.009964276314 -0.01547452021 0 -0.343677923 0.4812812311 -0.8063831979
-0.01739475536 -0.01096795607 -0.02956641769 0.8484992527 0.5291950525 -0.001270671859
0.01201940346 -0.01666859436 -0.0004375448227 -0.343677923 0.4812812311 -0.8063831979
-0.01597073078 0.01292321491 -0.003112975359 0.4908277962 -0.4468432088 -0.7479433275
-0.0001559739411 -0.02055887508 -0.02320189762 0.007911953279 -0.9999550401 0.005226745716
-0.0126971035 -0.01156853867 -0.05782061386 -0.5953699982 -0.7051123896 -0.3851637097
-0.01130443859 -0.01465233088 -0.05332500839 -0.5439152014 -0.7844158492 -0.2980738655
-0.01773423767 0.008605126381 0 0.8371856968 -0.4291497918 -0.3390436038
-0.007954291344 0.01508430195 -0.008317334175 0.3727917686 -0.92791227 -0.002261944786
-0.01412539339 -0.0118866601 -0.0543919487 0.6973906695 0.6593355239 0.2809322358
-0.0002356274873 -0.0193331852 -0.04992785263 -0.01935635408 -0.9687981423 -0.2470940936
-0.004683836937 0.01642698193 -0.01164837313 -0.2020797161 0.9791466243 0.02087286382
-0.0194454565 0.05046046829 -0.05392194939 0.951162882 -0.0059102575 -0.3086328575
0.0001774771288 0.01706272602 -0.01447219706 0.01271187782 -0.9999160363 -0.002515670516
0.0001615260988 -0.02056544876 -0.03246073151 -0.004563998011 0.9997896897 -0.01999365793
0.006608674645 0.0157203846 -0.01708576703 -0.3898335491 -0.9208618105 0.006582554817
-0.02053746986 0.0581361618 -0.05902785873 0.9935808182 -0.06231206387 -0.09441591146
0.01021802711 0.01364212418 -0.01687256622 -0.6165568758 -0.7871843559 0.01408576349
-0.01148615217 0.04015376663 -0.04353268814 -0.5848761389 -0.00503439024 0.8111069948
0.01367393398 0.01024932671 -0.01690485573 0.7843801357 0.6201053726 -0.01473531684
0.01457911444 0.008868795872 -0.01766031551 0.8676122179 0.4972154923 -0.005078738676
-0.02016905975 0.05931137848 -0.0646282196 0.9931459132 0.01220432749 0.1162422019
0.01572786093 0.006615776062 -0.0170932579 0.9272176536 0.3745153813 -0.00237737484
0.01692990112 0.002252138615 -0.01448083591 0.9901229767 0.1399140384 0.008975130613
0.017093997 0.0002063152194 -0.01450309086 0.9998512455 0.01631082574 0.005607487237
-0.002119983912 0.01693711281 -0.01420638752 0.006625317671 -0.9999484061 -0.0077000192
-0.01454384184 -0.01454391432 -0.02911451054 0.7159046162 0.6980077333 0.01630290628
0.006620632648 -0.01753469563 0 -0.3657234376 0.860907429 -0.3536732473
0.01245514107 -0.0163752861 -0.002666467905 -0.3556479899 0.4183384339 -0.8357675885
-0.01410144424 0.0560724678 -0.0455916748 -0.6940810656 -0.002771569101 0.7198915146
0.003205644131 0.05161529541 -0.04032472229 0.1717415543 -0.002682561573 0.9851383874
0.009115494728 0.05992150307 -0.0422291851 -0.414151413 0.003192562972 -0.9102024031
0.009570293427 -0.01823292542 -0.03237215424 -0.3706303747 0.9287454542 0.008062672238
-0.01377264881 0.05922885132 -0.04530860519 -0.6913895045 0.01110426077 0.7223968774
-0.01940830421 0.006776587009 -3.728328645e-05 0.8699277302 -0.3584992286 -0.3386798597
-0.01994908047 0.008506399155 -0.04978437614 0.9687253749 -0.1715886271 -0.179244222
0.002820263545 0.01681707637 -0.01735649109 -0.1481822578 -0.9889168197 -0.009248902875
-0.014539783 -0.01453987885 -0.01155339479 0.708554329 0.7054270022 -0.01798631551
-0.0196990509 -0.002865944386 -0.05232662582 0.9565414452 0.2570004833 0.1377650723
0.01020900679 0.01364914465 -0.01987618637 -0.6155092756 -0.7881293835 -0.0006376116389
-0.01199850814 0.04843252436 -0.0439312528 -0.591357374 0.01017516085 0.8063454113
-0.01956499863 0.0326772995 -0.06692922211 0.9613054475 0.02515773569 0.2743336017
0.01206669974 0.0120667522 -0.0200188489 -0.7054886055 -0.7087109801 0.003817633441
0.01655747223 0.004057449341 -0.01719750786 0.9601574805 0.2794206148 0.004661824787
0.01693665886 0.002191921711 -0.01742571449 0.9886227397 0.1503888511 0.002876108502
-0.007624796152 -0.01913065815 -0.01384093285 -0.3459177404 -0.9382449525 -0.006109503851
0.01694383621 -0.002113850832 -0.01421302605 0.9988759119 -0.04713548606 0.005015823155
-0.01377303505 0.04555585098 -0.0453433342 -0.6782717635 -0.007108707679 0.734776756
-0.01293255663 -0.01603123283 -0.008802078962 -0.6256521513 -0.7800087283 0.01207349784
-0.01978091145 -0.005723878622 -0.03236975384 0.9620862234 0.2726543565 -0.007049863945
0.003727516174 -0.01819138432 0 -0.05836024231 0.894568409 -0.4431043261
0.00677850914 -0.01940662384 -3.914301842e-05 -0.3657234376 0.860907429 -0.3536732473
0.00085033077 0.05971473312 -0.04006267548 -0.03905079836 -0.05383843741 -0.9977857775
-0.002652981758 -0.02038653278 -0.008376348972 -0.168381165 -0.985718267 -0.002698404263
-0.01108898377 -0.01731662369 -0.01099721408 -0.5496925956 -0.8353255628 -0.008321929599
0.002910979271 0.05803944969 -0.04025709534 0.1491357922 0.01618675893 0.9886842288
0.006051473379 0.05629123116 -0.04097480011 0.3124678109 -0.01108532401 0.9498636654
0.008826264381 0.0554788475 -0.04199209213 -0.4565447165 0.00290114628 -0.8896957374
-0.02021725416 0.003467416406 -0.02057865095 0.9856645094 -0.1640135395 -0.03956050881
-0.01412662005 -0.01412671161 -0.04740595818 -0.691149075 -0.7077608345 -0.146244854
-0.01859628868 0.05966018677 -0.05186889267 0.890081258 -0.02501285731 -0.4551150527
-0.01362477875 -0.007920559883 -0.06196879578 0.6700013485 0.5899377993 0.450634648
0.01132786846 0.05570783997 -0.04341181183 -0.4658728863 0.0101769212 -0.8847931307
-0.01622920036 0.04287548065 -0.04792098999 0.8069629097 0.008841492268 -0.5905359349
-0.02008491135 0.003852332592 0 0.9271277651 -0.1597679364 -0.338981288
-0.002185285568 0.01692807007 -0.01613769722 -0.01285669508 0.99979732 0.01549271589
-0.02051276207 0.03382878494 -0.06242348862 0.9975400506 0.003548695996 0.0700089582
0.0001052489504 0.01706700516 -0.01740242004 0.04595750336 0.9989190137 -0.006979388067
0.01656991196 0.004012047887 -0.02018182468 0.9560234465 0.2932845547 -0.001827497593
0.004051029921 0.01661129379 -0.02022389126 0.293194588 0.9560174834 0.008216138782
-0.02031957722 -0.002596287906 -0.04448999596 0.9872755332 0.1557950182 0.03185802788
0.006581846714 0.01573605871 -0.02008054447 -0.3883093948 -0.921456751 0.01154426035
0.008861140251 0.01459841061 -0.02067462158 -0.5177473817 -0.8555283722 0.002975421129
0.0145914526 0.00885436821 -0.02066746712 0.8578968049 0.5138215425 -0.0007032672757
-0.002708280742 -0.02033668232 -0.0412124424 -0.1271192555 -0.9910244276 -0.04136760552
-0.02048811054 0.04157934189 -0.05929362297 0.9973970737 -0.009713658207 -0.0714473385
0.0157418313 0.006587317705 -0.02008640385 0.9253153792 0.3790425844 -0.01087051986
0.003985033751 -0.02018173409 -0.005561626434 0.182631455 -0.9805042816 0.07250589873
0.01709615517 0.0001321219504 -0.01743161583 0.9976973045 0.06770831833 -0.003958822726
-0.02047163105 0.05258606529 -0.05918211174 0.9953190068 0.01675457403 -0.09518066525
0.0003529900312 -0.01832190323 0 0.01520335519 0.9109852057 -0.412158723
-0.008868962288 -0.01856540871 -0.03217972946 -0.4374298245 -0.8992495739 -0.00231354752
-0.005576204618 -0.01978113556 -0.008646320661 -0.2867880884 -0.9579478752 0.009405360719
0.006910513401 -0.01936824989 -0.001969156146 0.3898565201 -0.901188114 0.1893987246
-0.00339732933 0.06019512558 -0.04030414963 0.1768896055 -0.04294541048 -0.9832933231
-0.0195607357 0.01138197517 -0.05079268265 0.9473721987 -0.1965531521 -0.2526910672
-0.003093282223 0.05780196381 -0.04029447746 0.1814231167 -0.004972213491 -0.9833925614
-0.01855100632 -0.008953511238 -0.02607854462 0.8924447432 0.4511052969 0.006811128313
-0.0003616869003 -0.02055461502 -0.01720296192 -0.03458049363 -0.9993854281 -0.005740695159
-0.007197340965 -0.01924409294 -0.04112573624 -0.3516062499 -0.9352977053 -0.03989044359
-0.0004641008452 0.05678946877 -0.04004164314 -0.05528968368 0.008227691514 0.9984364557
-0.01509866691 -0.01203649092 -0.0001382941902 0.7727566371 0.5452661032 -0.3248569784
0.009865373611 0.05130475235 -0.04256021881 -0.4631874246 0.006346477481 -0.8862376272
-0.02019142532 0.0038522861 -0.002703006327 0.9659654507 -0.1747488544 -0.1907186043
-0.01168055725 0.04256909561 -0.04370824178 -0.5828725114 -0.005655115164 0.8125439404
-0.02009515381 0.0006043699943 -0.0001187889799 0.9120322399 0.01239881681 -0.4099310462
-0.02058288002 0.02840788269 -0.06117816544 0.9997697293 0.01143407613 -0.01815902858
-0.01760972977 -0.002098931074 0 0.6286224866 0.0409105129 -0.7766338257
0.002126135111 0.01693803406 -0.02038964653 0.2311835632 0.9726668196 0.02175817474
0.006563808918 0.01574659681 -0.02209411716 0.3900153284 0.9201343757 -0.03522462521
-0.01382039642 0.03241628647 -0.0453466835 -0.6572348146 0.0009835579104 0.7536852334
0.00884401083 0.01460826635 -0.02371151638 0.5638771699 0.8257898652 0.01066000862
-0.01140958881 -0.01689488029 -0.04414839554 -0.5260229019 -0.8460513487 -0.08658534613
0.01019990921 0.0136562252 -0.02290553093 0.6254056688 0.7802669115 0.007162145571
-0.01872068214 -0.008471770167 -0.002389413029 0.8801560965 0.4213526206 -0.2186028704
-0.008721028328 -0.01857127094 -0.04162951088 -0.4519956703 -0.8904093067 -0.05358339828
0.01206809473 0.01206813908 -0.0230526228 0.7051560393 0.7089793215 0.01016277021
-0.01988759549 -0.005149911245 -0.002033714771 0.8805531862 0.3002129539 -0.3667400559
0.01368947697 0.01023262215 -0.02294022179 0.7763588519 0.630195125 0.01100170372
-0.01454120302 -0.01454129028 -0.01727943134 0.7089250463 0.7052796199 0.002436498175
0.01575122452 0.006568183661 -0.0220988512 0.9230564322 0.3834814465 -0.03014636201
-0.01867337513 0.009669009209 -0.04480898857 0.9250641423 -0.3492059516 -0.1493704658
0.01694347382 0.002131202221 -0.02039517212 0.9732784373 0.2295625912 -0.005486365582
-0.0201907196 0.02086320305 -0.05653068924 0.9811841199 -0.006531685054 -0.1929638824
0.0005846542083 -0.02011273956 -9.917142242e-05 0.01520335519 0.9109852057 -0.412158723
-0.01519186274 0.02755740356 -0.0467440478 0.7354711376 0.003699998124 -0.677545951
-0.01828072071 -0.002352587342 -0.05921798897 0.8771938544 0.3503201292 0.3283393807
-0.008583730936 0.04605107498 -0.04191884232 -0.4322108325 -0.007558002359 0.9017409123
0.003843779325 -0.02019892693 -0.002694513679 0.1511033104 -0.9709024476 0.1857854322
0.007110467672 -0.01931012249 -0.004892663956 0.3936559744 -0.9163825966 0.07264922901
-0.006056766033 0.0598213768 -0.04091122055 -0.2921219434 0.007958061585 0.9563479699
-0.005761522055 0.05741395569 -0.04087861061 -0.2698761371 -0.03107420958 0.9623935079
-0.002270460427 0.05467041206 -0.04016312218 -0.09087056895 -0.01012771856 0.9958112115
0.0001253821254 0.05205991364 -0.04003720284 -0.029622841 -0.01523012038 0.9994451114
0.005848183632 0.04800191307 -0.04090023994 -0.2719601804 0.006762587057 -0.9622847436
0.003469637394 0.04924520874 -0.04030485535 0.1980059973 -0.01499747867 0.980086068
-0.01929202652 -0.004762413502 -0.05132149124 0.9401116872 0.3062318061 0.1497067019
0.00856743145 0.04714834976 -0.04188384628 0.3458651079 0.0003568432246 0.9382841786
0.006450255871 0.03953166199 -0.04104814911 -0.2386957945 -0.03060244994 -0.9706120789
0.01093631554 0.04721380234 -0.04317182159 -0.4417839197 -0.02827723161 -0.8966757309
-0.02052520688 -0.0001475541194 -0.001933509409 0.9589916376 -0.0121361529 -0.2831744211
-0.01980228996 -0.003354874372 0 0.9178880101 0.1485859944 -0.3679725578
-0.01722775014 -0.005922349294 0 0.8061953463 0.2335630089 -0.5435967113
-0.01564746475 -0.01004571247 -0.05461244965 0.7667578995 0.5705270415 0.2942468665
-0.009236758709 -0.01803939342 -0.04482999802 -0.44546485 -0.8883468525 -0.1113594944
0.005907250881 -0.01971294594 -0.0386159935 -0.2826853739 0.9590732709 0.01635360306
0.01019394016 0.01366113853 -0.02494274139 0.6276149353 0.7783570246 -0.01611940425
0.01206903267 0.01206907129 -0.02509269142 -0.7037378145 -0.7103051625 0.01482108247
0.01369472504 0.01022698212 -0.02497809982 0.7744310799 0.6324625977 -0.01573420024
0.00265290302 0.04173962784 -0.04020214081 0.1355854355 0.0070365991 0.9907406704
-0.01290867615 -0.01605304718 -0.01735081863 -0.6236911897 -0.781670831 0.0001086244803
-0.007976329327 -0.01516981411 0 0.3047849158 0.5762354707 -0.7583263396
-0.007740321636 -0.01907855797 -0.005351233482 -0.3573445407 -0.9302029158 0.0838296765
0.0003103099614 -0.02054612398 -0.005246361256 0.001634641662 -0.9952590857 0.09724546405
-0.005922349294 -0.01722775014 0 0.2645103224 0.8564079439 -0.4433956732
-0.01163658237 0.06027958107 -0.04371206856 0.5922885687 -0.04085344376 -0.8046895349
-0.01998906326 0.03915025711 -0.05580139542 0.9716947653 0.005104078855 -0.23618474
-0.003354874372 -0.01980228996 0 0.1502662758 0.9189557797 -0.3646098207
-0.01084274387 -0.01748510424 -0.01708212153 -0.5495092565 -0.8354852325 -0.002000836779
-0.007532387257 -0.01917233276 -0.02063183975 -0.337701896 -0.9411822829 0.01154728233
-0.0001682932178 -0.02054375712 -0.001912638048 0.009657377287 -0.9588775481 0.2836557469
-0.008440203667 0.05980286789 -0.04184409332 0.3814197368 -0.0342735959 -0.9237663693
-0.01357501602 0.04310983276 -0.04515100098 -0.6767400419 0.004315809252 0.736209406
-0.01877186775 0.03760598373 -0.05219765472 0.9107054992 -0.005427020946 -0.4130206305
-0.0087133166 0.05764151255 -0.04199975586 -0.3998455862 0.008173473785 0.9165460717
-0.01899337196 0.007882594109 -0.0140192318 0.9593006474 -0.2821289246 0.01206390541
-0.01919040489 0.0002065340579 -0.05922463608 0.9482328151 0.2366731705 0.2117553749
-0.01492674398 0.01617549944 -0.04467832756 0.7342471667 -0.2399354091 -0.6350685771
-0.01602069092 -0.01289128304 -0.01450112772 0.7899037712 0.6132115113 -0.004865664685
-0.002857305288 0.05128528786 -0.04022898483 0.1741597238 -0.01449385919 -0.9846107447
-0.005520084858 0.05089437866 -0.04078115463 -0.2439613265 0.007986841905 0.9697520722
-0.02050533485 0.03095684719 -0.05943518066 0.997286979 0.023234779 -0.06984859683
-0.01601105499 -0.01289685249 -0.01165187454 0.7865863392 0.6174557484 -0.005507242702
0.0004004468322 0.04572445488 -0.0400583477 0.05578277921 0.02264898044 0.9981860073
-0.01911091805 -0.007584505081 -0.01482952309 0.9387812971 0.3439998052 -0.01880984396
-0.003383190393 -0.02028698222 -0.02909685071 0.1664172551 0.986035644 0.006245481855
0.009502254486 0.04295787048 -0.04234146881 -0.390675667 0.002728030872 -0.9205243512
-0.01667676449 0.01808285522 -0.04806009483 0.8365841865 -0.2016846861 -0.5093625294
-0.01917394829 0.00740126276 -0.007934324741 0.9595715539 -0.2814345492 0.004126442633
-0.02015392494 0.004016580105 -0.005593417168 0.9782489259 -0.198755625 -0.05937373585
-0.02038993359 -0.002833670497 -0.002708645701 0.9612166703 0.1217770902 -0.247452729
-0.01787428919 -0.008679580212 0 0.8292450322 0.430233752 -0.3567234155
-0.02046975899 0.002191464663 -0.0236446991 0.997480803 -0.07072616701 -0.005464149742
-0.01638614655 0.03223686981 -0.04813056946 0.8086318025 -0.01358627378 -0.5881581599
-0.01204479361 -0.01510683393 -0.0001293937713 0.5445832279 0.7716536519 -0.3286027228
-0.008679580212 -0.01787428919 0 0.4269365671 0.845761749 -0.3200191112
-0.006258547306 -0.01956744003 -0.0003925849199 -0.2936431098 -0.8426797641 0.4512920775
-0.005169007301 -0.01990506299 -0.002014097532 -0.3150780505 -0.8842795719 0.3446381593
-0.002797234297 -0.02035674191 -0.0027460953 -0.1452785371 -0.961771484 0.2321416793
-0.01777296162 0.02444312572 -0.05025416756 0.8627071606 0.007027389094 -0.5056549919
0.007320652008 -0.01924423027 -0.007853507042 -0.2771484079 0.9608270705 -0.000317229247
-0.002590074539 0.0449430294 -0.04020577049 -0.1390687626 0.01688415926 0.9901387804
0.0006668385267 0.04340116501 -0.04003554153 0.03720250262 -0.02142162334 0.999078119
-0.02011596584 0.004182892084 -0.008519320965 0.9806948126 -0.1954983874 0.004250297775
-0.01740037346 -0.01092720572 -0.002074343284 0.843409068 0.4662529853 -0.2669631019
-0.01140568066 -0.0125352211 -0.05804344177 -0.593303632 -0.7086583048 -0.3818300765
-0.01687869453 -0.01178378296 -0.0006778398752 0.7989010494 0.4758451162 -0.3678702742
-0.01175417233 -0.01684988594 -0.000709410727 0.4670555755 0.81830981 -0.3350046928
-0.0181341877 -0.009336308479 -0.04470233727 0.8819932561 0.465481758 0.07358416315
-0.01093677298 -0.01740947215 -0.002064253986 0.4597396006 0.84936156 -0.2592767634
-0.002579755306 -0.0204016552 -0.01123441792 -0.1608721235 -0.9869562659 -0.006122827468
-0.01984374364 0.01280342897 -0.05300855255 0.9655135893 -0.1302725211 -0.2254164573
-0.01949940777 0.03038938713 -0.05402880478 0.9529615456 -0.004955554547 -0.3030507136
-0.008474008679 -0.01872265768 -0.002387122899 -0.4168683727 -0.8803456032 0.2263015218
-0.01922358131 0.04123419189 -0.06799963379 0.9564980735 0.01569372812 0.2913162237
0.004127986431 -0.0201643362 -0.008463214397 0.1833648726 -0.9830432105 0.001835723287
0.007554093838 -0.01915956688 -0.01087293863 -0.2890793997 0.9573021345 0.002392470202
-0.01195998542 0.05758384577 -0.04390326818 -0.5919266706 0.0130326672 0.8058864475
-0.01016603756 0.05504265594 -0.04273993683 -0.4906471236 -0.007975935255 0.8713218605
-0.01985167789 0.005340813398 -0.02889051247 0.9652278627 -0.2605298797 0.02143256461
-0.006510519028 0.04841340637 -0.0410784874 -0.2995547724 -0.004544991293 0.9540682792
-0.01604026318 -0.0128799696 -0.02028878307 0.7824903591 0.6226585306 -0.002278628856
-0.01939251518 -0.002468684912 -0.05501699066 0.9215465736 0.3283680316 0.2071867478
-0.02023459117 0.0004736924966 -0.05348141479 0.982706385 0.1528306884 0.1045511432
-0.01547845173 0.04636665726 -0.04705929756 0.7444488612 0.01551941059 -0.6674990944
-0.005659962972 0.04584261958 -0.04085319773 -0.2913899571 -0.01365939591 0.9565068289
-0.01735309744 -0.01102212477 -0.02061479664 0.8361213404 0.5484579146 -0.009747823815
-0.001761635721 0.04195484352 -0.04010992622 -0.1010441909 -0.0004950473601 0.9948818153
-0.01981271648 -0.005608687639 -0.03863248634 0.9604528088 0.2784274183 0.002928283973
0.0006245166133 0.0394556942 -0.04003492546 0.06834284287 -0.02565164407 0.9973320656
-0.0192724514 0.05900410461 -0.05337892532 0.9384637514 -0.0517168081 -0.3414837612
-0.02059735298 -0.0001988279 -0.02315403652 0.9997880418 0.008284988903 0.01884755663
0.003280814528 0.0372812767 -0.04028596687 -0.1580923367 0.01229383651 -0.9873477982
-0.01905403709 0.007720888138 -0.01197497272 0.956861081 -0.2905308553 0.002948517539
-0.02051470566 0.0008346467614 -0.008665554206 0.9989536122 -0.04444173963 -0.01079872579
-0.01037497807 0.02109315681 -0.04280768204 0.5381716649 -0.0494490779 -0.8413834131
-0.01596199226 -0.003335892439 -0.06354336166 0.8024668919 0.4465986791 0.3957227657
-0.01528846741 0.03083989525 -0.04683571243 0.735684294 0.01204802444 -0.6772174427
-0.01127799066 -0.01719292132 -0.01443883006 -0.5483326696 -0.8362356746 -0.00641715483
-0.02015086174 0.0311126976 -0.05633935165 0.9781143563 0.01138079277 -0.207756549
-0.01597967339 -0.01291499233 -0.002371665716 0.7696627177 0.5726419887 -0.2823126879
-0.01685134888 -0.005504634619 -0.05914979744 0.817702135 0.4737424569 0.3270035214
-0.01453703117 -0.01453713608 -0.002273450017 0.7046471564 0.702980866 -0.09638613453
-0.01294770145 -0.01601184654 -0.002336283684 0.5644040039 0.7873501503 -0.2480481026
-0.005369787693 -0.01984273863 -0.005313102841 -0.2648061495 -0.9611339794 0.07809722726
0.009034675598 -0.01848521996 -0.02680429077 -0.3520004033 0.9359926064 0.003681964638
-0.002725524902 -0.02037155151 -0.005544948101 -0.1710941209 -0.9851963491 0.01072173111
-0.002353151202 -0.02044628239 -0.0200050354 -0.120220674 -0.9925681807 -0.01885195618
-0.005809995174 -0.01380838585 -0.06101855469 0.3087726527 0.8062896875 0.5045358151
-0.01795538616 0.012975142 -0.04734115982 0.8829771568 -0.3029666157 -0.3585562304
0.0008016961217 -0.02054401652 -0.008631466389 0.03495677513 -0.9993256601 0.0112360537
-0.01867197037 -0.008613375982 -0.0113211085 0.8900341885 0.4558905253 -0.001724035696
0.0001786957979 -0.02054295921 -0.01143717511 0.008277447856 -0.9998647335 0.014212617
-0.01454558539 -0.0145456481 -0.03835365772 0.7092505247 0.7049063788 0.008407757828
-0.01181694031 0.05452461624 -0.04376375008 -0.5906878301 -0.01332014323 0.8067902213
-0.01163797251 0.05154379272 -0.04367294566 -0.5917385417 -0.001991669385 0.8061274908
-0.008846465111 0.04841654587 -0.04199723816 -0.4399728778 0.0001101885538 0.8980110549
-0.002897550901 0.03937719981 -0.04024253972 0.1323054709 -0.004100345498 -0.9912005093
-2.790862322e-05 0.03615776634 -0.04003231812 -0.06355052233 0.01994242194 0.9977793498
-0.01643113995 0.03607714272 -0.04820275307 0.807084095 -0.009107028928 -0.590366264
-0.02007762909 0.004350857258 -0.0114743185 0.9783775202 -0.2064114725 0.01310465102
-0.01600153255 -0.0129023571 -0.008835785627 0.7926615404 0.6094734396 -0.01515944667
-0.01160957464 -0.01696305339 -0.02943570201 -0.5501466649 -0.8349362043 -0.0148385248
-0.01863763809 -0.00867644914 -0.005694673061 0.8924102456 0.450705129 -0.02165271967
-0.01728733301 -0.01111940646 -0.005397233129 0.8264032713 0.5610869274 -0.04731905635
-0.01598898029 -0.01290961266 -0.005124005079 0.7842178957 0.6198329173 -0.02845077581
-0.02055834579 0.005604496479 -0.05299786377 0.9995181106 -0.01472426723 -0.02732659064
-0.01453816509 -0.0145382688 -0.005025321364 0.7073387225 0.7051841544 -0.04885939079
-0.01912982655 -0.00754617238 -0.01773083591 0.9398591135 0.3414580008 -0.008442775109
-0.01294125366 -0.01602010155 -0.00508931613 -0.6193456721 -0.7848163282 0.0217777302
-0.01229219119 -0.01488273048 -0.05066750081 -0.6121158612 -0.7585916397 -0.2232776224
0.001041310122 -0.02052582486 -0.01447930177 0.04132301205 -0.9991427392 0.002489058576
-0.01856714058 -0.008920900345 -0.02910210514 0.8999400449 0.4359931651 -0.004227940725
-0.01112149048 -0.01728917265 -0.005395061135 -0.5521897887 -0.8324346797 0.04624868946
-0.007702201843 -0.0190957489 -0.008152574539 -0.3494372543 -0.9369022246 0.01038397074
-0.009135716915 -0.01840864849 -0.005876043081 -0.4495324635 -0.8928546515 0.02703951725
-0.009018440088 0.03087327194 -0.04212666575 -0.4661305538 -0.01069696145 0.884651277
-0.01962736893 0.04212644577 -0.0544476738 0.9602006821 -0.001734175851 -0.2793056439
-0.002833535671 -0.01955735588 -0.04806388474 -0.1310447884 -0.9759009462 -0.1744838292
0.004276204109 -0.02014335823 -0.01139706326 0.1971990874 -0.9802784428 -0.01291102212
-0.01851600838 -0.009014131546 -0.02014056206 0.8944137829 0.4472084693 -0.005345087728
-0.01162461281 -0.01695119731 -0.02642185847 -0.5500995324 -0.8349047129 -0.01801734755
0.007833901405 -0.01903576851 -0.01396910191 0.2852745943 -0.9582632861 -0.01870508871
-0.01529090929 0.05753656387 -0.04687244415 0.7335428487 -0.0194656 -0.6793643938
-0.02041160266 0.008994553566 -0.05385494105 0.9929468611 -0.0682282959 -0.09696097537
-0.01333114243 0.0541836586 -0.04495651627 -0.6443448841 -0.00124032156 0.764734027
-0.002430835724 -0.02043241119 -0.01704682732 -0.1088231987 -0.9940600895 0.001431770146
-0.01011173153 0.0469832077 -0.04269536972 -0.5061034233 -0.001556934668 0.8624713913
-0.008484021823 0.04264162445 -0.04188790003 0.4299467741 -0.0002535155827 -0.9028542004
-0.01544617939 0.03931094742 -0.047010849 0.7350238996 -0.007174776002 -0.6780032372
-0.006009193897 0.03976555824 -0.0409193325 -0.2782051767 0.009099562642 0.960478567
-0.003471652985 0.03615754318 -0.04030366135 -0.1944478812 -0.0008812108831 0.9809124553
-0.006863907337 -0.01696271706 -0.05366640854 -0.3558703685 -0.8867978219 -0.2948659083
-0.02037160206 0.002998011351 -0.04166373062 0.9886367263 -0.1479142816 -0.02681023466
-0.002547816793 0.03378463491 -0.0402064209 0.1342164274 -0.001892732357 -0.990950235
-0.01890139961 0.008127745152 -0.01711838722 0.9604773257 -0.2781672681 0.01030910885
-0.02003880882 0.004520941257 -0.01446658516 0.9787304413 -0.2044973091 0.01635768413
-0.01886116282 -0.008158687909 -0.008338806629 0.9180789206 0.3963830732 0.003399244151
-0.01788989639 0.06035982132 -0.05040302277 0.8577835945 0.02256513724 -0.5135154521
-0.002270292282 -0.02045629501 -0.02299764252 -0.1374810924 -0.9901793228 -0.02537435751
-0.009146766663 0.02241244125 -0.04215156555 0.5164895799 -0.04197266406 -0.8552641752
-0.01642539978 -0.001446390033 -0.06454005432 0.8345039494 0.3794121434 0.3995617398
-0.0151893851 0.053951032 -0.04675936127 0.7358120281 2.333602777e-05 -0.6771858376
-0.01790239906 -0.00550092268 -0.05618743896 0.8695123038 0.4307881903 0.2415986107
-0.02051604652 0.0008242021799 -0.04985832977 0.9963238407 0.07891449434 0.03333627252
-0.01367026997 0.05106471634 -0.04522696304 -0.6567017503 -0.007215428145 0.7541158723
-0.005756928444 0.03362047768 -0.04085004234 -0.2883582741 -0.005521145224 0.9575066698
-0.002404528201 0.03099251747 -0.04015927696 0.1279319015 0.0009210812281 -0.9917825267
-0.02051463954 0.001053978811 -0.01449267387 0.9986080321 -0.05247367189 -0.005339658675
-0.01271504116 0.0001814936697 -0.07057795715 0.7289516012 0.4876616985 0.4804327538
-0.01994667308 -0.004966340542 -0.01140767129 0.9722613719 0.2336124093 -0.01153546289
-0.01729938221 -0.01110159349 -0.008183995724 0.8242256963 0.5662607889 0.000848895372
-0.01494636965 0.04293663406 -0.0464772892 0.7299197705 0.007280135847 -0.6834940587
-0.01453908515 -0.01453918409 -0.008737193227 0.7087915245 0.705289243 -0.01347807843
-0.02055095863 0.01316323709 -0.05915572739 0.9988947302 0.02463639257 0.04002956589
-0.02044682121 -0.002259857416 -0.02300941086 0.9896337701 0.1416684463 0.02355955129
-0.009107855797 -0.0184257946 -0.008672347069 -0.4528381992 -0.8915302059 0.01055733333
-0.0002594754696 -0.02055673027 -0.02018361855 -0.04660784899 -0.9989132597 -8.893557611e-05
-0.01768958664 0.05775551987 -0.05014997864 0.8541399303 0.01251602461 -0.5198926125
-0.00188275671 -0.01667660522 -0.05723385239 -0.1100038833 -0.9139210847 -0.3907011603
-0.01668392754 0.0560176239 -0.0485928688 0.8221436225 -0.002185375862 -0.5692759332
-0.01518822098 0.04938796616 -0.04674714279 0.7364469069 -0.00339727678 -0.6764868157
-0.01400671005 0.04797686768 -0.04549526215 -0.6980531063 0.003496088133 0.7160374559
-0.008771514416 0.03667895889 -0.04198475075 -0.3973607863 -0.003630408288 0.9176552869
-0.0160304184 -0.01288566017 -0.01737755585 0.7759219066 0.6308030532 0.005718647214
-0.0162498188 0.006092677116 -0.06991942596 0.8458959546 0.2477578714 0.472309296
-0.01987687492 0.0117197094 -0.06435063171 0.9675702928 0.08447786598 0.2380571751
-0.0202899971 0.02897327423 -0.06404116821 0.990104935 -0.01335144278 0.1396923645
-0.009051218987 -0.0184606514 -0.01435686207 -0.447101554 -0.894483181 -0.0001982943904
-0.008597886403 0.03387833023 -0.0419280866 -0.4029952752 -0.009456555712 0.9151532012
-0.01989268112 0.005161168575 -0.02573003578 0.9721118034 -0.2345171602 0.0005858224579
-0.005665183385 0.0303476003 -0.04084177399 -0.2858669023 0.01982260588 0.9580642872
-0.01867426872 0.0298914547 -0.05198177338 0.9057717878 -0.005911274171 -0.4237245866
-0.01880843544 0.008375542641 -0.02025100327 0.9592633767 -0.2823463591 -0.009711208472
-0.01454327393 -0.01454334998 -0.02610768986 0.7120767494 0.7019240988 0.0157880492
-0.02023953342 0.003319295049 -0.01754356861 0.9848830418 -0.1731139448 0.006079152133
-0.02042204762 -0.002511249542 -0.01412057734 0.9880147523 0.1543582771 0.0006094908571
-0.009079670429 -0.01844314194 -0.01150125027 -0.451722823 -0.8921568636 0.001619234409
-0.00766372633 -0.01911310005 -0.01098003387 -0.3488806679 -0.9371451198 -0.006426810285
-0.01777987798 0.04214656703 -0.05030271912 0.8617856268 0.003507667522 -0.5072605147
-0.002505653977 -0.02041695976 -0.01412663126 -0.152327787 -0.9883240393 0.003440722069
0.003264487147 -0.02028782368 -0.01748518848 -0.1538142322 0.9879985792 -0.01414176203
0.00842047596 -0.0187693634 -0.02029849815 0.2990130179 -0.9542416848 0.003744614456
-0.01633332825 0.05086535645 -0.04806591797 0.7920190913 -0.0002409894812 -0.6104962743
-0.02058487606 -0.0003953540474 -0.01716631985 0.999522688 0.02965356039 -0.008663859924
-0.01138261573 0.0368007342 -0.04348344803 -0.5934862458 0.001448266237 0.8048428285
-0.01879010201 -0.00834162426 -0.01362285137 0.8984341573 0.4390623355 -0.00635063731
-0.01292557812 -0.01603930283 -0.01161938 -0.6250784203 -0.7804629824 0.01242986514
-0.005467985471 -0.01981417402 -0.01436953163 -0.2578971176 -0.9661420416 -0.007657170755
0.008722462654 -0.01863101864 -0.02352912712 -0.3454926765 0.9383950354 0.007040456585
-0.01879301071 0.05664183426 -0.05227320099 0.9147788446 -9.75235401e-05 -0.4039550173
-0.01781248093 0.05114584859 -0.05037532425 0.8620825068 -0.001708604353 -0.5067650659
-0.0194817791 0.04495351028 -0.05398939514 0.9426849468 0.001785135338 -0.3336793437
-5.141463876e-05 -0.02056103897 -0.02625102234 0.01099854272 0.9998355647 -0.01441788955
-0.01353076601 0.03920851898 -0.04511571121 -0.6519221259 0.004503029629 0.7582725529
-0.008425544103 0.02732964706 -0.04185232162 -0.4356683489 0.03249526169 0.8995205099
-0.01467807198 -0.01245375919 -0.05142447281 0.7050308021 0.6723676325 0.2255068397
-0.01868097115 0.04843777466 -0.05202916336 0.8997504102 -0.007490902853 -0.4363405617
-0.0047318271 -0.02001528295 -0.02311208789 -0.2247660809 -0.9743486478 -0.01117682351
-0.006490860462 0.02528153419 -0.04105399704 0.3208669754 0.02382431244 -0.9468245805
-0.02043021011 -0.002428414583 -0.01704948616 0.9918472259 0.1271335043 -0.008726540335
-0.01719568761 -0.01128068988 -0.01443560759 0.8344966499 0.5508962691 0.01134204528
-0.02056460381 0.03635613632 -0.06170194626 0.9998570208 0.004710700665 0.01624029604
-0.01454048991 -0.01454058146 -0.014402807 0.7082061391 0.7060038827 0.00160688467
-0.01291716719 -0.01604614258 -0.01447145844 -0.6241349296 -0.7813164752 -0.0003940984865
-0.01849880695 -0.009043925285 -0.01722221851 0.8910576802 0.4538826128 -0.002604682539
-0.02009235954 0.04810154343 -0.05629499054 0.979216135 0.01001262105 -0.20257223
-0.004855303288 -0.01998507627 -0.01719043032 -0.241367376 -0.9704159879 -0.005882204064
-0.02001560307 0.05841000748 -0.0560359993 0.9767263422 -0.04251836282 -0.2102328262
-0.01941991043 0.05605367279 -0.05384266281 0.9458112971 -0.02022987005 -0.3240860111
-0.0168283596 0.04491819382 -0.04877732086 0.8252572576 -0.00454240662 -0.5647387231
-0.01210287062 0.03088275719 -0.04398197047 -0.5861900058 -0.01254439402 0.8100764873
-0.02054510689 0.05844572067 -0.06153459549 0.9995894373 -0.02862649671 0.001216800616
-0.01175983429 0.02767579508 -0.04373776531 -0.5871596652 0.007608706682 0.8094353805
-0.01830327606 0.05085706711 -0.06997050476 0.8701846729 -0.1117176959 0.479893521
-0.008852174441 0.02437818146 -0.04204101563 0.4848325582 -0.04518609658 -0.8734389545
-0.0137076602 0.02122738361 -0.04524630165 -0.649810446 0.09649424078 0.7539464476
-0.01991972542 0.005042678833 -0.02364546013 0.9746808922 -0.2233737977 -0.0100650283
-0.0205944252 -0.0003014324307 -0.02013736725 0.9990658401 0.04319354228 -0.001328549384
-0.01746642621 -0.01082323329 -0.01710435836 0.8373980494 0.5465870445 -0.002666405434
-0.009022426128 -0.01847837257 -0.01724667263 -0.4497901133 -0.8931336862 0.001035600592
-0.007572265148 -0.01915434933 -0.01770131874 -0.3413975543 -0.9398710603 0.009492100942
-0.02012920761 0.05550075722 -0.05653554153 0.9801007521 -0.01745530285 -0.1977317074
-0.004747428417 -0.01715449524 -0.05497130585 -0.2313941518 -0.9025925462 -0.3630198921
-0.01956657982 0.05312856674 -0.05430396271 0.9574989958 -0.0005704324924 -0.2884360374
-0.01792084408 0.0451279583 -0.05050405884 0.8664713946 0.003094760351 -0.4992171319
-0.01607916641 -0.01280457115 -0.04164096832 0.7850263764 0.6181926339 0.03964159133
-0.01499961805 0.03371582413 -0.04652724648 0.7348450776 -0.001248474159 -0.6782338485
-0.01804740047 0.01791631126 -0.05040779686 0.8712034559 -0.1626832672 -0.4631832176
-0.01191994445 0.02437760353 -0.04385529582 -0.593415146 0.01922518228 0.8046669229
-0.01842193031 0.009204874992 -0.02896909142 0.9379946888 -0.3465973468 0.006020220271
-0.01985873286 -0.005368966579 -0.02020450719 0.9728550276 0.2314152473 -0.0002804904149
0.005151556969 -0.01993990231 -0.02670409679 0.236370454 -0.971603092 0.01079074403
-0.01970522881 0.01572530746 -0.06603356934 0.9666464807 0.04105157738 0.2528029852
-0.02008498764 0.05269079208 -0.05602313995 0.9749010104 -0.006898488648 -0.2225318647
-0.01933426094 0.04780579758 -0.05353089905 0.9348735603 -0.002605761732 -0.3549713176
-0.0179931469 0.03927203496 -0.05068691889 0.8772711994 0.00150859791 -0.4799926738
-0.01413754749 0.02952406311 -0.04562884903 0.7120492304 -0.004596724696 -0.7021144946
-0.01736682224 -0.01100427771 -0.02356408215 0.8368644892 0.5474100977 0.0001082992215
-0.01341142845 0.02777842522 -0.04501219559 -0.6525960337 -0.01743902817 0.7575053116
-0.01951738739 0.0223319397 -0.06712168121 0.9531650333 0.01881292944 0.3018650245
-0.01802948761 0.009954195023 -0.03583316803 0.9235224062 -0.3835247274 0.003892134004
-0.01173272133 0.02209985065 -0.0436893425 -0.6038371327 0.02046510221 0.7968449641
-0.01823293209 0.009570287704 -0.03237219906 0.9309165594 -0.3650804758 0.01051692084
-0.02045558167 0.002326900959 -0.02673434448 0.9956522386 -0.09061855918 -0.02156145644
-0.01454192495 -0.01454200816 -0.02019090319 0.7090818721 0.7051260308 -0.0004234899039
-0.01290008211 -0.01606003571 -0.02026511002 -0.6231307606 -0.7820371566 -0.0112223421
-0.01103126693 -0.01736178064 -0.02060421419 -0.5476768572 -0.8366548177 0.007666556929
-0.02054898643 0.05536183929 -0.05966371155 0.9922124008 0.005798949499 -0.1244223611
-0.01782713509 0.01044110584 -0.04152738953 0.9271554814 -0.37187536 -0.04573215431
-0.01907222557 0.04263018036 -0.0528252182 0.9085462261 0.003849156456 -0.4177666084
-0.01791568661 0.03583857155 -0.05051366234 0.8553650951 -0.006648350636 -0.5179829664
-0.01374013519 0.02491551208 -0.04528117752 -0.6554547624 -6.342673688e-05 0.7552344341
-0.01223431015 0.01909321213 -0.04374674797 0.629924366 -0.1506567221 -0.7619040919
-0.01916824818 -0.007468281746 -0.02362616825 0.9411902971 0.3378729735 0.001636569534
-0.01847685814 0.003511542797 -0.06427138519 0.9074135302 0.2500277888 0.3377673607
-0.008963924885 -0.01851437569 -0.02311824131 -0.446037686 -0.8949967745 -0.005581775618
-0.00749011302 -0.01918875313 -0.02360082054 -0.3527876865 -0.9356917542 -0.004667900985
-0.002822017749 -0.02037041791 -0.02603493945 0.1371295825 0.9905492721 0.002759908366
-0.01845912743 0.01350881386 -0.0688560791 0.9265866997 0.1136899559 0.3584852603
0.005348552704 -0.019883955 -0.02989094353 0.2462382841 -0.9691579762 0.009976201073
-0.01760609245 0.03096805954 -0.0499520874 0.8456703384 0.004029235477 -0.5336904009
-0.02047913647 0.0543939991 -0.0626021595 0.9917092491 0.003796168631 0.12844592
-0.0205080328 0.04833776855 -0.05886550903 0.9968570145 -0.01524945006 -0.077740253
-0.01946037102 0.02657184219 -0.05389500046 0.9460961166 0.002692880302 -0.3238748008
-0.02016235256 0.04441059685 -0.05666447639 0.983053003 -0.008419700249 -0.1831281024
-0.01923964882 0.03979933167 -0.05325774002 0.9349331341 0.006150108341 -0.3547706456
-0.01664068222 0.02940761375 -0.04847046661 0.8033377065 -0.003318313805 -0.5955144987
-0.01506288528 0.02475950432 -0.04658355522 0.7297045026 -0.01466991758 -0.6836052461
-0.01981023026 0.005522409916 -0.03208531952 0.9664148369 -0.2567123962 -0.01187891795
-0.02043959427 0.002465635777 -0.02985865402 0.9978799142 -0.06470628992 -0.006983758493
-0.02059880924 1.483583637e-05 -0.02929420948 0.9999140665 0.01306059423 0.001131610406
-0.01666965103 0.003145653725 -0.06757390594 0.7795078801 0.3407958947 0.5255717107
-0.01605020523 -0.01287422371 -0.02322852898 0.7890571547 0.6142580299 -0.008710871197
-0.02010333633 0.00642298317 -0.06058862305 0.9742997751 0.1148858888 0.1937554666
-0.02043568802 0.003053302288 -0.04486154556 0.9982511315 -0.05045602936 -0.03080369278
-0.01454265404 -0.01454273319 -0.02313093472 0.7109152505 0.7032699022 0.00330925434
-0.0128914032 -0.0160670929 -0.02320803452 -0.6225469502 -0.782339012 -0.01951832441
-0.01098917961 -0.01435327911 -0.0548481369 -0.5489658242 -0.7731561848 -0.3175941399
-0.01101354933 -0.01737564182 -0.02355319786 -0.547489396 -0.8367929173 0.005742371283
-0.005819615841 -0.01973425674 -0.02627155876 -0.2451945204 -0.9694725168 0.001639024799
5.449997634e-05 -0.02056323242 -0.02933967113 -0.001870526341 0.9999055835 -0.01361342378
-0.01886940384 0.02713770294 -0.05237764359 0.9112231305 -0.003275308537 -0.4119000835
0.002473842859 -0.02043231583 -0.02986797142 0.06005929029 -0.9981899359 0.003119847267
0.005482452393 -0.01984526253 -0.03204019928 0.2590577966 -0.9658287773 -0.007989423455
-0.02055755806 0.04854535866 -0.06127432823 0.999712404 0.008003383019 0.0226065308
-0.02011580086 0.04171295166 -0.05617105103 0.97831211 -0.001106017855 -0.2071332713
-0.01939455414 0.0370073204 -0.05370497513 0.9541296961 0.02167791127 -0.2986077548
-0.01896710777 0.03478515244 -0.05259361267 0.9167425518 0.006515989125 -0.3994253818
-0.01688697052 0.02661129761 -0.04881811905 0.823538226 -0.0006703172038 -0.567260382
-0.02051327515 0.02830589676 -0.05886734009 0.9961282623 0.002062901967 -0.0878875961
-0.01629428864 0.02471100044 -0.04800790787 0.8046093713 -0.003714308172 -0.5937928625
-0.01554752509 0.02134297689 -0.04711806361 0.7470131035 -0.07569385102 -0.6604860817
0.001922343373 -0.01946432304 -0.04907913971 0.06354359026 -0.9741770487 -0.2166593867
-0.01442786694 0.01922399139 -0.04576677704 0.6795146533 -0.1331841045 -0.7214719886
-0.02030038261 -0.00210915343 -0.04733637873 0.9871055654 0.1500721833 0.0556861066
