# .PCD v0.7 - Point Cloud Data file format
VERSION 0.7
FIELDS x y z normal_x normal_y normal_z
SIZE 4 4 4 4 4 4
TYPE F F F F F F
COUNT 1 1 1 1 1 1
WIDTH 345
HEIGHT 1
VIEWPOINT 0 0 0 1 0 0 0
POINTS 345
DATA ascii
0.01694347382 0.002131202221 -0.02039517212 0.9558908205 0.2926590846 -0.02496797019
0.007530352592 0.0175528965 0 0.4053222416 0.8963835247 -0.1794727198
0.01582112805 -0.006149127563 -0.006739596605 0.9759941352 -0.1670785106 -0.1397147783
-0.005699326856 -0.01973735619 -0.03139161846 -0.244061247 -0.9696024918 0.01746755666
-0.01162461281 -0.01695119731 -0.02642185847 -0.5888519129 -0.8082339056 -0.003373212587
-0.02049354625 -0.000404618524 -0.006282368511 0.9938007611 0.01300269206 -0.1104127587
-0.01475484443 0.0135837636 -0.0008031253926 0.6972783468 -0.6366555497 -0.3293518152
-0.01870310402 -0.004045850277 -0.05552642822 0.92977049 0.3142938541 0.1916930078
0.004330341637 0.01875978279 0 0.1723684218 0.9525357585 -0.2509277903
0.00961699126 0.0143760343 -0.001555834559 -0.6073063774 -0.7874818449 0.1051252015
0.01253913689 0.01253913689 0 0.6999345188 0.6997461256 -0.1429931085
-0.01930730459 -0.005961814086 -0.001298904833 0.9131476699 0.2815455306 -0.2947769446
0.0143721225 0.009613094893 -0.001552108434 0.8042574998 0.5786590307 -0.1353646933
-0.000859424334 0.01813927341 -0.0007662023418 0.02301047509 0.9747762283 -0.2219950964
-0.008875202179 0.01829083443 0 -0.3793205485 0.9176599291 -0.1183899323
-0.01124830357 -0.01674976444 -0.04542419434 -0.5690703059 -0.8116939861 -0.1315745411
-0.01775635656 0.05862362035 -0.05023432668 0.8392051616 -0.03709312702 -0.542548428
0.01875978279 0.004330341637 0 0.9608707505 0.1813303432 -0.209396054
0.01621260338 0.005253112316 -0.006279627514 0.9533376931 0.2850910382 -0.09934959894
0.0175528965 0.007530352592 0 0.8983187224 0.4043600192 -0.1718035155
-0.0175623436 0.01968287277 -0.07132767487 0.9231631321 0.01594443626 0.3840776047
0.01692320156 0.002311732173 -0.01156596994 0.9855525853 0.1608144522 0.05314897496
-0.008983569145 -0.01850228596 -0.02114665604 -0.4004299279 -0.916204956 -0.01497836413
0.004284234013 0.01648239095 -0.001738240016 -0.369087591 -0.9200400767 0.1315317737
0.01648336029 0.004285107953 -0.001739087978 0.9229344227 0.3642695116 -0.1244980895
0.0170331459 -0.0006432541609 -0.01149221916 0.9964025463 0.07994257891 -0.02812738674
0.008028337479 -0.01894746145 -0.0160671498 -0.1925055611 0.981194177 0.01412784223
0.00418025887 0.01646786594 -0.006455307364 -0.2225611474 -0.9668061035 0.1255089397
0.01813405252 -0.0008641580194 -0.000761334097 0.978928774 0.02754447791 -0.2023357535
0.01829083443 -0.008875202179 0 0.9127128088 -0.3914386038 -0.1171799816
-0.0007362261961 0.01701142534 -0.006218403419 0.004343399685 -0.9963455239 0.08530376255
-0.005583372533 0.0178815937 0 -0.1879637304 0.973839545 -0.1276956407
-0.0187695303 0.008467763424 -0.02131589794 0.957088944 -0.2896483359 0.009197540106
0.009280016041 0.01421687975 -0.006502572107 -0.6031479235 -0.7948031959 0.06708548382
-0.02052397203 0.01953529978 -0.06113214684 0.9997579388 -0.003130004395 -0.0217776703
0.009022114913 0.05571068192 -0.04221505229 0.3172324991 -0.01298613025 0.9482588792
0.01318220978 -0.01521423607 -0.0006452877194 -0.6027274783 0.6850708263 -0.4091424566
0.0142112855 0.009274487066 -0.00649714222 0.8193234339 0.566771974 -0.08647913144
-0.01876035833 0.02852938366 -0.05219835758 0.9315581535 -0.01813142533 -0.3631399978
0.0178815937 -0.005583372533 0 0.9753570396 -0.1858394793 -0.1189215421
-0.0186023941 -0.008753842831 -0.04158800697 0.9135285405 0.4052205953 0.0355228776
-0.01955144501 0.004472625812 -0.0009072159901 0.9229177915 -0.1835025674 -0.3384517068
-0.01813107109 0.0293319912 -0.07035202789 0.9645404675 0.03472837809 0.2616402614
0.00979674716 0.01386732693 -0.01124724569 -0.5811908202 -0.8137079655 0.009827381316
0.0146396443 -0.01152864997 0 0.7095742718 -0.6142956713 -0.3451741314
-0.006048469734 0.015971208 -0.001749363184 -0.3363725914 0.9261924235 -0.1703557288
0.0198093071 -0.005552896023 -0.004262051582 0.9755874622 -0.1746485624 -0.1331427175
-0.00763355875 -0.01108158112 -0.06392472839 -0.4626635657 -0.7197284789 -0.5176227793
0.0169095548 0.002407424688 -0.00676360321 0.9881803655 0.1417082433 -0.05846656254
0.01701331615 -0.000734381929 -0.006220187306 0.9964069303 0.01645190322 -0.08308167135
-0.0201825325 -0.0006148276806 -0.05175519562 0.9715317678 0.2066205608 0.1159049959
0.01594340458 -0.006073618984 -0.001723413873 0.9444263395 -0.2801755102 -0.1719318843
-0.01935037994 0.006930983543 -0.00198913753 0.9361948069 -0.2755945879 -0.2181442336
-0.01454096484 -0.01454105353 -0.01631827068 -0.7066127154 -0.7072733149 0.02151577076
0.004643260002 -0.0173417263 0 -0.2281827496 0.903571407 -0.3626173538
-0.01152864997 0.0146396443 0 -0.600044167 0.7253631079 -0.3373356774
-0.02055313492 0.04801153564 -0.06056255086 0.9974811737 -0.02179209311 -0.06750120591
0.01389571342 0.009761469936 -0.02118429127 0.8460879185 0.5328577221 -0.01406706317
0.01638622284 -0.004720620394 -0.01160854197 0.9996638787 0.01083412972 -0.023553159
-0.01238335323 0.05388529587 -0.04420068169 -0.6050179443 0.02308145175 0.7958772102
-0.005575719833 0.01978350639 -0.004238075733 -0.2691606598 0.9490401832 -0.1639367861
0.0138645874 0.009793997383 -0.01124450388 0.8439907379 0.5362298986 -0.01171025689
0.009484816551 -0.01570971317 0 -0.329067063 0.809925642 -0.4855258205
-0.006467128277 0.01569266186 -0.006321622181 -0.2691606598 0.9490401832 -0.1639367861
-0.01530781884 0.02436962467 -0.04692794885 0.745923647 -0.03837415236 -0.6649250614
0.004554228306 0.0538605299 -0.04057093048 0.2743204736 0.008704107075 0.9615989373
0.004127600125 0.0165104084 -0.01129583999 -0.2065548712 -0.9783737092 -0.01095309843
0.008930142879 -0.01853409958 -0.02570924473 -0.3044889919 0.9524814671 0.00809374409
0.003633525163 0.04415633488 -0.04039660835 0.1017535688 0.01708789353 0.9946628651
0.01633604546 0.004845231056 -0.01117876339 0.9768227299 0.2139060322 0.007846262504
-0.01591466125 0.009855050564 -2.357832591e-05 0.8289641739 -0.4819607466 -0.2837820238
0.00396376133 0.05883067576 -0.04047623316 0.1277641811 0.0836791601 0.988268239
0.009115494728 0.05992150307 -0.0422291851 -0.3957084629 0.05245895559 -0.9168766931
-0.0006597120374 0.01701532097 -0.01147483521 0.05860992493 0.9977615799 -0.03219792468
-0.004640588284 0.01644035467 -0.01070952352 0.03247752242 0.9994469054 -0.00714799435
0.009235577106 0.01424899588 -0.0162856946 -0.5498855805 -0.835175814 0.01035413079
0.004035148621 0.01651098514 -0.01617089844 -0.271148034 -0.9625006515 0.008440356364
0.01424638805 0.009233016396 -0.01628304539 0.8497213108 0.5272231395 -0.003074943709
-0.0009818744072 -0.02017042563 -0.00126982751 0.03666450817 0.9452547394 -0.3242671607
0.004470110575 -0.01955366548 -0.0009046950626 -0.2281827496 0.903571407 -0.3626173538
-0.0173417263 0.004643260002 0 0.9043473806 -0.2428417179 -0.3509753769
0.01625933037 0.005131339455 -0.01600936203 0.9531062267 0.3023819629 -0.01239633966
-0.0108503497 -0.01577703135 -0.05083020183 -0.5521757991 -0.8028584228 -0.2247670789
0.01693440628 0.002211994012 -0.0164440883 0.9732990148 0.2293858324 0.008436099294
-0.0006204117114 0.01702275467 -0.01568457985 0.0353660449 0.9993742161 -0.000647392554
-0.0205386116 0.004150033188 -0.05160908661 0.999957869 -0.001238086936 -0.009095463685
0.009759563971 0.01389375334 -0.02118228264 -0.5472082714 -0.8368176224 0.01730244206
0.003713323832 -0.01793393326 -0.05345287323 -0.06218270305 0.9529806477 0.296582529
0.0170182929 -0.0009939621538 -0.01581699204 0.9993574625 0.03455501195 -0.009519105297
-0.0008210292061 0.05865359751 -0.04010170364 0.1161255345 -0.06704474592 -0.990969153
-0.0150031432 0.04451353243 -0.04662323931 0.7415332403 0.008977498127 -0.6708560636
-0.0178037262 -0.0001637349129 0 0.9471473494 0.03392887906 -0.3189995763
-0.002185285568 0.01692807007 -0.01613769722 0.0427371032 0.9988792507 0.02034164405
0.004907926798 0.01634032774 -0.0205301652 0.265525362 0.9631480263 -0.04292041008
-0.02056795216 0.04027957535 -0.06072688103 0.9998482437 0.0168563091 -0.004399376003
0.01632766151 0.004896077693 -0.02051733208 0.9503193028 0.3089142348 -0.03827816858
-0.0001637349129 -0.0178037262 0 -0.01505994507 0.9105580419 -0.4131068267
-0.01607898776 -0.01089337794 -0.05080671374 0.7715060858 0.6052734918 0.1960162229
0.006910513401 -0.01936824989 -0.001969156146 0.2641954876 -0.9378514684 0.2250230378
-0.02046443224 0.01461535788 -0.0613236084 0.9893559615 0.04623607439 0.1379746602
-0.01454327393 -0.01454334998 -0.02610768986 -0.7063086993 -0.7077214416 -0.01607427636
-0.005482874513 0.05912119293 -0.04083708477 0.2676460631 -0.09447189293 -0.9588746771
-0.0006874976665 0.05462483521 -0.04009315796 -0.02823466516 0.04598906491 0.9985428431
-0.009032023748 -0.01847246552 -0.01628340244 -0.420635115 -0.9071943476 -0.008032165197
0.00927856648 0.04929787731 -0.04229512691 -0.3964276925 -0.004578035102 -0.9180545333
-0.01694056861 -0.01161360757 -0.02643504492 0.8084572254 0.5885448823 0.003440398092
0.01294583797 0.05220124054 -0.04464821625 0.4313809843 -0.01784669841 0.9019933158
-0.01923305829 0.007243704478 -0.00594250075 0.9494288768 -0.2545397117 -0.1838323774
-0.01968772643 -0.005734237501 -0.04118809618 0.9490715982 0.3133753245 0.03254239544
-0.005354771444 -0.01982448578 -0.03625562341 -0.2375761405 -0.9712431062 -0.01563349297
-0.0201677102 -0.000978677022 -0.001272821955 0.9471473494 0.03392887906 -0.3189995763
0.002126135111 0.01693803406 -0.02038964653 0.2616456034 0.9647570593 -0.02802489616
0.007180529118 -0.01928815842 -0.005879611651 0.2420984676 -0.951359551 0.190534345
-0.005728818337 0.02986126391 -0.04088818359 0.365321965 -0.005398174062 -0.9308655765
-0.005545279196 0.05454702704 -0.0408641401 -0.3394060736 0.0009246580735 0.9406394964
-0.001097666174 0.04930740662 -0.04009735794 -0.1108390903 0.003078884059 0.993833596
-0.001048874766 -0.01999175787 -0.04625201797 -0.0634818196 -0.9866612078 -0.1498990312
0.004313228846 0.04889115143 -0.04056238556 -0.2072462807 -0.006030185033 -0.9782702162
-0.01619865004 -0.006949330012 0 0.8875779287 0.3508359788 -0.2985289541
0.01017669646 0.01364236832 -0.02492371241 0.5226173293 0.8513988229 -0.04462254316
0.01364767234 0.01018187586 -0.02492927488 0.8512705795 0.5228902205 -0.04386590697
-0.01453653073 -0.01453663564 -0.001364503659 0.6621605021 0.6630069616 -0.3492352192
-0.006949330012 -0.01619865004 0 0.3510290381 0.8877099622 -0.2979087737
-0.005971034527 -0.01931585185 -0.001289282706 0.2823255068 0.9128768552 -0.2948697261
-0.01017363477 0.05918094063 -0.04278932476 0.4464408572 -0.07779996749 -0.8914245487
-0.0005208600521 0.04467514801 -0.04008373642 0.01827561986 -0.01430026341 0.9997307158
0.008501242399 0.04313372231 -0.04190169907 -0.225696423 -0.0333916661 -0.9736252468
-0.02014130306 0.004071880817 -0.006566313744 0.9656114341 -0.1939938706 -0.1730922777
-0.01893437004 0.05933214569 -0.052623909 0.9147529469 -0.056484761 -0.4000456449
-0.01637997324 -0.01127329904 -0.000893246564 0.8066714472 0.5579941717 -0.1947400335
-0.01860148176 -0.00883909448 -0.03629848353 0.9173849464 0.3979607625 -0.005664947318
-0.01985846329 0.04397528744 -0.05544150543 0.9664729685 -0.0133577319 -0.2564206937
-0.0003206028454 0.0345598863 -0.04006542333 0.134576342 -0.04982448373 -0.9896498012
-0.01127920914 -0.0163857304 -0.0008869119503 0.5586216331 0.8064370527 -0.1939101624
-0.0004164284319 -0.02050392485 -0.006270484924 -0.01710237868 -0.9935208102 0.1123561678
0.004032569528 -0.0201759491 -0.006526486874 0.1309007783 -0.9743765562 0.1829079358
-0.01016423359 0.05504777222 -0.04274140472 -0.457808171 0.007903081595 0.8890158716
-0.01454216798 -0.01454224984 -0.0211709137 -0.7064025255 -0.7078089424 0.001404627031
-0.005403436025 0.03443947983 -0.0407882843 -0.2800965335 0.04790461204 0.9587758237
-0.005791872406 0.04977913284 -0.040901017 -0.3335546656 -0.0191568165 0.9425361009
0.004297544122 0.03970459461 -0.04052409267 -0.1643079358 0.0007042625769 -0.9864088434
-0.01908413219 0.007640669584 -0.0109608655 0.9857425431 -0.1682357274 0.002894623453
-0.01841004658 -0.009197661877 -0.002163193583 0.9268427537 0.3370647516 -0.1653779402
-0.009172443867 -0.01838604641 -0.002189912379 -0.3375851157 -0.9266665597 0.165303892
0.007554093838 -0.01915956688 -0.01087293863 -0.1647690401 0.9863283821 0.002736088848
-0.01281677961 0.05892592049 -0.04454632759 0.6047686781 -0.03656548597 -0.7955613184
-0.005880754403 -0.01968227168 -0.02131328038 -0.2517534737 -0.9677905728 -0.001263202504
0.003474825223 -0.02024708748 -0.02155488173 0.1105052011 -0.9937749063 0.01414341478
-0.01005519227 0.04973709433 -0.04269324439 -0.4596602741 -0.006811536903 0.8880687109
-0.0202401886 0.04926379585 -0.06424325752 0.9939918072 -0.0241732001 0.1067517849
-0.01172389338 -0.01687023142 -0.006220558855 -0.5744847722 -0.813772109 0.08798977882
-0.005849555999 0.04453166342 -0.04093338537 -0.2787905035 -0.002241716277 0.960349327
-0.02046616745 0.005056862513 -0.05640955989 0.9920111674 0.08919791698 0.08920524299
-0.01843727048 -0.009150507927 -0.006782059511 0.9016927321 0.425739059 -0.07547496697
-0.0009296975823 0.03951970062 -0.04009085312 -0.1155125065 0.003518951538 0.9932997925
-0.01666965103 0.003145653725 -0.06757390594 0.8373361487 0.3203344959 0.4430056262
0.003993896961 0.03679432678 -0.04040655136 -0.08731492684 0.01076872676 -0.9961225517
-0.02007756488 0.004351139863 -0.01147928747 0.9857425431 -0.1682357274 0.002894623453
-0.01116987228 -0.004187927842 -0.06858844376 0.645554139 0.5449392055 0.5350711316
-0.01962352867 -0.0003410221398 -0.05630942688 0.9349083456 0.273070199 0.2266694767
-0.01149812194 -0.01703222901 -0.01623119708 -0.5940509837 -0.8043584257 -0.01053336671
-0.01964886761 -0.005936506212 -0.006267838657 0.9555826178 0.2650605299 -0.1288595204
-0.005945272207 -0.01965694356 -0.00625854367 -0.2306751889 -0.9653795155 0.1217840232
0.004278588931 -0.02014144071 -0.01140415319 -0.1647690401 0.9863283821 0.002736088848
-0.01525631638 0.0587004631 -0.04687649231 0.7423035666 -0.05327302065 -0.6679426624
-0.008822929382 -0.01858614222 -0.03631846237 -0.395956323 -0.9182285064 -0.008660271509
-0.02016731596 0.003773894906 -0.02675751781 0.9925119234 -0.1221033898 0.003293046979
-0.00588946263 0.03903892199 -0.04093752098 -0.3293199828 0.01966867353 0.9440135021
-0.01893205706 0.008046028137 -0.01608533541 0.9811837052 -0.1928721595 0.008880694962
-0.020480124 -0.0004778025001 -0.01142233574 0.9997441478 0.003310488053 -0.02237586891
-0.01685827001 -0.01171158017 -0.006234041691 0.8140688974 0.574025494 -0.08824150122
-0.01453839461 -0.01453849713 -0.005951153278 -0.6983831919 -0.7003641307 0.1474822078
-0.02008262126 0.004256176472 -0.03632064247 0.9858950323 -0.165092632 0.02748468822
-0.01855085437 -0.008953267733 -0.02608380318 0.9134232334 0.4065955392 0.01838652265
-0.009126429876 -0.01841436386 -0.00680814441 -0.4259465864 -0.9015987936 0.07542626104
-0.0004848179817 -0.02048622537 -0.01141513014 -0.007528467052 -0.9997511198 0.02100048918
-0.01494744492 0.05468780772 -0.04656985728 0.7437712058 -0.007759227952 -0.6683892488
-0.01741389402 0.05339348221 -0.0496618576 0.842062612 -0.008447919341 -0.5393136287
-0.01014367596 0.04385099602 -0.04274003983 -0.5694686714 0.01847261528 0.8218054482
-0.01519345147 0.04978008434 -0.04680996323 0.7400591095 0.01114831808 -0.6724494252
-0.01251699543 0.04829856491 -0.04430246925 -0.6045918183 0.02166779231 0.7962406923
-0.01005296822 0.0391416069 -0.04266709747 -0.4563657952 0.011111646 0.8897228739
-0.02002783241 0.03489656601 -0.05607837296 0.9658184256 0.01516513389 -0.2587755542
-0.002404528201 0.03099251747 -0.04015927696 0.1869364586 -0.0100102198 -0.9823210045
-0.005368033171 -0.01931946754 -0.0461170433 -0.2248697712 -0.9640276313 -0.1417191313
-0.02016828982 0.003738837639 -0.01685206509 0.9956639956 -0.09215611014 -0.01266725069
-0.02007041626 0.03016396713 -0.05624243011 0.982195549 0.02337681916 -0.1864012551
-0.01955569863 -0.006251753926 -0.01129734945 0.9389774944 0.3437841756 0.01156311278
-0.006257053196 -0.01956065536 -0.01129159284 -0.3440727141 -0.9388815881 -0.01073922528
0.003673657815 -0.02022568003 -0.01678297901 0.09094595646 -0.9958087674 0.009681513936
-0.01247628021 0.04432931137 -0.04426989365 -0.6356343559 -0.001152343312 0.7719894026
-0.009944994768 0.03452572759 -0.04262242699 -0.4445633392 -0.01312241345 0.8956512936
-0.01066913891 -0.01404378748 -0.05583877087 -0.5024954754 -0.7870908719 -0.3577516687
-0.0196119709 -0.0052108031 -0.04646172496 0.9615745089 0.2664115901 0.06632743353
-0.02051380062 -0.0007210128109 -0.0160518055 0.9986998466 0.05097584773 0.0002818417036
-0.01846493721 -0.009102589607 -0.01147586203 0.9127273383 0.4084757316 0.008739720117
-0.0167764504 -0.01184324813 -0.01158469868 0.8039938874 0.5946124039 -0.005469745588
-0.01849312846 -0.009053760846 -0.01625878779 0.9067544213 0.4215779951 0.008271246923
-0.01453978427 -0.0145398798 -0.0115578227 -0.7064867499 -0.7074685178 0.01909891269
-0.01185378015 -0.01678670478 -0.01157289064 -0.5952020623 -0.8035485205 0.006654343713
-0.02049103851 -0.0006572042108 -0.04629589615 0.9855386481 0.1597582168 0.0564879214
-0.01963860703 -0.005950194776 -0.01643517935 0.9551416338 0.2948050326 -0.02818602598
-0.009079670429 -0.01844314194 -0.01150125027 -0.4082280083 -0.9128407082 -0.008469636585
-0.0007100739876 -0.02050392151 -0.01606373866 -0.05541410736 -0.9984629598 -0.0009973380515
0.008519895554 -0.01872421074 -0.02137127686 -0.2964069215 0.9550093546 0.01000347886
-0.02051492357 0.05419229984 -0.06129432678 0.9997869733 0.009573255432 0.01828553364
-0.01244259691 0.04040723228 -0.0442342701 -0.6063256513 -0.01167917227 0.795130682
-0.005961237431 -0.0196488831 -0.01642285943 -0.2965579306 -0.9545892279 0.02850964182
-0.006690336108 0.02568847895 -0.04117195225 0.3972297128 -0.001847558417 -0.917717354
-0.02054136429 -0.0009255894825 -0.02614214058 0.9984932941 0.0544918442 -0.006463786183
-0.02020975018 0.00351730152 -0.02160079384 0.9939328555 -0.1088360496 -0.01588059067
-0.01868981806 0.05487922668 -0.05205638377 0.9283597341 -0.01456526939 -0.3713974381
-0.01752899679 0.0486959521 -0.04984812546 0.8372375365 -0.002704761028 -0.5468326908
-0.01890223821 0.00945628198 -0.045612559 0.9568145887 -0.2622877483 -0.1253434477
-0.01510463703 0.03881388855 -0.0467321496 0.7404575484 -0.01519700905 -0.6719312985
-0.01257765007 0.03505878448 -0.04433545303 -0.6333394396 -0.02978752528 0.7733006256
-0.01012111759 0.02924880473 -0.04271640778 -0.4863217362 0.01269568881 0.8736875806
-0.02054685249 -0.0005820383996 -0.03655883942 0.9947538109 0.102295198 -0.0007403658315
-0.01969666886 -0.005776382267 -0.02632201672 0.9678212259 0.2516301154 0.002087979246
-0.0200922718 0.04885291672 -0.05644799194 0.9750788897 0.004534607279 -0.2218120741
-0.01859354877 0.00886169672 -0.02563529205 0.9732908071 -0.229481976 0.006559537769
-0.01701527241 -0.01148056807 -0.01625123882 0.8046792248 0.5936026194 0.01128164149
-0.01698341465 -0.01156559563 -0.0366212616 0.8101631695 0.5861909888 -0.003970318155
-0.01867637507 0.02395383135 -0.05198229853 0.9003608864 -0.01926547612 -0.4347172825
-0.02001560307 0.05841000748 -0.0560359993 0.9781083728 -0.04621548059 -0.2028993357
-0.01995345338 0.05423788579 -0.05588263257 0.9744823169 0.03005981887 -0.2224423999
-0.01891965246 0.04957864094 -0.05256680775 0.9135758331 0.01904255612 -0.4062223262
-0.01412662005 -0.01412671161 -0.04740595818 -0.6845310559 -0.7106279781 -0.162558021
-0.01500235966 0.03408918817 -0.04659004102 0.7404647743 -0.01087270071 -0.672007219
-0.01247924932 0.03047395325 -0.04424808248 -0.6081028346 -0.01927620102 0.7936241999
-0.01019316469 0.02446709306 -0.04275262288 -0.5517046733 0.02987367432 0.8335043593
-0.02050301628 -0.001496835688 -0.02106374779 0.9911722874 0.1319163901 0.01325000843
-0.001485343891 -0.0204927494 -0.02107640762 -0.1361427303 -0.9905975255 -0.01347959449
-0.00601851368 -0.01618503475 -0.05625100708 -0.2959430426 -0.8752258557 -0.3826191541
-0.01862827539 0.04441982746 -0.05191139412 0.9086359643 0.01578931129 -0.4172905248
-0.01736570454 0.04301568794 -0.04957204056 0.8241791991 -0.02771075522 -0.565650742
-0.0182959315 0.009448483467 -0.03123782984 0.9472879749 -0.3201958955 0.01095814949
-0.01968156733 -0.005880027907 -0.0213141455 0.9679551394 0.2511191608 0.001419570467
0.003743097961 -0.02019430876 -0.026723557 0.1243527961 -0.9922270338 -0.004679267667
0.009462055206 -0.01828415108 -0.03125264931 -0.3293067945 0.9441166765 0.01416814271
-0.02054128838 0.05829094124 -0.06028122711 0.996909559 0.01205767102 -0.07762695288
-0.01776311429 0.0395008227 -0.05021388372 0.841947153 -0.005942446801 -0.5395272735
-0.01512973322 0.0291973065 -0.04672585079 0.7399565159 -0.009327186292 -0.6725900372
-0.0128508544 0.0246242094 -0.04454115486 -0.6542733748 0.02031086868 0.7559853303
-0.01097065401 0.02045472717 -0.0431538868 0.6410991387 -0.09157305418 -0.7619752425
-0.01852179813 -0.009004103184 -0.0211228838 0.9157029761 0.4015604253 0.01540403543
-0.01691964065 -0.01163680193 -0.02148816066 0.806118277 0.5917544373 9.697453846e-05
-0.01164930375 -0.01693173006 -0.02147350078 -0.5924443958 -0.8056113139 -0.000220964562
-0.0009051943392 -0.0205231102 -0.02616516228 -0.1279980433 -0.9917702017 -0.002892742424
-0.01877087975 0.0007075492293 -0.0609938736 0.9224624661 0.2699821581 0.2759939002
-0.01899547434 0.03871581745 -0.05274002743 0.9273899387 -0.007723992208 -0.3740163653
-0.02012480812 0.01993018456 -0.05641952972 0.973779266 -0.01923063444 -0.226680665
-0.01743487676 0.03459380722 -0.04967211914 0.8456374738 -0.00152239075 -0.5337555108
-0.01259990549 0.01993233013 -0.04403478432 0.6477526876 -0.07778491067 -0.7578693577
-0.01810249329 -0.00810270977 -0.04986902237 0.8977644306 0.4194888088 0.1343434642
-0.02012914562 0.003987043798 -0.03096434593 0.9888416027 -0.1456785334 0.03114562148
-0.005782087564 -0.0197019949 -0.02631534314 -0.252095914 -0.9677003892 -0.001899160294
0.003968120754 -0.0201456995 -0.03094315147 0.1463277816 -0.9887393508 -0.03134767035
-0.02016905975 0.05931137848 -0.0646282196 0.9992655663 0.006033997254 0.0378407049
-0.01871910048 0.03373095322 -0.05209198856 0.9128996477 -0.01322741009 -0.407969691
-0.01755324936 0.03016898473 -0.04986299515 0.8420038264 0.00942539086 -0.5393892085
-0.01537308557 0.0192852369 -0.04678742872 0.7515995307 -0.1015580634 -0.6517546358
-0.0162498188 0.006092677116 -0.06991942596 0.8136209545 0.2696335931 0.5150909317
-0.01793535519 0.0101131711 -0.03703469849 0.9430195655 -0.3316686817 -0.02664553838
-0.008934151967 -0.01853269958 -0.02610641797 -0.4055671266 -0.9138971841 -0.01752834093
0.01009062147 -0.01795489025 -0.03700915337 0.3429466808 -0.9392965384 -0.01046838049
-0.01960400391 0.05455628077 -0.06675187683 0.9780105557 0.01375217667 0.2081014912
-0.0201988903 0.0400814888 -0.05693447876 0.9797677256 0.002852420639 -0.2001176342
-0.01629840527 0.01522180481 -0.04607181931 0.8155321229 -0.2767459572 -0.5082509535
-0.01910166073 -0.005138173938 -0.0511982317 0.9316248005 0.3276664292 0.1571939638
-0.0205203022 -0.001181172021 -0.03125606003 0.9930006536 0.1181065339 0.0007407396631
-0.001175913814 -0.02051567802 -0.03126203003 -0.1200538068 -0.9927666748 -0.001188622556
0.004259592613 -0.02007958698 -0.03632472801 0.1709550516 -0.9851173942 -0.01783507606
-0.02050412242 0.04361612956 -0.06171244049 0.9964016563 0.004022475729 0.08466143778
-0.01756790225 0.02423108355 -0.04987759399 0.8468494111 -0.04574296137 -0.529861922
-0.01782713509 0.01044110584 -0.04152738953 0.9323057378 -0.3465598262 -0.1034519121
-0.01830327606 0.05085706711 -0.06997050476 0.9666635698 -0.02977408399 0.2543128913
-0.01973636654 -0.005698257889 -0.03139289583 0.969641133 0.243886701 -0.01775810672
0.01067920113 -0.01757668877 -0.04076180649 -0.3422438645 0.9391579103 0.02918144522
-0.01751060104 0.01971021271 -0.0496624012 0.8356195603 -0.09294644904 -0.541387946
-0.0185768528 -0.008897764683 -0.03113732338 0.9064778839 0.4216906377 -0.02179110098
-0.01878876534 0.01967058983 -0.05216820068 0.9334672056 -0.08744280958 -0.3478400943
-0.01696192169 -0.01158994198 -0.03148226081 0.8102830924 0.5860283492 0.003476228861
-0.0145442249 -0.01454429515 -0.03114467621 -0.7063321066 -0.7076882098 -0.01650311698
-0.01977249813 0.04450658607 -0.06622094727 0.9720524681 -0.002946207457 0.2347452217
-0.01159938028 -0.01697102017 -0.03147071372 -0.5863313953 -0.8100617083 -0.003940016544
-0.00888032198 -0.0185602932 -0.0311584177 -0.4207868677 -0.9068900074 0.02211168002
-0.0005755411118 -0.02054110374 -0.03656641388 -0.09459603217 -0.9953112381 -0.02017746192
-0.02054701376 0.03497235203 -0.06083030987 0.9981126925 0.02423288604 -0.0564253521
-0.01997244708 0.02485859044 -0.0558606294 0.9677164876 0.006104889342 -0.2519673191
-0.0200591836 0.004503075004 -0.04174888802 0.9747482531 -0.2172500253 -0.05165529557
-0.00458403794 -0.01839253362 -0.05130848694 -0.220632065 -0.9345537842 -0.2791607358
-0.01982057599 -0.005350523131 -0.03626075472 0.9709786625 0.2380863238 0.02270108879
0.004700245976 -0.01988625288 -0.04198171139 0.2262704099 -0.9732920871 -0.03878420729
-0.0194953537 0.009707589785 -0.06477057393 0.9519739887 0.1506647321 0.266543924
-0.008721028328 -0.01857127094 -0.04162951088 -0.3966629228 -0.9158086608 -0.06287306679
-0.01989641698 0.03930019887 -0.06555454 0.9895104195 -0.009085916274 0.1441755038
0.003351351559 -0.01922474384 -0.04907517242 0.03211357635 -0.9802998749 -0.1948868223
-0.01896245241 0.01511335778 -0.05136562347 0.9377604057 -0.1287779544 -0.3225238905
-0.01834826279 0.01257240868 -0.04793205261 0.9468087637 -0.2159362014 -0.2385890228
-0.02052428055 0.0297609663 -0.06094591904 0.9998829352 -0.01439341609 0.005190909988
-0.01980698109 0.009910647233 -0.05078476397 0.9707910615 -0.1535627982 -0.184345279
-0.02026424522 0.004708668518 -0.04647226486 0.9914975164 -0.1087220018 -0.07149965917
-0.02053284121 -0.0006334694698 -0.04136440945 0.9929156294 0.1184237072 0.009714854655
-0.01454519248 -0.01454525757 -0.0362728281 -0.7056913805 -0.7084633869 -0.0089053325
-0.01157246749 -0.01699002075 -0.03661267789 -0.5855371096 -0.8106421609 0.00236227949
-0.0005737520009 -0.02047932816 -0.04143679523 -0.06758462094 -0.9951086361 -0.07204943724
-0.007263911486 -0.01732464123 -0.05205339241 -0.3415771119 -0.8930426726 -0.2929161338
0.007426896572 -0.01862957191 -0.04665248108 -0.2089727077 0.9672665935 0.1439643865
-0.01829513359 0.03980525589 -0.07002400208 0.973809704 -0.0114033737 0.2270784521
-0.01974265385 0.03374692726 -0.06634413528 0.9728730588 -0.01268066059 0.2309918014
-0.02054243088 0.02457952404 -0.06100416183 0.9983080624 -0.02353220034 -0.05317187404
-0.02018961906 0.01461186584 -0.05583224678 0.9826889187 -0.06784668209 -0.1723929142
-0.005710556848 -0.01966575704 -0.04121764537 -0.3016798802 -0.9521861459 -0.04827829188
0.003744328499 -0.01982460022 -0.04569485092 0.1393531633 -0.9829729484 -0.1197701075
0.001155153155 -0.01813918304 -0.05383819199 0.01313145496 0.9583707621 0.2852245559
-0.01971688843 0.02980123806 -0.066120327 0.9907920883 0.01027923293 0.1350013897
-0.01698246574 -0.01152674945 -0.0408328139 0.8075888746 0.5878156024 0.04767627531
-0.01449489705 -0.01449494855 -0.04157682546 -0.701758505 -0.7108473661 -0.04723370413
-0.01152405914 -0.0169798406 -0.04083630625 -0.5810379233 -0.8120535124 -0.05444285811
-0.01983816783 0.0244603494 -0.06600029755 0.967616441 0.008214021099 0.2522914049
-0.02051746826 0.009633137321 -0.05614865799 0.9970110654 -0.05879388021 -0.05012200153
-0.01842978859 -0.008501497746 -0.04613626862 0.9136083872 0.4000378837 0.07272830535
-0.0166368024 -0.01144910731 -0.04582836533 0.7919407525 0.6003132424 0.1115968442
-0.008314313412 -0.01825231552 -0.04637718582 -0.3785768949 -0.9168959799 -0.1264171531
-0.001135557331 -0.01910810757 -0.0505740509 -0.05756306977 -0.9735042535 -0.2213051318
-0.01960249329 0.01964283371 -0.06643028259 0.9665837592 0.01555522213 0.2558786266
-0.01970522881 0.01572530746 -0.06603356934 0.9587663302 0.05202082116 0.2793939124
-0.02031126722 0.009445685387 -0.06098552704 0.9738600241 0.1052201058 0.2013091722
-0.01485842848 -0.0103645196 -0.05567861239 0.7082000979 0.6284733169 0.3216736098
-0.001265598208 -0.01717375088 -0.0561994133 0.1629193716 0.9244786016 0.3446688172
-0.0197631588 0.004392410874 -0.06057058907 0.9573776438 0.1798606987 0.2260048148
-0.01776122665 -0.007706474781 -0.05255977631 0.8730113818 0.4454215245 0.1986222362
-0.01845912743 0.01350881386 -0.0688560791 0.9337850507 0.1084125096 0.341016432
-0.01686482787 -0.006707049131 -0.05718993855 0.8068191776 0.5007235762 0.3135581524
-0.002577224255 -0.01516511917 -0.06003843307 0.185205128 0.8900893673 0.4164612573
-0.01784555626 0.009218728065 -0.06865467072 0.9336465849 0.1535008185 0.3236379973
-0.018416008 0.004817813396 -0.06521746063 0.8899290289 0.2600209378 0.3747204765
-0.01788333321 -0.001885997027 -0.0609430294 0.9140219782 0.2970956685 0.2762209029
-0.01533352337 -0.005509024763 -0.06201075134 0.7355100354 0.5197441817 0.4346158919
-0.01205139208 -0.01205187988 -0.05793202782 -0.6103454376 -0.7064401918 -0.3583583434
-0.006952860117 -0.01379158258 -0.0602435894 -0.4136795817 -0.8163143997 -0.403112893
-0.01654944992 -0.0003744137585 -0.06520183945 0.8103674621 0.3975161688 0.4304479898
-0.01113646825 -0.009996666272 -0.06224995295 -0.605647358 -0.6437983995 -0.4676696469
-0.01261263752 -0.0009160132855 -0.06987893295 0.7438084396 0.4152097322 0.5237841954
