# .PCD v0.7 - Point Cloud Data file format
VERSION 0.7
FIELDS x y z normal_x normal_y normal_z
SIZE 4 4 4 4 4 4
TYPE F F F F F F
COUNT 1 1 1 1 1 1
WIDTH 517
HEIGHT 1
VIEWPOINT 0 0 0 1 0 0 0
POINTS 517
DATA ascii
-0.006991752625 0.05324849701 -0.04127086258 -0.3366171059 -0.003887387125 0.941633587
-0.01889081192 0.0551462307 -0.05247407722 0.9181059174 -0.04126981276 -0.3941805767
0.01896948687 -0.000501838247 0 0.9937889349 0.00699429512 -0.1110613915
0.003332052469 -0.01956297684 0 -0.09245571779 0.9622355383 -0.2560365384
0.01140560579 0.05175299644 -0.04360421753 -0.4418786741 -0.002157977441 -0.8970722271
0.003634599606 0.01879032071 0 0.09628337845 0.96895816 -0.2277050619
-0.008875202179 0.01829083443 0 -0.5226859534 0.7962093934 -0.3047129733
0.007779889584 0.01555851936 -0.0005956015661 0.496931099 0.8475079286 -0.1865202235
0.006450255871 0.03953166199 -0.04104814911 -0.2234540159 -0.01653419024 -0.9745742267
-0.004511249781 0.01648028374 -0.007900038481 -0.1158015811 0.9919361346 -0.05150435575
0.006973960161 0.01811053276 0 0.3395527729 0.8723926 -0.3516177837
0.01029666392 0.01437968222 -0.0004412826697 0.5484399896 0.8315996311 -0.08749646507
0.01253913689 0.01253913689 0 0.6841030838 0.6845687002 -0.2517313359
-0.009773541689 -0.0180897727 -0.01130690026 -0.4449976033 -0.8954975032 0.007832935358
0.01476663303 0.01031263542 0 0.7849607619 0.5119134244 -0.348971701
0.0155587461 0.007780030012 -0.0005957758948 0.8455462934 0.4951641153 -0.1996596218
0.01540062523 -0.0122073377 -4.080862304e-05 0.7182279189 -0.4647146697 -0.5178696093
-0.02036913776 0.04759259224 -0.06312544632 0.9940619388 -0.03754548528 0.1021332382
-0.02049411392 0.02346879578 -0.06260221481 0.9971751355 0.03411187141 0.06691882624
0.007470512231 0.01527912664 -0.003643977761 -0.5315327952 -0.8421769229 0.09061411723
-0.01221445338 0.0153924036 -3.317540387e-05 -0.4894277713 0.7686178105 -0.4119309629
0.003313153207 0.01672176409 -0.007115129232 -0.1917543142 -0.9765280143 0.09809852281
-0.0199474597 -0.005012346268 -0.02364531803 0.9637661448 0.2665108358 -0.0112602188
-0.01789007092 0.01932265282 -0.05028754139 0.8589486738 -0.1499348518 -0.4896189498
0.01811053276 0.006973960161 0 0.8504903527 0.329602231 -0.4099128313
-0.01295115121 0.01233888531 0 -0.5035199915 0.5494627534 -0.6667520535
-0.007639360428 0.01524827194 -0.003805693269 -0.3187273015 0.9318576146 -0.1733617414
-0.004685167599 0.03943965607 -0.04059662476 -0.2370982449 0.006957259359 0.9714607655
-0.01795538616 0.012975142 -0.04734115982 0.8874245626 -0.2816418176 -0.3649048263
-0.01824314499 0.01520532894 -0.04966886902 0.8796822971 -0.2276141633 -0.4175534083
0.01676166344 0.003489104152 -0.0005433220863 0.957312881 0.2216947441 -0.1854817735
0.01879032071 0.003634599606 0 0.970278544 0.1694307761 -0.1727795103
-0.000501838247 0.01896948687 0 0.008694497101 0.9935850479 -0.1127526419
-0.007658807278 -0.01889731789 0 0.3775665494 0.8729868979 -0.3087675125
-0.009837194681 -0.01804673386 -0.003843879163 -0.4904689607 -0.8623309737 0.1257994055
0.003474814177 0.01674635887 -0.0005291332006 0.1868646392 0.9705943136 -0.1517507331
-0.009044095993 0.04341685867 -0.04215900879 -0.4735749164 -0.001636343773 0.8807520201
-0.01976033897 0.02784472771 -0.05496475677 0.9635894329 0.003225777068 -0.2673667876
-0.01399060297 -0.013990695 -0.04866849518 -0.6737453283 -0.7210180296 -0.161864862
-0.0006538221091 0.01701593924 -0.003397789419 0.04254788575 -0.9923686804 0.115732794
0.0152989982 0.007442537864 -0.007482752164 0.8830220501 0.4692399123 -0.009271660805
0.01205835438 0.0120584472 -0.003349344591 -0.7020452203 -0.7080762709 0.07589797958
0.01233888531 -0.01295115121 0 0.4783653225 -0.4473661913 -0.755665342
-0.01848416615 0.009084547043 -0.02784846783 0.9506987081 -0.3101033576 0.002806084843
0.0002419581115 -0.02054478359 -0.003358659267 -2.563535532e-05 -0.9845609278 0.1750422202
-0.007650780439 -0.0191189394 -0.01193140173 -0.3783102447 -0.9255218983 0.01704624529
-0.01911720562 -0.007571758509 -0.0157942915 0.931690274 0.362488982 -0.02355782901
0.007411579609 0.01531611427 -0.01136534897 -0.4673623677 -0.884048819 0.005486609809
0.01363860861 0.0102869215 -0.003257463257 0.795087392 0.6001365297 -0.08759100868
0.007745145321 0.0515246048 -0.04156462097 0.3628529718 0.01192028131 0.9317701582
-0.02023212624 0.003368542075 -0.01855267191 0.9844189084 -0.1742614798 0.02350211575
0.01700752354 -0.0005838676691 -0.0005904174075 0.9837849794 -0.04071053788 -0.1746704509
-0.004587709586 0.01914762306 0 -0.06996611314 0.9456742657 -0.3174979154
-0.01603557364 -0.01285896985 -0.02357892513 0.8026640973 0.5964140952 0.004535863712
-0.008952914238 0.03519454288 -0.04212062073 -0.4738309495 0.0164212872 0.8804627037
-0.0005721536875 0.0170204134 -0.0006023837775 -0.0406114849 0.9837297958 -0.175003989
0.01671262836 0.00330440414 -0.007106463671 0.9771522787 0.1883883718 -0.09840348384
0.003377387285 0.01670564795 -0.003308005452 0.1819976159 0.9655329726 -0.1860724232
-0.01600477276 0.04313039322 -0.04775652466 0.7883963518 0.0006997278536 -0.6151672153
-0.01270742194 -0.01599038823 -0.04282549222 -0.5985454893 -0.7972163882 -0.07867228004
-0.01357465792 -0.0135747633 -0.05141192245 -0.659763055 -0.7135729486 -0.2356403156
0.01025613213 0.01361246538 -0.004183775902 -0.6376107822 -0.7680120086 0.06008365025
0.01647471046 -0.004362811724 -0.003209305207 0.9695401583 -0.05433821808 -0.2388288916
0.01527985382 0.007471100807 -0.003644612153 0.8436423871 0.5269801609 -0.1027591006
-0.008925822496 0.02388674641 -0.04206865311 0.500189561 -0.019749863 -0.8656906757
0.01669903564 0.003371003747 -0.003301866412 0.9681118694 0.1765777564 -0.177706793
0.003482343872 -0.01942469597 -0.04794839859 0.1412398346 -0.9725823023 -0.1847565272
0.01829083443 -0.008875202179 0 0.798509034 -0.5234972008 -0.2972103688
0.01621753852 -0.007315386772 -0.0003731085062 0.933331908 -0.3293927945 -0.1428003374
-0.01583156705 0.01959659719 -0.04732692814 0.7810712982 -0.1195937783 -0.6128824972
-0.01829164886 0.02349835841 -0.05119202169 0.8602230882 0.006820618462 -0.5098722562
0.01914762306 -0.004587709586 0 0.9464020261 -0.06844330228 -0.3156560144
-0.008982059002 -0.0167813561 -0.0512575779 -0.4418768224 -0.8599859078 -0.2552824168
0.002916778803 -0.02036884022 -0.0394984169 0.142853063 -0.989173097 -0.03360932166
0.003430077076 0.01670726852 -0.01143564529 -0.2530191082 -0.9674595316 0.001839985739
-0.003755239248 0.01701238441 0 -0.01537132405 0.982121625 -0.1876188588
-0.02001535034 -0.004545621117 -0.003208726843 0.9640023144 0.2241042705 -0.1430972178
0.008321894646 -0.01881413651 -0.01923476028 0.280321894 -0.9598924678 -0.005107445391
-0.0008750036545 0.01700382471 -0.01096867847 -0.02385089989 0.9997129416 0.002273543452
-0.01810206842 -0.009731095076 -0.01512880278 0.8627631451 0.5055750771 -0.005796285115
0.01701040697 -0.000658784546 -0.003392567873 0.9922743946 -0.04354917319 -0.1161679615
-0.005575719833 0.01978350639 -0.004238075733 0.1234646469 -0.9652933734 0.2301416614
0.01701238441 -0.003755239248 0 0.9814530069 -0.01579023854 -0.1910514683
-0.002577224255 -0.01516511917 -0.06003843307 -0.236489722 -0.8786556267 -0.4147733127
-0.01298796844 -0.00842250526 -0.06206136894 0.63876 0.610302005 0.4685265468
-0.007313518683 0.01621962802 -0.0003750599225 -0.3290491967 0.9300134501 -0.1637119693
0.002922211885 -0.02034201527 -0.01054007173 0.1130754704 -0.9935832164 -0.002515950138
-0.004298644543 0.01654571088 -0.00327592055 0.05745861258 -0.9690320812 0.2401568932
0.007441408952 0.01529769945 -0.007481560071 -0.4647576664 -0.8850249746 0.02703896787
0.01347653484 -0.01532524109 0 -0.4345395386 0.5525733213 -0.7112229707
0.01366120863 0.0102630024 -0.01196361828 0.8206836105 0.5710278296 0.02014024175
-0.01810035706 0.007671406031 -0.06740910339 0.895543277 0.1970823311 0.3989496131
-0.008990280032 0.03902486992 -0.04210706139 -0.4707884261 0.005384599062 0.8822297116
-0.005263647747 -0.01987283249 -0.01921959877 -0.2648156206 -0.9642854204 -0.005129829339
0.01024456692 0.01362146759 -0.008035055637 -0.5705129757 -0.8212280082 0.009975128931
0.01206124806 0.01206133175 -0.008161046863 -0.7057531554 -0.7081610935 -0.02050242163
-0.01666965103 0.003145653725 -0.06757390594 0.8225858597 0.3047399858 0.4800896212
-0.02039894613 0.01937589073 -0.06302035141 0.9962440804 0.01925804048 0.0844207325
0.01365116549 0.01027379513 -0.008063978434 0.8221824806 0.5689098811 0.01890809098
-0.0007637648582 0.01700991678 -0.007161028504 0.0572832126 -0.9966173364 0.05892807805
0.01023286009 0.01363057899 -0.01193323135 -0.5687889655 -0.8224822403 -0.001441224631
0.01535388708 0.007350945075 -0.01927871037 0.9108035724 0.41231681 -0.02077740811
0.01701428843 -0.0007596464008 -0.007165172577 0.996694506 -0.05594149817 -0.05891188676
-0.02029048777 0.002980465949 -0.0106004436 0.9957586795 -0.09173194236 0.007064207251
0.002910979271 0.05803944969 -0.04025709534 -0.1434977933 -0.07595068662 -0.9867319172
0.01701811218 -0.0008618039712 -0.01098254609 0.9996197066 -0.0272460974 0.00425350625
0.0198093071 -0.005552896023 -0.004262051582 0.9660586261 -0.119612204 -0.2289621181
-0.01625798726 0.03561299992 -0.04802556705 0.7845706174 0.01719161456 -0.6198010929
0.01206304264 0.01206311631 -0.0120645957 -0.7057702131 -0.7079858182 -0.02538675854
0.01533605989 0.007382520676 -0.01529840581 0.9076916959 0.4193905786 -0.01439887823
-0.01760972977 -0.002098931074 0 0.9337966239 0.09170035291 -0.345853886
0.0153181653 0.007413428068 -0.0113672994 0.8848887708 0.4657975121 -0.00213096231
0.01668906136 0.003412820292 -0.01141786938 0.9673872048 0.2533014856 -0.000594527943
0.006509522915 -0.01934907532 -0.04346379852 0.2336765736 -0.969721885 -0.07095579428
-0.01812970066 0.05173316765 -0.05091164589 0.8563250144 0.009889641499 -0.5163425846
0.01527431345 -0.007616089344 -0.003830397606 0.9329209093 -0.3170071183 -0.1707778204
-0.01847685814 0.003511542797 -0.06427138519 0.9115070651 0.2306811145 0.3405012388
0.01642432308 -0.004561783552 -0.007846310139 0.9916763798 -0.1219168196 -0.04140346451
-0.01908413219 0.007640669584 -0.0109608655 0.968056428 -0.2507234867 0.002117856532
-0.01532524109 0.01347653484 0 0.6236545805 -0.4942213909 -0.6056403066
-0.01596281401 0.01054492442 -4.715665181e-05 0.6393770792 -0.3530671339 -0.6830377366
-0.000700682953 -0.02052909565 -0.03921329308 -0.04641167412 -0.9985268434 -0.02810870954
-0.007891037464 0.01511723518 -0.007411173105 -0.378708741 0.9142749789 -0.1438087359
0.007380720297 0.01533407752 -0.0152964797 -0.4210731149 -0.9069181863 0.01402980235
0.0102210083 0.01363980341 -0.01587976885 -0.5668190195 -0.8238122657 0.007039169452
0.01206485963 0.01206492305 -0.01601668835 -0.7059251681 -0.708257998 0.006345496289
0.01367137623 0.0102520752 -0.01591167307 0.8222661925 0.5690451339 -0.008120608347
0.01518546009 -0.007830111504 -0.007476996183 0.9161950821 -0.3742955893 -0.143141131
0.0106493187 -0.01587254492 -0.0001458482742 -0.3112455521 0.5871177432 -0.7472743552
-0.02041240311 0.03576690038 -0.06296231079 0.9987725503 -0.004429459681 0.0493332807
-0.01597073078 0.01292321491 -0.003112975359 0.7981646699 -0.5732304092 -0.1853107061
-0.01920357895 0.007322282314 -0.006935868263 0.922321493 -0.3847659527 -0.03575227468
-0.01760120964 0.007282130559 0 0.8464354486 -0.3842009924 -0.3686958487
-0.004683836937 0.01642698193 -0.01164837313 -0.2288052812 0.9734271019 -0.009371265484
-0.0009875788055 0.01699765873 -0.01482211971 -0.02716084325 0.9996294415 0.001807856502
0.003165699959 0.01675690794 -0.01584991241 -0.2642268177 -0.9642314657 -0.02102068743
-0.01327443838 -0.01327443838 0 0.685488071 0.6858465036 -0.2443781456
0.01674275446 0.003152282357 -0.01583573604 0.9641700074 0.2645020692 0.02036791977
0.01701757431 -0.0009692563713 -0.01484181595 0.9995547532 -0.02965588188 0.003289976014
-0.02019142532 0.0038522861 -0.002703006327 0.9803013573 -0.06301033816 -0.1871869284
0.01020900679 0.01364914465 -0.01987618637 -0.5615172438 -0.8272787792 0.01755580742
-0.004735931079 -0.01918910217 -0.04776936086 -0.2392975557 -0.9527464788 -0.1871118032
0.01638622284 -0.004720620394 -0.01160854197 0.9740901 -0.2260405709 -0.007357808603
0.007282130559 -0.01760120964 0 -0.3747786206 0.8415457361 -0.3890266825
0.01245514107 -0.0163752861 -0.002666467905 -0.5757280318 0.7965636665 -0.1844547603
0.006069325447 0.0604131279 -0.04091450882 -0.2697066919 0.007678893324 -0.962911904
-0.02049188852 0.02707357836 -0.05922844124 0.9903469763 -0.004403860154 -0.1385405084
0.007991334915 0.05995611572 -0.04166798782 -0.3399740403 0.03325792182 -0.9398465633
0.01023965454 0.05988689041 -0.04279038239 -0.3529626817 0.01711753417 -0.9354808044
-0.01940830421 0.006776587009 -3.728328645e-05 0.9219145148 -0.3188057356 -0.2200830081
-0.02052223825 0.0002672276944 -0.003384168923 0.9813765156 0.02332537072 -0.1906726558
-0.01766972446 0.003207360625 0 0.9037535636 -0.1383243385 -0.4050874888
-0.01580405951 0.04736563492 -0.04745376396 0.7938533647 -0.008543929637 -0.6080492057
-0.00478183192 -0.0200033884 -0.03487745667 -0.2196917477 -0.9752454483 -0.02513665749
0.007349472761 0.01535226663 -0.01927710629 -0.4131423878 -0.9104183285 0.02125640191
0.01206669974 0.0120667522 -0.0200188489 -0.7059228371 -0.7082883646 -0.0007353012974
0.003158864141 0.05515499242 -0.0403382899 0.1248096045 0.0236380764 0.9918990896
0.0136816721 0.01024101019 -0.01990966225 0.8257749349 0.5636934678 -0.01858578423
0.006912211895 0.05594535828 -0.0412412529 0.2987649821 -0.01857956103 0.9541458407
-0.01443404865 0.02668095779 -0.04593412399 0.7098089986 -0.0182323496 -0.7041581974
0.003207360625 -0.01766972446 0 -0.142325279 0.8986788751 -0.4148732268
-0.004562790076 -0.02005663554 -0.0312186559 -0.2631268132 -0.9647426466 -0.005992155125
0.00677850914 -0.01940662384 -3.914301842e-05 -0.3093297851 0.9212753379 -0.2357261884
-0.0008210292061 0.05865359751 -0.04010170364 0.0657844145 -0.1076717852 -0.99200766
-0.0003565766886 0.0475010252 -0.04006823444 0.00465204009 -0.003441856143 0.9999832559
0.008826264381 0.0554788475 -0.04199209213 0.3538067116 -0.01668094005 0.9351698012
-0.00959817028 -0.01819524574 -0.03093767214 -0.4435921336 -0.8961648079 -0.01070776259
0.01132786846 0.05570783997 -0.04341181183 -0.4367011371 0.009407229014 -0.8995574584
-0.01977020741 0.005704227924 -0.03532152367 0.972633321 -0.2322708612 0.005888119142
-0.01932119846 0.007008766174 -0.002972451627 0.9249404459 -0.3127713726 -0.2160074999
-0.0200206728 -0.004692193031 -0.03908763599 0.9765471885 0.2143568422 0.02016761884
-0.01956297684 0.003332052469 0 0.9386518267 -0.06591053586 -0.3385093048
0.0001052489504 0.01706700516 -0.01740242004 0.130511748 0.991074375 0.02717106745
-0.004837818623 0.03549098587 -0.04061515935 -0.1871571843 0.01852367655 0.9821553145
0.003115628958 -0.02031220102 -0.01448627639 0.1570092555 -0.9873960344 -0.01992899594
-0.01468230247 -0.01132416439 -0.05439646912 0.7293973231 0.618454395 0.2923930683
0.003097767174 0.01677250004 -0.01980980682 0.283383176 0.9587863964 0.02055776276
-0.01818950939 -0.009592297554 -0.03094487429 0.8961487395 0.4436633476 0.008959384101
0.01675555468 0.003081766069 -0.01979255676 0.958975387 0.2828798439 0.01857958948
-0.01702517557 -0.008837055047 -0.0003661386172 0.8673365172 0.4237526212 -0.2610767741
0.01709615517 0.0001321219504 -0.01743161583 0.9910017253 0.1306214424 0.02921676207
0.006977000475 -0.01934892178 -0.002941255748 0.3116863305 -0.9347981535 0.1703057354
-0.004816588243 0.0594429156 -0.0406272049 0.1732018966 -0.02110263345 -0.9846602368
-0.01968437862 0.05582937813 -0.05469895744 0.9702476626 -0.01824457164 -0.2414261977
-0.009806511164 -0.01806899214 -0.007548586845 -0.4560538466 -0.8888458123 0.04436227068
-0.0007727472261 0.05506588936 -0.04006273079 -0.001887321816 0.0102346639 0.9999458434
-0.0004586810867 -0.0174955616 -0.05541233953 -0.1043146306 -0.9269450952 -0.3604042844
0.003205644131 0.05161529541 -0.04032472229 0.190002468 -0.006456870148 0.9817623801
-0.01978417397 0.05568429756 -0.06616314316 0.987041705 0.0461997803 0.1536692973
-0.01920222155 0.01508270073 -0.05193120829 0.9243715839 -0.1604696635 -0.3461020975
0.005889305115 0.05204691696 -0.04086737442 0.2686187048 -0.00276386634 0.9632426239
-0.01817288971 -0.009392451525 -0.04357412052 0.8946739281 0.4439172526 0.04996033707
-0.01984225798 -0.0001914723236 -0.0002877276503 0.9528849207 -0.001132014329 -0.3033299301
0.007703909874 0.01517743158 -0.02290281677 0.5136362453 0.8566856236 -0.04761879713
0.01019692469 0.01365868187 -0.02392413616 0.6825274157 0.7308143134 0.008171055707
-0.02053509998 -0.0007075009719 -0.03920515633 0.9977638743 0.06634953184 0.008061690738
0.0120685637 0.01206860518 -0.02407265711 0.7047566268 0.7070281519 0.05856013516
-0.01998329697 -0.004726191044 -0.01101816807 0.9774759242 0.2108805879 0.008378266846
0.013692101 0.01022980213 -0.0239591608 0.7276457783 0.6858740644 0.01041100711
-0.02042298126 0.03136623383 -0.06320045471 0.9926887662 -0.004876538442 0.1206036191
0.01517757463 0.007703984618 -0.02290292263 0.8571300075 0.512665194 -0.05002548525
-0.002098931074 -0.01760972977 0 0.09172888274 0.9338838227 -0.3456107894
-0.01170603085 -0.01504567623 -0.05168148041 -0.5305517112 -0.7998232396 -0.2807092218
-0.0002042139787 -0.01985365057 -0.0002750087045 -0.0007299047451 0.951825893 -0.30663812
0.003843779325 -0.02019892693 -0.002694513679 0.06010280743 -0.9794406602 0.1925711447
-0.00466408 0.05541444626 -0.0406086647 -0.180541637 0.01459801669 0.9834590054
-0.01211644955 0.04740648956 -0.044018647 -0.5950108778 0.009590099014 0.8036604291
-0.0006804062923 0.05157242711 -0.04007810465 -0.03253433169 -0.01014111642 0.9994191688
0.003725423336 0.0477736702 -0.0403817749 0.2265750062 -0.01685775249 0.9738478232
0.006680748463 0.04763299561 -0.04114402771 0.2987661554 0.01696437129 0.9541755575
-0.02053010368 0.03889722252 -0.05988253403 0.9976234877 0.0001910018955 -0.06890094562
0.00856743145 0.04714834976 -0.04188384628 -0.3538581725 -0.01822032497 -0.9351216036
0.01093631554 0.04721380234 -0.04317182159 0.3916041966 0.01682045397 0.9199800137
-0.0198056922 -0.004403629661 -0.0003479120806 0.9586113823 0.1255008037 -0.2555655807
-0.01774236298 -0.005408866644 0 0.9352852139 0.2587807446 -0.2414002795
-0.008837494055 -0.01702564255 -0.0003656490147 0.425222069 0.8659451528 -0.263296761
-0.004536612511 -0.02000704924 -0.003218009869 -0.2246123964 -0.9637694204 0.1438672156
-0.02053746986 0.0581361618 -0.05902785873 0.9974381865 -0.009157476525 -0.07094508313
-0.005408866644 -0.01774236298 0 0.2594616418 0.9345912202 -0.243349353
-0.004406698346 -0.01980843306 -0.0003448004425 0.1252445983 0.9581907624 -0.2572630043
0.007249049902 -0.0192674408 -0.006862739801 0.3169122751 -0.9460398358 0.06764051229
-0.008561598778 0.05874107742 -0.04194108709 0.3990740444 -0.07104882546 -0.9141618956
-0.004820932388 0.05125395966 -0.04062012355 -0.2357152918 0.01302828979 0.9717348223
0.003066767752 0.04351338959 -0.04029105568 0.1364707833 0.02718309061 0.9902710765
-0.0007467793226 0.04354076131 -0.04007325617 -0.03324003876 0.01480731569 0.9993377023
0.005709551334 0.04389358902 -0.04082030487 0.226031137 0.01153402088 0.974051791
0.007500230312 0.04330957413 -0.04146192932 0.3293231281 0.01010553899 0.9441632038
-0.01906153043 -0.007684629122 -0.00725142018 0.9238962078 0.3791883622 -0.05130285733
-0.02054065609 0.003064028621 -0.04804640007 0.9999878236 -0.0009203025161 -0.004848265882
0.009502254486 0.04295787048 -0.04234146881 0.3293231281 0.01010553899 0.9441632038
-0.02031901741 0.002790714473 -0.006711945295 0.9924716314 -0.1060426662 -0.06127816728
-0.019849823 0.02367944813 -0.05518218994 0.9719541222 0.01451479459 -0.2347221872
-0.01809951687 0.009823517323 -0.03467335129 0.9444235683 -0.3287274346 0.001548328166
-0.01889731789 -0.007658807278 0 0.8746453922 0.3764941509 -0.3053646872
-0.01397897196 0.03097017479 -0.04548776627 -0.6748453966 0.006738962779 0.7379283685
-0.01571042862 -0.01224246311 -0.0003332009852 0.7996969789 0.5504614471 -0.2397434822
-0.01223554993 -0.01570360928 -0.0003406224251 0.5511093648 0.7992931927 -0.2396014612
-0.02053661346 0.05568787384 -0.06219488525 0.9997879116 0.001471691627 0.02054180975
0.002743408382 -0.02036097145 -0.006663645148 0.09950345106 -0.9929966607 0.06369218992
-0.01222711873 0.05960072327 -0.04412954712 0.6070130541 -0.02053626912 -0.7944264684
-0.009000949542 0.05547337087 -0.04213493601 -0.4695775668 -0.003489584917 0.8828843251
-0.004720402658 0.04780201435 -0.04061806488 -0.2354218248 -0.0127735926 0.9718093433
0.003579973539 0.03976223882 -0.0403494072 -0.1844987605 -0.008792567726 -0.9827934158
-0.01975165081 0.008126535892 -0.06313259888 0.9484023609 0.1585378384 0.2745882658
-0.01786426417 0.04744207001 -0.050411822 0.8595656158 -0.02058100097 -0.5106107857
-0.01903131771 -0.007745878458 -0.002615632474 0.9243579927 0.3354069208 -0.1818364615
0.002925810575 0.03561063194 -0.04025737953 -0.03550385388 -0.007744072628 -0.9993395347
-0.007775573492 -0.01905926895 -0.00258433342 0.3365650703 0.9237958068 -0.1825520771
0.007554093838 -0.01915956688 -0.01087293863 -0.2488523372 0.9685292002 0.004868529744
-0.01219646358 0.05547390976 -0.04408167496 -0.5912782769 0.002299068799 0.8064643288
-0.01995384789 0.04560220337 -0.065631073 0.9799285849 0.002176477548 0.1993369795
-0.009086878586 0.05138221512 -0.04218942947 -0.4771723361 0.008385493487 0.8787697339
-0.00474221462 0.04380977058 -0.04059497738 -0.1803906035 -0.01211114632 0.983520488
-0.01774929619 0.01042908573 -0.03944577599 0.9279499028 -0.3726772645 -0.004542504074
-0.0004314988519 0.03956332207 -0.04006080246 -0.006876173326 -0.01597848501 0.9998486917
-0.02055377197 -0.0007012959719 -0.007488375425 0.9963413737 0.07980694493 -0.03057316813
-0.02008875356 -0.004204602276 -0.007280801773 0.9812040033 0.1753979264 -0.08046285693
-0.01804298306 -0.009833432436 -0.003847998083 0.8630323409 0.4892847259 -0.1256010968
-0.01598097817 -0.01291051165 -0.003289609551 0.7823854167 0.6112824529 -0.1191923759
-0.01919434357 -0.007415379763 -0.02763016415 0.9346392367 0.3555845783 0.003017432851
-0.01942107868 -0.004329590917 -0.0509787178 0.9386128956 0.3140104216 0.1428400759
-0.01289835437 -0.01596899128 -0.003302836458 -0.6124617118 -0.7814263652 0.1194298424
-0.004194527899 -0.02007946859 -0.007291441917 -0.1769421316 -0.9808509431 0.08138125965
-0.00749011302 -0.01918875313 -0.02360082054 -0.355522802 -0.934632837 -0.008062083857
-0.0006945750415 -0.02054772091 -0.007495384932 -0.07360334386 -0.997185105 0.01429734984
-0.01909223461 -0.007622382641 -0.01196268892 0.9270791653 0.3744251154 -0.01816739474
-0.01829631805 0.009447735786 -0.03123086357 0.9474986508 -0.3197535229 -0.001997813408
-0.008955127875 0.04740668233 -0.04210603078 -0.4681258649 -0.008816112459 0.8836178194
-0.00697063303 0.04523141098 -0.04125675964 -0.3296161544 0.0131381703 0.9440236116
-0.02042927742 0.05537913513 -0.05858977127 0.996639444 0.01051148544 -0.08123624433
-0.0009227401614 0.03516396999 -0.04006987858 -0.08056126795 0.03317211864 0.9961975169
-0.01896279621 0.007964092255 -0.01504951859 0.9651317991 -0.2617609119 0.001354776593
-0.007714908441 -0.01909001859 -0.007218794187 -0.3641799097 -0.9303853316 0.04190618193
0.007930849552 -0.01899173737 -0.01501521349 0.2645325245 -0.9643604805 -0.005604202786
-0.01557414945 0.05909553401 -0.04722276433 0.7768520039 -0.0133330825 -0.6295420502
0.003191553354 -0.02023784637 -0.04293354416 0.09514946625 -0.9914715573 -0.08905464714
-0.007545712233 -0.01916632366 -0.01965262222 -0.3613073938 -0.9324283909 0.005853457728
-0.01410144424 0.0560724678 -0.0455916748 0.6863655807 -0.008507441463 -0.7272069258
-0.009635699034 -0.01817485332 -0.02689225912 0.443984736 0.896001388 0.007685502214
-0.01267287985 0.05128038661 -0.04442681122 -0.594861821 0.01711547348 0.8036457394
-0.0009702382423 0.03131010342 -0.04005381012 0.09723131881 0.001119693527 -0.9952611803
-0.01893939209 -0.004328145981 -0.05405877686 0.9286573149 0.3187419795 0.1897343983
-0.02026152897 0.003173043996 -0.01454671526 0.9856035746 -0.1673335645 0.02418826208
-0.02051716614 -0.001233068426 -0.01192820581 0.9947570728 0.1021029613 -0.005775061446
-0.01983491974 0.03557726974 -0.0552620575 0.9747995917 -0.002056421985 -0.2230729189
-0.01806240463 -0.009799794197 -0.007556010008 0.8920038512 0.4500914761 -0.04179464705
-0.01599190474 -0.01290173292 -0.006977901777 0.7963903568 0.6008464756 -0.06889058275
-0.02048147964 0.02322983742 -0.05901954651 0.9954659871 -0.005038438795 -0.09498464411
-0.0128897411 -0.01598008633 -0.006991180102 -0.6028298535 -0.7948730774 0.06908660145
-0.02053034735 -0.0005586531907 -0.04354184914 0.9983305724 0.05698052922 -0.009449203085
-0.01442786694 0.01922399139 -0.04576677704 0.7590325739 -0.1554953497 -0.6322109995
-0.001558990479 -0.02047859669 -0.01176619697 -0.1160932421 -0.9931197471 0.01534689016
-0.02038102913 0.002903010368 -0.03948214531 0.9904474254 -0.1378772395 0.00194020187
-0.01590913606 0.05546874142 -0.04759255981 0.7844109479 0.009692800959 -0.6201657153
-0.01440202332 0.05298261642 -0.0459062767 -0.699480494 -0.003460617295 0.7146433115
-0.02039213244 0.0002218745152 -0.05100205739 0.9854009015 0.1460853311 0.08743076851
-0.006954720974 0.03741283035 -0.04124484634 -0.3310762853 -0.0004039222638 0.9436039053
-0.01647677231 -0.008618807157 -0.05502375921 0.7913144901 0.5431566054 0.2807174378
-0.004701937389 0.03174454231 -0.04059396286 -0.30321616 0.00459634938 0.9529107166
-0.00973982811 -0.0181105814 -0.01511883211 -0.5113712233 -0.8593551755 0.002855573305
-0.0188395071 0.008292721272 -0.01920398617 0.9619007223 -0.2733936756 0.001702529146
-0.01037497807 0.02109315681 -0.04280768204 0.5900407881 -0.1078238376 -0.8001411678
-0.005257293344 -0.01987348413 -0.01097013044 -0.2677873227 -0.9634705153 -0.003809988593
-0.01987687492 0.0117197094 -0.06435063171 0.976277122 0.0709109522 0.2045840117
-0.01792528788 0.05939739609 -0.05058619054 0.8619041674 -0.03934884604 -0.505542159
-0.01610554142 0.05112825317 -0.04790054016 0.7902393195 -0.01121715503 -0.6126956776
-0.01400671005 0.04797686768 -0.04549526215 -0.6913180912 0.002765563845 0.722545257
-0.019898386 -0.005185160398 -0.01480401683 0.9621503037 0.2724027066 0.007972356616
-0.0190549345 -0.006887290001 -0.04679509926 0.9224506375 0.3763203398 0.08641656833
-0.007076023579 -0.01917066574 -0.04337457657 -0.3329654624 -0.9398652344 -0.07607458159
-0.01259021823 0.0433195165 -0.04436074193 -0.5896756718 -0.002361958219 0.8076366901
-0.004416625023 -0.01892307281 -0.04960665894 -0.2301867244 -0.9476173378 -0.2214395018
-0.01204390793 0.03954160309 -0.04395951614 -0.5983185961 -0.02102659164 0.8009823593
-0.00485173734 0.02789491653 -0.04061800003 0.2666396834 0.005788530513 -0.9637789021
-0.01257370162 0.03506244183 -0.04434136963 -0.5970485956 0.01594233335 0.8020466423
-0.01024945498 -0.01786712933 -0.03898663712 -0.4339291308 -0.9005840573 -0.02557078701
-0.02050302362 -0.001456762701 -0.01563669991 0.9942370584 0.1057923081 -0.01733952825
-0.01808209705 -0.00976568675 -0.01131572032 0.8986283048 0.4386451333 -0.007590577726
-0.01600190655 -0.01289172999 -0.01071851397 0.8018566682 0.597243796 0.0180480437
-0.01627070389 -0.01257696095 -0.03872089233 0.794521472 0.6061939276 0.03556054993
-0.02040418307 0.01150462786 -0.05551635361 0.9857757999 -0.08227386977 -0.1465506146
-0.01288094489 -0.01599127165 -0.01073067554 -0.5990429722 -0.8005437443 -0.01665025426
-0.005180958748 -0.01989434671 -0.01480873919 -0.2715234275 -0.9624080895 -0.006759997637
-0.001442537509 -0.02049023199 -0.01565204358 -0.1079018683 -0.9940282604 0.01627895535
0.003316799343 -0.02027769279 -0.01849735165 0.1753639467 -0.9841063104 -0.02796884085
-0.01797091802 0.0555987587 -0.05062461726 0.8631882375 -0.003648769024 -0.5048690455
-0.02030582619 0.03955062485 -0.06390248871 0.9856163498 0.008525246097 0.1687830892
-0.01972572136 0.00593904829 -0.03968395805 0.974320348 -0.2242316352 -0.02049471223
-0.0143081255 0.04496227264 -0.04580447388 -0.6978726539 -0.005525959499 0.7162005464
-0.008955443263 0.03136470604 -0.04208495522 -0.4708674617 0.008462922114 0.8821633706
0.003713323832 -0.01793393326 -0.05345287323 -0.142484862 0.9559444004 0.2566483343
3.665792942e-05 -0.02005803108 -0.04637621689 -0.005111419176 -0.9885538578 -0.150781775
-0.006944700241 0.0297820015 -0.04123537827 -0.3527934812 -0.002384987536 0.9356981733
-0.01868566036 0.008659579277 -0.02346176624 0.9572147743 -0.2892439579 0.008820919355
-0.01812299681 -0.009696698666 -0.01899618959 0.8907854888 0.4544182005 0.002304787091
-0.02036150932 0.0518182106 -0.06342028427 0.9871321949 -0.0008313192487 0.1599041548
0.008722462654 -0.01863101864 -0.02352912712 -0.2968132096 0.9549018146 0.008027643044
-0.01976788584 0.05860803986 -0.05515030797 0.9757875895 -0.07817125252 -0.2042739226
-0.01390961647 0.04009967804 -0.04541783524 -0.687569253 -0.02376247323 0.7257298858
-0.01981023026 0.005522409916 -0.03208531952 0.9761705091 -0.2153082523 -0.02708308956
-0.01686062431 0.01579796092 -0.04724996567 0.8566617365 -0.2678004108 -0.4409235865
-0.01178888392 0.03143736887 -0.04376118565 -0.5624068064 0.009405736658 0.826807182
-0.008922428131 0.02762376261 -0.04209900665 -0.4799643598 0.01240996036 0.8772002088
-0.01281185379 -0.01605129223 -0.0353845787 -0.6050470572 -0.7961850661 -0.002720125314
-0.008005315781 -0.01892480326 -0.03975639725 -0.3820313644 -0.9239943945 -0.01692322412
-0.01988116226 -0.005272531605 -0.01920948639 0.9631122403 0.2690659951 0.004278180049
-0.006490860462 0.02528153419 -0.04105399704 0.4308588302 -0.01043793427 -0.902358974
-0.02020226574 0.003567057729 -0.02262030315 0.9822684289 -0.1873685415 -0.006462453164
-0.02051485395 -0.001338686273 -0.01957959175 0.9952297613 0.09669167912 0.01297850146
-0.01587898363 -0.01304605961 -0.01490468952 0.7653743919 0.6434152864 0.01479220891
-0.01980515862 0.0433255949 -0.05507304859 0.9729438019 -0.007530961237 -0.2309191264
-0.01303292969 -0.01586599486 -0.01491985498 -0.6375112304 -0.7700061411 -0.02588385026
-0.02050533485 0.03095684719 -0.05943518066 0.9954426496 -0.01894781045 -0.09346075036
-0.007598625422 -0.01914246082 -0.01576416445 -0.3645412759 -0.9309513487 0.02095815987
-0.001323390879 -0.02050115299 -0.01959631729 -0.09880923662 -0.9950266774 -0.01259547525
-0.004667744398 -0.01812726402 -0.05215940094 -0.2666891953 -0.9258404683 -0.2677616486
0.003527682066 -0.02023685026 -0.02257756519 0.1889027 -0.9818290162 -0.01809842052
-0.01570610118 0.03947083759 -0.04732406998 0.7919422187 0.002818965074 -0.6105895312
-0.01436788702 0.03569116974 -0.04586600304 -0.6885401812 -0.01639305777 0.7250128871
-0.007370102882 -0.01922875404 -0.03168533516 -0.3681824354 -0.9295692065 0.01851444061
-0.0162498188 0.006092677116 -0.06991942596 0.8299333606 0.2543422788 0.496508431
-0.0009446138777 -0.02052554083 -0.03180493546 -0.03767740482 -0.9989410892 0.02640290657
0.009140127182 -0.01843591118 -0.02790896511 -0.31572952 0.948849127 0.0004520159622
-0.01988389206 0.05147918797 -0.05541220665 0.9613523729 0.006275296243 -0.2752494066
-0.02052349186 -0.001215083439 -0.02358590698 0.9958773896 0.089787618 0.01289993988
-0.01917840958 0.05069263077 -0.05308093262 0.9300562418 -0.01083804627 -0.3672572991
-0.02023545074 0.003475255092 -0.03059068807 0.9763290581 -0.216064254 0.009889812311
-0.01877883148 0.04697982979 -0.05222898102 0.9141288158 -0.009393100828 -0.4053150353
-0.02050057507 0.01565404844 -0.05857520103 0.996585082 0.001835910515 -0.08255182431
-0.01801909256 0.04368201637 -0.05070606804 0.8571838765 -0.006633289472 -0.5149677672
-0.01784745216 -0.01022895479 -0.03901244926 0.8984879096 0.4387002113 0.01617408514
-0.01260674667 0.0195196565 -0.04414442825 0.6289455489 -0.1042587395 -0.7704269023
-0.01216669731 0.02711253586 -0.04403811722 -0.5821857036 0.01113649743 0.8129795723
-0.0138572855 -0.01047211266 -0.05777836227 0.6991074267 0.613817493 0.3667109096
-0.02016731596 0.003773894906 -0.02675751781 0.9802197629 -0.1979120762 -0.0001630997283
-0.012839348 -0.01603732077 -0.02757207553 -0.5968998336 -0.8021337568 0.0170887351
-0.01886940384 0.02713770294 -0.05237764359 0.9113344275 0.01372481699 -0.4114379547
-0.01914253998 -0.00752039957 -0.01968150997 0.939016747 0.3438174552 0.006091492741
-0.01878936386 0.01966504669 -0.05216345215 0.9249703758 -0.03652263926 -0.3782801882
-0.01602585357 -0.01287175533 -0.01933008848 0.8033183062 0.5955212076 0.005847243228
-0.01992030907 0.03481655502 -0.06575904846 0.9797583795 -0.0004191484597 0.2001832714
-0.0128665514 -0.01602070686 -0.0193362236 -0.5972274469 -0.8020518994 -0.005668102079
-0.009705626965 -0.01813169146 -0.01898582172 0.4559883068 0.8899805537 0.003045999389
-0.00119914259 -0.02050923347 -0.02360362196 -0.09187016143 -0.995696904 -0.01214696954
-0.004747428417 -0.01715449524 -0.05497130585 -0.2901072173 -0.8943329745 -0.3405970246
0.003743097961 -0.02019430876 -0.026723557 0.2001533679 -0.9797642302 0.0008261379787
-0.01981328074 0.04741378021 -0.05528570429 0.975107571 -0.005731587874 -0.2216582365
-0.01796629238 0.03973827553 -0.05061034775 0.8583156128 0.002024727524 -0.5131181241
-0.01791568661 0.03583857155 -0.05051366234 0.8645743099 0.003173268515 -0.5024949681
-0.01593238735 0.03169661293 -0.04763193207 0.7838559903 0.01535441259 -0.6207527917
-0.012433922 0.0233321682 -0.0442318718 -0.5873651792 0.05319631598 0.8075718533
-0.005008041263 -0.01994340467 -0.02365038109 -0.2626773336 -0.9648148966 0.01152535094
-0.01820560646 0.01010647917 -0.04322405815 0.9002968465 -0.3977138559 -0.1768877529
0.009458352089 -0.01828710747 -0.03124258423 -0.323985473 0.9460501367 -0.004748911099
-0.02035708332 0.05887854958 -0.06308140755 0.9996217496 -0.02704209294 0.005008283519
-0.01818460751 -0.004632238626 -0.05659075928 0.8805789857 0.3970986089 0.2586374774
-0.02049272442 0.05120015144 -0.05947734737 0.9942038025 0.01751868114 -0.1060749491
-0.01907222557 0.04263018036 -0.0528252182 0.9217368366 -0.02854901465 -0.3867636977
-0.01667350006 0.0006975625157 -0.06586362457 0.810534077 0.3774423593 0.4478524037
-0.01601321411 0.02753326035 -0.04770320435 0.7863997299 -0.01459320995 -0.6175455473
-0.02053009367 -0.001087169012 -0.02765637112 0.9978683371 0.06471818659 -0.008386777763
-0.02053187052 0.0198326327 -0.05941781998 0.9969310565 -0.02200881461 -0.07512709658
-0.01916824818 -0.007468281746 -0.02362616825 0.9341870434 0.3567187496 0.006804524777
-0.01977623272 0.01118722153 -0.05163373756 0.960645013 -0.1911436029 -0.2015571435
-0.01814562273 -0.009663242579 -0.02291875696 0.8920117078 0.451786345 0.01429026095
-0.01284957266 -0.01602629519 -0.02359014956 -0.5978225343 -0.8016146711 -0.004704948918
-0.02055388006 -0.0004737504274 -0.0355114975 0.9992554188 0.03625855037 0.013188086
-0.009670922756 -0.01815311193 -0.02290967274 -0.4531024698 -0.8913217384 -0.01561122847
-0.001072864119 -0.02051732397 -0.02767252016 -0.06658026243 -0.9977512832 0.007710092344
0.003463343541 -0.02024584516 -0.03057746887 0.215890987 -0.9763791927 0.00864602764
0.009817927837 -0.0181043644 -0.03466712379 0.330106726 -0.9439399582 -0.002627683894
-0.01900575829 0.0387026577 -0.05272769737 0.9332775812 -0.02374317732 -0.3583702246
-0.01808453369 0.03220089658 -0.05079029973 0.8625834841 0.007139055807 -0.505864376
-0.01607435188 0.02344601288 -0.04780245209 0.7723435329 -0.06663130629 -0.6317006698
-0.01406370068 0.02208222198 -0.04555281448 -0.7015289175 0.1114058351 0.7038791926
0.005688500881 -0.01978398991 -0.03530358887 0.2324527497 -0.9725671941 -0.008875365541
-0.01996736431 -0.004930170298 -0.0276746316 0.9649139588 0.2623102003 -0.0115935693
-0.004928003907 -0.01996530485 -0.02767725229 -0.2591887812 -0.965755209 0.01174955086
-0.01028360987 -0.01784910679 -0.03481863213 -0.4990096539 -0.8664632629 -0.01519142176
0.005482452393 -0.01984526253 -0.03204019928 0.2161266425 -0.9760352378 0.02538678678
-0.02054428864 0.04694388962 -0.05913899612 0.9948404128 0.007551855609 -0.1011707598
-0.01993639501 0.0152298282 -0.05452878952 0.962562512 -0.09548406434 -0.2536852458
-0.01600527525 -0.01272255294 -0.04280583191 0.7891055604 0.6099039578 0.07300395084
-0.02046616459 0.04293144608 -0.05899978352 0.9984529035 0.014884202 -0.05357480708
-0.01998906326 0.03915025711 -0.05580139542 0.9742171099 -0.003587768716 -0.2255840213
-0.01914042091 0.02307622719 -0.05299691963 0.9327882629 0.01517499459 -0.3601052292
-0.01896710777 0.03478515244 -0.05259361267 0.9259690597 -0.0003737479925 -0.3775992064
-0.01970363235 0.007719220734 -0.04746403809 0.9725776008 -0.2149508021 -0.08881983485
-0.02058429718 0.003145515442 -0.05135120773 0.9989722228 0.041555086 0.0181017393
-0.01777236557 0.02739293607 -0.05023835119 0.8560116838 0.008556471599 -0.5168856585
-0.01762678655 -0.008340609392 -0.05148982493 0.8240352404 0.5279179641 0.2055931559
-0.01428314304 0.01687082481 -0.04441362 0.748472508 -0.3072647174 -0.587688096
-0.02053442478 -0.0009546080632 -0.03179351234 0.9989661359 0.03605357291 -0.02769113885
-0.02000149536 -0.004779737651 -0.0348799572 0.9758877656 0.2170558312 0.02301814904
-0.0181682415 -0.009628924847 -0.02690041876 0.8962610363 0.4434725462 0.006946625859
-0.01604621061 -0.01284834512 -0.02756112353 0.8032346011 0.5954667387 -0.01528197156
-0.007430565834 -0.01920860004 -0.02761222458 -0.3539342877 -0.9352644261 0.003312599433
0.002709845901 -0.02040451145 -0.03516594696 0.1234281321 -0.9921477136 0.02020917084
0.01045341158 -0.01772824192 -0.03947379494 -0.3486158605 0.9369117481 0.0257557391
-0.01891133595 0.03094804096 -0.05249398613 0.9337074238 -0.008931538255 -0.3579255151
-0.01903007603 -0.0008137851208 -0.05863370323 0.9276938296 0.2744750868 0.2530762439
-0.01557034492 0.01548017406 -0.04494303513 0.8038187285 -0.4481617002 -0.3911860711
-0.02048993556 0.03443609619 -0.05899411901 0.9947042188 -0.01978557939 -0.1008565711
-0.01903086472 -0.007816252232 -0.03598232015 0.9358045377 0.3524557365 -0.006694851736
-0.01998176908 -0.004539807558 -0.04344273663 0.9743969007 0.2233999603 0.02536015875
-0.02041248894 0.002700842142 -0.03515550041 0.9921783024 -0.1240431603 -0.01398251364
-0.02005385272 -0.004559720119 -0.03122223918 0.9655116942 0.2603419858 0.003036240281
-0.01924366379 0.05230024719 -0.06792934418 0.9638043905 -0.00644051049 0.2665325811
-0.02047647476 0.04329650497 -0.06268515587 0.9982309065 -0.009344721996 0.0587174032
-0.01992182255 0.03130782604 -0.05547378159 0.973745417 0.003006202759 -0.2276199148
-0.01922079086 -0.00736161828 -0.03169553185 0.9371392107 0.348877112 -0.007406786108
-0.01902397919 0.01189574146 -0.0492647171 0.9453037225 -0.2020826428 -0.2560536618
-0.01605701033 -0.01283755859 -0.03160405795 0.8014126141 0.5979172966 -0.01525543708
-0.01282894786 -0.0160484937 -0.03161474164 -0.600417943 -0.7994703175 0.01858776876
-0.0004626650562 -0.02054400571 -0.0355244662 -0.02069997734 -0.9997551061 -0.007825517858
0.006013606071 -0.01966046429 -0.03977098274 0.2286233412 -0.9731251464 -0.02754663903
-0.01830327606 0.05085706711 -0.06997050476 0.9585428771 0.007918714458 0.2848382816
-0.01959114838 0.04341096878 -0.06681082153 0.9818816789 0.05028618251 0.1827010358
-0.01984757328 0.005986771345 -0.04389358711 0.9778543706 -0.1942500539 -0.07789574153
-0.01808041763 -0.009793145498 -0.0346392072 0.8958353242 0.4443734617 0.003361321876
-0.01606194439 -0.01282262287 -0.03537096252 0.7738433518 0.6333758316 0.00123398101
-0.008071610808 -0.01891507006 -0.03554892254 -0.3792486147 -0.9252799676 -0.005241173706
-0.01922358131 0.04123419189 -0.06799963379 0.9619285851 0.007181801005 0.2732065498
-0.01990868835 0.01961116486 -0.05544902496 0.9774993417 -0.027220301 -0.2091747885
-0.02040640545 0.003043712854 -0.04380343437 0.9934056955 -0.1104296002 -0.03082900574
-0.00469201237 -0.020020504 -0.03908788013 -0.2170566604 -0.9758607174 -0.0241301988
0.007426896572 -0.01862957191 -0.04665248108 -0.2908018008 0.9459610828 0.1434989289
-0.01829513359 0.03980525589 -0.07002400208 0.9488636274 0.006986033409 0.3156089541
-0.01893881273 -0.008020144701 -0.03973782444 0.923770931 0.3829437835 0.001151374404
-0.01257181606 -0.01626563129 -0.03872748184 -0.6053002365 -0.7948906127 -0.04195875962
-0.01935438919 0.03165325069 -0.06756435394 0.9584992795 0.01375969829 0.2847627115
-0.0008057552775 -0.02038934835 -0.04311481094 -0.02124816468 -0.9949715131 -0.09787851442
-0.02032580439 0.02716920726 -0.06360870488 0.9847907999 -0.006258655845 0.173631534
-0.02037879038 0.00693894875 -0.05178355408 0.9880572673 -0.1283637684 -0.0852383681
-0.004436268568 -0.01988660765 -0.04357191658 -0.1985449473 -0.976803433 -0.08021818555
-0.02046579679 -0.0007480743329 -0.04740293376 0.9945473834 0.1020287519 0.02157859987
-0.01922593307 -0.007134989262 -0.04330018997 0.9351481299 0.3513222293 0.0455045737
-0.009327259064 -0.01811081696 -0.04365754509 -0.4501411192 -0.885239101 -0.1171524942
-0.01813107109 0.0293319912 -0.07035202789 0.9548568559 0.001666508422 0.2970616223
-0.01969173241 0.02337748051 -0.06653998947 0.9724980133 0.01890276746 0.2321428429
-0.01842137909 -0.00610027647 -0.0532046814 0.8817169923 0.4180489485 0.2186554874
-0.02052881479 0.01198146844 -0.05951453686 0.9981778312 0.03117455213 0.051663958
-0.0205693868 0.007301637173 -0.05560480245 0.9999490392 -0.009977715474 0.001537608546
-0.0197523702 -0.004575891972 -0.0475079422 0.9666609974 0.2413961306 0.08540740142
-0.006828537464 -0.01897937202 -0.0458030777 -0.3229766605 -0.9367146225 -0.135099196
-0.001135557331 -0.01910810757 -0.0505740509 -0.06508818868 -0.9706428433 -0.231551287
-0.02023438772 0.01541333516 -0.06354288991 0.9831361104 0.02617731062 0.1809920905
-0.02045031452 0.003430083632 -0.05495536232 0.988226845 0.1248551943 0.08842444999
-0.01778417714 -0.009306260427 -0.04782710266 0.8542444181 0.5015122151 0.136937841
-0.02033064079 0.006923474789 -0.05926357778 0.9884305582 0.09466862116 0.1185026745
-0.01590596886 -0.01215309486 -0.0473210144 0.7801077068 0.6134895392 0.1227295853
-0.01206810989 -0.01582299919 -0.04743292465 -0.5926388247 -0.7925838845 -0.1434921932
-0.008945480347 -0.01779173088 -0.04733852577 -0.4521614536 -0.8741228575 -0.1773675558
-0.01898052025 0.02047634125 -0.06856712341 0.9529747765 0.01568204325 0.3026436003
-0.01983776665 -0.0006148956493 -0.05486259365 0.9701310509 0.1984015641 0.1395799538
-0.0175623436 0.01968287277 -0.07132767487 0.9185281412 0.02677361877 0.3944480031
-0.01944206047 0.01480723763 -0.06674749756 0.9576063743 0.05850730629 0.2820761014
-0.01980096753 0.002702073018 -0.05901357396 0.9522820194 0.2233167593 0.2080590794
-0.01569740438 -0.0112463479 -0.05155336761 0.7816844757 0.5858550898 0.2138765862
-0.008010802905 -0.01588104534 -0.05510063299 -0.3741414226 -0.85822563 -0.3513786617
-0.01845912743 0.01350881386 -0.0688560791 0.9086577743 0.1139311008 0.4016973406
-0.01916949463 0.01011740208 -0.06604496765 0.937892769 0.1567673275 0.309485313
-0.01948044014 0.004755199909 -0.06215018082 0.9504761758 0.1851766303 0.2496090041
-0.01229985714 -0.01342143695 -0.05458948771 -0.6056092101 -0.7289605262 -0.3191457908
-0.005612408638 -0.01581163502 -0.0575266037 -0.3450022811 -0.8565772255 -0.3837302213
-0.01761724218 -0.0003795831005 -0.06293200556 0.8804349408 0.3267547871 0.343606787
-0.017131464 -0.004626779874 -0.05956426748 0.8433976038 0.421960764 0.3326102758
-0.0153197813 -0.008539780378 -0.05810600471 0.7725814595 0.5472347185 0.3219503865
-0.01205139208 -0.01205187988 -0.05793202782 -0.5592458023 -0.7327266778 -0.3877573317
-0.008984198093 -0.01352166462 -0.059031147 -0.4596808478 -0.7835675819 -0.4179896683
-0.01564391756 -0.00418031776 -0.06317507172 0.7508182555 0.4747585676 0.4592126411
-0.005809995174 -0.01380838585 -0.06101855469 -0.3682418321 -0.8157854013 -0.4459732415
-0.008648852587 -0.01094487715 -0.06331578636 0.5018087583 0.7244002455 0.4726862114
-0.01271504116 0.0001814936697 -0.07057795715 0.6990677801 0.4245409525 0.5753861473
-0.01251023388 -0.002013520241 -0.06917990875 0.6992739745 0.4562700338 0.5503031572
-0.01177867889 -0.00363388896 -0.06855266571 0.6866985818 0.4795889455 0.5462961661
-0.01056106567 -0.004741966724 -0.0686242218 -0.6557684462 -0.5252185363 -0.5423220761
