# .PCD v0.7 - Point Cloud Data file format
VERSION 0.7
FIELDS x y z normal_x normal_y normal_z
SIZE 4 4 4 4 4 4
TYPE F F F F F F
COUNT 1 1 1 1 1 1
WIDTH 554
HEIGHT 1
VIEWPOINT 0 0 0 1 0 0 0
POINTS 554
DATA ascii
-0.006991752625 0.05324849701 -0.04127086258 -0.3551638368 0.01514096425 0.9346814432
0.01637870216 -0.004758702278 -0.01255659962 0.9787550789 -0.2050278902 0.001435227525
-0.01978229332 0.005644803047 -0.03423856735 0.9781989196 -0.2076606905 -0.001977682499
-0.004965293884 -0.01938266945 -0.04676953888 -0.2311809368 -0.9582641797 -0.1681818547
-0.01051436138 -0.01770172501 -0.004579079151 -0.499270136 -0.8664462258 -0.0005188337001
-0.00400830698 0.03301355743 -0.04040438461 -0.2001960258 0.008263580437 0.9797210136
0.004643260002 -0.0173417263 0 -0.1040315546 0.4726050242 -0.8751125223
0.005690490723 -0.01839156151 0 -0.1040315546 0.4726050242 -0.8751125223
-0.01869526354 -0.008570581754 -0.01513853327 0.9102430079 0.4140086741 -0.007381352998
-0.02049519348 0.00154843092 -0.007814776897 0.9959091204 -0.09008206494 -0.007088397915
0.003623152494 0.05751301575 -0.0403518219 0.1768380906 0.00131963194 0.9842390707
0.005190734863 0.05663710403 -0.04070834732 -0.2475197587 0.009295739013 -0.9688382519
-0.01916488743 0.02685477257 -0.05313632202 0.9265291848 0.01029670333 -0.3760819694
0.006912211895 0.05594535828 -0.0412412529 -0.4183344721 -0.4210936563 -0.8047834505
0.00884974575 0.01460496712 -0.02269484901 0.5286855584 0.848704053 0.01389283229
-0.02008491135 0.003852332592 0 0.8233111047 -0.1558695556 -0.5457687299
-0.002185285568 0.01692807007 -0.01613769722 0.05676071581 -0.9983862737 -0.001752042722
0.0002336334139 -0.02056694221 -0.03456350327 0.02011389541 -0.9997969039 -0.001257861859
-0.0162498188 0.006092677116 -0.06991942596 0.8512093053 0.2472047755 0.4629606004
0.0001052489504 0.01706700516 -0.01740242004 0.005204984442 0.9999734929 -0.005091327119
0.002162873745 0.01692937851 -0.01840179825 0.1726930754 0.9849714386 0.002892533334
0.00738804245 0.01540794659 -0.02032934189 -0.431171946 -0.9022663256 -0.002496132474
0.007466590405 -0.01919602585 -0.009851819038 -0.2847394713 0.9585985643 0.00349657662
0.008861140251 0.01459841061 -0.02067462158 -0.5158544159 -0.8566759047 -0.0007848229835
-0.01697646904 0.03420200729 -0.04896811676 0.8161344317 0.0007864591769 -0.5778615499
-0.005802547932 -0.01974074364 -0.02727785683 -0.2860336301 -0.9582154242 0.002821936564
0.01020598698 0.01365149498 -0.02088164711 -0.6037979064 -0.7971138815 0.00612765113
0.01263259888 0.01148341084 -0.02101619911 0.7326095676 0.6806192113 -0.006380494597
0.0160809536 0.005791635036 -0.01984882355 0.944807902 0.3275071806 -0.00877923514
0.01264019203 0.01148374176 -0.02508517075 0.7277445297 0.6856944271 -0.01452762977
-0.005522481918 0.03134357452 -0.04077132416 -0.2794475465 -0.01246230949 0.9600800798
0.01656574821 0.004027245522 -0.01918285179 0.9661385852 0.2579298732 -0.006958069437
-0.01454216671 -0.01454224873 -0.02116611481 0.7072253538 0.7069863668 0.001605058677
0.001771461248 -0.01799772263 0 -0.02149050185 0.4311721087 -0.902013731
-0.02054464912 -0.0007910247445 -0.004649960518 0.9987782105 0.04939995699 0.001315493679
0.003852332592 -0.02008491135 0 -0.1586810277 0.8174047885 -0.5537777019
0.001201202869 -0.0205425396 -0.0001983428448 -0.01782342133 -0.8913507677 0.4529637232
0.006910513401 -0.01936824989 -0.001969156146 0.4117467546 -0.86543605 0.2854558694
-0.01823077774 0.04079381561 -0.05109018707 0.8773822675 0.00851821109 -0.4797163711
-0.00282319963 0.05949557304 -0.04023527718 0.168826233 0.007924554498 -0.9856139734
0.001370024323 0.04683315659 -0.04008636093 0.0772207727 0.002796767676 0.9970100954
-0.001064348459 0.05745003891 -0.04007603073 -0.0579239856 0.01631972863 0.9981875968
-0.00355167675 -0.01817139244 -0.05288002396 -0.1814758348 -0.9290000588 -0.3225297072
0.00147336185 0.05498479462 -0.04010375977 0.06545866858 0.004285353893 0.9978460795
-0.001681641221 0.0540028801 -0.04011820602 -0.06974296554 -0.006803821146 0.997541792
0.002812495708 0.05384307861 -0.0402027626 0.1331177259 -0.003074153437 0.9910954649
-0.01442786694 0.01922399139 -0.04576677704 0.7099508778 -0.2233943146 -0.6678807762
0.003332163572 0.04120610046 -0.04027809143 0.1580697869 -0.001661462719 0.9874265451
0.005889305115 0.05204691696 -0.04086737442 0.2663083018 0.01311186597 0.9637987172
0.01369472504 0.01022698212 -0.02497809982 0.7743496278 0.6327387729 0.004929413468
-0.01991157341 0.03654782486 -0.05536613464 0.9724043823 0.005203899232 -0.2332437281
-0.01916177368 -0.007481408119 -0.02263267708 0.9329158718 0.3600905111 0.001673302113
0.007745145321 0.0515246048 -0.04156462097 -0.4206382956 -0.4236229404 -0.8022512254
0.01294583797 0.05220124054 -0.04464821625 0 0 1
0.001272463322 -0.02054386711 -0.002067502737 0.01196858599 -0.9656463725 0.2595839677
0.01093631554 0.04721380234 -0.04317182159 0 0 1
-0.0132379446 0.04614942932 -0.04488219452 -0.6465337319 0.0004787346462 0.7628852498
0.003796917439 -0.0202046299 -0.001743332624 0.1595228922 -0.932686575 0.3234937398
-0.02050736809 0.001240634441 -0.0002375779599 0.8969883278 0.01847235248 -0.4416681016
-0.005904189587 -0.01970211411 -0.02128517723 -0.2923673064 -0.9563027113 0.00254607311
-0.01864608383 -0.001065481186 0 0.6618110693 0.002840845923 -0.749665284
0.002126135111 0.01693803406 -0.02038964653 0.17174163 0.9851340628 0.003961172756
-0.02050435638 0.001316775799 -0.002111990213 0.9672687299 -0.01175182042 -0.2534819499
0.004034907818 0.01661448097 -0.02122206116 0.2746900275 0.9613520822 -0.01864303774
-0.01878447723 -0.00835136652 -0.01266858435 0.9126247855 0.4087084743 0.008566440026
-0.02059970093 -2.245937288e-05 -0.02825742912 0.9999955929 -0.0008345142424 -0.002849172853
0.004276204109 -0.02014335823 -0.01139706326 0.2232524722 -0.9747534286 0.003753286606
0.005753996372 0.01607455254 -0.02184113121 0.3855867538 0.9226578702 0.00503089441
-0.01081689167 0.02932775593 -0.04308753777 -0.5268990313 0.0003085420966 0.8499278297
0.001661821008 -0.0205279808 -0.01163908958 0.08701755412 -0.9962052111 0.001767077111
-0.006196126938 -0.01959116364 -0.004072838783 -0.2920219084 -0.9564037498 -0.003882310246
0.01019990921 0.0136562252 -0.02290553093 -0.6137961512 -0.789455072 -0.003869646048
0.01368947697 0.01023262215 -0.02294022179 0.7907484649 0.612125352 0.004406665829
-0.01128114605 0.03777280426 -0.04337436676 -0.5536763567 -0.005634527618 0.8327128822
-0.01872637367 -0.008461028099 -0.003306485891 0.9071408031 0.4202094991 -0.02279342311
-0.01454499674 -0.01454506302 -0.03523651886 0.7118224795 0.7023245969 -0.00699416224
-0.0100385313 0.03527540779 -0.04264063644 -0.4942957804 -0.008474825291 0.8692524713
-0.02003801155 0.03381119919 -0.05584406662 0.9688075693 0.005210870487 -0.2477594407
-0.001733986616 0.04592029953 -0.04011255264 -0.09975073183 0.000798506623 0.9950121376
-0.00262868762 -0.02039155006 -0.009324558258 -0.1590587194 -0.9872641532 0.003132997606
0.007641597271 -0.01912310791 -0.01189405823 0.293583671 -0.9559010537 -0.007861531167
0.01459974957 0.008844667435 -0.02268943405 0.8482299577 0.5293015346 0.01859635214
-0.01771230888 -0.01040617752 -0.01400552654 0.8612318985 0.5080670383 -0.01214502691
-0.01628442097 -0.01253434181 -0.00302399985 0.7609094703 0.6260812148 -0.1704085987
0.0165740757 0.003996850252 -0.02118079758 0.9620653538 0.272259006 -0.01747251193
-0.01613025093 0.03509092712 -0.04778885651 0.7699698042 0.001970610034 -0.6380772816
-0.01922388458 0.02173777008 -0.05321222687 0.93603083 -0.006206916219 -0.3518632682
0.01541258049 0.007367787361 -0.02234084702 0.9000056323 0.4358688561 0.002863929868
-0.01917472267 -0.007455155373 -0.02461965942 0.9336468986 0.3581128317 0.007659529798
-0.008463760853 -0.01872881508 -0.003303664207 -0.3980308511 -0.9169518032 0.02776386546
0.01694347382 0.002131202221 -0.02039517212 0.9834573786 0.1811276845 0.002084808527
-0.001065481186 -0.01864608383 0 0.004516261922 0.6558871915 -0.7548454116
-0.01098917961 -0.01435327911 -0.0548481369 -0.5160144693 -0.790439783 -0.3300515368
-3.189445287e-05 -0.01968293953 0 0.07920745959 0.6435389984 -0.7613039708
-0.02059688759 -0.0002337771207 -0.02214274788 0.9994667716 0.03231591935 0.004674798977
0.007043487549 -0.01932959366 -0.00391335535 -0.2667742411 0.9637585289 0.001001137631
-0.01688697052 0.02661129761 -0.04881811905 0.8118217697 -0.006566887957 -0.5838683844
-0.0008566598296 -0.02054436493 -0.002768719435 -0.047623719 -0.9929774318 0.108294974
0.002979946375 -0.02035010719 -0.04060353088 0.1548407947 -0.9877421151 -0.01974442742
-0.006056766033 0.0598213768 -0.04091122055 0.2721155644 -0.02721479402 -0.961879657
-0.01548259258 0.03319667053 -0.04703533173 0.752198702 -0.00333757921 -0.6589278968
-0.01268214703 -0.01597014523 -0.04391747665 -0.6072682123 -0.7892820239 -0.09088016888
-0.004466581941 0.05756007576 -0.04054439735 -0.1984954063 0.005198898193 0.9800880293
-0.02000253105 0.01349576759 -0.05410102463 0.9759430713 -0.1021460662 -0.1926169844
-0.008973783493 -0.01850830841 -0.02212880135 -0.4335590719 -0.9011211485 0.002684563237
-0.0005060760975 0.05266965866 -0.04002853012 -0.007869581379 -0.0008417147549 0.9999686801
0.002086910725 0.05031557083 -0.040144207 0.0961973821 -0.003601330707 0.9953557626
-0.007445565701 -0.01920359993 -0.02660175514 -0.3540009939 -0.9352022298 -0.008949056544
-1.541875396e-05 0.04002733994 -0.04000082016 0.01302576423 -0.0023513177 0.9999123965
0.003469637394 0.04924520874 -0.04030485535 0.1661417843 -0.002330205481 0.9860991216
0.005015618801 0.04837083054 -0.04065645218 0.2391018586 -0.01121421936 0.970929731
-0.01255593777 0.05231944275 -0.04433831406 -0.6103578063 -8.255622472e-05 0.7921258369
-0.01586023045 0.03798668671 -0.04746228027 0.7565572147 0.001438759957 -0.6539259215
-0.0002356274873 -0.0193331852 -0.04992785263 -0.03088895959 -0.9738630223 -0.2250259672
0.006680748463 0.04763299561 -0.04114402771 0.2962945815 0.01482912689 0.9549814752
0.00856743145 0.04714834976 -0.04188384628 -0.4230115614 -0.4261655839 -0.7996524958
-0.01467807198 -0.01245375919 -0.05142447281 0.7131663422 0.6653512776 0.2206840408
-0.01977235031 0.03932242203 -0.05490408707 0.9622309104 0.007885706726 -0.2721203607
-0.0201789856 0.003906786203 -0.003661820173 0.9811812832 -0.1758263683 -0.07980211598
-0.01978435326 0.008644423485 -0.0488825798 0.9684756196 -0.1988192129 -0.1500862914
-0.02053264046 -0.000909148097 -0.0009133326411 0.9053137933 -0.014626929 -0.4244914471
-0.02031751251 -0.002841348648 0 0.8765626434 0.03250882947 -0.4801886172
-0.01549283218 0.06011650467 -0.04709469604 0.7441378583 -0.04518624343 -0.6664960999
-0.01838034058 0.04331768036 -0.051397789 0.8820743778 -0.008460465201 -0.4710341948
-0.01567700291 0.02285901451 -0.04724297714 0.7610123066 -0.006608873861 -0.6487037783
-0.01877209091 -0.004381893635 0 0.6251790869 0.1236234895 -0.7706285371
-0.01922358131 0.04123419189 -0.06799963379 0.869474763 -0.1154838851 0.4802885682
-0.002380469322 -0.02044281197 -0.01901265717 -0.1266131056 -0.9919511712 -0.001412580535
-0.01671306801 -0.006435830355 0 0.4162570693 0.1690810672 -0.893387735
0.01019394016 0.01366113853 -0.02494274139 0.6333834941 0.7738251998 0.004462017873
0.01149787331 0.01265440083 -0.0251002121 0.6790152092 0.7340161119 -0.01259734427
-0.002841348648 -0.02031751251 0 -0.03176477127 -0.8766626743 0.480055783
-0.0009206831455 -0.02054303932 -0.0009016919732 0.009067162695 -0.9057092422 0.4238024954
0.001344219089 -0.02054520226 -0.003949651718 0.07282587433 -0.9973336318 0.004692431674
-0.0168283596 0.04491819382 -0.04877732086 0.8098140328 -0.007330907073 -0.5866408527
-0.01790239906 -0.00550092268 -0.05618743896 0.8644020263 0.4256570619 0.2676288523
-0.01914377975 0.03062920189 -0.06819948578 0.8687050715 -0.1194794709 0.4807038119
0.003890641212 -0.02019322395 -0.003645694733 0.1774679332 -0.9804429987 0.08506855466
0.007177447796 -0.01929065132 -0.005871972561 0.2721425996 -0.9622559505 -0.001375229462
0.009034675598 -0.01848521996 -0.02680429077 0.9508532735 -0.2998159137 0.07738520667
-0.008440203667 0.05980286789 -0.04184409332 -0.4197907668 0.02224308711 0.9073483108
-0.01951416779 -0.005055075169 -0.04879185867 0.9461607719 0.3067288213 0.1034273846
-0.004658497334 -0.02006171227 -0.0009866168499 -0.2453392331 -0.85310726 0.4604526725
-0.01047471142 -0.0177318821 -0.01016745758 -0.5021780842 -0.86472314 0.008429882063
-0.004471879005 0.05345994186 -0.04053969193 0.2352405442 -0.01967265237 -0.9717380682
-0.01596199226 -0.003335892439 -0.06354336166 0.8092309619 0.4484089481 0.379571687
-0.002857305288 0.05128528786 -0.04022898483 -0.1291961491 -0.002129782465 0.9916167703
-0.0205886631 0.0002837534249 -0.03665650558 0.9998037896 -0.01959530824 0.002899329578
-0.01140958881 -0.01689488029 -0.04414839554 -0.5563036 -0.825580974 -0.0945640522
-0.001123410583 0.04927474594 -0.04007077026 -0.05442057068 0.002734756897 0.9985143577
-0.01717804146 0.04997121048 -0.04930268097 0.8213232362 0.002864026337 -0.5704559045
-0.01033946609 -0.01781567192 -0.02768061638 -0.4915594272 -0.8708220805 -0.006183339955
6.106612086e-05 0.04797589874 -0.04000325394 0.01732324758 -0.001722767296 0.9998484571
0.007500230312 0.04330957413 -0.04146192932 0.3446972927 0.03140819119 0.9381883083
0.005709551334 0.04389358902 -0.04082030487 -0.2534375501 -0.006230033738 -0.9673316881
-0.01976527596 -0.005780501842 -0.02929124069 0.959630744 0.2812487271 -0.002826407251
0.002106004715 -0.02047565079 -0.0216104641 0.10918055 -0.9940100448 -0.004861920288
-0.007451633453 0.05001696777 -0.04144900894 0.3820001963 0.006745285381 -0.9241376257
-0.02015392494 0.004016580105 -0.005593417168 0.9778770204 -0.2091769405 -0.001241198609
-0.006019515514 0.03588148499 -0.04090146637 0.3017752903 0.0006246196316 -0.9533788775
0.003985033751 -0.02018173409 -0.005561626434 0.2083236893 -0.9780408388 0.006112126063
-0.0205013237 0.001393449783 -0.003999519587 0.9971846298 -0.07491040917 -0.003353312623
0.001416477919 -0.02054654884 -0.00584499836 0.07510439975 -0.9971667413 0.004221273109
-0.01959881973 -0.006292241573 -0.0003577342331 0.8654890937 0.355449495 -0.3529649916
-0.01838573551 -0.008169180632 0 0.6220856697 0.3547046895 -0.6979928387
-0.01634020138 -0.01021084929 0 0.54807531 0.3466464427 -0.7612159341
-0.005612408638 -0.01581163502 -0.0575266037 -0.2450028041 -0.8597261164 -0.4481569264
-0.01453793669 -0.01453804159 -0.00410371089 -0.7070704694 -0.7071397959 0.002158771665
-0.004580554962 -0.0200841713 -0.004687354088 -0.190821275 -0.9816247882 -0.0001276315021
-0.008895357132 0.05650417328 -0.04202009964 -0.39766918 -0.003174810455 0.9175233751
-0.006039478779 0.05163843536 -0.04090669632 -0.299787233 0.005406212623 0.9539907692
-0.00289084363 0.04723876572 -0.04020698166 -0.1534206155 0.01769822446 0.9880024735
-0.01999568558 0.04450947189 -0.0556840744 0.9685518793 0.01098722809 -0.2485689803
-0.02058429718 0.003145515442 -0.05135120773 0.9999157442 0.005025212279 0.01196878588
-0.006026798725 0.04366225815 -0.04090337372 -0.3014244419 -0.001325705651 0.9534891443
0.004840024948 0.04031238937 -0.04060474777 0.1858510684 0.00484680761 0.9825659718
0.006450255871 0.03953166199 -0.04104814911 -0.2597004208 -0.01720179845 -0.9655360115
-0.01911422729 0.007560451031 -0.00994675827 0.9579165721 -0.2870205822 0.003876377107
-0.02039806366 -0.002754641533 -0.005514610767 0.9872981558 0.1588740547 -0.001177427137
-0.02012868118 0.00412718153 -0.00753921032 0.9765134771 -0.2154505491 -0.001577963577
-0.02039268112 -0.002807503939 -0.003639597893 0.9870241847 0.1604908441 -0.005093905813
-0.02003079033 -0.004573928356 -0.002878149509 0.976650406 0.2046367476 -0.06540478595
-0.01961262703 -0.006263277054 -0.002189080715 0.9240289108 0.3218306076 -0.2063870925
-0.0176525135 -0.0105097456 -0.000949048996 0.7513793572 0.4695299922 -0.4636492727
-0.001869306445 -0.02050353622 -0.03743865204 -0.1138048116 -0.9934865719 -0.005735534873
-0.01053782368 -0.017679533 -0.0009192729592 -0.464963836 -0.7480940877 0.4734594674
-0.00606867981 -0.01963959885 -0.0115869894 -0.2791276362 -0.9602538855 0.0004879058003
-0.01451296759 -0.01451301241 -0.04154717445 0.7088112996 0.704378213 0.03791931611
-0.004621081829 -0.02007421494 -0.002829197884 -0.2081008248 -0.9758691713 0.06613174067
-5.141463876e-05 -0.02056103897 -0.02625102234 0.00128123889 -0.9999950236 0.002882915179
-0.002773440599 -0.02036165619 -0.003674775124 -0.1595870494 -0.9871758501 0.003976764126
-0.01454538822 -0.01454545212 -0.03730913734 0.7060570522 0.7081378586 -0.004920595077
-0.0007921901345 -0.02054570007 -0.00464876318 -0.06054040351 -0.9981650409 -0.001187724331
-0.01264435005 0.06051748657 -0.04440882111 0.6473435738 -0.04142109935 -0.7610720006
-0.01186266136 0.05861487961 -0.04378544617 -0.6119583787 0.004508157288 0.7908771202
-0.02006361008 0.008967413902 -0.06234907532 0.9711293107 0.1048669401 0.2142680257
-0.008396712303 0.05162652969 -0.04182107544 -0.4282646361 -0.005582277438 0.9036361213
-0.006510519028 0.04841340637 -0.0410784874 0.2895739293 -0.0002811210811 -0.9571556093
-0.004486047745 0.04541709518 -0.04053132248 -0.2154959835 0.002895155182 0.9765004348
-0.002892104149 0.04328556252 -0.04022644043 -0.1293356499 0.0007206590273 0.9916006103
-0.001185225606 0.04130432129 -0.04006595993 -0.05748210762 0.003189076578 0.9983414431
-0.01971250343 0.05022830582 -0.05476296616 0.9569448518 0.007051416879 -0.290184128
0.003993896961 0.03679432678 -0.04040655136 -0.1657051349 -0.00517055859 -0.9861617888
-0.01828783035 0.05434521866 -0.05122099686 0.891820657 -0.009678187905 -0.4522855827
-0.01766088104 -0.01049525261 -0.002776055813 0.8586119614 0.5042875186 -0.09208473382
-0.01052613163 -0.01769059181 -0.002743014574 -0.5030165978 -0.8579362926 0.1044969868
-0.002725524902 -0.02037155151 -0.005544948101 -0.1571470791 -0.9875725258 0.002302566404
0.006119961262 -0.01960798264 -0.04092597198 0.2413438946 -0.9696251275 -0.03975219069
-0.01968487167 -0.006071691513 -0.01345973778 0.9569157139 0.2903486735 -0.003156624618
-0.02030135918 0.05053629684 -0.0638311348 0.9955859384 0.01758204217 0.09219279317
0.004175867558 -0.0201585083 -0.009435081482 0.2174883215 -0.9760507313 0.004878518221
0.001574954867 -0.02053821373 -0.009689052582 0.08434060049 -0.996423664 0.005152185964
-0.0122107687 0.05545114899 -0.04406304932 -0.6172136527 0.001209545622 0.7867946644
-0.008376826048 0.04761841965 -0.04181136131 -0.4150950237 0.005294773643 0.909762654
-0.00697063303 0.04523141098 -0.04125675964 -0.3604101574 0.009825825804 0.9327421785
-0.002922492504 0.03934521484 -0.04021105576 -0.1350515277 -8.14804357e-05 0.9908385732
-0.0006342795491 0.03676094055 -0.04003380585 -0.04309354025 0.0013913871 0.999070073
-0.005937568188 -0.01968942833 -0.01931720352 -0.2944320119 -0.9556687538 0.002650151634
0.0001615260988 -0.02056544876 -0.03246073151 0.01630170384 -0.9998662412 -0.00132443955
0.0005784623027 0.03555459213 -0.04003083038 0.02129109716 0.01111619203 0.9997115181
-0.01899337196 0.007882594109 -0.0140192318 0.9547627066 -0.2973534079 0.003020738525
-0.02007762909 0.004350857258 -0.0114743185 0.9732123059 -0.2296093086 0.01172062772
-0.02055682755 -0.0006712462306 -0.008438946724 0.9988054693 0.04884717382 0.001260227289
-0.01232248116 -0.01646326447 -0.009838149548 -0.6196072576 -0.7848583866 0.009173841685
-0.009146766663 0.02241244125 -0.04215156555 0.4916283977 -0.004844501837 -0.8707916223
-0.02040332603 -0.00270123601 -0.007402952671 0.9867000113 0.1624883041 -0.004542993015
-0.01766930389 -0.01048066235 -0.004615461826 0.8651445074 0.5015203458 0.001524473792
-0.01927759647 0.05338959694 -0.05348945808 0.9299575634 -0.004184832043 -0.3676430571
-0.0001212985814 -0.0205595932 -0.02421308899 -0.002620891841 -0.9999928473 0.002726968683
-0.01989268112 0.005161168575 -0.02573003578 0.9666871992 -0.2554997318 -0.01535401851
-0.01213606167 -0.0165882988 -0.005528217316 -0.6199411304 -0.7846478057 0.0009032611342
-0.007841328621 0.02382110405 -0.04158124542 0.4239987693 -0.006515983706 -0.9056393242
-0.008442641497 -0.0187407589 -0.005149726391 -0.3972505635 -0.917707728 0.002125034138
-0.004537872791 -0.02009247208 -0.006560352325 -0.189142539 -0.981926105 -0.006798849526
-0.01684768486 0.01915197754 -0.04862246704 0.8162249154 -0.1287534207 -0.5632046201
-0.002677275896 -0.0203815155 -0.007428139687 -0.1619632582 -0.9867891708 0.003877550401
-0.0006618830562 -0.02054839706 -0.008448738098 -0.05449333545 -0.9984995412 -0.00539839628
-0.01179243183 0.05045700073 -0.04371515656 -0.6021717047 -0.01093243203 0.7982917512
-0.01490201187 0.03902135468 -0.04642007065 0.7248314088 -0.00557448423 -0.6889037334
-0.01011173153 0.0469832077 -0.04269536972 0.5013792138 0.0102448875 -0.8651669932
-0.01930603218 0.02927581978 -0.05344939804 0.9397311052 0.002265525678 -0.341906884
-0.02020577621 0.03897809219 -0.05669870377 0.9777706141 0.003398347468 -0.2096498923
-0.009260274887 0.04528185654 -0.04221220016 -0.4565441401 -0.001176260081 0.8896999857
-0.008358990669 0.04365718079 -0.04179982758 -0.4247683211 0.002186417366 0.9052994494
-0.005520039558 0.03901691055 -0.04077068329 -0.2592823227 0.01319676056 0.9657114075
-0.02047661591 -0.001637486339 -0.0439430809 0.9938468609 0.1102442946 0.01070573023
-0.004504600525 0.03757314301 -0.04052423859 -0.2109707821 0.001689338634 0.977490908
-0.001246867776 0.03353206253 -0.04006645584 0.08018839138 -0.008659092961 -0.9967421141
-0.01893222046 0.008045590401 -0.01607980537 0.953197065 -0.3023384882 0.002606490439
-0.02005181503 0.004463959694 -0.01346411228 0.9718636645 -0.2352657647 0.01144716296
-0.01874937439 -0.00841761899 -0.007012443066 0.910017314 0.4145679088 -0.001391828171
-0.004429808855 -0.02011348724 -0.01130239964 -0.1832195344 -0.9830575151 0.005340811165
-0.01049585819 -0.0177179184 -0.007359066725 -0.5044413828 -0.8634453462 -0.001012652067
-0.004494891167 -0.02010083008 -0.008446466446 -0.187082279 -0.9823328109 -0.004740212396
-0.01551301098 0.01806449509 -0.04657403183 0.759837471 -0.2705199375 -0.5911564777
-0.000562866807 -0.02055044842 -0.01133621788 -0.05231621845 -0.9986250746 -0.003312662093
-0.01006339931 0.03912611771 -0.04265458298 -0.5064971305 -0.0007001545459 0.8622413621
0.008027797699 -0.01894770622 -0.01606132507 0.3125874197 -0.9498574462 -0.007741892059
-0.0164342823 0.05908383179 -0.048234272 0.7927934252 -0.03803306411 -0.6083026146
-0.01578648472 0.05698686218 -0.04740556335 0.7499909582 -0.007037822784 -0.6614106377
-0.009327436447 -0.01709996223 -0.04971516418 -0.4339247569 -0.8739020581 -0.2190992883
-0.01440202332 0.05298261642 -0.0459062767 0.7016101227 -0.003767451009 -0.7125510803
-0.01274573898 0.03358634186 -0.04447187424 -0.6209758691 -0.005849801108 0.7838078526
-0.01367026997 0.05106471634 -0.04522696304 0.665854608 -0.006645167102 -0.7460519303
-0.01454025316 -0.01454034615 -0.01344850397 0.7073145457 0.7068971727 0.001587671217
-0.01289829063 0.04921908569 -0.04461132813 0.6378606598 -0.005682340872 -0.7701308263
-0.01028389883 0.04149395561 -0.04278577042 -0.4909278177 -0.00321229482 0.871194329
-0.007878709316 0.03896763611 -0.04160821152 0.3658995864 -0.01098228057 -0.9305895348
-0.006954720974 0.03741283035 -0.04124484634 0.3531198884 -0.002186906251 -0.9355755244
-0.005022287369 0.03443392944 -0.04064035034 0.2364824926 -0.00553456733 -0.9716199871
0.002567635059 -0.02042126465 -0.03197349167 0.1367595889 -0.9905911371 -0.005100386574
-0.01783394623 -0.01017464733 -0.04221668243 0.8659100873 0.4989280664 0.03564414749
-0.002958960533 0.03164132881 -0.04021575165 -0.1404786047 -0.0008745523892 0.9900833282
-0.002676236212 0.02943920422 -0.04020604706 0.1381651844 0.002690954466 -0.9904055435
-0.01975812149 0.005763652802 -0.03640447998 0.9775909889 -0.2104982019 -0.002522971858
-0.01887057877 0.008209899902 -0.01815696907 0.9516397689 -0.307208244 0.002201164522
-0.01770358658 -0.01042128372 -0.01210108662 0.8636702706 0.5040088423 -0.006982152549
-0.02002580261 0.004577922821 -0.01546905804 0.9708649137 -0.239572072 -0.005151859704
-0.01528578758 0.04389651489 -0.04684243393 0.7578819109 -0.008870220567 -0.6523314558
-0.02008318329 -0.004396863222 -0.01133798647 0.9842504997 0.1767792828 0.0001974179512
8.998855948e-05 -0.02056396675 -0.03037457848 0.0124607204 -0.9999213921 -0.001392848446
-0.01966250229 -0.006138648987 -0.009647884369 0.9589570564 0.2835229552 0.00401222189
-0.01453885365 -0.01453895378 -0.007802817106 -0.7066111582 -0.7075925422 0.003669514207
-0.01993404388 0.001714758635 -0.05749716949 0.9616899879 0.20864793 0.1778156585
-0.01232868242 -0.01645614338 -0.00796784091 -0.6236533615 -0.7816805535 0.005656587745
-0.008398646116 -0.01876364994 -0.008881510258 -0.3943087658 -0.9189764407 -0.001702564413
-0.006100875854 -0.0196273632 -0.009688733101 -0.2849707877 -0.9585183436 -0.005851074573
-0.002579755306 -0.0204016552 -0.01123441792 -0.1558858431 -0.987773013 0.002019590549
0.004491999149 -0.02010139275 -0.01537856007 0.2409742084 -0.9704248419 -0.01438948093
0.008223313332 -0.01885890961 -0.01817102242 0.3210325778 -0.9470401174 -0.007286974322
-0.01998147202 -0.004541759014 -0.04343951607 0.9726025021 0.230150304 0.03279040254
0.0003063201308 -0.02056844711 -0.03668317032 0.02389752518 -0.9997137017 -0.001192896482
-0.01824309254 0.06001000404 -0.05113595772 0.8749160972 -0.01668149418 -0.4839871388
-0.01728967857 0.05817218018 -0.04948665619 0.8360599144 -0.01597932581 -0.5484053981
-0.01710967827 0.05556491089 -0.04921621132 0.8292805139 -0.003193905757 -0.558823432
-0.01665333176 0.01432758522 -0.04573314667 0.7985901821 -0.3295521564 -0.5036358778
-0.01607444954 0.05389270782 -0.04771867371 0.764647278 0.00198772635 -0.6444459552
-0.01046011448 -0.01774092484 -0.01205764294 -0.5028209397 -0.8643185584 0.01115940118
-0.02011380768 0.008368374825 -0.05068617249 0.977895429 -0.1590275005 -0.1357600239
-0.01538576984 0.05189958954 -0.04696455765 0.733935939 0.0004366254131 -0.679218556
-0.01833362198 0.04878227425 -0.05130836105 0.9009188442 0.004377903274 -0.4339655171
-0.01922593307 -0.007134989262 -0.04330018997 0.9327776284 0.3584144302 0.03827521624
-0.01469874763 0.04992483521 -0.04622058105 0.7142503926 -0.01098882586 -0.6998039885
-0.02045244026 -0.002202820539 -0.02502614403 0.9918867295 0.127105652 0.002206582685
-0.01400671005 0.04797686768 -0.04549526215 -0.6795167729 0.001356811668 0.733658718
-0.02046975899 0.002191464663 -0.0236446991 0.9912890282 -0.1316636251 0.003279092171
-0.007415565968 -0.01921360016 -0.02862269402 -0.3529779581 -0.9356267882 -0.003012362357
-0.01209781933 0.04342435837 -0.04396561241 -0.5931536977 0.001468799622 0.8050879042
-0.009215718269 0.03747389984 -0.04218840027 -0.4621111645 -0.0161689916 0.8866745938
-0.02047177696 0.04973164749 -0.05859202194 0.9934888771 0.001479766058 -0.1139195393
-0.008327310562 0.03588401794 -0.04178110123 -0.4166871375 -0.009690967362 0.9089983028
-0.006949426651 0.03357518196 -0.04123992157 -0.3555734417 -0.002498869631 0.9346450038
-0.002270292282 -0.02045629501 -0.02299764252 -0.1210566112 -0.9926150426 -0.007789356805
-0.01651736927 -0.01226651812 -0.02529558086 0.8021603678 0.5968888452 0.01620033131
-0.006003596783 -0.01966433525 -0.01542421627 -0.2706466887 -0.9626540314 0.006898232994
-0.02048266602 0.001865175128 -0.01561224651 0.9936155133 -0.1128189022 -0.0003271797348
-0.02057542038 -0.0004883570373 -0.0142243309 0.9990476086 0.04272861069 -0.008839768072
-0.01646209526 -0.0123214469 -0.009839394569 0.7877068403 0.6160103157 -0.007016036127
-0.01453931665 -0.01453941441 -0.009671569347 0.7072839716 0.7069278788 0.001535472168
-0.008376417875 -0.0187752161 -0.01076695013 -0.3919586247 -0.9199360323 -0.009280788661
-0.01421913052 0.03714736176 -0.04571284485 0.691099234 -0.002569472357 -0.7227553158
-0.002530472994 -0.02041183472 -0.01315793419 -0.1527405724 -0.9882647801 0.001744125842
-0.0004628911912 -0.02055251884 -0.01425167465 -0.0467720016 -0.9988877555 0.005969238276
0.004602656841 -0.0200788269 -0.01739366913 -0.2475680609 0.968869289 -0.001534934946
-0.01844125271 0.05699034691 -0.05154325104 0.8941647657 0.006151365136 -0.4476958035
-0.01693181992 0.0529802742 -0.04894896317 0.815376337 -0.008227508321 -0.578872816
-0.01633332825 0.05086535645 -0.04806591797 0.7723992968 0.000321658345 -0.6351371685
-0.01567769432 0.04885109711 -0.04727370453 0.7434376217 -0.006219146131 -0.6687763639
-0.0149933033 0.0468963356 -0.04653259659 0.7216727626 -0.002809407629 -0.6922286695
-0.01357501602 0.04310983276 -0.04515100098 0.6608267908 -0.007111480167 -0.7505047497
-0.01816954613 0.009692839622 -0.03351353455 0.737544441 -0.6745648654 -0.03147125466
-0.02018832397 -0.00399158597 -0.03013365746 0.9761712703 0.2169890633 -0.002323250999
-0.02043493271 0.0009938392639 -0.05222158051 0.9921207688 0.1174070576 0.04372599803
-0.002325833082 -0.02044975281 -0.02099741364 -0.123578311 -0.9923059587 -0.007568707844
-0.01207102013 0.03950414658 -0.0439242897 -0.5820048964 -0.007483803141 0.8131508429
-0.02055941772 0.04425537872 -0.05976700974 0.9994235944 0.003045723733 -0.03381127732
-0.01995384789 0.04560220337 -0.065631073 0.9810543944 0.036178231 0.1903244882
-0.02057474518 0.0004498387277 -0.04096997833 0.9996542818 -0.02579066895 0.005114513508
-0.008766452789 0.03283900833 -0.04195982361 -0.4376900241 -0.006236583695 0.8991043031
-0.0145818367 -0.006587635517 -0.06223366547 0.7241085691 0.5486061815 0.4179689435
-0.00785659647 0.03130456543 -0.04159331512 -0.3876825579 0.002218111798 0.9217902767
-0.006706546783 0.02753612995 -0.04115510178 -0.345226474 0.005524656529 0.9385031485
-0.01997317696 0.004808490753 -0.01952541542 0.9680464058 -0.2507072193 -0.005660950327
-0.0204247551 -0.002483772278 -0.01509212971 0.9896604628 0.143350799 0.00476621889
-0.02010100555 -0.004336632252 -0.01421571255 0.9839929839 0.1781925297 -0.002286924725
-0.01576461029 0.03033080482 -0.04734783173 0.7661494677 -0.006090762163 -0.6426335626
-0.01646883202 -0.0123147521 -0.01172330284 0.7905480523 0.6123997057 -0.0006144015101
-0.008302315712 0.02829644203 -0.04176514435 -0.4140240556 -0.01237196322 0.9101818587
-0.01912349319 -0.007559011936 -0.01675905991 0.9300468293 0.3673536847 -0.008010352268
-0.02026485252 0.01369733334 -0.06312973022 0.9876844416 0.02434181431 0.1545539382
-0.014539783 -0.01453987885 -0.01155339479 0.7073153836 0.7068963835 0.001565596121
-0.01502216721 0.02106930351 -0.04653964615 0.7243397389 -0.04349767221 -0.6880696878
-0.01231604624 -0.01647024822 -0.01172175741 -0.6200099863 -0.7845937771 -0.0004708962738
-0.006036254883 -0.01965192223 -0.01349874401 -0.2787913207 -0.9603491337 0.002222830711
-0.01230918026 -0.01647690296 -0.01361910534 -0.6196572659 -0.7848723138 -0.0005691316372
0.009953620911 -0.01802998543 -0.03583252335 0.8506496124 -0.5216047431 0.06575506722
-0.002480834961 -0.02042208481 -0.01509532833 -0.1499585818 -0.988691123 0.00151230422
-0.0192724514 0.05900410461 -0.05337892532 0.9450118819 -0.02635859798 -0.3259720346
-0.02043959427 0.002465635777 -0.02985865402 0.9896895725 -0.1431736227 0.003982956034
-0.02059177208 0.0002059250921 -0.03453104401 0.9998648464 -0.01614848527 0.003084704333
-0.01777443314 0.05208797455 -0.05019705582 0.8727433892 -0.009427434715 -0.4880882094
0.009245578766 -0.0183866024 -0.02901363945 0.883787193 0.456019394 0.1047211048
-0.01700215816 0.04743400002 -0.04903844643 0.8234782865 -0.001256792654 -0.5673463952
-0.01596360016 0.04583697891 -0.04758599854 0.759277255 0.002238622104 -0.6507634275
-0.01460695171 0.04197675323 -0.04611214447 0.7191775308 -0.005477731163 -0.6948047738
-0.01315191555 0.03831735992 -0.04481358719 -0.6428914031 -6.629275426e-05 0.7659573353
-0.01240956116 0.03653122711 -0.04419903183 -0.6038681291 0.002797601695 0.7970793286
-0.01165221882 0.03477931976 -0.04361353302 -0.5589730707 0.005306571314 0.8291688287
-0.009177699089 0.02985410309 -0.04216808701 -0.466655384 -0.01154412709 0.8843638876
-0.006490860462 0.02528153419 -0.04105399704 -0.3568369109 0.01151341776 0.9340957447
-0.007663915634 -0.0176865654 -0.05044037628 -0.3807005069 -0.8918903539 -0.2441284921
-0.02057061958 0.0005306582451 -0.04314971542 0.999831822 -0.01833807983 -0.0002063174201
-0.02015086174 0.0311126976 -0.05633935165 0.9742297559 0.005104190402 -0.2255001774
-0.01864069557 0.008759174347 -0.02454273987 0.9434172788 -0.3314814996 0.009157158203
-0.02047626114 0.00202708745 -0.01959813499 0.9922504638 -0.1238207994 0.01036468397
-0.02058804321 -0.0003642011881 -0.0181517868 0.9992451615 0.03866606417 -0.003747356415
-0.02043021011 -0.002428414583 -0.01704948616 0.990489568 0.1375849664 0.0008903113736
-0.002157939672 -0.02046953201 -0.02704388618 -0.1205065434 -0.992706208 0.00354367765
-0.02011300087 -0.00429609251 -0.01615263367 0.9800937857 0.1985128446 -0.002970137254
-0.01969466591 -0.006036225319 -0.01538798332 0.9590629695 0.2831385321 -0.005549063285
-0.01819172859 0.02781255722 -0.05098461533 0.8747079538 0.001118393154 -0.4846490945
-0.01044541454 -0.01775003242 -0.01396123791 -0.5068358855 -0.8620150084 0.00689278379
-0.01177867889 -0.00363388896 -0.06855266571 -0.4958693185 -0.498990931 -0.7107191216
-0.002430835724 -0.02043241119 -0.01704682732 -0.141763813 -0.9898981238 0.002173915489
-0.000327785641 -0.02055531693 -0.01819157982 -0.03752431961 -0.9992914854 -0.002907340938
0.004843094349 -0.02001863098 -0.02148864746 -0.2438054728 0.9697235273 -0.01397039691
-0.01413754749 0.02952406311 -0.04562884903 -0.6773227695 -0.003900165721 0.735675645
0.008825610161 -0.0185829792 -0.02461419868 -0.6963188205 0.7169048131 -0.03446141495
-0.01917840958 0.05069263077 -0.05308093262 0.9356872314 -0.01086907065 -0.3526631088
-0.02016253853 -0.003555089474 -0.04503691101 0.9754428885 0.2179502436 0.03176259672
-0.008846066475 -0.01857572174 -0.03423826599 -0.3956766144 -0.918387047 -0.00229101263
-0.01980323029 0.0585569725 -0.05509749603 0.9652376172 -0.01410752816 -0.2609929501
-0.02046088219 0.002280899286 -0.02569838905 0.9907358722 -0.1357527608 0.003690450345
-0.02042614937 0.04203396225 -0.06308137512 0.9983772924 0.004026192776 0.05680292025
-0.01820560646 0.01010647917 -0.04322405815 0.7375290087 -0.674581612 -0.0314739577
-0.01941991043 0.05605367279 -0.05384266281 0.9520606531 0.01400381148 -0.3055886224
-0.01987687492 0.0117197094 -0.06435063171 0.9675483412 0.08538503652 0.2378226291
-0.01848496819 0.05137836075 -0.05162623596 0.9001641261 0.002854735876 -0.4355414981
-0.01853925323 -0.00897386837 -0.02408445358 0.8993074518 0.4373017878 0.003640531762
-0.01699572754 -0.01153268433 -0.04187467957 0.8238865593 0.5661532615 0.02610405964
-0.01290229034 0.01837012672 -0.04399340439 0.6555754776 -0.2408661022 -0.7156845073
-0.01622920036 0.04287548065 -0.04792098999 0.7658372662 -0.007621629115 -0.6429892632
-0.0202987175 0.01827139473 -0.05703128815 0.9837800211 -0.01405397558 -0.1788277268
-0.01557629585 0.04092480087 -0.04715019608 0.7423462183 -0.0007208198485 -0.6700160988
-0.008476770401 -0.01838951683 -0.04510168457 0.4308234094 0.8926026409 0.1328597587
-0.01348728752 0.03535287857 -0.04508103943 -0.6596626308 -0.007602938443 0.7515233921
-0.01200824928 0.0318299408 -0.04386699677 -0.5717517916 -0.008984511939 0.8203774542
-0.009579609871 0.02690575409 -0.04238278961 -0.4726515304 -0.004018903575 0.8812402506
-0.01159188271 0.02722562408 -0.04357154465 -0.5621671492 0.006936052436 0.8269945511
-0.0205944252 -0.0003014324307 -0.02013736725 0.9993894189 0.03467861395 0.004264175501
-0.02043570518 -0.002372647524 -0.01902132607 0.9907789029 0.1354850061 0.0009892515972
-0.01970452881 -0.006000501156 -0.01733024406 0.9570883174 0.2897842544 -0.002653028034
-0.01648245049 -0.01230121946 -0.01553125715 0.791165284 0.6116016591 0.0009507384833
-0.01454072666 -0.01454081678 -0.01535711002 0.7072922775 0.7069194459 0.001590969443
-0.003906614065 -0.02021523094 -0.03426124954 -0.2158355265 -0.9764258068 0.00276933733
-0.007585493088 -0.01914838409 -0.01672923279 -0.3631074119 -0.931684365 0.01082827235
-0.005970702648 -0.01967683601 -0.01736362648 -0.2926277446 -0.9562162968 0.004404182063
-0.01229752064 0.02149453354 -0.04407616425 -0.599714186 0.04059324777 0.799184011
-0.007354870319 -0.01923383141 -0.03271148682 -0.3504861006 -0.936561833 -0.003380277117
-0.004275328636 -0.02014352798 -0.01808130264 -0.2072266732 -0.9782912837 0.001808341825
-0.02039082718 0.05255276871 -0.0580549469 0.9938108364 -0.00175927504 -0.1110717173
-0.01969278336 0.03150295448 -0.05460821152 0.9604109818 -0.004861284612 -0.2785446354
0.004964740276 -0.01998817635 -0.02356045151 0.169838457 -0.9854712864 -0.001114566623
-0.02022797585 0.05826304245 -0.05697450256 0.9794131107 -0.0008976818162 -0.2018641937
-0.01994884682 0.05560508347 -0.05555525208 0.9712853885 0.008419213717 -0.2377683977
-0.01765784454 0.04404635239 -0.05001434708 0.8558830483 -0.002750813076 -0.5171621029
-0.01939455414 0.0370073204 -0.05370497513 0.9481974353 0.0005907638263 -0.3176810896
-0.008669914246 -0.01649611092 -0.05275765228 -0.4148700792 -0.8578636584 -0.3032371366
-0.01707356453 0.0419850235 -0.04912973404 0.8160398796 -0.005921177591 -0.577965271
-0.01648586655 0.03995050812 -0.04826373291 0.7908188576 -0.0104214542 -0.6119615411
-0.01925165176 -0.007290311813 -0.03686815643 0.9374220777 0.348166097 0.004496345594
-0.01431636047 0.03188263607 -0.04583513832 -0.6912767368 -0.001102165541 0.7225892736
-0.01307965946 0.03066892815 -0.04474290085 -0.636357272 0.00638784452 0.7713680171
-0.01234983921 0.0289229908 -0.04413434982 -0.5986424 0.003337237109 0.8010094505
-0.01079580116 0.025587183 -0.04306639099 -0.5341420178 -0.007524265604 0.845361278
-0.01893939209 -0.004328145981 -0.05405877686 0.9175546257 0.3474344949 0.1933462715
-0.01038554287 -0.01778712654 -0.02171411514 -0.4935356857 -0.8697238645 0.001710669592
-0.0105732913 0.02334539986 -0.04294924355 -0.5185197635 0.01146948397 0.8549887168
-0.01842193031 0.009204874992 -0.02896909142 0.8471144474 -0.531316311 -0.01000453202
-0.02044124222 -0.002316463947 -0.02100788689 0.9911461383 0.1326560479 0.005630755615
-0.02013725662 -0.004214121819 -0.02006903839 0.9784057167 0.2066773659 -0.002592285301
-0.01971446609 -0.005964515209 -0.01928675079 0.9564508283 0.2918865951 -0.002007155649
-0.0191361599 -0.007533332825 -0.01870261192 0.931585769 0.3635198907 -0.001115361712
-0.01850451279 -0.009034042358 -0.01819028664 0.8969775974 0.4419092812 -0.01213988886
-0.01995953941 0.02612163544 -0.05554744339 0.972773524 0.0100594114 -0.2315393685
-0.02055243492 0.05261936188 -0.06030927658 0.9996738832 -0.008611202257 -0.02404109774
-0.0164893322 -0.01229437971 -0.01745573616 0.8031350132 0.5957947707 0.001655848905
-0.0001906493008 -0.02055815697 -0.02219070625 -0.006579598544 -0.9999749612 0.002604954595
-0.02055925751 0.04719388962 -0.06159551239 0.9986986821 -0.01849338551 0.04752827629
0.005087359428 -0.01995747566 -0.0256488266 0.1751884532 -0.9845341498 -0.001230312851
-0.02030956841 0.05539643097 -0.05751583099 0.9857811095 0.005961838896 -0.167928737
-0.02047572708 0.005602023125 -0.05084254074 0.9949044094 -0.08568044297 -0.05314205304
-0.02008498764 0.05269079208 -0.05602313995 0.9726873684 0.007996808335 -0.2319813234
0.000693112433 -0.02042525864 -0.04334669876 0.04703724055 -0.9949036677 -0.08918626539
-0.01917923546 0.0452376976 -0.05320909691 0.9274860861 0.006948490372 -0.3737930959
-0.01765736961 0.01058602428 -0.04065532303 0.7375291556 -0.6745814485 -0.03147401957
-0.01731712341 0.0390783577 -0.04948039627 0.823785324 -0.003790753546 -0.5668892045
-0.01341142845 0.02777842522 -0.04501219559 -0.654313397 -0.002926639084 0.7562178345
-0.01194685841 0.02434566498 -0.04382329178 -0.5768074094 -0.001987579405 0.8168777522
-0.01037497807 0.02109315681 -0.04280768204 0.527202753 -0.05551302299 -0.8479242664
-0.01986541939 0.005280609131 -0.02783134651 0.9803531798 -0.1972472426 -0.001080780579
-0.01914892006 -0.007507466316 -0.02066040802 0.9323106573 0.3616542949 0.00173474025
-0.01406370068 0.02208222198 -0.04555281448 -0.6757343007 0.001444360544 0.7371438589
-0.01851600838 -0.009014131546 -0.02014056206 0.8975551003 0.4407883962 -0.01002156187
-0.01774152565 -0.01036298275 -0.01979835892 0.8696876888 0.4935820227 -0.004484498813
-0.01649626541 -0.01228749132 -0.01939417934 0.8033119561 0.5955563771 0.001582046763
-0.0145416832 -0.0145417676 -0.01921569157 0.7072477093 0.7069640218 0.001596741307
-0.01228828669 -0.01649715519 -0.01939318275 -0.598818095 -0.8008824354 -0.002052748175
-0.01040067482 -0.01777775002 -0.0197546711 -0.4935837865 -0.8696925731 0.003142296956
-0.008993354797 -0.0184962635 -0.02016451073 -0.4350025432 -0.9003967219 0.007650535274
-0.004185235977 -0.02016104889 -0.02203474808 -0.2295896952 -0.9732809151 -0.003582208559
0.002288481951 -0.02045415306 -0.02570685005 0.1194432374 -0.9928293899 -0.004807857485
-0.02054510689 0.05844572067 -0.06153459549 0.9982453983 -0.03075808875 0.05059708182
-0.02054898643 0.05536183929 -0.05966371155 0.9983232802 -0.006480311046 -0.05752072526
-0.02017149734 0.04986908722 -0.05655875778 0.9758473393 0.008265131766 -0.218297178
-0.01985772705 0.04735243225 -0.05521982574 0.973985543 0.009688887322 -0.2264029318
-0.01907222557 0.04263018036 -0.0528252182 0.9274268877 -0.01120620085 -0.3738365808
-0.01842917919 0.03794654846 -0.05148913765 0.8984027332 -0.01034453092 -0.4390507028
-0.01443404865 0.02668095779 -0.04593412399 -0.7019873569 0.002432770099 0.7121852514
-0.0198379364 0.005401017666 -0.02994967842 0.9796184331 -0.2008634145 -0.001270496893
-0.01454265404 -0.01454273319 -0.02313093472 0.7072030134 0.7070086766 0.001621444553
-0.01845030308 0.02000375748 -0.05147973061 0.8970326677 -0.04124822594 -0.4400351997
-0.02045028114 0.002372902632 -0.02777029991 0.9902023733 -0.139586829 0.003844102506
-0.02059875679 -9.344241768e-05 -0.02620346642 0.999991862 0.0027234613 -0.002976367036
-0.02016103745 -0.004130022526 -0.02404478073 0.979442923 0.2016822246 0.003980068514
-0.01030816269 -0.01783506584 -0.03173420334 -0.4898340572 -0.8718156875 5.793601019e-05
-0.01973456001 -0.005891739845 -0.02324342728 0.9577876095 0.2874451358 0.004264852344
-0.01852758789 -0.008994074821 -0.02210520554 0.898695851 0.4385642537 -0.002676325869
-0.008151856422 -0.01811511421 -0.04765268707 -0.4025719596 -0.8991902046 -0.1714432654
-0.01775236511 -0.01034937 -0.0217564106 0.8690597501 0.4947066229 -0.0007127804843
-0.005626444817 -0.0198058033 -0.03757826233 -0.2783922706 -0.9604649929 -0.002177419154
-0.01228122044 -0.01650400352 -0.02134596252 -0.5984701584 -0.8011424343 -0.002066266688
-0.007504887581 -0.01918382835 -0.02260552597 -0.3571136952 -0.9340593078 -0.001737296976
-0.005870562553 -0.01971489334 -0.02326778412 -0.2897680624 -0.9570939165 -0.002388515957
-0.00413968277 -0.02016990662 -0.02403373146 -0.2273665916 -0.9738029901 -0.003488490586
-0.002214330196 -0.02046288872 -0.02501305008 -0.1180946008 -0.992998729 -0.002681320883
0.002380795956 -0.02044327736 -0.02777918434 0.125023204 -0.9921404591 -0.005148585103
0.009682234764 -0.01817874336 -0.03350172424 -0.6746097052 0.7375031142 -0.03147859809
-0.02016905975 0.05931137848 -0.0646282196 0.9910863791 0.03179905958 0.1293700469
-0.01775704575 -0.01006738281 -0.04446739197 0.862479127 0.4999366167 0.07869647201
-0.02052543068 0.003037870407 -0.04695183945 0.9959920561 -0.084391711 -0.02962875684
-0.02024785423 0.04708311081 -0.05710638809 0.9818093008 0.003399218562 -0.1898392536
-0.01987158489 0.04191969872 -0.05530936241 0.9685394797 -0.01016720821 -0.2486521752
-0.01923964882 0.03979933167 -0.05325774002 0.9413395029 0.001024797754 -0.3374594643
-0.018282547 0.03546615219 -0.05118382263 0.8916833056 -0.00970912443 -0.452555649
-0.01721626282 0.03136973381 -0.04932233429 0.8400944969 0.003848526409 -0.5424264236
-0.01654625797 -0.01223780727 -0.033373909 0.7921509787 0.6103215265 0.002112149179
-0.0170441227 0.02898922443 -0.04907763863 0.8320559787 -0.002501325057 -0.5546860298
-0.01603527451 0.02750239182 -0.04767178726 0.7812774559 -0.009449272742 -0.6241123681
-0.01472889233 0.02386287117 -0.04623769379 0.7140215978 -0.008411385665 -0.7000731436
-0.01335161972 0.02037254524 -0.04493978882 -0.6508458707 0.1140720062 0.7505912536
-0.01802948761 0.009954195023 -0.03583316803 0.7375264942 -0.6745843341 -0.03147453756
-0.01981023026 0.005522409916 -0.03208531952 0.9788788321 -0.2044360678 -0.001458150244
-0.02045810509 -0.002145346403 -0.02705833817 0.9922415978 0.1242991312 0.002517467797
-0.02017006302 -0.004084229469 -0.02605890656 0.975071785 0.2218778499 -0.002287753349
-0.02046956444 -0.002029057264 -0.03117014313 0.9924276239 0.1228042298 -0.00255585135
-0.01651028252 -0.012273561 -0.02331386757 0.8035547869 0.5952284546 0.001670695409
-0.01227410173 -0.01651090336 -0.02331316853 -0.5981258439 -0.8013994862 -0.002082872488
-0.01037029839 -0.01779656982 -0.02368809319 -0.4926413531 -0.8702309203 0.001625587015
-0.008954066277 -0.01852044296 -0.02410768127 -0.4326266502 -0.9015714052 -0.001784066181
-0.007475338459 -0.0191936779 -0.02459611511 -0.3554102679 -0.9346689791 -0.008800049995
-0.01977567291 -0.00574285078 -0.03133825874 0.9602092968 0.2792674925 -0.002788180337
0.005482452393 -0.01984526253 -0.03204019928 0.1939163035 -0.9810174167 -0.001138122852
-0.01996559715 0.05681360245 -0.06557296753 0.9814285288 0.03213482054 0.1891174135
-0.007262026787 -0.01926477623 -0.03896592331 -0.3599230842 -0.9328122025 -0.01779798729
-0.01799592209 0.03056638527 -0.05058184052 0.8664227578 0.007306448932 -0.4992576695
-0.02042165947 0.05310012436 -0.06300943375 0.9974972484 0.01498472983 0.06909918492
-0.01896710777 0.03478515244 -0.05259361267 0.9237855768 -0.006124127325 -0.3828612062
-0.01784122276 0.01027214718 -0.03823622894 0.7375000822 -0.674612938 -0.03148035301
-0.02042882156 0.002559111834 -0.03196373177 0.9891983393 -0.1465291326 0.003982302582
-0.02017915916 -0.004038085937 -0.02808844566 0.9756253203 0.2194308975 -0.002305557006
-0.01975495911 -0.005817863941 -0.02725993347 0.9590047853 0.2833759851 -0.002805854102
-0.01968971062 -0.0004181359112 -0.05621072006 0.9496614823 0.2513613179 0.1869774235
-0.01918777084 -0.007428705215 -0.02662159538 0.934355042 0.3562559575 0.007896092157
-0.005783812046 -0.0180831356 -0.05143877792 -0.2670078986 -0.9212186741 -0.2829539477
-0.01855100632 -0.008953511238 -0.02607854462 0.8999600697 0.4359568137 0.003678262568
-0.01454308558 -0.01454316282 -0.02511045647 0.7070970252 0.7069492402 0.01538078924
-0.0122669301 -0.01651785469 -0.02529503632 -0.5994892831 -0.8002254723 -0.0158679836
-0.01035494041 -0.01780608559 -0.02567684746 -0.4926375101 -0.8702140688 -0.005979803937
-0.01766696167 0.01830490494 -0.04978623962 0.8543162509 -0.1218925233 -0.5052583064
-0.008934202194 -0.01853266907 -0.02610139275 -0.4315674953 -0.9020785882 -0.001928127877
-0.004047532558 -0.02018782806 -0.0280774498 -0.2222078043 -0.9749959357 0.002572381972
0.005617472649 -0.0198062458 -0.03420743561 0.2006643135 -0.9796593018 -0.001218924233
-0.01960275078 0.05455499268 -0.06675331879 -0.5638717505 0.3095471474 -0.7656560667
-0.02040992546 0.04156160355 -0.0581816597 0.9926704587 0.0004319915055 -0.1208518675
-0.01867426872 0.0298914547 -0.05198177338 0.9057567767 0.004438896745 -0.4237746544
-0.01767780495 0.02579541588 -0.05004562759 0.8575033788 -0.005266428365 -0.5144513778
-0.01779653931 -0.01029389668 -0.02973595428 0.8702079116 0.4926828066 0.001357435072
-0.01557034492 0.01548017406 -0.04494303513 0.7681681885 -0.3403281684 -0.5423046856
-0.02041796303 0.002653342724 -0.03408581161 0.9887445238 -0.1495692758 0.00364668754
-0.01951738739 0.0223319397 -0.06712168121 0.8695110988 -0.1213731592 0.4787682167
-0.01778536987 -0.01030792236 -0.02771848488 0.869920641 0.4931665694 0.004981289574
-0.01225970507 -0.01652485847 -0.02729180717 -0.5991814916 -0.8004550374 -0.01591456011
-0.008914187431 -0.01854498672 -0.0281101799 -0.43090559 -0.9023913559 0.003195826382
