# .PCD v0.7 - Point Cloud Data file format
VERSION 0.7
FIELDS x y z normal_x normal_y normal_z
SIZE 4 4 4 4 4 4
TYPE F F F F F F
COUNT 1 1 1 1 1 1
WIDTH 558
HEIGHT 1
VIEWPOINT 0 0 0 1 0 0 0
POINTS 558
DATA ascii
-0.009014252663 0.01848570442 -0.01821289635 0.445397999 -0.895326194 0.00341011021
-0.01904950333 0.007709447384 -0.005384209633 0.9313047758 -0.3642358497 -0.001913221083
-0.0181769619 0.009639853477 -0.02688755035 0.873969453 -0.4858433414 0.01156040338
0.01525253201 0.007669024944 -0.004737355232 0.9375137902 0.3479422738 -0.002016731374
-0.001248208523 0.0367039032 -0.04006652832 -0.08067326464 0.003610332426 0.9967340618
-0.01600333595 0.01288900185 -0.0116607542 0.7866429484 -0.6173072844 -0.01116191804
0.01695069122 0.001938481927 -0.00846859169 0.9904556569 0.1377535196 -0.004643229151
0.01708603859 -0.0003245101869 -0.009673175812 0.9992485219 -0.03687826177 0.01193253157
-0.004882052422 0.04792750549 -0.04062532806 -0.2585139657 0.005424672887 0.965992289
-0.01773423767 -0.008605126381 0 0.3776421059 0.07766348783 -0.9226889089
-0.004315268993 0.02013062859 -0.01613145447 0.2059108214 -0.978569719 0.001427845363
-0.007722946167 0.0189750061 -0.0008331999779 -0.3202635795 0.6885371963 0.6506518031
0.01692097092 -0.002331509829 -0.01059828281 0.9862089414 -0.1655026914 0.0008849234521
-0.02022723007 0.003861864328 -0.03635152435 0.9823895675 -0.186843831 -0.0003469861501
-0.01663526917 0.05182893753 -0.0485111618 0.8020024664 -0.01168382544 -0.5972064402
0.0160501976 -0.005871172905 -0.01292128706 0.9410535692 -0.3382393529 0.003509984449
-0.002619731426 0.02038339996 -0.009334057808 0.1531102863 -0.988207368 -0.00185419648
-0.01920296001 0.03520890999 -0.05322788429 0.9352359361 -0.001891747144 -0.3540200065
0.01496131802 -0.008167727232 -0.01254524469 0.8754091037 -0.4833727055 0.003119102511
0.009026686668 0.01849215698 -0.02679562187 0.6745485994 0.7375594076 0.03146914823
-0.0009367674589 0.02396419144 -0.04004992676 -0.09279282641 0.09149851267 0.9914723968
0.01696936226 0.05735835648 -0.05872661972 0.9939621357 -0.0844952901 0.0699987057
0.01261770153 -0.01148276138 -0.01303312111 0.7419163904 -0.6704915039 0.001101245109
-0.0173417263 -0.004643260002 0 0.5104953546 0.1338912924 -0.8493924975
-0.000231820941 0.037833992 -0.0400123558 0.002179664608 0.0001972359223 0.9999976051
0.01150928688 -0.01264436913 -0.0130598402 0.6865979862 -0.7270334803 0.002350285566
0.007373621464 -0.01541864109 -0.02234710312 -0.4220039724 0.906255507 0.02477101999
0.004190023899 -0.01657865143 -0.01135978413 0.2473072547 -0.968936614 -0.0009797462008
0.002313238621 -0.01690138245 -0.01057926559 0.1512646359 -0.9884925674 -0.001205905101
-0.01804102325 0.009844776154 -0.002924138546 0.8698412968 -0.4861090223 -0.08410788821
0.0002964928448 -0.01705567741 -0.00964385128 0.03870441157 -0.9992497801 0.001358491034
-0.00192640686 -0.01696391869 -0.008481301308 -0.1177607714 -0.9930392095 -0.002351402459
-0.008994982719 0.01849781036 -0.0201626339 0.4395397593 -0.8982219 -0.001489417772
-0.004468408585 -0.01649346733 -0.006968252659 -0.2926712764 -0.9562125687 0.001023456863
-0.01920168686 -0.006772587776 -0.04587443924 0.9468941787 0.3062591857 0.097962878
-0.004360559464 0.02012300491 -0.01418951607 0.2127449589 -0.9771062377 0.001727049541
-0.01318745804 -0.01133962917 0 0.0185696962 0.007948992143 -0.9997959691
-0.004554090977 -0.01646710014 -0.008831824303 -0.2762094253 -0.9610760349 0.006419386143
-0.0142560873 -0.01240783787 0 0.353957495 0.2403210737 -0.9038583259
0.005708207607 0.0497275238 -0.07671250916 -0.3271596244 0.01961636355 0.9447654621
0.0001052489504 -0.01706700516 -0.01740242004 -0.004112906423 0.999978435 0.005119914874
-0.002610020399 0.05264881897 -0.07749344635 0.1819207885 -0.0005461308676 0.9833130369
-0.02012242699 0.004197980881 -0.02008718109 0.9780158711 -0.2085124828 -0.002738681687
-0.01532524109 -0.01347653484 0 0.3745578499 0.315308785 -0.8719442569
-0.009033384323 0.01847368622 -0.01627728081 0.4478376952 -0.8941108139 -0.002692823784
-0.01999361229 0.01002595901 -0.05167948914 0.9730052175 -0.1612785338 -0.1650759864
0.01125870514 0.0163358326 -0.0002202438265 -0.3011177434 -0.42331628 -0.8544772857
-0.007640732288 0.01912750244 -0.01287956238 0.3640205879 -0.9313320757 0.01046787079
-0.008832012177 0.01859467506 -0.03630182648 0.4411934996 -0.8974115554 0.000892305125
-0.0205543766 0.05107512283 -0.06166128159 0.9987129339 0.00304104532 0.05062832894
0.0094336586 0.01494327831 0 -0.04202353089 -0.0441964576 -0.9981386156
0.01641776848 0.004598631859 -0.00878423214 0.96323052 0.2685932229 0.006681756136
0.017091856 -0.0002799057364 -0.0115983572 0.999362375 -0.03557327379 0.003063599938
0.01449712658 0.06060000229 -0.07084129333 0.6766655945 -0.6279518022 -0.3844479255
-0.01667782021 0.01558297682 -0.04688494492 0.8067043617 -0.3504537141 -0.4758258789
0.01692543221 -0.002291954517 -0.01253365707 0.9865114955 -0.1636810312 -0.001894556094
-0.02042893982 0.003785898924 -0.04686567307 0.9899031921 -0.1295851014 -0.05744015881
-0.01164928722 0.0169301281 -0.02146940422 0.5713307857 -0.8207183015 -0.001613329327
0.01653769112 -0.004114104271 -0.01326053333 0.9790504374 -0.203613002 0.001409447142
-0.02058823204 0.000294538945 -0.02014496613 0.9995074035 -0.0310184682 0.004775451537
0.01497017479 -0.008155581713 -0.01451417971 0.8763507685 -0.4816734304 -0.0001923980572
0.00820374012 0.01887593651 -0.0181505146 -0.3182031201 -0.9479802258 0.008959124681
0.01366881847 -0.01025482368 -0.01491849041 0.7909707874 -0.6118489121 0.002474322316
-0.01597810173 0.01291339493 -0.002373393774 0.7856073471 -0.5986485223 -0.1563363137
-0.01875853348 0.01546249485 -0.05099090576 0.9121989123 -0.1624640552 -0.3761629635
-0.0199648571 -0.004991291523 -0.02358941078 0.9688890364 0.2469551411 -0.01634605475
0.01262139034 -0.01148292255 -0.01501002884 0.7418351902 -0.6705813261 0.001111579839
-0.01311046553 0.02393624401 -0.04475501823 -0.6369061302 0.0004009376707 0.7709412562
0.01150741482 -0.01264601517 -0.01503492928 0.6864454792 -0.7271774428 0.00236025713
0.009565604687 -0.014114501 -0.01479507971 0.5563934298 -0.8309181459 0.001177310884
-0.0002343294919 0.05369884872 -0.04001248932 0.00300946435 0.002794304227 0.9999915675
-0.004576751232 0.05428825378 -0.07702971649 0.2295373665 -0.0150435331 0.9731835847
0.004728978157 0.02004306984 -0.01944018936 0.2540331455 0.9671954917 0.0002044797305
0.004067216873 -0.01660817528 -0.01922579193 0.2749681067 -0.9614429531 -0.004470811897
0.01367908192 -0.01024379444 -0.01890380096 0.7927787797 -0.6094477472 -0.008674669365
0.007430757999 -0.01537626934 -0.01435267639 0.4223460306 -0.9064346339 -0.0002913318311
0.005839797497 -0.01603341484 -0.01387948036 0.2996204089 -0.9540004071 0.01052776208
-0.00672020936 0.01943901157 -0.02095631695 0.3291672567 -0.9442672398 -0.002880446608
0.001742257714 0.02052396202 -0.01359606457 -0.08848147188 -0.9960747382 -0.002478909337
0.009542208195 -0.01413373899 -0.02078721809 0.5567462318 -0.8306813702 0.001447257844
0.002276915073 -0.01690930367 -0.0125178566 0.1488177514 -0.9888548407 -0.004402382463
0.0002491172701 -0.01705848312 -0.01156582928 0.03508793717 -0.9993830718 0.001520646832
-0.01966106987 0.006137109756 -0.009649549484 0.965146177 -0.2616994587 -0.002500069851
0.004488762856 0.02010424042 -0.01537515163 -0.2391773363 -0.9708888755 0.01299974207
-0.001990550518 -0.01695503616 -0.01037836456 -0.1227399299 -0.9924364496 -0.002191589201
0.001270773411 0.02054537392 -0.00206580615 -0.02686719189 -0.9515238152 -0.3063993848
-0.01286130142 0.01609078217 -0.03326729202 0.6272381037 -0.7788270618 -0.0008770125592
-0.0160057621 -0.01049489403 0 0.3981688361 0.3356479479 -0.8536990295
-0.01694153023 -0.01170375729 -0.0001391415745 0.3803020655 0.4152085243 -0.8264213334
0.01247415257 0.0163588562 -0.002684602976 -0.5308842024 -0.7459337341 -0.4021751211
-0.01971866798 0.0578476181 -0.05481991196 0.951555758 -0.1160236001 -0.2847457877
0.005220788479 0.05223696899 -0.07686943054 -0.2910161583 0.002442677802 0.9567150197
-0.01964928627 0.006169465542 -0.007764511108 0.9645371008 -0.2639452826 -0.001033890427
-0.0165261879 0.06060000229 -0.05083800507 -0.5777330904 0.7445360858 0.3345003635
0.01167420721 0.06008683777 -0.07376752853 -0.4379569615 0.815048847 0.3793271371
0.007550774574 0.01667782974 0 -0.03958717421 -0.02601588494 -0.9988773846
-0.01032296944 0.01782446289 -0.02970074654 0.5286282112 -0.8488442439 -0.003957758971
-0.01912393379 0.007559480667 -0.01675853157 0.9350254062 -0.3545708347 0.002648188178
-0.01500209522 0.02259546852 -0.04651897812 0.727725364 -0.01209238478 -0.6857620351
-0.01971033669 0.00596007061 -0.01929177284 0.9654813627 -0.2604720337 0.0002409252314
0.01145254517 0.05405050659 -0.07322378159 -0.6795279532 0.00830130271 0.7336026507
-0.02022034645 0.02353722382 -0.064426651 0.986612276 0.02812815843 0.160639421
0.01516219044 0.007884746075 -0.008392771721 0.9349780646 0.354704975 -0.0006320503226
-0.0104113121 0.01776423073 -0.01781456566 0.5313263506 -0.8471394105 -0.006865010076
-0.02042792702 0.002548168659 -0.01313883305 0.9880771959 -0.1539560504 -0.0009947663017
0.01639811134 0.004678596497 -0.01066473579 0.9797182356 0.2003799239 0.000254785719
-0.01905322647 -0.007721819401 -0.01197592354 0.9550734226 0.2963549514 0.002915530225
0.01709328079 -0.0002309450805 -0.01353091145 0.9994298525 -0.03366427878 0.002585787231
0.01654536438 -0.004083804607 -0.01522071743 0.9795340582 -0.201276945 -0.0007875404315
0.01606329155 -0.005837308407 -0.01587079048 0.9467664426 -0.3218402642 0.007221324097
-0.0200104351 -0.004766103745 -0.01947998238 0.9678698722 0.2514197682 -0.004001325048
-0.0181279068 0.00158220613 0 0.7299401752 -0.01402280444 -0.6833671792
-0.01785486031 0.01025001144 -0.03794645691 0.8685084204 -0.4956721223 0.001506906998
0.004603545189 0.02007804489 -0.01739461327 0.2460282862 0.9692623204 0.0007979515084
0.01367393398 -0.01024932671 -0.01690485573 0.7926872684 -0.609565373 -0.0087721518
-0.006070379734 0.01964118004 -0.01158513451 0.2866074318 -0.9580446105 0.002589250967
-0.02020139122 -0.00331824851 -0.04518104172 0.9800058725 0.1965595632 0.03086791211
-0.01929174995 -0.007086855412 -0.003956067801 0.9621350887 0.2725161098 0.005571452302
0.012625103 -0.01148308372 -0.01699938202 0.7418309365 -0.6705834149 -0.002178372789
0.01150553036 -0.01264767075 -0.01702241325 0.6848028237 -0.7286696985 -0.009250037884
0.008611676216 0.01868569756 -0.02243591118 -0.4618363815 0.8830576657 -0.08316438974
0.009557855129 -0.01412087297 -0.01677983379 0.555477575 -0.8314969145 -0.007585835508
0.003544692993 0.03142364311 -0.04032589531 0.135287025 -0.002268908768 0.9908038519
0.008274559975 0.04748163605 -0.07555776215 0.4862307408 0.005808867443 -0.8738111488
0.005818549633 -0.01604360199 -0.01585111713 0.2978589534 -0.9545319775 0.01219622183
0.003892917156 0.02019121552 -0.003647967815 -0.1999638761 -0.9777449594 -0.06347631599
0.002240368366 -0.01691727638 -0.01446835423 0.1622065075 -0.9867540126 -0.00235954529
-0.008875983238 0.01857207298 -0.03217120361 -0.4324800594 0.9015701216 -0.01150278057
-0.002055074215 -0.01694610214 -0.01228666878 -0.118602993 -0.9929394575 0.002136318707
-0.01650376511 0.01226694059 -0.02332177067 0.8060583896 -0.5918264267 -0.003369457207
0.002011260986 0.02049032593 -0.01958093262 -0.10767287 -0.9941710234 0.005525325896
0.005274049282 0.02251814461 -0.04070627213 0.2949038436 0.2264891419 0.9282964999
-0.01920310974 -0.007322820663 -0.006936405897 0.9602728704 0.2790102755 0.005411141629
-0.004640294075 -0.01644054794 -0.01070604706 0.1896267287 0.9818510885 0.003184914238
-0.00893061018 0.01812734222 -0.0006372563243 -0.2545485559 0.6784201891 0.6891669462
-0.01385721397 0.0193086319 -0.04520690918 -0.6891552318 0.1914805922 0.6988563867
-0.007954291344 -0.01508430195 -0.008317334175 0.3741301576 0.9273618459 0.005160605654
-0.01667782974 -0.007550774574 0 0.4214039308 0.1522769553 -0.8939968993
-0.0149852972 0.0289429245 -0.0465016861 0.7262390619 2.022133568e-05 -0.6874422336
-0.0160178299 -0.01286872196 -0.003060992718 0.714656791 0.5934019769 -0.3703238649
0.006778496742 0.01940663528 -3.913085163e-05 0.3101741199 0.7558176112 0.5766556633
-0.02042742729 -0.002560683727 -0.0319655323 0.9900148151 0.1409133009 0.003755994017
-0.01047487545 0.04802775955 -0.042906744 -0.5005351964 -0.01367571293 0.8656081631
0.005166875362 0.01786664391 0 -0.1370359146 -0.6934890341 -0.7073147232
-0.02049427986 0.001991096258 -0.03322570419 0.9925707253 -0.1215926729 -0.004310133781
-0.003954447031 0.02041928864 -0.04035777664 0.2723133403 -0.6709629257 -0.6896768787
-0.002517828226 0.0204003334 -0.01317158318 0.1486723746 -0.9888843056 -0.002086894955
-0.01772952461 -0.006377866268 -0.05535058212 0 0 1
0.01694383621 0.002113850832 -0.01421302605 0.9926193886 0.1212711536 -0.0002380939048
-0.0204078331 0.002706186771 -0.007397747993 0.9886629954 -0.1501467755 0.001194712016
-0.01545757103 0.01436504173 -0.04314753723 0.7719172396 -0.568142147 -0.2852337216
0.01693439674 -0.002212077141 -0.01644002342 0.9843277638 -0.1763385864 0.001885811704
-0.01878454208 -0.008403019905 -0.02028004646 0.9469090194 0.3214770336 0.003978180387
-0.01177020168 0.01722636032 -0.04156985474 0.6078070722 -0.7154739508 -0.3444816231
0.01481349087 0.06015758896 -0.0690338974 0.7027624994 -0.4847131317 -0.520747587
0.01655308533 -0.004053316116 -0.01719310951 0.9800237098 -0.1988702116 -0.002041366397
-0.02047701454 -0.001795029402 -0.01365193748 0.9946673851 0.1031347606 -0.0001190714061
0.01607209587 -0.005814543724 -0.0178535347 0.9472667937 -0.3204458041 -0.0003288748132
-0.01509058571 0.0140218153 -0.02909928703 0.7253535555 -0.688373615 0.001996421465
-0.02054014015 0.0008519722819 -0.002773492336 0.9777082759 -0.1065114353 -0.1809470681
0.01150363445 -0.01264933681 -0.01902248383 0.6846575709 -0.7288076895 -0.009130297705
-0.01892797184 0.00559381938 -0.0001788619161 0.7205160124 -0.4110984311 -0.5584395722
-0.01160472393 0.01697454834 -0.0314596405 0.5666940315 -0.8239266612 -0.001652752698
0.01756696892 0.05999698067 -0.05962824249 0.9528675871 -0.2970351453 0.06175341188
0.009550056934 -0.01412728548 -0.01877714825 0.5555616914 -0.8314410043 -0.007554028687
-0.002676994562 0.05886534119 -0.0774803009 0.003737586983 0.3077709858 0.9514531259
-0.02038669586 0.02149401093 -0.06350600052 0.98862883 0.0245121068 0.1483650673
0.005279609442 0.05211417389 -0.04072554016 0.262736015 -0.009793291673 0.9648180543
0.005797168255 -0.01605385399 -0.01783514214 0.2962201584 -0.9551132657 0.003502492892
0.004098535061 -0.01660107422 -0.01724123955 0.2731233534 -0.9619767702 -0.002080263262
-0.01951650047 -0.006318130016 -0.04323815536 0.966152407 0.2534086129 0.04830736421
-0.01231915474 0.06060000229 -0.04757717133 -0.416863465 0.8159554897 0.4005514827
0.002203595161 -0.01692529678 -0.01643094444 0.1668797987 -0.9859728995 0.002928193806
0.0001534998268 -0.01706414604 -0.01544493198 0.005227860756 -0.9999852941 -0.001442568413
-0.0006541760564 0.03412783432 -0.04003486633 0.01827258268 0.003338970168 -0.9998274671
-0.002119983912 -0.01693711281 -0.01420638752 0.1102606523 0.9939015409 0.001521717985
-0.004727379799 -0.01641341591 -0.0125906992 0.1929149954 0.9812142553 0.001545879806
-0.0200181942 0.004611254692 -0.001035224676 0.898910553 -0.1431195524 -0.4140973454
-0.0116405077 0.01693887901 -0.0234376297 0.5708296202 -0.8210671759 -0.001495774715
-0.01889993095 -0.006233540297 -1.864304021e-05 0.5104953546 0.1338912924 -0.8493924975
-0.0158517828 0.0481216507 -0.04746001816 0.7612612995 -0.003962821039 -0.6484331345
0.01709839439 0.05136947632 -0.06065516281 0.9965385587 0.001633711109 -0.08311577453
0.006976054192 0.01934974766 -0.00294032675 -0.2432770977 -0.9448679735 -0.2191820396
-0.01526791573 0.03750510025 -0.04681169891 0.7355327079 -0.005643588888 -0.677465708
0.003487370014 0.01977654139 -0.000581469814 0.154221903 0.8543627264 0.4962659936
0.001253966689 0.0261678257 -0.0400668335 0.0625501165 -0.006088285062 0.9980232541
-0.0205519619 0.0529950943 -0.06016648865 0.9990693872 -0.01101527109 -0.04170159848
-0.002056670189 0.02049460411 -0.0311378994 0.1000312691 -0.9949796855 -0.003028308319
-0.007614116192 0.0191387558 -0.01479646301 0.3537004609 -0.9352771359 0.01235568492
-0.01233953047 0.0164406662 -0.004267201662 0.5907051865 -0.8068849926 0.001997832598
-0.01984863663 -0.00547860384 -0.03203585434 0.980869873 0.1946643947 -0.0002563010495
-0.01974554253 0.007602557659 -0.04694267654 0.9612417078 -0.2366712786 -0.1414251924
-0.008867339134 0.03550807571 -0.04200699997 -0.4371849887 0.007504707834 0.8993402944
0.001771461248 0.01799772263 0 -0.01651444278 -0.4020709367 -0.9154595759
-0.00912702179 0.01841485977 -0.006803272247 0.4308033489 -0.9024427211 0.002368488077
-0.002568961859 0.02039183617 -0.01124596691 0.1508848704 -0.9885494353 -0.001941636617
0.001657699227 0.02053164864 -0.01163476372 -0.08538329306 -0.9963442579 -0.002795191837
0.01693846703 0.002175805092 -0.01614805603 0.9978628211 0.06533194728 0.001235673334
-0.006936014891 0.02748538494 -0.04123360252 -0.3348728177 0.006780578196 0.9422389398
-0.01288453674 0.01607083893 -0.0251906929 0.6234264685 -0.7818157389 0.01017785564
0.01709615517 -0.0001321219504 -0.01743161583 0.9990610855 -0.04332189454 0.0004010263771
-0.02022613335 0.06036441803 -0.05696227264 0.923666 -0.347429254 -0.1616602419
-0.01956775665 0.0557374649 -0.05432043839 0.9471060564 -0.003216970751 -0.3209046104
-0.01848318418 0.01006722736 -0.04470568085 0.8957167192 -0.4041922354 -0.1852571071
0.01263259888 -0.01148341084 -0.02101619911 0.7416008945 -0.6708410474 0.0006343406117
0.01656085396 -0.004022635937 -0.01917789841 0.9726283625 -0.232363871 -0.001048762396
0.0160809536 -0.005791635036 -0.01984882355 0.9496562339 -0.3126672025 -0.01980550077
0.0149970808 -0.008118684292 -0.02049572563 0.8802701156 -0.4744706361 0.001462570874
-0.01507157612 0.01404077625 -0.007783463478 0.7269987309 -0.6866172089 -0.005445522215
-0.006949314594 0.01619852448 0 0.135220803 -0.2104274196 -0.9682125983
-0.01439949417 0.04274860764 -0.04589854431 -0.6854614435 -0.0001054077765 0.7281089193
0.01150172615 -0.01265101433 -0.02103534126 0.6838296802 -0.7296321354 0.003730342194
0.005775650978 -0.01606417084 -0.01983174706 0.2924775915 -0.9562693006 -0.002425537342
-0.01401105213 0.01507988358 -0.02911254692 0.6760699459 -0.7368228107 0.004644769518
0.002166591883 -0.01693336868 -0.01840581512 -0.1730612485 0.9849070611 -0.002808060298
-0.02055428886 0.0007353110909 -0.006533694267 0.9987030997 -0.05078221492 0.003644904088
-0.01649090767 0.01228205395 -0.01940055847 0.8041872358 -0.5943745741 0.001324925929
-0.006049266815 0.04001268578 -0.04092755318 -0.2835954135 -0.004837996547 0.9589318199
0.0167686615 0.04987791824 -0.063741642 0.981528149 -0.01466658551 -0.1907547743
-0.01033371067 0.02967062092 -0.04279793549 -0.5260326037 0.002886680881 0.8504595034
-0.004606534004 0.05738705254 -0.07701766586 0.2766872822 0.03116613146 0.9604544862
-0.00891645813 0.01854714203 -0.02810746956 0.4368905771 -0.899508901 0.003218810657
-0.002185285568 -0.01692807007 -0.01613769722 0.05579542083 0.9984422208 -5.286377424e-05
0.004855403423 0.02000781441 -0.02150195694 0.2434670471 0.9698227987 0.01294357381
-0.01851938248 -0.002291616797 0 0.4560574066 0.02356571932 -0.8896382966
-0.007976329327 0.01516981411 0 -0.09595062246 0.2588006394 0.9611533213
-0.02014605045 -0.003823175073 -0.0008702310324 0.8229720393 0.2205294209 -0.5235301301
-0.01935024452 -0.006931137562 -0.001989287972 0.8448385213 0.2900704337 -0.4495631395
0.001201040745 0.02054268456 -0.0001981815994 0.07779592774 -0.7292815096 -0.679776635
0.001195310712 0.04563374138 -0.04007411575 0.02438011986 0.001838895322 0.9997010694
-0.01688518429 0.0540242424 -0.04888313866 0.8109057569 -0.001245781033 -0.585175445
-0.006736467123 0.04364173317 -0.0411684742 -0.3105043764 0.01013552241 0.9505179133
-0.01797563744 0.03397741318 -0.05061286926 0.8759082207 -0.0001092034496 -0.4824777476
-0.0004766532816 0.02011331749 -0.0004504781663 -0.07459972527 0.7787290885 0.6229092131
-0.01925319862 0.01595431995 -0.05250873184 0.9292061421 -0.1265726993 -0.3472107391
-0.001065481186 0.01864608383 0 0.005174662062 -0.6042793546 -0.7967557245
-0.01794467449 0.04618237877 -0.05056379318 0.8720040568 -0.0001917220753 -0.4894986089
-0.002478687942 0.0222226305 -0.04016182709 -0.1505529113 0.2896293314 0.9452241381
-0.002098931074 0.01760972977 0 0.02536503012 -0.2658491207 -0.9636808913
0.01694347382 -0.002131202221 -0.02039517212 0.9833336008 -0.1818006308 0.00188684959
0.01656867409 -0.003991760969 -0.02117527962 0.9727371949 -0.2318998775 -0.002190073971
-0.002109719038 0.0292467308 -0.04012095642 -0.09261739685 0.0005481015711 0.9957016207
-0.006258188725 0.02368036461 -0.04099050522 -0.3086356347 0.02705906835 0.9507953785
-0.01981159401 0.005582259655 -0.03969738388 0.9646763651 -0.2634063279 -0.004076401599
-0.02017732811 0.04035933685 -0.05650097275 0.981736263 0.01653116718 -0.189527387
-0.0002086536735 0.02057432556 -0.02217068481 0.03216313422 -0.9994773064 0.003262935792
-0.006638757229 0.03751871872 -0.0411336422 -0.3042025894 0.0002241279037 0.9526073348
0.01608986855 -0.00576857996 -0.02185685539 0.932346704 -0.3615314671 0.004962031611
-0.01892380047 0.008061786175 -0.03658419418 0.9212595927 -0.3888605214 0.008261821243
0.01500616503 -0.008106227398 -0.02251514053 0.8778722577 -0.4788200744 0.008463774944
-0.002544275999 0.02545974922 -0.04016236115 -0.1048477286 0.007752163808 0.9944580724
0.01263638306 -0.01148357582 -0.02304406357 0.7613368052 -0.6482802935 -0.00994636216
0.009533605576 -0.01413951874 -0.02280949879 -0.5624511769 0.8267892362 -0.008260295175
0.00418411684 0.02015124321 -0.00944354248 -0.2168827501 -0.9761854057 -0.004891462355
0.01268876457 0.06060000229 -0.07663144684 -0.1551105623 0.9713105399 0.1802679911
-0.002109416246 0.02048375893 -0.0290807972 0.1018618766 -0.9947934301 -0.003192091487
-0.01664760208 0.03370095253 -0.04849819374 0.8043805332 -0.01261012715 -0.593980591
0.005753996372 -0.01607455254 -0.02184113121 -0.2993582554 0.9541193768 -0.006391372125
0.002129354954 -0.01694149017 -0.02039315796 -0.1802059287 0.983584697 0.00932561363
-0.01968293953 3.189445287e-05 0 0.7717500725 -0.02182099175 -0.6355514692
-0.0205072155 -0.00124080658 -0.0002377492338 0.7543351071 -0.05747658965 -0.6539686444
0.01276350212 0.05390307236 -0.07196115112 0.7407266211 0.006397729937 -0.6717761099
0.007175557613 0.01929229927 -0.005870094299 -0.2708310684 -0.9626262192 0.001137789174
-0.01961268425 0.006263338566 -0.002189016342 0.9209692576 -0.3150945025 -0.2291965989
-0.01311610794 0.0207341938 -0.04475331116 -0.6642177682 0.0903706538 0.7420565351
-0.01094369268 0.01741399193 -0.03364443398 0.5475987462 -0.8366979408 0.008495237665
-0.002830316305 0.02033387566 -0.0009096001983 -0.05243439045 0.8561138378 0.5141203472
-0.006658111334 0.019462677 -0.02492824936 0.3209259715 -0.9471032205 0.001417968452
-0.01808553219 0.009783041 -0.01035950041 0.8683783926 -0.4957967574 0.01022460699
-0.00910311985 0.05361471176 -0.04212824631 -0.4442293925 -0.001375110903 0.8959120246
-0.004263521671 0.01967445755 -0.0004932334125 -0.09775377299 0.7866750196 0.6095790461
-0.0008262242079 0.05612392044 -0.04005661392 -0.03037488201 0.0275999684 0.9991574492
-0.004895387173 0.01825711441 0 0.1352316535 -0.5471625603 -0.8260299828
-0.01401048088 0.01506868458 -0.02313467789 0.6748513333 -0.7379516985 0.001723004513
-0.01917537117 0.007455844879 -0.02461885643 0.9378919525 -0.3467106769 0.01226343736
-0.005922346115 0.01722761154 0 -0.1282435205 0.3256956688 0.9367368525
0.01460809994 -0.008834903717 -0.02472455406 0.8126388322 -0.5824462229 0.01935266863
0.01149787331 -0.01265440083 -0.0251002121 -0.6835400715 0.7298463071 -0.009866029762
-0.01488322639 0.06060000229 -0.07058158112 4.60153467e-13 1 6.779534192e-13
0.009524808884 -0.01414519644 -0.02484477329 -0.5687420945 0.8222382485 -0.02137036826
-0.02018596649 -0.003898870468 -0.003653914213 0.9782667984 0.206421693 -0.01959989033
-0.01516981411 0.007976329327 0 -0.2523612393 0.1107556828 0.9612736258
-0.004638758659 0.0356868515 -0.04055213928 -0.2280828868 0.00850835597 0.9736045422
-0.02027398682 0.01028553486 -0.05351661682 0.9870638206 -0.09755578087 -0.1272316146
-0.02002752495 0.004570382118 -0.002881831169 0.9680427271 -0.2309005361 -0.09786838589
-0.01619852448 0.006949314594 0 -0.2151872356 0.1414773776 0.9662704618
-0.02057203293 0.0194671917 -0.06027612305 0.9994659054 -0.009634022511 -0.03122642432
-0.02041293716 0.002203984658 -0.0008964585861 0.918248288 -0.123834542 -0.3761450356
-0.02050299263 -0.001318306565 -0.00211352706 0.9784877235 0.0955757799 -0.1828306465
-0.02003868484 0.02555899811 -0.06537368774 0.9808039653 -0.01697929195 0.1942557216
-0.01854169655 -0.008969635963 -0.02673372269 0.7375326303 0.6745776836 -0.03147329099
-0.004538504124 0.02009305382 -0.006559684753 0.2183963119 -0.9758587039 -0.001685493113
-0.01814033508 0.0257100563 -0.05087497711 0.8715678836 -0.0003120750176 -0.4902747463
-0.002417605877 0.02042038727 -0.01706136131 -0.1091976399 0.9940198001 0.0007158971902
-0.006830437899 0.01996093655 -0.04090325737 -0.365211722 0.5897574779 0.720282247
0.006999404907 0.0485990715 -0.07615029144 0.4138273466 -0.00464258444 -0.910343547
0.003988507271 0.02017867279 -0.005565126896 -0.204172558 -0.9788859208 -0.009793904277
0.001378470004 0.02054755116 -0.004895419836 -0.07934715477 -0.9968470343 -0.0001388701018
-0.00659253335 0.01948434258 -0.0289634552 0.3162858728 -0.9486145478 -0.009679175593
-0.0008588988781 0.0205463829 -0.002766439676 0.08125682573 -0.988380266 -0.128459247
-0.01289023685 0.01606594658 -0.02320942688 0.6230339481 -0.7821931226 0.001618178047
-0.006281129599 0.05208748627 -0.04100631332 -0.3129356821 -0.0099074154 0.9497226448
-0.006258605003 0.01956749344 -0.0003925254047 -0.3279501066 0.7209335391 0.6104945207
-0.01021084929 0.01634020138 0 -0.2840994476 0.5972919841 0.7500198594
-0.02054045486 0.001500877857 -0.05048653793 0.9966648907 0.07098299795 0.04025555402
-0.01819142342 0.03626471329 -0.05100678253 0.8940225825 0.01789614059 -0.4476643276
-0.0122530489 0.01429606915 0 -0.5480526171 0.5987335501 0.584086008
-0.01980098534 0.03373227692 -0.05496980286 0.968165254 0.005785054954 -0.250245028
-0.01429606915 0.0122530489 0 0.6324162272 -0.5616648143 -0.533462606
-0.01634020138 0.01021084929 0 0.582567777 -0.2764730399 -0.7643150158
-0.020057621 0.0008253684044 -0.0556879425 0.9731226366 0.184156902 0.1382699156
-0.0185989488 0.008032141844 -0.0005656159321 -0.6278984601 0.3472994756 0.6965103
-0.02049659824 -0.001435647666 -0.004953604221 0.9967394313 0.08068551118 0.0005953727172
-0.008386949539 0.02676602936 -0.04179698944 -0.4107878089 0.006381766521 0.9117086427
-0.02016459084 -0.004004482746 -0.005581225872 0.9762673787 0.2163967195 -0.008629312078
0.007463748932 0.01919850159 -0.009848944664 0.282332733 0.9593106192 -0.003371010879
0.004084786415 0.02016603851 -0.007496106625 -0.211956688 -0.9772529278 -0.007146854429
-0.002161756992 0.02047299576 -0.027039505 0.1002403641 -0.9949632081 0.0002897440399
0.003020907402 0.06060000229 -0.08093560028 -0.08636396195 -0.967387948 -0.2381214485
0.01683361244 0.05389292526 -0.06331723785 0.9838110111 -0.00780332599 -0.1790391092
-0.00079595083 0.02054908752 -0.004644899845 0.06479862 -0.9978832824 -0.005485752338
-0.006558960199 0.01949492455 -0.03100482559 0.3138668259 -0.9494182109 -0.009626858362
-0.01979951286 0.005619658947 -0.03758655548 0.9643071767 -0.2647846731 -0.0008636748004
-0.00462019968 0.0200734024 -0.002830113649 0.2152484294 -0.969876299 -0.1140529622
-0.001290364146 0.06060000229 -0.04300511551 -0.03028675753 0.9774570414 0.2089508186
-0.006227769375 0.01957956505 -0.0022261374 0.2966111355 -0.9291104816 -0.2208518671
-0.01815494251 0.009674771786 -0.02290541553 0.8723204604 -0.4889345059 -0.0002516036426
-0.02010194016 0.01223054409 -0.06354878616 0.989477453 0.04890347097 0.1361720258
-0.01053687668 0.0176786232 -0.0009202767015 0.4177524653 -0.74180068 -0.5246090248
-0.0123527236 0.0164278059 -0.0006137492061 -0.5586498769 0.7833930517 0.2724071248
-0.01897274971 0.02232501793 -0.06858946228 0.8634122466 0.1466915749 0.482701641
-0.01867895508 -0.0007728510499 -0.05995789719 0.9444986332 0.249553056 0.2136483187
0.001536345541 0.05994916153 -0.0402094059 0.1229783397 0.447290437 0.8858936691
-0.01400831413 0.01502623463 -0.0004758860767 0.6535222293 -0.6862884268 -0.3192442498
0.001848881006 0.05095186234 -0.07755858612 -0.09324666996 -0.006526880405 0.9956216442
-0.01597315693 0.01291817474 -0.0005535761714 0.7748830167 -0.5739136109 -0.2649140948
-0.002672830343 0.03183661652 -0.04017891312 -0.1058414372 0.008268949275 0.9943486384
0.001726240158 0.02992537498 -0.04009302521 0.06974161576 -0.007921785395 0.9975336347
-0.01169941902 0.01688601494 -0.01089435434 0.5665333576 -0.8240353795 0.00237657777
0.01395476723 0.03408382034 -0.04545058823 0 0 1
-0.01802965546 0.009859498978 -0.001097229004 0.8520849645 -0.2757137622 -0.4448967685
-0.02054718971 0.0007938442826 -0.004647063732 0.9985050864 -0.05412220276 -0.007640659326
0.0009629529566 0.03576186752 -0.04005340767 0.02320934224 -0.004333601025 0.9997212343
-0.02014305687 -0.004110867023 -0.007522623062 0.979953957 0.1991856721 -0.003912825888
0.007632609844 0.01913093758 -0.01188488674 -0.2907423305 -0.956784206 0.005734138499
0.001493500113 0.02054411697 -0.00775813818 -0.07956109231 -0.996785265 -0.009442884342
-0.008936310768 0.01853466988 -0.02609889793 0.4349017658 -0.9004679086 0.004242600159
-0.01400937462 0.01504701233 -0.01156666946 0.6859038194 -0.7276917074 -0.0008541190118
-0.0007325609326 0.02055181122 -0.0065365448 0.06275472245 -0.9980226119 0.003565236634
-0.002720201731 0.02036670494 -0.005550494671 0.144991654 -0.9894184715 -0.00533934383
-0.01987766838 0.05410947037 -0.0553172493 0.9681809413 -0.01312059053 -0.2499070127
0.001306919217 0.04254566956 -0.04007654953 0.06564887475 -0.002652672476 0.9978392599
-0.004580637455 0.02008424759 -0.004687268257 0.2191297318 -0.9755898601 -0.01437308437
-0.006181094885 0.01959783745 -0.005001575947 0.302438829 -0.9531209637 -0.009548990407
-0.02050100136 0.001932774544 -0.03532099152 0.9930424191 -0.1176757362 -0.004378922591
-0.007764481544 0.01906624031 -0.003501823664 0.3826626068 -0.9235337301 -0.02558864487
-0.008975569725 0.01851000595 -0.02212672234 0.4383752936 -0.8987909068 -0.001416936411
-0.01400919437 0.01504349041 -0.009686292648 0.6847716565 -0.7287008721 -0.009100409284
-0.01052330685 0.01768787384 -0.002746036768 0.5007238851 -0.8597982021 -0.1001131485
-0.01408773994 0.03431088257 -0.04557756424 -0.6987124013 -0.001965884702 0.715399969
0.002615501404 0.02067266464 -0.04017153168 0.1740572857 0.6145010832 0.7694754578
-0.01234629822 0.0164343605 -0.002434165955 0.5721507254 -0.7932992087 -0.2081343627
6.531042606e-05 0.02058609772 -0.0303461647 -0.01116932968 -0.999928873 -0.004182703078
-0.0140084877 0.01502963924 -0.002293103456 0.6865265799 -0.7022973065 -0.18830759
-0.01506664371 0.01404569626 -0.002252633333 0.7055044506 -0.6864656343 -0.1761488097
-0.008037209749 0.03370769501 -0.04166589546 -0.3872849727 -0.004747279743 0.9219478365
-0.01688607788 0.01177492619 -0.002499746323 0.8084810131 -0.571478447 -0.1406088047
-0.01922210312 0.007342371464 -0.03272658539 0.9424165636 -0.3344405354 -0.0007409179082
-0.01794366837 0.0521263237 -0.05056548119 0.8716061918 0.002052159491 -0.490202443
-0.01870746422 -0.008586632729 -0.02240920639 0.9433553053 0.3317379139 0.005542962436
-0.02059633636 -0.0002751864791 -0.03664638138 0.9997511684 0.02222924942 0.0018605989
-0.01903739738 0.007733838558 -0.003534262657 0.9360139587 -0.3465697838 -0.06137796141
-0.004450164795 0.0201079216 -0.01034745789 0.2139360202 -0.9768466418 -0.001420458752
-0.02042118073 0.002601217985 -0.01121145344 0.9877693877 -0.1559174584 -0.001175964487
-0.02019172859 0.007990755081 -0.05073599625 0.9793728968 -0.1627051129 -0.1198155885
-0.01963177204 0.006217552423 -0.004963016748 0.954084129 -0.2994723722 -0.006306598072
-0.02005531311 -0.004544377804 -0.01543372726 0.9706445882 0.2401844349 0.01266967566
0.003506881833 0.04765647507 -0.04033036041 0.1454926825 -0.00568146679 0.9893430145
-1.983994618e-05 0.04765357971 -0.04000105667 -0.01220212291 0.00892623033 -0.9998857088
-0.02040122986 0.002758118153 -0.005510988712 0.9885083099 -0.1509841114 -0.007424234918
-0.02025268745 0.04250088882 -0.05708655548 0.9867182257 0.004871090213 -0.1623681482
-0.02056604195 0.02602997398 -0.06004195786 0.9987109907 -0.01262931438 -0.04916154502
-0.01903723335 0.008066360235 -0.04281364059 0.9357715962 -0.3367296912 -0.1046166085
-0.02049014282 -0.001554101944 -0.007820624352 0.9963802106 0.084612181 -0.008200894631
-0.0201213665 -0.004218035698 -0.009478335381 0.9782019756 0.2076463057 0.001976520847
0.007811430454 0.01905533409 -0.01394596672 -0.3002992721 -0.9538201473 0.006890116567
0.004284912109 0.02013569069 -0.01140607452 -0.2229234335 -0.9748250424 -0.004612975091
-0.00468758893 0.02001450825 -0.03909245682 0.2972926527 -0.840236702 -0.4534527134
-0.01970178223 0.005997545719 -0.01733355522 0.9650714971 -0.2619863819 0.0003757360478
-0.0204214325 -0.002649427414 -0.0340812912 0.9892791051 0.1459860301 0.003864105194
0.001573759317 0.02053927803 -0.00968780899 -0.08262879648 -0.9965095608 -0.01188179927
-0.002670142889 0.02037502289 -0.007435637951 0.1429882877 -0.9897234278 0.001373358686
-0.009145360947 0.01840333939 -0.004947790623 0.4533712238 -0.8912357059 -0.01238749269
-0.01798325157 0.009968868256 -0.01474008656 0.8695117819 -0.4939112077 -0.0009899278318
-0.01920051956 0.007401631832 -0.02863923454 0.9387874842 -0.3444028847 0.00804440463
-0.01050964546 0.01769718933 -0.004584169865 0.5028653679 -0.8643647026 -0.0002873479925
-0.009089961052 0.01843814278 -0.01055292702 0.4412946205 -0.8973564037 -0.003246947743
-0.01400866222 0.01503306675 -0.004122556686 0.6877611544 -0.7259362736 -0.001058875511
0.009258296967 0.01837556267 -0.02902755928 0.6746268214 0.7374873542 0.03148101407
-0.01506909847 0.0140432477 -0.005005471945 0.7238889275 -0.6899163626 -0.0004829033744
-0.0205963726 9.078650922e-05 -0.0262064724 0.9999831135 0.004183171429 -0.004034067305
-0.01689396286 0.01176647186 -0.004333468914 0.8202382184 -0.5720197179 0.001645407991
-0.02055364037 0.03880885315 -0.0619179306 0.9979306856 0.01467039203 0.06260292602
-0.01805246735 0.009829953194 -0.004763420105 0.8813313011 -0.4724901538 -0.002862212266
0.006898319244 0.04983927155 -0.04123091888 -0.3176322502 0.01331468923 -0.9481204948
-0.02004637527 0.004487790108 -0.006613278389 0.9744678704 -0.2244975736 -0.003634407948
-0.01977536392 -0.005743970394 -0.03638186646 0.9781430654 0.2079325194 -0.000459420403
-0.0205614357 0.00067636621 -0.008433592796 0.998431702 -0.05598299907 0.0002005844173
-0.01786474609 0.01023363495 -0.04004603577 0.8721770051 -0.4871605283 -0.04451844046
-0.00876660347 0.0229029789 -0.04195989609 -0.4260297075 0.01778698878 0.9045343064
-0.02048579979 -0.00163382864 -0.009750296593 0.9959006565 0.08981790509 -0.01070636758
-0.02009951401 -0.004326001644 -0.01144859695 0.9739178256 0.2268821063 -0.002928944557
0.01719928074 0.05999824524 -0.05708156586 0.9395893982 -0.2525598551 0.2310525531
0.005111300945 0.01993645859 -0.02567516899 -0.1805830346 -0.983558208 0.001737532529
0.008002349854 0.01896985435 -0.01603489494 -0.3098320735 -0.9507533394 0.008495516664
-0.01302647495 0.01848340416 -0.0441696434 0.6873256794 -0.3290061679 -0.6475633961
0.00438645649 0.02012002373 -0.01338319778 -0.2318366613 -0.9726917955 0.01106496624
-0.0009174715728 0.04346854401 -0.04005373383 -0.06691087494 0.007196898927 0.9977330001
-0.01806398964 0.009815029144 -0.006615270138 0.8737943449 -0.486294967 -0.0008049723598
-0.01920524979 0.05622443771 -0.06804363251 0.936518096 -0.06241638818 0.3450189129
-0.0006044270992 0.02055731773 -0.01036024094 0.05290972711 -0.9985974985 0.001896519625
-0.01432703638 0.01760307598 -0.04495749855 0.710143879 -0.3796436471 -0.5929303267
-0.01821268845 -0.009544135094 -0.03133728981 0.7375368762 0.6745730681 -0.03147271844
-0.02042743683 0.001305593729 -0.05289362717 0.9934033146 0.09751186314 0.06034311113
-0.004494490147 0.02010046196 -0.008446893692 0.216098904 -0.9763703305 -0.001497130602
-0.01784492874 0.0102661314 -0.03586362839 0.8670327396 -0.4982435768 0.002750755644
-0.008822102547 0.01865060997 -0.04045440292 0.5304321906 -0.6759488092 -0.5116003308
-0.02008487892 0.004319092751 -0.01423491478 0.9766846925 -0.214665703 -0.002376409714
-0.006133991718 0.01961627769 -0.007802535534 0.2907142443 -0.9568098 -0.0004844692861
-0.01232192516 0.0177806797 -0.04296728897 0.670357886 -0.5296917112 -0.519660462
0.01733105469 0.06060000229 -0.05451700211 0.903338597 -0.3870669529 0.1848203268
-0.01049589062 0.01770656586 -0.006434873581 0.4985515282 -0.8668556352 -0.002771533072
0.01592075396 0.05802246284 -0.06670863724 0.9419729765 -0.05606857291 -0.330973151
-0.01599061489 0.012901299 -0.006978721142 0.7826614672 -0.6224092579 0.006909670459
-0.01432283878 0.06060000229 -0.05038137054 -0.1830211205 0.9728646615 0.1415542999
-0.01507661152 0.01403575325 -0.01343022346 0.7328236876 -0.6804169147 0.001504995557
-0.01690189934 0.01175795937 -0.006179693222 0.8205180858 -0.5716157882 0.002337008425
-0.01443010139 0.01552224731 -0.04306232452 0.7254940142 -0.6053241938 -0.3274768018
-0.0197279892 0.05197737885 -0.05482165909 0.9620277947 -0.001295186538 -0.2729484288
-0.01906169319 0.00768488884 -0.007246889591 0.9320820001 -0.3622461399 0.0009377257193
-0.01376489353 0.02563945007 -0.04530242157 -0.6651292474 0.001485477889 0.7467267757
0.01225524712 0.04601246643 -0.07248921967 0.6988006611 -0.02238686954 -0.7149660581
-0.0147140913 0.02015921593 -0.04620779037 0.7164596927 -0.1108401631 -0.6887669903
-0.02005589867 0.004446062088 -0.008498527527 0.9753039689 -0.220860351 -0.001695165065
-0.02056863594 0.0006170030832 -0.01034697342 0.9988996016 -0.04673686014 -0.003905371531
-0.01691391563 0.01174507475 -0.008974532604 0.8157588261 -0.5783917812 -0.0006964974753
-0.02048142242 -0.001714134574 -0.01169399166 0.9951255787 0.0986157583 -0.0001217186781
-0.01893113136 -0.008046843529 -0.01608110619 0.9513822475 0.3079987569 0.002929992371
-0.002158586264 0.06060000229 -0.07901515961 -0.06329947747 -0.6531627489 -0.7545671605
-0.006102297306 0.019628685 -0.009687196732 0.2886457862 -0.9574345455 -0.001643510892
-0.007693401337 0.01910523605 -0.009086362839 0.3682132197 -0.9297411818 0.0005998405685
-0.009108555794 0.01842646027 -0.008671582222 0.4405170754 -0.8977379077 0.003369758319
-0.01907396698 0.007660159588 -0.009122505188 0.9327064143 -0.3606365657 -0.0001102881013
-0.01048204041 0.01771600914 -0.008298347473 0.5042725093 -0.8635444927 0.0003814222847
-0.01974519539 0.005807344437 -0.0272722435 0.9667642502 -0.2556694829 -3.532604323e-06
-0.01819872189 0.009603776455 -0.03093110657 0.8742520383 -0.4854717979 -0.0007119600701
-0.01908862877 0.04932127762 -0.05287211609 0.9294711982 -0.008992207805 -0.3687850756
-0.0117143631 0.01687582588 -0.008077325821 0.5627465289 -0.8266190062 0.004166871861
-0.01886098289 -0.008220929146 -0.0181685257 0.9492290011 0.3145609102 0.003967019697
-0.01807514191 0.009799530506 -0.008480404854 0.8737479701 -0.4863670022 0.003409385226
-0.01911130905 0.007584920406 -0.0148290596 0.9344053205 -0.3562040126 0.002323436792
-0.02006549072 0.00440403986 -0.01039707375 0.9757791031 -0.2187453812 -0.002366447958
0.002669124603 0.02040397644 -0.03410404205 -0.1481256095 -0.9889577419 0.004624778553
0.008406839371 0.0187812233 -0.02028408241 -0.3259009676 -0.9453685781 0.008173788501
-0.0116843338 0.01689629936 -0.01373789406 0.5651000357 -0.8250223356 -0.0003089268922
0.001830266356 0.02051371002 -0.01557496071 -0.09857393592 -0.9950508381 0.01253030976
-0.0004744388461 0.02056290436 -0.01423927593 0.05080481588 -0.9987052671 -0.002580728655
-0.01290151024 0.01605626869 -0.0192906456 0.6233008805 -0.7819807845 0.0014370398
-0.01046809387 0.01772551727 -0.0101747961 0.5058549968 -0.8625838383 0.007735901567
0.002381714582 0.02044246292 -0.02778021812 -0.1315326284 -0.991300969 0.004642909262
-0.01292899132 0.01603268051 -0.009738221169 0.6242599827 -0.781195529 -0.005746253281
-0.01507324314 0.014039114 -0.009652562141 0.7328843838 -0.6803531414 -0.0002880358825
0.01043607044 0.02434729385 -0.0428455162 0.5381949283 -0.001112304465 0.8428196616
-0.02058063698 0.001614941716 -0.04820217133 0.9997335394 0.0209134867 0.009771197421
-0.01599821949 0.01289394855 -0.009777509689 0.7920475125 -0.6104585737 0.00103335432
0.003792896032 0.05345621872 -0.07722942352 -0.2628580905 0.003463150662 0.9648282909
-0.02044846153 0.002386686563 -0.01900576782 0.9904351085 -0.1379749945 0.001093951779
-0.02040326881 -0.002835885048 -0.03837247086 0.9889334496 0.1483025564 -0.004121156195
0.004294150829 0.05774682617 -0.04050531006 0.2122344156 0.1509102929 0.9654960571
-0.0190863266 0.007635256767 -0.01101126385 0.9341419597 -0.3569015854 -0.0002399060852
-0.01779074669 -0.01033041382 -0.03830224609 0.7375388834 0.674570912 -0.03147189385
-0.006525125504 0.01950558949 -0.03306207848 0.3116099434 -0.9501624278 -0.009518609913
-0.004377541542 0.04550814056 -0.04050668716 -0.2100217902 0.01557496116 0.9775726409
0.001920420647 0.02050206184 -0.01757035255 -0.1032884733 -0.9945623824 0.01331010283
-0.01967293739 0.006104525566 -0.01154788017 0.9660724504 -0.2582570608 0.00270389393
-0.02032229233 0.0506661377 -0.05760025406 0.9892271486 0.008412093048 -0.1461467935
-0.02007514954 0.004361718178 -0.01230912971 0.9762228628 -0.2167573987 -0.002269858133
-0.01913665199 0.007533856392 -0.01870201874 0.9366568112 -0.350221528 0.004347347507
0.01118738747 0.05440829849 -0.04332857513 -0.5180926333 -0.007559166461 -0.8552911097
-0.02047257423 -0.00187652266 -0.01562436676 0.9942221957 0.1073415714 -0.00011252205
-0.0004087304473 0.02056572723 -0.01620010948 0.04671256055 -0.9989047667 -0.00268399698
-0.006038235664 0.01965376472 -0.01349656391 0.2853629221 -0.958394225 0.006965065075
-0.02047503471 0.01046115494 -0.0554790535 0.9920959936 -0.07094989346 -0.1034971114
-0.0007064956501 0.02586190891 -0.04004379654 -0.06088480387 -0.01275170976 0.998063342
-0.009071235657 0.0184499073 -0.01244751549 0.4406969804 -0.8976556141 0.0007549725634
-0.01292357254 0.01603733063 -0.01162164879 0.6292565496 -0.7771307705 -0.01019609372
-0.01507492161 0.01403743935 -0.01153474522 0.7328627928 -0.6803764504 -0.0001124832424
0.0009556257874 0.051738657 -0.04006229591 0.0322124961 -0.001437514331 0.9994800091
-0.01692604256 0.01173206902 -0.01179538727 0.8148368469 -0.5796650756 -0.005414160269
-0.0180959959 0.009766435146 -0.01225181484 0.8689884759 -0.4947836069 0.006943424855
-0.01968486214 0.006071680546 -0.01345975018 0.9666551609 -0.2560644396 0.002966922271
-0.01807679558 -0.009799803734 -0.03363264847 0.7375244625 0.6745865366 -0.03147494026
-0.0204347229 0.002494734526 -0.01508019257 0.9884072902 -0.1518222933 -0.00100990914
-0.02058290482 0.0004278377891 -0.01617941093 0.999246781 -0.03869033057 -0.002988137214
-0.0204681015 -0.001958624125 -0.01761151695 0.9936418146 0.1122440935 0.008786797881
-0.02003614235 0.05032141113 -0.0558370018 0.9720543745 -0.00280280248 -0.2347390833
-0.0002758458853 0.02057143784 -0.02016557312 0.03655785488 -0.9993263144 0.003231189727
-0.006005860806 0.01966643906 -0.01542170238 0.2967182241 -0.9549593776 0.003298877453
-0.009052377701 0.01846175385 -0.01435556126 0.4360148219 -0.899922278 0.005564954527
-0.01400992107 0.01505773163 -0.01728812408 0.6736103599 -0.739074446 -0.004248097107
-0.01043278265 0.01774959183 -0.01492577553 0.5112940506 -0.859392736 -0.004745425987
-0.01291811562 0.01604201508 -0.01351838779 0.6284374976 -0.7778598253 -0.0006354565843
-0.01600848961 0.01288402081 -0.01355730057 0.7855623533 -0.6187618381 -0.005057353949
-0.0158788662 0.02346253586 -0.04748458481 0.7482504618 -0.0008327811805 -0.663415822
-0.01969329262 0.006034747601 -0.0153896246 0.9646072479 -0.2636905257 0.0004048973375
-0.02009513092 0.004276651382 -0.0161741066 0.9771464839 -0.2125520862 -0.002521846285
-0.02044156647 0.002440909147 -0.01703576088 0.9900559682 -0.140669138 0.001171946824
-0.02058555794 0.0003614364862 -0.01815480804 0.9993621024 -0.03559230326 -0.002928530779
0.002102798939 0.02047849846 -0.02160694885 -0.1137903437 -0.9934906466 0.005300264852
0.01200830936 0.02084033394 -0.04386703873 0.5345487701 0.08801055682 0.8405425357
-0.01995106316 0.007778028488 -0.04885699844 0.9738187873 -0.1879300759 -0.1279033078
-0.002367195606 0.0204307518 -0.01902736855 -0.1073391446 0.9942221749 0.0007582345407
-0.01291262054 0.01604673195 -0.01542865372 0.6283993668 -0.7778837788 0.003326040784
-0.01400973797 0.01505413342 -0.01536737061 0.6800666375 -0.733148396 0.001672728308
-0.0150870142 0.01402537727 -0.02509458923 0.7245315075 -0.689170363 0.009914912639
-0.01507831383 0.01403405571 -0.01533921146 0.7328522888 -0.6803860918 0.001512911733
-0.01812251663 0.00972619009 -0.01704171562 0.8709494039 -0.4913484413 -0.004883137016
-0.006625849724 0.01947384167 -0.02693770409 0.3187337775 -0.9477939963 -0.009763178135
-0.02045670891 -0.002127329588 -0.02163384628 0.9928876172 0.1190431071 0.001708309934
0.002195045948 0.02046657944 -0.02364866066 -0.1198047681 -0.9927844843 0.005077929311
-0.01921126938 0.007372116089 -0.0306750145 0.9398554894 -0.3415677174 0.001775793382
-0.01079175615 0.01952103996 -0.04283532143 -0.5919823075 0.3277796254 0.7362862656
-0.01816591072 0.009657378197 -0.02488902378 0.8736129278 -0.4864862037 0.01147283891
-0.02056393051 0.003749866962 -0.053362957 0.9977246102 0.05228285242 0.04256883237
-0.002316411734 0.02044119453 -0.02100794601 0.1057577479 -0.9943858796 0.003467148885
-0.004223686218 0.02014604187 -0.02005828667 0.1936866056 -0.9810522746 0.004683294848
-0.006750354528 0.01942678547 -0.01899298191 0.3332761912 -0.9428178832 -0.004628122169
-0.01215321732 0.01978438759 -0.04389001083 -0.6245790633 0.2512171198 0.7394531442
-0.01166395569 0.01691019249 -0.0175791378 0.5703564013 -0.8213780495 -0.005628077913
-0.01290708542 0.01605148315 -0.01735266495 0.6234920448 -0.781829622 0.0003350412688
-0.01508002853 0.01403234482 -0.01726192856 0.7307077067 -0.6826903793 -0.0003057147814
-0.02052958107 0.001763912916 -0.04169769669 0.9948016122 -0.101335102 -0.01004736194
-0.01986201859 0.01874457932 -0.06591510773 0.9773942334 -0.003327526316 0.2113987703
-0.01813324642 0.009709175587 -0.01898199558 0.8753235149 -0.4835201844 -0.004120136697
-0.02045503426 0.00233164835 -0.02099091148 0.9908702021 -0.1346521469 0.006711322744
0.0001975657493 0.04149645996 -0.04001052856 0.0114316954 0.01271204412 0.9998538495
-0.02045094299 -0.00221265626 -0.0236681385 0.9924164548 0.1229103732 0.001618788892
0.01240978336 0.05628560638 -0.07234136963 0.7287063964 -0.006853727484 -0.6847919496
-0.01994179726 -0.005105219364 -0.02566847801 0.9842927535 0.1765363193 -0.001644205157
0.009499012947 0.01825183296 -0.03128747368 0.7049763606 0.7083006281 0.03631186063
0.00524080658 0.01990034676 -0.02778717232 -0.1863532894 -0.9824817768 0.001417677382
0.002288013697 0.02045456886 -0.02570632744 -0.1257180628 -0.9920541117 0.00485881211
0.003287157774 0.05595376587 -0.07735386658 -0.2217066366 0.01604283255 0.9749814331
-0.01926052475 0.05735407639 -0.05333226013 0.9333755614 -0.020288033 -0.3583273044
-0.0001409504712 0.02057723427 -0.02419104576 0.00376210167 -0.9999847562 -0.004041520056
-0.00633206892 0.03004496098 -0.04101638794 -0.3091384456 -0.009320584636 0.9509713708
-0.002265248299 0.02045171547 -0.02300333023 -0.103942512 0.9945765567 -0.003664291115
0.007657906055 0.06060000229 -0.07740531158 0.3571707536 -0.6747944381 -0.6458184877
