# .PCD v0.7 - Point Cloud Data file format
VERSION 0.7
FIELDS x y z normal_x normal_y normal_z
SIZE 4 4 4 4 4 4
TYPE F F F F F F
COUNT 1 1 1 1 1 1
WIDTH 371
HEIGHT 1
VIEWPOINT 0 0 0 1 0 0 0
POINTS 371
DATA ascii
0.01198240376 -0.01309587002 0 -0.6755757887 0.7372815811 0.00363646094
0.007757503271 0.01855152035 -0.0009842690825 -0.3232117407 -0.9199872871 -0.2217150475
0.01843601751 -0.00565130043 0 0.9028427314 -0.3952459052 -0.1692798769
-0.01198903537 0.04046385765 -0.04387661839 -0.5996769946 -0.02109109605 0.7999641666
-0.01210758042 0.0292864809 -0.04396980095 -0.5982412221 0.02251495783 0.8009996984
0.004352268219 -0.01646061935 -0.0205028244 -0.3046789238 0.9517469414 0.03672210283
0.01405653133 -0.01026807032 -0.001351232207 0.8155627138 -0.5765504601 -0.04946743173
-0.01633014766 0.01523172691 -0.04608227331 0.8394137269 -0.3407065936 -0.4234425724
0.009443509459 -0.01464118306 -0.001426570997 0.5736190265 -0.8164237893 -0.06643349033
0.004330341637 -0.01875978279 0 -0.2989801981 0.9409310157 0.1589328943
-0.01969859727 -0.005624452829 -0.005764440457 0.9451382375 0.2712674677 -0.1820100903
0.003980480611 0.02013484573 -0.03095707178 -0.1389294068 -0.9898334666 -0.03046847951
-0.01880471191 0.008292044067 -0.00557041254 0.929749295 -0.3433113148 -0.1330548366
0.004643260002 0.0173417263 0 0.2931119043 0.9052826711 0.3074877183
-0.01872013245 0.03513339844 -0.05209095078 0.9094321294 0.005926350789 -0.4158101494
-0.01662363211 0.01037633689 -0.0007665702105 0.8247241214 -0.5303660862 -0.1963210081
0.01797379375 0.000211770609 -0.000761334097 0.9916309867 0.02002373565 -0.1275422919
0.01329453437 0.06060000229 -0.07469219971 0.6535131945 -0.1959792688 -0.7311037073
0.01595252085 -0.005962488254 -0.001340598558 0.9164976582 -0.3948912147 -0.06397633224
-0.01664050579 0.05984576362 -0.0503748218 0.8256489747 -0.08995700175 -0.5569663441
0.01363611719 -0.01019199096 -0.02087072563 0.8292636928 -0.5582018782 -0.02706272269
0.00955134511 -0.01403439772 -0.005966564178 0.5640741554 -0.8209237962 -0.08890707526
0.00428113385 -0.01647239637 -0.001415258164 0.3540953811 -0.9307304299 -0.09141842267
-0.001119524151 -0.0192596221 0 -0.03302572595 0.9540647652 0.2977746214
0.0186138134 0.004379592001 0 0.9721270884 0.1128653683 -0.2055002012
0.01689545441 -0.00250120163 -0.002026656032 0.9730693991 -0.2120008623 -0.09050734176
0.009278844833 -0.01421386507 -0.01602407275 0.5496312687 -0.8349258767 0.02835928098
-0.01785384369 0.06060000229 -0.06218255997 0.9520698718 -0.2691804298 0.1452751026
-0.008875202179 -0.01829083443 0 0.3219382747 0.9314816801 0.1694037395
-0.000599324517 -0.01701892471 -0.001532404684 0.03503552971 -0.9819867614 -0.1856731321
-0.01981207609 0.0495930481 -0.06575483799 0.9724852761 -0.02588510108 0.2315218116
-0.02053507538 0.0007054530025 -0.04623533173 0.9998556126 0.005624951973 -0.01603477351
-0.01860360463 0.0088413318 -0.03629571406 0.9234288377 -0.3825871616 -0.03010391019
-0.02016552086 -0.003915780687 -0.03584991226 0.985852322 0.1671063292 0.01306422024
0.01602762187 -0.005689186335 -0.005777941465 0.9398690102 -0.3215396654 -0.1151455045
-0.01975059128 0.005606036901 -0.03589468002 0.9618104252 -0.2735840873 -0.008511937566
-0.0178037262 0.0001637349129 0 0.9449800274 -0.03161678619 -0.3255965704
-0.01493692843 -0.01395742194 -0.001053364724 -0.05744064342 -0.001653118115 -0.9983475546
0.004551960707 0.0593018728 -0.07722675759 0.3352488709 -0.1578833564 -0.9288062448
0.009130119907 0.05944950231 -0.07541591475 0.5688856598 -0.1404381231 -0.8103371148
0.01359401099 -0.01022884989 -0.006081991593 0.8087493992 -0.5876272387 -0.02487242673
-0.02019661407 0.004932290888 -0.04583224716 0.9872376494 -0.1478619537 -0.05914952396
-0.01152864997 -0.0146396443 0 0.5759543039 0.7586983671 0.3043902554
0.00442557767 -0.01642518568 -0.005834428072 0.2902225328 -0.9476696609 -0.1330153948
-0.005969327416 -0.01629565334 -0.001249545131 0.2912791665 0.9403747243 0.1756468758
-0.005395273447 -0.01865642071 0 0.1755097804 0.9647353821 0.1961681921
-0.01732803408 0.05510143153 -0.04956288083 0.8277514895 -0.04274908688 -0.5594640178
-0.001085284296 -0.01699584351 -0.01047120304 -0.06148342236 0.9968061613 0.05096337453
-0.0006393974908 0.01967823639 -0.0007750584155 -0.03439405208 0.9422190628 0.3332270802
-0.01997315288 0.03988661623 -0.05589083576 0.9745135188 -0.01355819567 -0.223918684
-0.020044137 -0.0045995965 -0.01644140816 0.9923349229 0.1234286079 -0.006064611391
0.01774599171 0.008331453085 0 0.9190329211 0.369951088 -0.1360686682
-0.005159333038 0.05517938461 -0.07681994781 -0.2702165611 -0.1611558964 -0.9492164069
0.003988736947 0.02017864227 -0.005569733779 -0.2551337916 -0.954199837 -0.1562351418
0.01703651085 0.05505276489 -0.06036659393 0.9899916945 -0.1362003377 0.03695825682
0.01636112595 0.005115130901 -0.001525352995 0.9843327694 0.1096615875 -0.138070038
0.01601927328 -0.00572089994 -0.02078728135 0.9369126651 -0.3487650925 -0.02361288333
-0.0007690132543 -0.01701152802 -0.01533817978 -0.009506015626 0.999670238 0.02385478858
0.0169918044 -0.000340692286 -0.00578143348 0.994584826 -0.03721053732 -0.09703813627
-0.0147969037 0.05477293743 -0.04638440878 0.7336021178 -0.04923912295 -0.6777930669
-0.0004981900632 -0.01702092667 -0.005765823841 0.02553787184 -0.9931585088 -0.1139473281
0.01312838173 0.05961251958 -0.0455508639 -0.6318865046 -0.3395411621 -0.6967289606
-0.01983562016 0.009872988939 -0.05079526234 0.9703868488 -0.17067864 -0.1709332197
-0.01941387494 -0.004976056774 -0.0006278393529 0.9051958301 0.2047641677 -0.3724139429
0.01505249739 0.009280551076 -0.001010691375 0.8628954139 0.4991456304 -0.07915266469
0.01980302238 0.005558454514 -0.004256212234 0.9854780434 0.1180613511 -0.1220432028
-0.01867895508 -0.0007728510499 -0.05995789719 0.9595363001 0.2284977219 0.1645566157
-0.01877625942 0.008377275387 -0.01077030118 0.9180580826 -0.3960772299 0.01709341654
0.0159668082 -0.005823851526 -0.01089802074 0.9467865101 -0.3218380916 -0.003942987524
-0.006467128277 -0.01569266186 -0.006321622181 0.2366098118 0.9564609905 0.170874722
0.01360783439 -0.01021674909 -0.01093704902 0.7810419851 -0.624401618 -0.009799847625
-0.01868525505 0.03726513672 -0.06922231293 0.9748778261 0.01314051166 0.2223523133
0.01362185733 -0.01020447381 -0.01586223459 0.8213195881 -0.5702154868 -0.01698330799
0.009532849669 -0.01405040105 -0.01081691019 0.55220164 -0.8325779586 -0.04344297022
-0.01504779514 0.01398377641 -0.02614152495 0.7340360089 -0.6791066857 -0.002290675604
-0.019852983 -0.005135010004 -0.01107702971 0.9931233888 0.1168490667 -0.007227047204
-0.005576659203 -0.019782444 -0.00423708868 0.2366098118 0.9564609905 0.170874722
0.003906397074 -0.01655945277 -0.01096653914 0.2115629255 -0.9773621135 0.00210421789
-0.02050798569 0.004670396852 -0.05101786957 0.9997707395 0.02078600488 0.005139111362
0.01337956174 0.01475617361 -0.0005412118273 0.6937973828 0.717520456 -0.06172184968
0.0164470253 0.004479604006 -0.005985069752 0.9854780434 0.1180613511 -0.1220432028
0.0169730978 -0.0002009231187 -0.01052550292 0.9955416962 -0.03946112768 -0.08567117717
0.01699620891 -0.0003613848127 -0.01576639307 0.9965061064 -0.08342888933 0.003898760843
0.009112848759 0.04953444968 -0.0749701199 -0.4859787838 0.03103324093 0.8734194637
0.008795456171 0.04485023117 -0.04206813049 0.3853350072 -0.001979535363 0.9227746278
0.009704739094 0.01520358205 0 0.5942632988 0.7658741933 0.2455358461
-0.005889282435 0.0203850069 -0.04018557882 -0.4410589347 0.6153674785 0.6532915754
0.0152078174 0.007776415984 -0.006563782533 0.935817095 0.3067269854 -0.1736805145
-0.0119794693 0.05927843475 -0.07291565323 -0.6275387701 -0.1580255435 -0.7623798395
-2.926289042e-05 0.05046263885 -0.07762688955 0.004669330554 -0.05763817264 -0.9983266191
-0.01983700625 0.03542884572 -0.06582432175 0.9761735256 0.01710077939 0.216316461
-0.01472316 0.04989879396 -0.04630335999 0.7353318244 0.009723786823 -0.6776374813
-0.01551139228 -0.01066415056 -2.319026242e-05 0.8182036982 0.4832764728 -0.3114266513
0.016398194 0.004678643545 -0.01066852252 0.9809852257 0.1635396137 -0.1045121129
0.01694347382 -0.002131202221 -0.02039517212 0.9344690819 -0.3559636673 0.007576447638
-0.009624858975 0.0499517417 -0.04244576359 -0.4416084442 -0.004855520214 0.8971947425
0.01592973852 -0.0059860273 -0.01612964368 0.9416962672 -0.3356222692 0.02378723837
0.004036728293 -0.01651268005 -0.01617258799 0.2938946577 -0.9555075419 0.02512503638
-0.004640588284 -0.01644035467 -0.01070952352 0.01287345498 0.9984825899 0.05354242925
-0.02054232883 0.04998978233 -0.0602221241 0.9965715603 -0.01214894062 -0.08183842847
-0.01700977802 -0.006097017288 0 0.9001477087 0.2654419462 -0.3453616593
-0.0006925248014 0.02464439011 -0.04007334355 -0.02249113176 0.5596160252 0.8284467716
0.004586219501 0.01942556419 -0.0003567080587 0.2931119043 0.9052826711 0.3074877183
-0.01499057083 0.02978404999 -0.04656430588 0.7291893404 -0.020087963 -0.6840170901
0.009683506575 -0.01396188433 -0.02095847112 -0.5669034336 0.8233330984 -0.02725997369
-0.01992675018 0.02029561234 -0.06550049973 0.9874177245 -0.004219070922 0.1580773126
0.007175889651 0.0192922039 -0.005874973218 0.2975577815 0.9411681099 0.160193494
-0.02006875197 4.99893936e-05 -0.001006257119 0.9449800274 -0.03161678619 -0.3255965704
-0.005621707784 0.04507348294 -0.04086204868 -0.2570134423 0.004817983011 0.9663958182
-0.005746862113 0.01934706283 -0.001012705404 0.3167067726 -0.9318016102 -0.1773205553
-0.01975860882 0.005023503661 -0.06089708424 0.9856239759 0.1266996297 0.1117702191
-0.006949330012 0.01619865004 0 -0.3515915775 0.9032627017 0.2459671815
0.01364767234 -0.01018187586 -0.02492927488 0.8504342841 -0.5243314144 -0.0428730257
0.01018249702 -0.01364826457 -0.02492991956 -0.5738991568 0.818523159 0.02568259887
-0.01671306801 0.006435830355 0 0.9209364037 -0.3118827463 -0.2336777542
-0.01968838573 0.004525408328 -0.001030049711 0.9566546289 -0.1896169697 -0.2210369332
0.005963517189 0.06060000229 -0.04403236771 -0.2736022359 -0.2867143699 -0.9181158351
0.009685805321 0.06060000229 -0.04457398415 -0.5335852979 -0.3037248697 -0.7893275197
-0.0005140735321 0.04461810637 -0.0400924778 -0.02814491062 0.02994501335 0.9991552233
-0.0006797912419 0.02048003626 -0.005674371541 0.03947495337 -0.9876574638 -0.15157329
-0.009616995811 0.01800261574 -0.001609152639 0.4227022745 -0.893283503 -0.152863895
-0.01179073 0.01587460923 -0.0007619787902 -0.5855649941 0.7773059625 0.2300197348
-0.0148405808 0.01382046972 -0.001197623095 0.6948537563 -0.6664323189 -0.2702706453
-0.02052847317 0.03454896273 -0.06058140836 0.9992508336 -0.02565738297 -0.02897361286
-0.01868675184 0.00845415771 -0.001504631758 0.9237467388 -0.3365814798 -0.1827699919
-0.01979175663 0.005532342166 -0.04079965925 0.9620506373 -0.2726504461 -0.01096838371
-0.0205243756 -0.0003699792822 -0.006223697265 0.988972437 0.01604152293 -0.1472283546
-0.01472017437 0.03469430712 -0.04629620828 0.7316953586 -0.01886288473 -0.6813707462
0.007548179388 0.01916471958 -0.0108669157 0.1766216472 0.9840270132 0.02226277243
-0.02002498198 0.004486947834 -0.005698877096 0.962585762 -0.2397358153 -0.1263146458
0.01395476723 0.03408382034 -0.04545058823 -0.5627253076 -0.01146618218 -0.8265644287
0.004285161813 0.02013565254 -0.01141093826 0.1609101385 0.986929585 0.008827317183
-0.006355042636 0.01952862263 -0.00563931641 0.3205428477 -0.9413699009 -0.1052377905
0.004435454512 0.03001484337 -0.04053149261 0.2665867657 0.04372439996 0.9628186087
-0.01905322647 -0.007721819401 -0.01197592354 0.9784796944 0.2063370164 -0.001588502313
-0.0004056534895 0.03478601619 -0.04007093975 -0.03184549988 -0.0306514658 0.9990226983
0.008005840143 0.01896704165 -0.01604379209 0.2157143985 0.9762311824 -0.02097562449
-0.003896664143 0.05165361786 -0.0772057724 -0.09946348705 -0.1672319135 -0.9808876092
-0.01900094104 0.009370550454 -0.04599145269 0.946684169 -0.2865303883 -0.1472732857
-0.0007859850824 0.02048980856 -0.01077109218 0.04136129108 -0.9987373946 -0.02851070519
-0.009951991844 0.0179875927 -0.006213690758 0.4523954448 -0.8878509613 -0.08401804636
-0.01233195766 0.01644629892 -0.006117786964 0.5964478149 -0.7959223199 -0.1037191628
-0.02054007769 0.03981326771 -0.06116741848 0.9995847346 0.01489553037 0.02466741784
-0.005832265139 0.06060000229 -0.04389707057 0.3551628195 -0.2357593909 -0.9045865803
-0.01502228885 0.01399422529 -0.005984810723 0.7574205276 -0.6452899873 -0.09957397591
-0.02052215233 0.02901109085 -0.06061108856 0.9994378099 -0.02629989502 -0.02079374098
-0.01729303137 0.01111523406 -0.006324233452 0.8402432244 -0.5346393305 -0.09028903674
-0.01956717491 -0.004209177494 -0.0505136795 0.9731137295 0.2072990074 0.1003832211
0.008567021847 0.03486109543 -0.04195483875 0.3694743847 0.003763909163 0.9292332926
-0.02052793598 -0.0005434363037 -0.01101632905 0.9997569646 0.01659435008 0.01451341903
-0.02007929747 0.04492770495 -0.05636003276 0.975022634 0.02373668239 -0.2208334963
-0.01892817879 -0.008050485929 -0.0160899957 0.9787634647 0.2042954664 0.01689504563
0.01168253803 0.03796376038 -0.04363511658 0.4676414497 0.01772665993 0.8837404823
-0.006065518498 0.0196178441 -0.01065880847 0.319538196 -0.9475394794 0.008017251988
-0.01833436584 -0.007860341072 -0.04929514313 0.952904401 0.2912330949 0.08459602265
-0.02009926724 0.004157091349 -0.01075628483 0.9794361345 -0.2011611132 0.0154617266
0.003670909564 0.02022811572 -0.01678003915 -0.09495520546 -0.9954425537 -0.008810862038
0.004612878144 0.05508248043 -0.07696260262 -0.2457226849 0.1375378163 0.9595330694
-0.0003626336115 0.02050933702 -0.01570813193 -0.03184829623 0.999059035 0.02944029033
-0.009638379097 0.01815502434 -0.01078224983 0.4595967262 -0.8880003082 0.01504333363
0.003020907402 0.06060000229 -0.08093560028 0.08662233086 -0.3850223443 -0.9188331547
-0.01503498581 0.01399796568 -0.01104410812 0.7331635673 -0.6799993779 0.008487026925
-0.0205277373 -0.0007245251735 -0.01590676324 0.9989038053 0.03351135319 0.03268297755
0.01703998756 0.06060000229 -0.07045775604 0.8227583068 -0.3348377222 -0.4592956219
0.008509257793 0.01873346043 -0.0213599968 0.2926242729 0.9561532109 -0.01191940281
0.01689642334 0.05786412048 -0.06290604401 0.9861008392 -0.1122709987 -0.1224759473
-0.01231285048 0.01646051025 -0.01078714466 0.606662029 -0.7949033942 0.009475041627
-0.01731608629 0.01108827996 -0.01099791813 0.8396928662 -0.5430082877 0.007608547324
0.01683361244 0.05389292526 -0.06331723785 0.977144397 -0.1547163513 -0.1457795529
-0.01874600315 -0.008494826317 -0.02134462643 0.9758653555 0.2177776689 0.01611505351
0.003424610376 0.02025492716 -0.02053250694 -0.1054429298 -0.9940307014 0.02801344803
-0.005770530939 0.01971002436 -0.01577641153 0.270727222 -0.9626556188 0.0009647768938
-0.02003075027 0.004484243691 -0.01585376811 0.9774520339 -0.2111575206 0.0001514457414
-0.01983209515 0.02970884562 -0.06590072632 0.9700135884 -0.001774380953 0.243044214
-0.01999908543 -0.004822180748 -0.02050332546 0.9909427384 0.1339372117 0.009659839786
-0.005605600595 0.0197502931 -0.035895099 0.2989118064 -0.915760343 -0.268392858
0.008922483921 0.01854075241 -0.02570096874 0.3014051432 0.9534608021 -0.008212095592
-0.009729482015 0.01811409314 -0.01608530919 0.4318430157 -0.9019033018 0.00905781609
-0.0009186222581 0.02053516617 -0.02614994965 0.1117210343 -0.9935887098 -0.01731722549
-0.01229338201 0.01647499053 -0.01554472605 0.6044953813 -0.7963489384 0.02033967166
-0.01502857924 0.01398322535 -0.01564159346 0.7324457849 -0.6806604022 0.01498629715
-0.01862037964 0.03000888023 -0.0518799057 0.9231967756 0.01680868528 -0.3839598698
-0.01733955352 0.01106079213 -0.01575991265 0.8400355128 -0.5424133344 0.01131865026
-0.01874563026 0.008463982105 -0.0160695715 0.9289774489 -0.3700624028 -0.007397120387
-0.02050246334 0.0001598852302 -0.02125435829 0.9990699365 -0.02131755096 -0.03748098239
-0.01213971996 0.05004532528 -0.04400302601 -0.600101702 0.008658747205 0.7998768489
-0.001007476055 0.03967732511 -0.04008276367 -0.1021730939 0.0220131221 0.9945230421
-0.01213165035 0.01659795227 -0.02573080635 0.6033116823 -0.7975002028 0.002905247657
-0.01858571529 -0.008870714188 -0.02564501667 0.9686930061 0.2481803232 0.006355083162
-0.01887546015 0.05009943295 -0.05245526695 0.9292603127 0.01520295622 -0.3691126404
-0.01889944572 0.008107513142 -0.02084664116 0.9265612912 -0.3761347805 -0.002607784229
0.003699953397 0.02019544951 -0.0256962897 -0.1314326987 -0.9909444071 0.02747049035
-0.01854358737 0.05920291265 -0.05175882085 0.8738312527 -0.1602117289 -0.4590764029
-0.001486671039 0.02049388504 -0.02107498055 0.1542987996 -0.9880193868 -0.003093807432
-0.01878394063 0.04501130358 -0.05225393867 0.9199050513 -0.01315069248 -0.391920599
-0.01997716618 0.004751401623 -0.0208279864 0.9787645415 -0.2048207359 -0.008272757514
-0.0175515976 0.01645618248 -0.04895243835 0.8761957801 -0.2280217558 -0.4246022066
-0.020057621 0.0008253684044 -0.0556879425 0.979846957 0.1607506647 0.1185713482
-0.01994173622 -0.005105522792 -0.02567401059 0.9894819203 0.1423119391 0.02593918626
-0.01981201617 -0.004561941385 -0.04622831217 0.9782901405 0.2004133773 0.05275300265
0.009378654957 0.01831369781 -0.03015751648 0.3191254911 0.9476597197 -0.00999883337
-0.006090114713 0.01961665368 -0.0209837606 0.2744251035 -0.9615397303 -0.01149824275
-0.01887361145 -0.002821732759 -0.05670415115 0.9711354831 0.2051520589 0.1216902059
-0.0205083549 -0.0002801959438 -0.02598127508 0.9997999731 -0.006616442613 -0.01887423017
-0.01236399632 0.01643946686 -0.03091626244 0.6022885919 -0.7982701521 -0.003635439844
-0.01829334259 -0.009402117729 -0.0301834116 0.9650581213 0.2616075419 0.01497720218
-0.009687428474 0.01814147758 -0.0209415884 0.4709475926 -0.8820078596 -0.01644690308
-0.0123987627 0.01640675774 -0.02094584274 0.6019131821 -0.7984297222 -0.01450861327
0.01298800945 0.04104014206 -0.04468047714 -0.4945799588 0.008613297549 -0.8690894519
-0.0150411822 0.01398596382 -0.02120530277 0.7327551584 -0.6803516312 -0.01383964583
-0.01728435249 0.01116038589 -0.02116222916 0.8348421107 -0.5500814363 -0.02119112239
-0.005545533725 0.01976884297 -0.02598940332 0.2741181885 -0.9613959313 -0.02402253066
0.00998790741 0.01800053914 -0.03587737274 0.5112976449 0.7966184571 0.3224496118
-0.0007511400491 0.05890746002 -0.07759370117 0.1555481763 0.1827553242 0.9707755952
-0.009668683052 0.03455269241 -0.04244891421 -0.4451387788 0.0172727953 0.8952949895
-0.01999292336 0.004775198078 -0.02615060081 0.9798263078 -0.1985161547 -0.02305955079
-0.01986672688 -0.005413086653 -0.03096284866 0.973453641 0.22794752 0.02068663829
0.01638003731 0.05554116058 -0.05614940643 0.9938628018 -0.0552969477 0.09580698708
-0.01793399811 -0.01006468805 -0.03596374385 0.9337525864 0.357551351 0.01622155658
-0.009644541105 0.01816940562 -0.0258941234 0.4375192275 -0.8991657482 0.00882512617
-0.006004756106 0.0300869982 -0.04097054333 -0.3274327185 0.01595826788 0.9447397253
-0.01746786118 0.01086715641 -0.02597275772 0.8314234025 -0.5552899404 -0.01970299129
-0.01880370483 0.008349466133 -0.02589767113 0.9328422919 -0.3597347886 0.01990327564
-0.02050305094 0.0001339570199 -0.0311480544 0.9997247079 -0.007526367337 -0.02222301009
0.003942709732 0.02014176598 -0.03588110275 -0.1056553021 -0.9163182369 -0.3862613699
-0.02010194016 0.01223054409 -0.06354878616 0.9980360075 0.02785263146 0.05611023596
0.01258224201 0.04942137527 -0.04435153389 0.5323239496 0.02229814343 0.8462470121
-0.001192761962 0.02053085213 -0.03124246292 0.1745436799 -0.9752701515 -0.135582578
0.01536157036 0.01567185783 -0.04480821609 0.5456058696 0.1554490121 0.8234985365
0.004127719828 0.05484966932 -0.04051074001 0.1840886589 0.1310695999 0.9741314725
0.009294740796 0.01941182947 -0.0414383688 0.607034825 0.2936396238 0.7384338105
-0.01897274971 0.02232501793 -0.06858946228 0.9657206414 -0.001107122455 0.2595812339
-0.005910297811 0.01966862822 -0.03104970407 0.2681866701 -0.9620509959 -0.05033677793
-0.01889180517 0.008142774463 -0.0303966732 0.9316542727 -0.3630303263 0.01514259842
-0.02055061388 0.0008329659589 -0.03598104572 0.9957814285 -0.09175405815 0.0007345193978
-0.0198164746 0.005411316991 -0.03152205308 0.9462291781 -0.3227495925 -0.02197823871
-0.02053323317 0.02052974844 -0.0606737318 0.9999344678 0.002831277079 -0.01109252176
-0.01760050011 -0.01065170288 -0.04073038101 0.933403878 0.3580399607 0.0237610418
0.01374415064 0.05914578724 -0.07071173859 0.8292886449 -0.1753156955 -0.5306079064
0.01231777191 0.01837262917 -0.04342883301 0.6258170065 0.4061372345 0.6658870934
0.004544518411 0.0204861393 -0.03991864204 -0.4434851865 -0.6294723375 -0.6380324959
-0.0008320500441 0.02054981852 -0.03598208618 0.1244231777 -0.9600776791 -0.2505388651
-0.009600815296 0.01819775343 -0.03093447256 0.4658680351 -0.8846134728 0.02063922575
0.01604294232 0.05039814322 -0.06616608156 0.90838176 -0.03382573844 -0.4167713972
-0.01505461417 0.01398161867 -0.03117757013 0.754341116 -0.6562688113 0.01675494033
-0.01740837622 0.01097106719 -0.03057083702 0.8254100202 -0.5644227272 0.01119301947
-0.01992439995 -0.004858713579 -0.04121071854 0.9688330893 0.2475836312 0.008049268013
-0.0083098526 0.05531802368 -0.07553637695 -0.3700117219 -0.1673111219 -0.9138371376
-0.009889379501 0.02993983332 -0.04256408437 -0.4474671295 -0.003946630968 0.8942916706
0.01200830936 0.02084033394 -0.04386703873 0.5872449403 0.2827241528 0.7584262875
0.01347357368 0.02389696121 -0.04505598068 -0.5253807136 -0.06584009628 -0.8483160894
0.01902251244 0.06060000229 -0.0660923996 0.8982715346 -0.3292920418 -0.2909896926
0.008765604496 0.02509195646 -0.04202649434 0.4346733165 0.1982585 0.8784945504
0.004254050698 0.02465692166 -0.04052879225 0.2021652237 0.3752376755 0.9046136795
-0.001193915032 0.02100381184 -0.03964829159 0.1718679967 -0.7965288654 -0.5796577941
-0.009553294341 0.01822393227 -0.03608287303 0.4595988107 -0.8377199602 -0.2949477944
-0.01209279423 0.01663506279 -0.03588653336 0.6235662776 -0.7713370775 -0.1272957589
-0.01743057442 0.01093827279 -0.03570399666 0.823780289 -0.566618443 -0.01815421496
-0.02056183853 0.0004548065662 -0.04082661667 0.9962391408 -0.08635700954 0.007073977638
0.009639981031 0.02926545477 -0.0424624815 -0.4392558124 -0.0270636049 -0.897954282
0.01585928059 0.05306212616 -0.04747697067 0.8449600381 0.07596410752 0.5294072047
-0.01506155698 0.01397942193 -0.03630469131 0.7581160938 -0.6459303057 -0.08963274245
0.01253856564 0.03104134369 -0.04429504013 -0.4736215563 0.01530514243 -0.8805954656
-0.005720786863 0.04005370628 -0.0408898023 -0.2573198678 0.003009060282 0.9663215982
0.004108297745 0.03505995814 -0.04047948583 0.1787127075 -0.01418766733 0.983799003
-0.0008988843625 0.02970279264 -0.04009324551 -0.1053674783 0.01139765282 0.9943680345
-0.005646697362 0.02486323187 -0.04085811361 -0.2776599695 0.3493874799 0.8948929155
-0.01009101158 0.01918516159 -0.04186546199 -0.518497111 0.5916396733 0.6173517983
-0.01228286552 0.01664148378 -0.04056159496 0.7143562207 -0.6106653749 -0.3417352628
-0.01502857065 0.01437445297 -0.0415177887 0.7700259275 -0.5793032915 -0.2673345608
-0.01748590231 0.01093879914 -0.04088865757 0.854082182 -0.4905123037 -0.1730355636
-0.0186636591 0.008818439484 -0.04150609016 0.936438487 -0.3386524923 -0.091637599
0.009336037636 0.0398585612 -0.04228476842 0.4577687987 -0.005034521692 0.8890570176
-0.0004995140773 0.04978652477 -0.04008274269 -0.09426131747 0.007256010323 0.9955210467
0.004238325695 0.04004660288 -0.04051992226 0.2169834898 -0.02675246711 0.975808624
-0.009758145605 0.02476673181 -0.0424993466 -0.4822217866 0.1965829925 0.8537079568
-0.005609667063 0.05921613884 -0.04104818249 0.2539471261 -0.1987194814 -0.9465840823
-0.01746853924 0.01199077606 -0.04445819855 0.8776936314 -0.4194487854 -0.2317684314
-0.02031616259 6.405693293e-05 -0.05159409332 0.989981692 0.1177505954 0.07791692251
-0.01222105535 0.02483663813 -0.04404051844 -0.6221632753 0.1128252474 0.7747149943
-0.01772952461 -0.006377866268 -0.05535058212 0.9435953802 0.2917310911 0.1565909609
0.01486615562 0.04369861984 -0.04638982391 -0.5959658892 -0.01831865636 -0.8028007759
0.004328572273 0.04499104246 -0.04052901268 0.1376493329 0.001560272115 0.9904797962
-0.005617824888 0.03515680504 -0.04086668091 -0.2569401242 -0.0241749702 0.9661249109
-0.01225922894 0.0204231143 -0.04392961597 0.7286524908 -0.2979399247 -0.616682535
0.009533332189 0.04974699783 -0.04239651362 0.49539944 0.01034061736 0.8686037454
-0.01509965191 0.01988989925 -0.0465596817 0.7755326802 -0.1934609629 -0.6009342041
0.004437966625 0.04985683632 -0.04057391294 0.1992746117 0.01213291115 0.9798685736
0.0169665699 0.06060000229 -0.05202266693 0.9685861603 0.06694747068 0.2394971529
-0.01463574494 0.02484046152 -0.0462018581 0.7347926329 -0.04446234846 -0.6768329825
-0.02048945351 0.009564801407 -0.05564900436 0.9977437544 -0.02956114745 -0.06027884473
-0.01885442686 0.01472810578 -0.05088469076 0.9465854671 -0.1636187413 -0.2778576271
0.008947453618 0.05463024998 -0.04214841938 0.4154906165 0.105212869 0.9034920032
-0.02050579707 0.005168189526 -0.05539793396 0.9966536497 0.06580034217 0.04849554159
0.004113835851 0.05953458977 -0.04093465678 0.1869341573 0.2362850945 0.9535328914
0.009036269069 0.05941814041 -0.04222524643 0.3377388233 0.2071435896 0.9181633953
-0.009808466503 0.03957811301 -0.04253141294 -0.4525794941 0.01933429614 0.8915144342
-0.01212655697 0.03489527588 -0.04398304825 -0.6023512934 0.005888724146 0.7982093975
-0.000832286558 0.05475357383 -0.04007705797 -0.007249642649 0.1965639807 0.9804641983
-0.01740906715 0.01995213572 -0.0495602862 0.8644558595 -0.118941698 -0.4884351947
-0.00547891593 0.04976322005 -0.04082550346 -0.2589448594 0.00639840508 0.9658709128
-0.009786747694 0.04467604733 -0.04253537416 -0.4437118156 -0.000499399557 0.8961693898
-0.01226069522 0.04522517681 -0.04410249043 -0.5988232364 -0.02081743405 0.8006106207
-0.01724170418 0.02438344193 -0.04937521973 0.8339002825 -0.07147300242 -0.5472676939
-0.01873723412 0.01982504145 -0.05201032829 0.9365640344 -0.05247126303 -0.3465466433
-0.02023564339 0.01469767284 -0.05603332806 0.9865393346 -0.0835651605 -0.1405596144
0.015105443 0.05989740372 -0.05041018677 0.8833173667 0.2202227613 0.4138264916
-0.0007828950882 0.05956108729 -0.04079168998 0.006964957817 -0.2979073037 -0.9545693939
-0.005755766912 0.05471206388 -0.04091742741 -0.265040049 0.09770280506 0.9592746918
-0.02031831487 0.009450686455 -0.06080693563 0.9983307659 0.02513540926 0.05199897206
-0.01484473437 0.03987285683 -0.04643007313 0.7334352073 9.473540536e-05 -0.6797593602
-0.01736465569 0.02960046387 -0.04956637039 0.8283710757 -0.01595412269 -0.559952522
-0.01866865587 0.0251668992 -0.05198071098 0.9271258884 -0.01227675917 -0.3745488863
-0.01997885323 0.01997637304 -0.05583539772 0.9839704965 0.01351990548 -0.177818093
0.01751529884 0.06060000229 -0.05577786636 0.9749848772 -0.1651289555 0.1487848019
0.0162789917 0.05889782842 -0.05565605164 0.9845421712 -0.1094153971 0.1367661651
-0.0009463255852 0.06060000229 -0.07880986786 -0.1421436504 -0.2535259798 -0.9568279679
0.01702503395 0.05152563286 -0.06164214134 0.9914062383 -0.08892350276 -0.09594936804
-0.01724456902 0.03490872879 -0.04938690262 0.8283779437 0.01212186554 -0.5600384297
-0.01991965049 0.02473566137 -0.05566731698 0.9760591672 0.001505385547 -0.2174999675
-0.02053128891 0.01540920105 -0.0605014328 0.996653377 -0.01702639961 -0.07995090913
-0.005757460833 0.06060000229 -0.0796424408 -0.3758648705 -0.166318441 -0.9116269935
-0.009837319016 0.05523774481 -0.04256920719 -0.4393489907 0.09248409483 0.8935430357
-0.01484947157 0.04517949753 -0.04642666473 0.7353902767 0.01437699151 -0.6774912864
0.01754376945 0.05954802322 -0.06083980713 0.9948729227 -0.09873360765 0.02189845495
-0.01749717045 0.03967660968 -0.04978983625 0.8302346883 -0.001414864688 -0.5574121999
-0.0199942162 0.02997524905 -0.05589249516 0.9607239374 0.003039934334 -0.277489234
-0.02008011723 0.01559760427 -0.06458485794 0.9982806794 -0.02207351942 0.05429958368
0.01604434204 0.05507265377 -0.06625943756 0.9141092036 -0.1838354085 -0.3613985425
0.01381998772 0.04967655775 -0.07052738783 0.8507743671 -0.04013346062 -0.523996452
-0.01988902828 0.04960159629 -0.05554009683 0.9611675109 -0.009328033338 -0.2758079109
-0.01983329105 0.03481498273 -0.05527031072 0.9640097378 0.002620197242 -0.2658540202
-0.009734503746 0.05955136642 -0.04256968994 -0.4224219339 0.158036562 0.8925156328
-0.01242486477 0.05468457317 -0.04423326302 -0.583157156 0.1022364771 0.8059003872
-0.01731521873 0.04435865555 -0.04952431183 0.8326928387 -0.0235615727 -0.5532336655
-0.01989578501 0.05996089427 -0.06524640147 0.9155315278 -0.3584640152 0.1824981408
-0.0205504961 0.02493405962 -0.06085972118 0.9999040714 0.006414517918 -0.01227607584
0.01634123516 0.05963145192 -0.0658924249 0.903350211 -0.2096865532 -0.3741523029
0.0129989028 0.0463737278 -0.07160447693 -0.7008389044 0.03817581228 0.7122972957
-0.01191184537 0.05973331261 -0.04492456245 0.5897323542 -0.221797627 -0.7765446304
-0.005870762253 0.05944697418 -0.07676464691 -0.3758648705 -0.166318441 -0.9116269935
-0.01879581881 0.03995296001 -0.05228401184 0.9225798178 -0.03690794694 -0.3840368254
0.01354036914 0.0547726504 -0.07087704637 0.8310043938 -0.1099428928 -0.5452928185
-0.01736429541 0.04958444977 -0.04960105242 0.8343706805 -0.004220054897 -0.5511875893
-0.02012951565 0.02454811096 -0.06490016937 0.9859068519 -0.02357567231 0.1656256834
0.01169400549 0.04967215347 -0.07300388718 -0.6625693013 -0.02375611343 0.7486237827
0.0112330122 0.04694241333 -0.07342974854 0.6577682122 -0.02102331159 -0.7529269549
0.009160876751 0.04598409526 -0.07493142446 0.5559615489 -0.01330856121 -0.831101461
-0.01497222495 0.05921801949 -0.04680839491 0.6838804505 -0.2623197169 -0.6808053287
-0.01750374413 0.02312254333 -0.07145944977 0.9324991949 0.006822227187 0.3611076137
0.01158411694 0.05599443626 -0.07310160446 -0.6671255869 0.05650973841 0.7427988293
0.009235332171 0.05451424662 -0.07487465074 -0.4755840844 0.03779954824 0.878857766
-0.01877236875 0.05490955098 -0.05224227079 0.9284011542 -0.05471213124 -0.3675294269
0.005020655632 0.04716578484 -0.07686709976 0.3054326388 -0.06342884561 -0.9500987763
-0.02054294332 0.04494562594 -0.06067757734 0.9990766537 0.005916646415 -0.0425538871
-0.01834993172 0.03052179337 -0.06993981934 0.9629229524 0.01239633847 0.2694915925
0.004401779175 0.05032663298 -0.07704132843 0.3003755026 -0.02768503576 -0.9534191608
-0.01999879241 0.05449928331 -0.05604784966 0.9721245781 -0.1058411217 -0.2092163032
-0.01984780121 0.04035927709 -0.06591275279 0.9803882937 0.01175660853 0.1967246188
-0.02017204603 0.04475879415 -0.06457426198 0.991649922 -0.01270211766 0.1283319465
-0.01957912874 0.05947232819 -0.05564961338 0.9530796399 -0.2006134059 -0.2267012601
-0.0003788392842 0.05490539006 -0.07758561925 -0.01367903364 -0.1853621921 -0.9825750566
-0.02050941958 0.05497980935 -0.06094713266 0.9945821257 -0.1015589289 -0.0221851117
-0.01893695259 0.04378380203 -0.06867108917 0.9708892958 -0.01862999546 0.2388030539
-0.01994222755 0.05994159164 -0.06027074356 0.9814581967 -0.1902741666 -0.0231419473
-0.01976814842 0.05510908985 -0.06610614014 0.9574133421 -0.1455813498 0.2493306299
-0.01786585045 0.05115049362 -0.07085154724 0.9191364293 -0.05817144013 0.3896207232
-0.01020444679 0.05998770905 -0.07569037819 -0.4508769949 -0.1449113143 -0.8807443707
-0.01755776787 0.06060000229 -0.06592961884 0.8297864014 -0.4038183 0.3852081369
-0.01601557851 0.06060000229 -0.07081448174 0.750203601 -0.3822197417 0.539539272
-0.01801834679 0.05733205795 -0.07054073334 0.7984438767 -0.26223267 0.541960702
