# .PCD v0.7 - Point Cloud Data file format
VERSION 0.7
FIELDS x y z normal_x normal_y normal_z
SIZE 4 4 4 4 4 4
TYPE F F F F F F
COUNT 1 1 1 1 1 1
WIDTH 536
HEIGHT 1
VIEWPOINT 0 0 0 1 0 0 0
POINTS 536
DATA ascii
0.007426668088 -0.01530701113 -0.009417673111 0.4478045437 -0.8937356639 0.02660176042
-0.01507576656 0.0140365963 -0.01248248434 0.7325868684 -0.6805998864 0.01001374001
0.00641756773 -0.01866816902 0 -0.2704324481 0.8792188105 0.3922251577
0.01011088753 0.01793732643 -0.03703195 0.4029779453 0.8750939995 0.2679911709
-0.0203914113 0.05977698898 -0.0607155447 0.9678706701 -0.2513177541 -0.008108791362
0.01894081116 -0.0001836195588 0 0.9536067697 -0.1010087508 -0.2836042332
0.01811053276 -0.006973960161 0 0.8849689849 -0.2940021588 -0.3610991919
0.01167760902 0.05578799947 -0.072928243 -0.6818508492 0.1258925157 0.7205765012
0.01537938366 -0.008478629017 -0.0009378116727 0.8253962323 -0.5444100861 -0.149461426
-0.008103985548 0.0189099288 -0.03347067356 0.3867336488 -0.9195352196 -0.06994329667
-0.01989522044 0.008089280605 -0.04904992739 0.9742975582 -0.1764280672 -0.1400621475
0.01345881176 0.06060000229 -0.04512301636 -0.5139638807 -0.4240171062 -0.7456880199
-0.000819219768 -0.01700687981 -0.009059216976 -0.07993276048 -0.9952880986 -0.05488492074
0.01879032071 -0.003634599606 0 0.9189738345 -0.1071110926 -0.3794921677
0.01031263542 -0.01476663303 0 -0.5932905965 0.7763157161 0.2129323298
-0.007379332304 -0.01598493552 -0.001008564532 0.3637864171 0.900449166 0.2384339368
0.01392154837 -0.01058058071 -0.0006749821305 0.788295352 -0.6109397435 -0.07309629115
0.01701983929 0.05661254692 -0.06156754494 0.9736314361 -0.2268364084 0.02422953558
0.01136661186 0.0156459774 -0.0006250181258 0.400520177 0.7439841134 0.5348562675
0.01124498885 0.04752714539 -0.07335789708 0.6840593628 0.03798410713 -0.7284366794
-0.000796441859 0.0358924614 -0.04005483704 -0.100139527 0.003513645541 0.9949672002
0.01347653484 0.01532524109 0 -0.002230086117 -0.07481266281 -0.9971951124
0.01341650295 0.0491370163 -0.07113332367 0.7780294114 -0.02547325326 -0.6277111982
0.003282350838 -0.01673161554 -0.009037424326 0.1422835199 -0.9895442771 0.02361193618
0.01189163303 -0.01255988674 -0.0008408917189 0.6890824213 -0.7215606317 -0.06719874627
-0.01213812923 0.06060000229 -0.07536361694 -0.6050189708 -0.5155145849 -0.6067921866
0.01230440903 0.01229868317 0 0.6143472642 0.5937303729 -0.5196745936
0.01540053717 0.01220741399 -4.072677841e-05 0.7117760088 0.5406902274 -0.4483625668
0.00744690752 -0.015867886 -0.001058384287 -0.4992398559 0.7988107364 0.3356500762
-0.01509697008 0.01401544666 -0.03625883484 0.7457390783 -0.6631907729 -0.06364924016
0.01145938905 -0.01257824723 -0.004265305718 0.6852264576 -0.7231123031 -0.08702470223
0.00377565062 -0.01931594849 0 -0.2691311673 0.8784989993 0.3947251234
-0.008520019849 0.05180576028 -0.04192971336 -0.4175663371 -0.001664577293 0.9086449159
0.0112819955 -0.01274053056 -0.01243490655 0.6803115853 -0.7328099042 -0.01287599452
-0.020057621 0.0008253684044 -0.0556879425 0.9750041288 0.1864296086 0.1208757623
-0.01854169655 -0.008969635963 -0.02673372269 0.9513854709 0.3074545776 0.01836759174
0.01484988308 0.06060000229 -0.04901990128 0.9076148295 0.1507984482 0.3917845701
0.0170925684 -0.0002554254085 -0.01256463432 0.9989592212 -0.04541028142 -0.004287269718
-0.01992284355 0.01173124809 -0.05276172562 0.9761203965 -0.1173065337 -0.1828336642
0.01639677544 -0.004649799204 -0.001113872963 0.9243763147 -0.3203021494 -0.2072075334
0.003658343613 -0.01694147301 -0.0007106179893 -0.1725853646 0.9168160852 0.3600868754
0.01700848293 0.0006087918878 -0.001522668194 0.9855665906 -0.02872084853 -0.1668340745
-0.02017705027 0.003793624798 -0.03677385203 0.9774239468 -0.2109351022 -0.01219880483
-0.0003661708236 -0.01949211407 0 0.006999057274 0.9441538794 0.3294305166
0.01908836047 0.003231274525 0 0.9748521772 0.04978265176 -0.2172209018
0.01484841652 -0.008355514431 -0.005205684042 0.8357796332 -0.5377122934 -0.1110760741
-0.0005515239239 0.05215430679 -0.07761207581 -0.03606313765 -0.01649290029 -0.9992134078
0.01364116764 -0.01028438377 -0.004211212754 0.7801445938 -0.6188585747 -0.09158863091
0.007670116697 -0.01518080235 -0.005198115383 0.5454091825 -0.8206315008 -0.1705660094
-0.00894436121 0.01964073124 -0.0412142128 0.5720714582 -0.6728862648 -0.4689971443
-0.01914628029 0.05917670631 -0.05314590454 0.889666618 -0.2333992973 -0.3924513688
-0.0006340942323 -0.01719998627 -0.001225923747 0.02041558389 0.9782252936 0.2065392914
-0.02053841972 0.04767864227 -0.06124877548 0.9992561023 -0.03671008248 0.01181574516
-0.007764865637 -0.01518292713 -0.005603660107 0.3002804277 0.9281253544 0.2200340684
-0.004457320452 -0.01966732693 0 -0.1329329034 -0.9085174664 -0.396137421
0.01043885708 0.05103268433 -0.04289087677 0.4867348535 0.01749285815 0.8733745945
-0.0009311216064 -0.01700075102 -0.01288958693 -0.03098145251 -0.9994944189 -0.007145354971
0.007396197796 -0.015325068 -0.01332482258 0.4492010061 -0.8931171452 0.02366898778
0.01165705967 0.05602292633 -0.04366212273 0.5840142937 0.1378557718 0.7999519304
-0.0009146805435 0.0239445015 -0.04007302399 -0.09764233489 0.2221888652 0.9701020991
0.01874773026 0.00740863061 0 0.9486678281 0.2314563811 -0.2155395451
0.007631728172 0.05968006744 -0.07612723083 0.4328267083 -0.1548364325 -0.8880803566
0.01523063087 0.007722250938 -0.005649287939 0.8806445046 0.4263927877 -0.2065295309
-0.02013598283 0.003978051901 -0.02848830541 0.9857374692 -0.1671919896 0.01919584339
0.01708293819 -0.0003464860767 -0.008716160297 0.987937699 -0.1506560811 -0.03580290773
0.003168586397 -0.01674606972 -0.004753860188 0.1143431547 -0.9650296168 -0.2358887061
-0.004411803047 0.02003529485 -0.0088422966 0.2320242762 -0.9725474726 -0.01778057139
0.016753829 0.004019276738 -0.0006844829917 0.9440897532 0.08052562447 -0.31970324
0.01653322029 -0.003962026187 -0.004872448615 0.950247939 -0.2239279476 -0.2165297412
-0.004272654136 -0.01723076248 -0.0004800132116 0.004319205617 0.9215853384 0.3881517855
-0.0122145853 -0.01539225101 -3.303381801e-05 0.4929070063 0.8161531707 0.3015571009
0.01648883756 -0.004150792559 -0.009025028467 0.9670237033 -0.2545244288 -0.009081434043
0.003099124908 0.02030563609 -0.005019184589 -0.105051471 -0.9766307748 -0.1875007151
0.01598717761 0.007377328515 -0.001010691375 0.9000876755 0.4127659409 -0.1395222361
0.01703213946 0.0003185178737 -0.00483897694 0.990046036 -0.01163856018 -0.1402618642
-0.01923012257 0.008233062387 -0.04471452522 0.947211948 -0.3028267404 -0.1052876573
-0.01284468238 0.0160274059 -0.0242508901 0.6385533345 -0.7693181409 0.01998091622
-0.004542684896 0.05541486631 -0.04057300023 -0.1931858151 0.1646832235 0.967242822
-0.004340849161 -0.01653272247 -0.004193861008 -0.1063535912 -0.9554912538 -0.275182444
0.01365116549 -0.01027379513 -0.008063978434 0.850829273 -0.5247056754 -0.02781190942
-0.008209124279 0.01885884972 -0.01309107399 0.3745007062 -0.9272135052 0.004933232222
-0.0007086339444 -0.01701293659 -0.005273942113 -0.07428901472 -0.9843924815 -0.1595386621
-0.002158586264 0.06060000229 -0.07901515961 -0.08013537006 -0.4817172977 -0.8726550106
-0.01862973404 -0.008771792412 -0.02455631065 0.9507833452 0.3094776427 0.01531728482
0.01145790529 -0.0125836304 -0.008121245623 0.6820474093 -0.7301959515 -0.04031381723
-0.008875202179 -0.01829083443 0 0.5561481591 0.7518505777 0.354146769
-0.004523704648 0.01968678021 -0.001031805459 -0.2087539277 0.9441958527 0.254786164
-0.01686976687 0.01169821739 -0.009025902033 0.8144866861 -0.5799531999 -0.01630104675
0.01980302238 0.005558454514 -0.004256212234 0.9625866729 0.1573776953 -0.2205882094
0.007108892918 0.01931149578 -0.004891104817 0.3085482435 0.9306579251 0.1966565735
-0.009137241364 0.01671724644 -0.0007332626939 -0.4113329765 0.8423001176 0.3483327351
0.01658076525 0.003800350606 -0.005438422263 0.9820989261 0.08228613837 -0.1694422932
-0.008583471179 0.03981462288 -0.04194119978 -0.4715982195 -0.01638167032 0.8816613637
0.01494814181 -0.00818579638 -0.009616027355 0.8626152706 -0.5054823768 0.01955662924
-0.005576659203 -0.019782444 -0.00423708868 -0.1817461884 -0.9476860998 -0.262410707
0.007722020149 0.01909313583 -0.01291542673 -0.2553021444 -0.9668525588 0.004116385873
-0.01914348316 -0.007481551647 -0.008941241264 0.976324929 0.2162284144 0.005908116817
0.01366374524 -0.01026027616 -0.01294857566 0.863237058 -0.5044358345 0.0191381979
0.01500162292 -0.008112455845 -0.02150543308 0.853419515 -0.5210978404 0.01149661915
-0.01889605713 -0.008133886337 -0.01712481594 0.9703779133 0.2410675601 0.01591027718
-0.02015470028 0.003208399773 -0.05735956001 0.9812702312 0.1415937816 0.130613684
-0.01295115121 -0.01233888531 0 0.3521607697 0.3760552976 -0.8570677951
0.01667874765 0.003303074718 -0.009572377205 0.9937027241 0.09733729728 -0.05550087174
0.003216755748 -0.01674782753 -0.01291354585 0.1342071632 -0.9906656101 0.02387647852
-0.005141007066 0.01990364504 -0.01675039029 0.2924096247 -0.9562885192 -0.002979825752
-0.0008248692639 0.04795256119 -0.040082061 0.01465290197 0.01082594914 0.9998340319
0.007346440156 0.05627080218 -0.07595103963 -0.4731842128 0.1930032012 0.8595617867
0.0165039142 -0.00409079361 -0.01290499496 0.9740821581 -0.22593894 0.01074916625
0.003050267299 0.06006473668 -0.04087346268 -0.1510265336 -0.3865982665 -0.9097982009
0.0149657464 -0.008161654472 -0.0135297122 0.8624929992 -0.5054228279 0.02556543225
-0.004554264545 -0.01646703847 -0.008835374673 -0.1467475244 -0.9764780546 -0.157973963
-0.0006421789303 -0.01701974042 -0.01632834975 0.02813004818 0.9993604676 0.02207614302
-0.01609084447 -0.01189172872 -4.638052483e-05 0.7645483653 0.4649367313 -0.4464298746
-0.01691799859 0.03233401871 -0.04895871353 0.8020836133 0.01205622845 -0.5970900474
0.002738553494 0.04780041409 -0.0402315073 -0.1349168374 0.001555019155 -0.9908557054
0.01145318095 -0.01259644794 -0.01664012082 0.6815661348 -0.7316865734 0.01011742182
-0.01645178191 -0.008529853185 0 0.8055039887 0.3609206289 -0.4699995997
0.008077950478 0.01720603371 0 0.3960262344 0.8302938329 0.3921420313
0.01516219044 0.007884746075 -0.008392771721 0.7502972148 0.6134807501 -0.2463644835
-0.004152816693 0.05255830383 -0.07710068258 -0.1239292305 -0.004963784175 -0.9922786437
0.01675622431 0.002975865444 -0.01301877594 0.9969651931 0.07701801932 0.01134144492
0.01651785914 -0.004028802713 -0.01683159685 0.9673880176 -0.2530242562 -0.01179614825
-0.004625486565 0.03567506485 -0.04056637802 -0.1785804075 0.01368974341 0.9838300814
0.01498357129 -0.008137210965 -0.01749233437 0.8599590969 -0.510111958 0.01600443527
-0.01843113708 0.009174506187 -0.004920648813 0.9028124136 -0.4138856324 -0.1167408634
0.003635255599 0.0559582283 -0.04038957138 0.145716155 0.2026770472 0.9683433362
0.01367650795 -0.01024656057 -0.01790432835 0.848577692 -0.5289128494 0.01292665133
0.007365145922 -0.0153431433 -0.01728051011 0.4491402373 -0.8934462124 0.005187750223
0.01368426228 -0.01023822594 -0.02091552353 0.8257522616 -0.5634553711 -0.02551954691
-0.01847090912 0.0546097374 -0.05160152817 0.8911598031 -0.03554382391 -0.4522950827
0.003149485648 -0.01676332331 -0.01683665252 -0.2105284972 0.9775427315 0.009378691383
-0.007954291344 -0.01508430195 -0.008317334175 0.4241971627 0.8875903562 0.1795553586
-0.008653309663 0.04768595759 -0.04197918574 -0.4396435055 0.01826786089 0.8979865663
-0.0160178299 -0.01286872196 -0.003060992718 0.7687039067 0.5393349669 -0.3438198616
0.002620244741 0.02041096783 -0.03304090309 -0.120712952 -0.9901147424 -0.07142254604
-0.01033047009 0.01781934834 -0.02869157982 0.508486339 -0.8609403227 0.01494669815
0.006459622542 0.01905566661 -0.0006692230056 0.2909880788 0.9136086487 0.2839809412
-0.004899426818 0.01996490479 -0.02870222616 0.2779849587 -0.9605826529 -0.0023086002
0.003605708265 0.05195144577 -0.07724371796 -0.1785676303 0.02834863375 0.9835191693
0.004643260002 0.0173417263 0 0.1729966878 0.8845546391 0.4331688314
0.01709543419 -0.0001569036543 -0.01645344305 0.9991831552 -0.03875332508 -0.01145435293
-0.02029027653 0.003268347085 -0.0205376358 0.9782047238 -0.207637038 -0.001542310433
0.01145125675 -0.01260169109 -0.02064989312 0.6853681541 -0.7280008191 0.01689084959
-0.02000769157 0.003750457859 -0.001138731503 0.9622774862 -0.1537366042 -0.2244707022
-0.004727379799 -0.01641341591 -0.0125906992 0.1357397162 0.9888150287 -0.06180265758
-0.01786664391 -0.005166875362 0 0.9105986652 0.2337555474 -0.3408348793
-0.01706281144 0.02432994679 -0.04916542762 0.8070984131 -0.005338413736 -0.5903927955
-0.01937927246 -0.006853863716 -0.001013287026 0.9315955621 0.2946185657 -0.2129075138
-0.0159023358 0.0151717488 -0.04517032305 0.7974048243 -0.4374970633 -0.4156222633
-0.02022830343 0.05154601669 -0.05700151634 0.9854657673 0.02077825599 -0.1685985931
0.003058392823 0.0193318367 -0.0004361023605 0.1082726031 0.9108240673 0.3983422671
0.01693846703 0.002175805092 -0.01614805603 0.9991831552 -0.03875332508 -0.01145435293
-0.01287322776 0.0159937741 -0.0126237731 0.6391987962 -0.7690227005 0.005383786924
0.0164487648 -0.004341162825 -0.02049080582 0.9614197408 -0.2732163844 -0.03201389352
0.007333699544 -0.01536144813 -0.02128646564 0.463304061 -0.8861893155 -0.0042242324
0.01669901848 0.05939648819 -0.05712440109 0.9928538348 -0.08956985734 0.07885748765
-0.01801834679 0.05733205795 -0.07054073334 0.8031101494 -0.2249452267 0.5517370143
0.003410564582 -0.0167214578 -0.02028041458 -0.2298855718 0.9721550542 0.04546619072
-0.02016900635 -0.003856394172 -0.02882621384 0.9825212132 0.1861451919 -0.001425849673
-0.01854613018 0.008964742661 -0.02508026028 0.8949558352 -0.4461540114 0.000806884502
-0.01799772263 -0.001771461248 0 0.9254497853 0.09560794776 -0.3666085312
-0.01977771441 -0.003486040831 -0.0005801540216 0.9426554416 0.128849201 -0.307893816
0.01704127359 0.05247034264 -0.06100438118 0.9948465743 -0.08932556191 0.04797121732
-6.764541194e-05 0.0200845267 -0.0009885639598 -0.03763779835 0.9001409963 0.4339695645
0.00361389643 0.04838726711 -0.07726385307 -0.2652413335 -0.007766897482 0.9641507716
-0.002098931074 0.01760972977 0 -0.0614244485 0.8843008848 0.4628595707
0.01486615562 0.04369861984 -0.04638982391 -0.6041906161 0.002125537391 -0.7968369855
-0.0195315361 0.02064824677 -0.06708039093 0.9657442566 -0.008833163611 0.2593453413
0.013692101 -0.01022980213 -0.0239591608 0.8037502949 -0.5938484746 -0.03646166031
0.01169711933 -0.0123906496 -0.02425039825 0.6885619718 -0.7246864507 -0.02668256227
-0.01793342209 0.003497159123 0 0.9296842227 -0.1538629835 -0.3346840725
-0.02050120258 0.01154541588 -0.06032534599 0.998607339 0.04101553002 0.0331829586
-0.01814474201 -0.009671969414 -0.03248496914 0.9424103585 0.3341258648 0.01492054578
-0.02006875197 4.99893936e-05 -0.001006257119 0.9481708974 -0.01771350531 -0.3172667349
-0.01038958073 0.01777904701 -0.02073849869 0.5099032648 -0.8602228586 -0.003910760926
0.006746152878 0.02011346817 -0.04100712776 0.3369901554 0.6452789186 0.6856039326
-0.01926227856 -0.007165308952 -0.004946968675 0.943704589 0.2757286387 -0.1827439917
-0.001409130126 0.02049119568 -0.01663665557 0.1150623323 -0.9933316504 -0.007272695453
-0.005922346115 0.01722761154 0 -0.2888757095 0.8906624001 0.3511001473
-0.01283503946 0.01603910303 -0.02824202251 0.6381163172 -0.7696702947 0.0203765346
0.01460809994 -0.008834903717 -0.02472455406 0.8479042838 -0.5301157511 -0.005967901291
0.008838275909 -0.01461156559 -0.02472818375 -0.5643621799 0.8250509858 -0.02803927071
-0.004514199924 0.05151938477 -0.04054996719 -0.1780177729 0.0172069976 0.9838768174
-0.0200830698 -0.004299271166 -0.03738775063 0.9644855651 0.263960007 -0.009628570474
-0.01695456139 0.008072701613 -0.0002077389359 0.8501877261 -0.4261905194 -0.3090994526
-0.02017527866 -0.003951676607 -0.004617570043 0.9707567396 0.1840037087 -0.1541881569
0.007386816025 0.01922606087 -0.008845827341 -0.2451195974 -0.9694847803 0.00395520703
-0.01826686859 0.05244746399 -0.05117483521 0.8940372645 -0.004546375525 -0.4479695303
-6.250735124e-05 0.02054966036 -0.00504260842 -0.02902350608 -0.9857423431 -0.1657397632
-0.008326778173 0.01855117416 -0.0007352281511 -0.3774028716 0.8409022615 0.3878794389
-0.0124848218 0.01580202031 -0.001108102482 -0.5654004244 0.7940363929 0.2232231323
-0.01513029337 0.01404150009 -0.04039916611 0.7754801328 -0.5821041937 -0.2445102682
0.01043607044 0.02434729385 -0.0428455162 -0.4126281833 -0.09230923166 -0.9062102339
-0.004629657337 0.03973709651 -0.04058013644 -0.2342942194 0.0187860324 0.9719842096
-0.01327443838 0.01327443838 0 0.6723024556 -0.6760179995 -0.3016770996
-0.01645857298 0.01160779238 -0.00122826273 0.8007933666 -0.5770340425 -0.1605045105
-0.01928355169 0.006993115425 -0.001060896993 0.920277519 -0.3245229074 -0.2185730328
-0.02052366877 -0.0003355349898 -0.005271991611 0.9890205837 -0.008457276062 -0.1475356213
-0.01514894581 0.02380796337 -0.04667017555 0.7735764088 -0.04069604151 -0.6323949493
-0.004705379844 0.06060000229 -0.04367293167 0.224873903 -0.4360910955 -0.871353134
0.002834040672 0.02035016918 -0.008596399069 -0.1064662485 -0.994292774 -0.006842338303
-0.006950867653 0.06060000229 -0.07985346985 -0.2781681602 -0.4225474216 -0.8625984878
-0.02056017113 0.04428539785 -0.06078834661 0.9997921683 0.02020230549 0.002736256709
-0.004495241125 0.02001635424 -0.00507983613 0.2276567871 -0.9632089689 -0.1428316122
-0.01833436584 -0.007860341072 -0.04929514313 0.9413445543 0.30725802 0.1395096385
-0.01506540823 0.01404607821 -0.001343701094 0.7100745469 -0.6664534038 -0.2272311564
-0.02021979809 0.003646206379 -0.005125681043 0.9781042188 -0.1468165431 -0.147502677
-0.01508968925 0.01402270937 -0.02809432983 0.7455873701 -0.6659042535 0.02590364477
-0.0150300951 0.05613399696 -0.04658883476 0.7124859558 -0.1392436286 -0.6877317607
0.01645668774 0.05517266312 -0.06492602997 0.9770749418 -0.1671247642 -0.1318858265
-0.02013221169 -0.004164451361 -0.008500479221 0.9912964983 0.1311126525 -0.01186274546
-0.02025181341 0.01583078408 -0.05634079742 0.9847254631 -0.0657728088 -0.161213213
-0.004728428304 0.02000391197 -0.03698477459 0.1762411006 -0.8916403041 -0.4170331432
-0.008588432884 0.0186712429 -0.004741511679 0.4452463929 -0.8867558248 -0.1241763132
-0.02052864838 -0.0006145495474 -0.01295963073 0.9998159947 0.01916050556 -0.0009229031817
-0.0193376112 0.006969597697 -0.004711126447 0.9403831574 -0.3139333649 -0.1308638977
-0.02052650356 -0.0004736403227 -0.00908787179 0.9987965408 0.02999616834 -0.03880335061
-0.01902282429 -0.007802752256 -0.01299813938 0.9740020115 0.2263479355 0.009310942283
-0.01507240963 0.01403994513 -0.00871801281 0.7342193249 -0.6789115997 -0.001011316837
-0.01282524904 0.01605097882 -0.0322941618 0.6383375586 -0.7697174411 0.00776029233
0.003017831385 0.02032783127 -0.01250502515 -0.1596697713 -0.9867920351 0.02733209786
-0.0194352808 0.006718118548 -0.02096199274 0.9545891982 -0.2978451136 0.006910204773
0.002753977895 0.031603827 -0.04021944141 0.1479222589 0.01645924264 0.9888620221
-0.0006365745962 0.02055593586 -0.009400913715 0.1046144465 -0.9942916936 -0.02097249897
-0.01050276804 0.01770187759 -0.005509521723 0.49023487 -0.8637988798 -0.1162809852
0.009453698158 0.03771900177 -0.04231552887 0.4180375321 -0.0136220182 0.9083276184
-0.02021385956 0.04327645645 -0.05698580399 0.983981138 -0.005252454689 -0.178195207
-0.01289341863 0.01597391478 -0.005141416152 0.6310619149 -0.7709668442 -0.08585443873
-0.01506909847 0.0140432477 -0.005005471945 0.7136763797 -0.6891185606 -0.1256249758
-0.01685416365 0.01171577851 -0.005306571166 0.8091865551 -0.579961462 -0.09413724938
-0.01980007267 -0.003902082682 -0.04907156754 0.9642724935 0.2433446282 0.1046993329
-0.02023592663 0.003552544355 -0.0088977952 0.9866533189 -0.1627432581 -0.005464456841
-0.02008850574 -0.004380389929 -0.01244112158 0.9897480975 0.141265185 0.02104402737
0.007297815959 0.05214762751 -0.04139781698 0.3837110942 -0.01167228496 0.9233794204
0.008103044987 0.01892289543 -0.01709270477 -0.2707197201 -0.9626401814 0.005891887262
-0.01790139151 0.05997701931 -0.05242480659 0.8759615908 -0.2102903527 -0.4341304632
-0.008402682424 0.01876586199 -0.008880301118 0.380160881 -0.9249035629 -0.005577094884
-0.01936150408 0.006912905931 -0.008445863843 0.9547078652 -0.2974836307 0.006031722104
-0.01837399673 -0.009260100365 -0.02902953339 0.948452958 0.3165905396 0.01440196527
-0.01922756195 0.007327382803 -0.03376039696 0.9458091347 -0.3242890109 -0.01678445915
0.009337316513 0.05281987 -0.07486945343 -0.491324914 0.0237392326 0.8706527883
0.003210748762 0.02029951429 -0.01647876954 -0.1639560912 -0.9861712532 0.02417973561
-0.001525224358 0.02047879362 -0.01273738885 0.09932071347 -0.9950547408 -0.001207740629
-0.01047506714 0.01772076321 -0.009236571789 0.4988005518 -0.8664184687 -0.02273865914
-0.01288339345 0.01598377562 -0.008856607993 0.6393917452 -0.768828666 -0.008982124027
-0.01848180008 0.009089120388 -0.01337101507 0.8968048705 -0.4419456593 -0.0206169462
-0.01372341951 0.06060000229 -0.04866362 0.6543700311 -0.3954668827 -0.6445198268
0.007505002022 0.0359200325 -0.04146522141 0.4025787579 -0.02520194734 0.9150383629
-0.01846096802 0.009129398346 -0.009579164505 0.8952643847 -0.4450808877 -0.02011677876
0.009821959496 0.05737371063 -0.04254510498 0.4161386468 0.111120968 0.9024858764
-0.01941391516 0.006781407595 -0.01704593253 0.9498327051 -0.312639282 -0.008632014835
-0.02025228405 0.003457549393 -0.01272358274 0.987527676 -0.1574397954 0.001341629928
-0.020044137 -0.0045995965 -0.01644140816 0.9880893774 0.1522877426 0.02208677575
0.00743234237 0.05205539576 -0.07593942897 -0.4092208046 0.03677445605 0.9116940125
0.008509257793 0.01873346043 -0.0213599968 0.2880122711 0.9575763793 -0.009818828451
0.0182604847 0.06060000229 -0.06087751198 0.934929948 -0.3421097081 0.09416443091
-0.005218674421 0.01988334656 -0.0128832016 0.2882957247 -0.9575201634 -0.006380579962
-0.0007931469977 0.02054840899 -0.03704894638 0.0683979694 -0.8347739467 -0.5463279013
0.003424610376 0.02025492716 -0.02053250694 -0.1793145368 -0.9837137661 0.0123904534
-0.01933084145 0.007001312256 -0.01275226612 0.9479853759 -0.3183085171 -0.001847975265
-0.02052728462 -0.0007614681274 -0.01689252567 0.9991713035 0.03173322513 0.0254893844
-0.01026606274 0.01785756588 -0.03689506721 0.5188551633 -0.8502287385 -0.08888426083
-0.000801369068 0.04036095581 -0.04007398911 -0.02810650647 -0.006736195416 0.9995822367
-0.01874600315 -0.008494826317 -0.02134462643 0.9665145858 0.255677129 0.02188061236
-0.01703139623 0.01157727909 -0.04076804352 0.8384323105 -0.5235240734 -0.1515051329
-0.01044697714 0.01773991489 -0.0130159421 0.5044243761 -0.863406268 -0.009255550048
-0.01688558896 0.01168041007 -0.01279730209 0.8156331309 -0.5785433238 -0.005497112019
-0.02027029657 0.003362720728 -0.01660307503 0.9885064579 -0.1498387159 0.02008337237
-0.02012951565 0.02454811096 -0.06490016937 0.9693761099 0.01872956943 0.2448655976
-0.01744840654 0.01196788009 -0.04448699951 0.8729093648 -0.4343392779 -0.222213034
-0.02047256231 0.0003128524572 -0.04913513279 0.999855618 0.01584471187 0.006139073434
-0.01999908543 -0.004822180748 -0.02050332546 0.9741779199 0.2247902462 0.02113588222
0.008922483921 0.01854075241 -0.02570096874 0.3030584072 0.9529303041 -0.008912763752
0.01419212818 0.05997619438 -0.07225443268 0.688528752 -0.4373827493 -0.5784673615
-0.0205245738 -0.0009120766781 -0.02088599968 0.9989247282 0.04020456887 0.02308636024
0.01478169332 0.05168960244 -0.06899910191 0.8476873256 0.01394095511 -0.5303129715
0.003644299805 0.02020747185 -0.02465258694 -0.1939145626 -0.9809743633 0.009297367038
-0.001292026725 0.02050442743 -0.02059289312 0.1071594531 -0.9941557985 0.01308051375
-0.008298812389 0.01881774664 -0.01747233248 0.3711470767 -0.9284214643 -0.01683544124
0.007508374214 0.04034340668 -0.04146321106 0.3692468466 -0.01303704086 0.9292399054
-0.01507917118 0.01403320026 -0.01630057001 0.7324397539 -0.6807710714 0.009096990997
-0.01041848612 0.01775933933 -0.01684933043 0.510651862 -0.8597675857 -0.005862962872
-0.01286291695 0.01600391563 -0.01644459486 0.638738835 -0.7693985699 0.006208161562
-0.01690161324 0.01166232491 -0.01662248739 0.8143073147 -0.580420786 0.003912592764
-0.01696609275 0.01158517154 -0.03249949932 0.8043174996 -0.5941984691 0.001240632986
-0.01850293159 0.00904826498 -0.0172172842 0.8975024923 -0.4408698703 -0.01109206423
-0.02020068264 -0.003651952803 -0.02466105366 0.9837192081 0.1788379847 0.01770578769
-0.01694965808 0.01160495249 -0.0284402895 0.8088619 -0.5878583986 0.01284250347
-0.0119794693 0.05927843475 -0.07291565323 -0.5511589039 -0.1686074426 -0.8171874894
-0.01919278374 0.05220582962 -0.05328819199 0.9435509962 -0.01142060464 -0.3310303422
0.009258296967 0.01837556267 -0.02902755928 0.3173397544 0.9483117223 0.0005980960342
-0.005062197328 0.01992424011 -0.02067438793 0.285775022 -0.9582418534 0.01025608078
-0.004679527879 0.02429905176 -0.04056734848 -0.2225566502 0.252574725 0.9416339765
0.0002841439545 0.04915183449 -0.07766550446 0.09586685472 -0.0009965848024 -0.9953936673
0.007479017735 0.02692697589 -0.04147946548 0.3893367647 0.02634045727 0.9207187757
0.009620480061 0.01818939877 -0.03242784595 -0.3208613234 -0.9471256619 -0.0009958383926
0.003867514133 0.02015925169 -0.02883862162 -0.2089585138 -0.9778528085 -0.01184163613
-0.01682749585 0.05159730693 -0.04884692001 0.8101637429 -0.009455621343 -0.586127376
-0.001173156366 0.02051785755 -0.02460876226 0.09964712153 -0.9949262281 0.01386549283
-0.008252099037 0.01884112787 -0.02138151789 0.3668721242 -0.9301325581 -0.0160707447
-0.01285399596 0.01601570082 -0.020319019 0.6391236472 -0.7690687775 0.00736064088
-0.01508262587 0.01402975464 -0.02017401695 0.732678918 -0.6805120943 0.009213720164
-0.02059582996 -0.0003132315725 -0.03771632385 0.9999503389 0.003371933741 -0.009378158737
0.006711276054 0.05974133778 -0.04141765499 -0.3280366131 -0.2146499237 -0.9199551026
-0.01591086721 0.06060000229 -0.07210517883 0.6061596314 -0.6153835479 0.5038587007
-0.01691724873 0.01164333789 -0.02050393295 0.8145542517 -0.5800801809 0.002890460612
-0.0185243721 0.009006811619 -0.02111974907 0.8973029367 -0.4413022812 -0.009986809865
-0.02004892159 0.02774431896 -0.06489604187 0.9780128362 -0.004604269453 0.208493868
-0.02019495239 0.003706398153 -0.02467675858 0.9856534765 -0.1680640627 -0.0155465436
-0.02059500504 0.0001250044368 -0.02518851089 0.9983205299 -0.05239328601 -0.02471969099
-0.004982207775 0.01994514322 -0.02465706682 0.2818019456 -0.9593987429 0.01190443129
-0.01936382548 0.006923192501 -0.02483052635 0.9439036614 -0.3300224881 0.01144706583
0.005569395542 0.01980871868 -0.03314585114 -0.2300925802 -0.9710472221 -0.06422380356
-0.001052459987 0.02053149319 -0.02868624783 0.08105386891 -0.9966813517 -0.007520207235
-0.016882339 0.03600041199 -0.04887483788 0.8039098277 -0.008531565197 -0.5946900044
-0.008203712344 0.01886394072 -0.02535006571 0.3906060577 -0.9205536876 -0.002795708825
-0.01896470308 0.008030095577 -0.04076838589 0.9253926777 -0.3789095274 -0.008715625299
0.003255486321 0.05597576141 -0.07730864563 -0.1929766943 0.1232861042 0.9734272094
-0.01036024666 0.01779904747 -0.0246852808 0.5101712188 -0.8599479487 0.0146578664
0.01138950809 0.05960466766 -0.07349442164 0.6882941201 -0.2474676663 -0.6819171199
-0.0150861311 0.01402625799 -0.02410464096 0.7328326392 -0.6799457698 0.02510125715
-0.01693327872 0.0116242334 -0.02444255066 0.8118321786 -0.5837698238 0.01188724611
-0.01921383715 0.03208250332 -0.05327121639 0.9280961345 -0.002804818926 -0.372330093
-0.02059922791 -1.436905097e-05 -0.02929366875 0.9985396985 -0.05359712563 0.006768950219
-0.02012741232 -0.004074861526 -0.03307060862 0.9802833642 0.1974778337 -0.006857913783
-0.008272663991 0.0241968387 -0.04179214287 -0.4620581254 0.1838241299 0.8675891758
-0.01793445206 -0.01006384659 -0.03595633698 0.9383342695 0.3452863005 0.01749769484
-0.01779074669 -0.01033041382 -0.03830224609 0.9351096865 0.3543476494 0.002760008625
0.01536157036 0.01567185783 -0.04480821609 -0.6578353508 -0.4653255141 -0.5922202438
0.01040835667 0.01781120872 -0.04045228958 -0.5524254659 -0.5003561284 -0.6666857202
0.003080538839 0.03595201969 -0.04028164482 0.1352139994 0.01125621073 0.9907524777
0.005837132931 0.01973406124 -0.03751215553 -0.2503693863 -0.9295538526 -0.2706377755
-0.01029981661 0.01783955765 -0.03275989342 0.5066465288 -0.8621400285 0.00488528711
-0.0009285429306 0.02054413223 -0.03282898474 0.05600036947 -0.9977084833 -0.0379702641
-0.02019694233 0.03112164783 -0.06455617523 0.9772523223 -0.01395588855 0.2116202538
-0.008154505968 0.01888701963 -0.02937892103 0.3885020715 -0.9213908299 -0.01025080576
-0.01856750679 0.00892128706 -0.02910163975 0.8923896995 -0.4512569755 0.00278682097
-0.009556602478 0.0593754158 -0.07490483093 -0.500135969 -0.4781283608 -0.7219814978
-0.01920589447 0.00738687396 -0.02965712452 0.9297369757 -0.3674407748 -0.02400902103
-0.02021557283 0.03521806145 -0.05692539501 0.9780955151 -0.006315465279 -0.2080607562
-0.02015519301 0.003885307193 -0.03260014502 0.9869100819 -0.160304335 0.01763548558
-0.02012251186 0.0518520546 -0.06488167953 0.9852111153 0.007817947785 0.1711664045
-0.02059784031 -0.0001622739807 -0.03347094536 0.9988468019 -0.046227199 -0.01296581552
-0.02014222908 0.0319832077 -0.05655628204 0.9751098342 0.005097786105 -0.2216637628
-0.02050528908 0.01159934211 -0.05690109539 0.9972694267 -0.03018541939 -0.06739830089
-0.01760050011 -0.01065170288 -0.04073038101 0.9351092481 0.3543099572 -0.005928604646
-0.01281530619 0.01606303994 -0.03640934881 0.6607715175 -0.7452675347 -0.08920371774
-0.001079688787 0.02090027046 -0.03978850555 -0.1216500599 -0.7339504722 -0.6682199991
0.01216304064 0.01960648155 -0.04364793587 0.6311222624 0.3614031946 0.6863471576
0.009520696163 0.01976473999 -0.04189788628 0.5151433741 0.3558585552 0.7797384131
0.002819511175 0.0203808794 -0.03733092308 -0.129707954 -0.9141289829 -0.3841146305
-0.01287316688 0.01614181932 -0.04050213877 0.6895185555 -0.665083682 -0.2867540019
-0.004813894212 0.01998360968 -0.03281188393 0.2341960213 -0.9709851663 -0.04837386134
0.01595950127 0.05571224976 -0.05460110092 0.9909198195 -0.004318384236 0.1343847567
-0.0150933013 0.01401910591 -0.03214504719 0.7252769495 -0.68844899 -0.003366694092
-0.01858800411 0.008875886917 -0.03318658257 0.8976558763 -0.4406690108 -0.004974999156
-0.020122413 -0.004032366037 -0.04141098277 0.9687541398 0.2477588038 -0.0114451663
0.01347357368 0.02389696121 -0.04505598068 -0.4989698577 -0.03940279551 -0.8657231086
-0.01848444176 0.04269503403 -0.05161309433 0.8987817414 -0.01090498977 -0.4382607244
0.007600033522 0.02363602352 -0.04148651886 0.4323535706 0.2477674324 0.866995784
-0.01497959042 0.0320702467 -0.04649998856 0.7489901212 0.007929542097 -0.6625337129
-0.01828414917 0.04046179199 -0.05119408417 0.8867743218 0.004653013815 -0.4621792419
-0.01989578501 0.05996089427 -0.06524640147 0.8725486939 -0.4268571129 0.2375958374
0.00369007647 0.02395429897 -0.04038524628 0.2914751095 0.1825337714 0.9390014286
0.003255174518 0.02115450573 -0.04027638245 0.3794377343 0.5692503806 0.7293702831
-0.01935909367 -0.006545358896 -0.0445562973 0.9556181879 0.2934174059 0.02645949311
-0.0190437994 0.03651675797 -0.06834032059 0.9715781306 0.007828671226 0.2365896194
-0.02018870401 0.004708771765 -0.0453384285 0.9742225973 -0.219362401 -0.05263523561
-0.01935915184 0.02370784807 -0.05362363815 0.9452452741 -0.01789767924 -0.3258696748
0.01136920738 0.02779808044 -0.04343024445 -0.5070238802 -0.001114358738 -0.8619312868
-0.008313139121 0.01881976954 -0.03718420156 0.4077676135 -0.887102369 -0.2162751955
-0.0004390179496 0.03187589455 -0.04005258179 0.01979913463 0.01139760124 0.9997390104
-0.01698192914 0.01156419261 -0.03662310219 0.8003620697 -0.5982054294 -0.03963359131
-0.01882055664 0.008313908895 -0.03718318558 0.8935358568 -0.4488502617 -0.01127453674
-0.0006412489191 0.05615616608 -0.07762151527 0.1218824626 0.1793873035 0.9761991911
-0.02054600334 0.001050037036 -0.04073473358 0.9982037319 -0.05873479765 0.01181241591
-0.02020139122 -0.00331824851 -0.04518104172 0.980939362 0.188564439 0.04691929709
0.01253856564 0.03104134369 -0.04429504013 -0.5080900877 0.0003996594085 -0.861303839
0.009950046539 0.0310970974 -0.04258068085 0.4121155206 0.01025583009 0.9110738804
0.006782565951 0.03171197844 -0.04119427872 0.3182506758 -0.01369308703 0.9479076995
0.003688355764 0.0281717542 -0.040372317 0.2072358594 0.00439053639 0.9782811568
-0.0004564622283 0.02773229218 -0.04006542282 0.007262842234 0.1075762812 0.9941703048
-0.004816962004 0.02081217804 -0.0403944046 0.4088120276 -0.7464494078 -0.5250580993
-0.02004812908 0.004667244971 -0.04119302464 0.9664145782 -0.2545815283 -0.03508715488
-0.02054140759 0.05202728748 -0.0609317503 0.9999257731 0.001926848237 0.01203060711
-0.02055178308 0.0005480903089 -0.04460411167 0.999671849 0.002465984049 0.02549731825
0.01395476723 0.03408382034 -0.04545058823 -0.5311405276 -0.01176284315 -0.8472020865
-0.01483246756 0.04013622093 -0.04635029793 0.7255722865 0.007994669924 -0.6880995148
0.01077878189 0.03456996918 -0.04306014252 -0.5008467004 0.0007123128003 -0.8655357158
0.01233527374 0.03950195122 -0.04415779686 0.5387084778 0.01149761575 0.8424137824
-0.004677870846 0.02787302017 -0.04057907867 0.2299961326 -0.01316803922 -0.9731024518
0.01023735523 0.04116649246 -0.04275836182 0.4473649192 0.01011180462 0.8942943478
0.003573427588 0.03959779167 -0.04036464691 0.2182396334 -0.001604794219 0.9758938913
-0.004625943343 0.03191266855 -0.0405795447 -0.1818039824 -0.002601759346 0.9833313495
-0.01126216602 0.01890345764 -0.04292955399 0.614656256 -0.5334348153 -0.5810722716
-0.01352877283 0.01680454397 -0.043345644 0.7904777543 -0.4483716166 -0.4172622837
-0.01772952461 -0.006377866268 -0.05535058212 0.9362140512 0.3065230024 0.1718921156
0.01103092861 0.04458541489 -0.04322213745 0.4771228331 0.003191510755 0.8788308235
0.01673457146 0.05673769887 -0.05746936289 0.9923841232 -0.1092717685 0.05686328005
0.007339760462 0.04351513545 -0.04142120234 0.3256656346 0.01606237897 0.9453485571
0.00386196357 0.04387982941 -0.0404121809 0.2437999666 0.01733723615 0.9696705608
-0.0003770099342 0.04399952011 -0.0400699028 0.0275956029 -0.02065740319 0.9994057006
-0.008567994595 0.02798748938 -0.04192914073 -0.4689712378 -0.01844988109 0.8830207132
-0.01834993172 0.03052179337 -0.06993981934 0.9435199811 0.02236144978 0.330560147
-0.01254093635 0.02391202044 -0.04435324049 -0.6589492413 0.06180995132 0.7496435335
-0.0129426055 0.02020195421 -0.04451008479 0.7042244224 -0.2246862209 -0.6734864996
0.01603428268 0.04864877701 -0.06637793732 0.9412150332 -0.01509221822 -0.337470719
-0.02038188934 0.004834032178 -0.04836783028 0.994194704 -0.103148765 -0.03061409364
-0.02020925236 -9.253996611e-05 -0.05286933517 0.9813214012 0.1620584398 0.1036598751
0.01195269012 0.04789261246 -0.04384291077 0.5545491882 0.02335721013 0.8318230813
-0.01493870703 0.01893682226 -0.04616032537 0.7291533912 -0.2971765887 -0.6164587636
0.009673276901 0.04765005493 -0.04244332123 0.444299755 -0.002251212327 0.8958753595
0.006638337731 0.0480687809 -0.04115177822 0.2985206643 -0.001362194243 0.954402199
-0.01247400556 0.02799708939 -0.04428585216 -0.6422313706 0.002350464087 0.7665072354
-0.01926089287 0.05658470993 -0.05347441635 0.946782886 -0.09220698352 -0.308382942
-0.00886166048 0.03173443476 -0.04206584803 -0.471134802 0.02078617551 0.8818162696
-0.01823722363 0.01274370337 -0.04774872971 0.8787382422 -0.3401695215 -0.3348190531
-0.019064013 0.01190249157 -0.04939149857 0.9367110952 -0.2539442523 -0.2410075534
-0.02053509283 0.01608852315 -0.06046768475 0.9994836571 -0.004995246323 -0.03174061597
-0.008988900979 0.04403039805 -0.04213499514 -0.4761740838 -0.01635600294 0.8791989099
0.01462501478 0.04798014832 -0.06931996727 0.8352513773 -0.02947567755 -0.5490777004
-0.02056489182 0.003781769037 -0.05223825836 0.9998411582 -0.01758663666 -0.002892856845
-0.01887361145 -0.002821732759 -0.05670415115 0.943907623 0.277874363 0.1783934909
0.0132117939 0.05095013809 -0.04486015701 -0.5842821698 -0.01450675394 -0.8114209143
-0.008502974113 0.03551085218 -0.04190143649 -0.3814698564 0.02333757503 0.9240866335
-0.02055761909 0.03140052843 -0.06063103867 0.9999058347 -0.01360898198 0.00176558445
-0.01746981494 0.01600682831 -0.04859079997 0.839352625 -0.2422300057 -0.4866331219
-0.02050018644 0.007120975614 -0.05332366085 0.9988974975 -0.03997248018 -0.02461687015
0.01585928059 0.05306212616 -0.04747697067 0.9005624363 0.006487381697 0.4346782859
0.007865540346 0.05561297607 -0.0416241773 0.399043397 0.09076425545 0.9124287464
-0.01498403502 0.04430833817 -0.04651796341 0.7512477529 0.005722125795 -0.6599955083
-0.01689959378 0.05587308078 -0.04896026272 0.8034791113 -0.08128378733 -0.5897578008
0.003020934552 0.0519888134 -0.04028544331 -0.1586485268 0.001389814453 -0.9873341447
-0.004859237274 0.04428319995 -0.04064076233 -0.2343582124 -0.01330885804 0.9720592073
-0.01255825317 0.0318036809 -0.04435464907 -0.6386542988 0.01731859185 0.7692988711
-0.01694290137 0.0199374423 -0.04889568901 0.8155674408 -0.1513887025 -0.5585080216
-0.01867895508 -0.0007728510499 -0.05995789719 0.9444240916 0.2544510232 0.2081293158
-0.0007663415194 0.05181593018 -0.0400602356 -0.1011237212 0.02558551396 0.9945448077
-0.004874674129 0.04792121353 -0.04063246841 -0.1865889292 -0.02515728537 0.9821159211
-0.01260191941 0.03596874332 -0.04441058254 -0.641935492 -0.001207283221 0.7667576975
-0.01897274971 0.02232501793 -0.06858946228 0.9556954212 0.01633321205 0.2939038757
-0.01483756304 0.02774447823 -0.04634957886 0.7474950706 -0.007229758797 -0.6642280106
-0.01840573692 0.03544290352 -0.05143936157 0.891412889 -0.01143876873 -0.4530476972
-0.01924551697 0.01594357529 -0.05252322159 0.9490212174 -0.08669207204 -0.3030564527
-0.02055720615 0.007107758284 -0.05663162231 0.9993245864 0.02473717541 0.02717431249
-0.02024403191 0.005576607227 -0.05903722 0.9870760599 0.1083032247 0.1181154666
0.01087875748 0.06060000229 -0.04435818863 -0.5192474851 -0.3392818259 -0.7843914149
-0.0008006370187 0.0561052887 -0.04008431168 -0.1211484298 0.2014941859 0.9719686986
-0.01679028102 0.02831123461 -0.04876347896 0.8015062621 0.0120292113 -0.5978653777
0.00714684391 0.06060000229 -0.04381573105 -0.3229102521 -0.2795548353 -0.904200234
-7.205770413e-05 0.05970620219 -0.04062098185 0.003060567449 -0.3474090722 -0.9377086805
-0.01266825354 0.04009880686 -0.04444703054 -0.6404767253 -0.0190616302 0.7677409841
-0.01837902451 0.02164601135 -0.05135839081 0.9009470453 -0.01092949168 -0.4337913875
-0.01931085205 0.01930877542 -0.05344247818 0.9513666148 -0.0479394202 -0.3043080287
-0.02009561348 0.007684163332 -0.06107281113 0.9919319454 0.07888972958 0.09923419899
-0.008827906688 0.05945129395 -0.0421149114 0.3163933603 -0.3198915518 -0.8930647438
-0.01914585114 0.004333711624 -0.06294373322 0.9726216426 0.145922298 0.1808696304
0.01614202094 0.05987613487 -0.05302610683 0.9708088916 -0.1080570141 0.2141349519
-0.0200543375 0.03525907898 -0.0650073185 0.9773083746 0.00154937438 0.211815817
-0.0127638983 0.04377824838 -0.04452258083 -0.6413461343 0.0133117279 0.76713619
-0.01512340021 0.0363394165 -0.04665385628 0.7898746062 0.01101640395 -0.6131694263
-0.01254116291 0.04785624356 -0.04436368306 -0.6408110096 0.01565694347 0.7675389958
-0.01857553864 0.02400156403 -0.05176715088 0.8972537072 -0.0004436203955 -0.4415151053
-0.004647548596 0.05966806857 -0.04082648595 0.2178286021 -0.4394705274 -0.8714449814
-0.01833798599 0.02803709602 -0.05128656769 0.8885863172 -0.001904085937 -0.4587054952
-0.01504855537 0.05903185272 -0.04661393356 0.7177435983 -0.186908995 -0.6707526777
-0.007526971579 0.05569660378 -0.07589498138 -0.4387500468 -0.3380541462 -0.8325970158
-0.01914753437 0.02778465414 -0.05308616924 0.9031999511 -0.001478549611 -0.4292174999
0.01882984734 0.06060000229 -0.06477390289 0.9050629653 -0.4176930096 -0.07995985598
-0.02054778671 0.05631543477 -0.06063086573 0.9829179381 -0.1829193866 0.02031809648
-0.02024660492 0.02046419411 -0.05708587875 0.9885695322 -0.0005869482123 -0.1507645037
-0.02006830025 0.01105736923 -0.06326459122 0.9895532862 0.07069569132 0.1256439929
0.017699543 0.06060000229 -0.05703873062 0.9605489046 -0.2181564508 0.172492217
0.01648631668 0.05124840069 -0.06490067387 0.945348752 0.001022788933 -0.3260593365
-0.01513726234 0.04842891502 -0.04669050026 0.7657903388 0.007191457495 -0.6430501068
-0.001290364146 0.06060000229 -0.04300511551 0.08947602828 -0.3894112305 -0.91670766
-0.00853418239 0.05600514348 -0.0419326388 0.3940515435 -0.1536452841 -0.9061547924
-0.0168268889 0.03960441317 -0.04883300018 0.8050763612 -0.01311363465 -0.5930262096
-0.02027312088 0.04380374908 -0.06407282257 0.9949412357 -0.03329243457 0.09478159828
-0.01853587532 0.03034995461 -0.05169807053 0.8985336994 -0.002596941531 -0.4388968523
-0.02021348763 0.02457309437 -0.05684724712 0.9763351892 0.0005734485071 -0.2162620387
-0.02024243164 0.04776716995 -0.05717012863 0.9824542768 0.02659663077 -0.1845974358
0.01705655479 0.05951470375 -0.06072649193 0.9742738621 -0.1867453717 0.1261610391
-0.01274979496 0.0520772171 -0.04451527882 -0.6376692992 -0.01712285847 0.7701199079
0.01058195114 0.04542297745 -0.07403051758 0.6630470091 0.009625663341 -0.7485158718
-0.01688496982 0.04402707248 -0.0489247818 0.8059856731 0.009989022432 -0.5918507534
-0.02012483883 0.02824808073 -0.05649492455 0.9749140981 0.002725673586 -0.2225647593
-0.02054145559 0.02017065303 -0.06130672073 0.9967054177 0.006254338769 0.08086528062
-0.01921442986 0.04297078514 -0.06790552139 0.979846006 0.004218306063 0.1997098157
-0.02008011723 0.01559760427 -0.06458485794 0.9836281096 0.01104797086 0.1798712995
-0.01058664989 0.05686952591 -0.04298577118 -0.5009459064 0.2182864804 0.8374987829
-0.01270811951 0.05591043997 -0.0444809165 -0.6385159295 0.1197508493 0.7602349254
-0.01928807116 0.03633222103 -0.05345316792 0.9326510563 0.00508595257 -0.3607438707
-0.02053586149 0.03561903954 -0.06091349983 0.9997119583 -0.01877869248 0.01494527465
-0.02055931854 0.02385176373 -0.06050849152 0.9999665498 0.006724003099 -0.004656941485
0.01646532011 0.05943209648 -0.06495849323 0.8900947053 -0.4295270717 -0.1524398577
-0.009201742649 0.06060000229 -0.0445711441 0.4677259561 -0.4945840872 -0.7325428388
-0.0161202898 0.06060000229 -0.06952378464 0.6822541777 -0.5653160838 0.4636237293
-0.01291940825 0.05953507124 -0.04480679812 -0.6356907323 0.1870349967 0.7489427233
-0.0148663311 0.05209913635 -0.04640509605 0.7205313131 -0.0007109863522 -0.693422037
-0.01687011607 0.04811590068 -0.04887028503 0.8062029839 0.01089434602 -0.5915387239
-0.01922368393 0.04018312454 -0.05334187317 0.9470988873 0.01662512918 -0.3205110024
-0.02055506134 0.02674836858 -0.06103980509 0.9989673778 -0.01752300089 0.04191804471
-0.02012435722 0.02011929512 -0.06471055412 0.9821980632 0.005044789476 0.1877804964
0.01921517754 0.06060000229 -0.0674108963 0.8826117533 -0.3961028187 -0.2531779019
0.01482851274 0.05605984061 -0.06895183781 0.8557685999 -0.1266326795 -0.5016216383
0.01548538081 0.05999584961 -0.06928350449 0.7637611078 -0.3705112665 -0.5285739036
0.01152132211 0.05146386174 -0.07310968236 -0.6834249799 -0.03088720301 0.7293670389
-0.01837198353 0.04760515022 -0.05138638687 0.8938715521 -0.008091974967 -0.448250118
-0.01916475296 0.0443924818 -0.05316042137 0.9302409485 0.01333858524 -0.3667067764
-0.02025677252 0.03942206287 -0.05714107895 0.9756179671 -0.01364481349 -0.2190511385
-0.0193457695 0.04799344788 -0.05366682892 0.9478070824 -0.004787462456 -0.3188084295
-0.01750374413 0.02312254333 -0.07145944977 0.932237065 0.01386397081 0.361582418
0.007271817605 0.04800642522 -0.0759949379 0.4402303144 -0.03681308338 -0.8971299054
-0.01675202084 0.05971578979 -0.0491295236 0.8036168868 -0.1493201511 -0.5761105725
-0.02054007769 0.03981326771 -0.06116741848 0.9999700805 0.006074147366 0.004789862756
-0.01926595306 0.02919774628 -0.06788707733 0.9664287311 0.01668430916 0.2563925535
-0.02002574825 0.03946003151 -0.06529915237 0.9826428871 0.00285485834 0.1854853261
0.01142576265 0.06060000229 -0.07682368088 0.4391137571 -0.3561532055 -0.8248236191
-0.02018965225 0.05525908203 -0.05688714676 0.9837926498 -0.1003599945 -0.1485930475
0.003891892576 0.0595749588 -0.077521315 0.2015196381 -0.2193534425 -0.9546066744
-0.01824127007 0.06060000229 -0.05727941132 0.9050394201 -0.4234271795 -0.04016306389
-0.02015966845 0.05931956387 -0.05670151806 0.9709619151 -0.1704030146 -0.167915967
-0.01996443367 0.04801321665 -0.06531003698 0.971921673 -0.00178091604 0.2352978747
2.865167335e-05 0.05971286011 -0.077866436 0.1068124914 -0.2660999986 -0.9580093332
-0.004366936366 0.05548308818 -0.07708110809 -0.1972347977 -0.1863342911 -0.9624853072
-0.01795178986 0.06060000229 -0.06094297409 0.9371289892 -0.3478413002 0.02820793312
-0.02006844838 0.05546789932 -0.06478872426 0.9763279247 -0.1161821488 0.1824431195
-0.01910735893 0.05009609985 -0.06828253174 0.9666440831 -0.01366097809 0.2557588596
0.003020907402 0.06060000229 -0.08093560028 0.1528776193 -0.4111337936 -0.8986642517
-0.004321636617 0.05918688774 -0.07705993652 0.269734055 0.2484565049 0.9303294603
-0.0176568327 0.06060000229 -0.06467588234 0.8544672088 -0.4854248978 0.1850633884
-0.01786585045 0.05115049362 -0.07085154724 0.9405346097 -0.001879017845 0.3396926806
-0.008103570779 0.05998422114 -0.07688400777 -0.4511118414 -0.4261801979 -0.7841355402
-0.01920524979 0.05622443771 -0.06804363251 0.9256629483 -0.1743709227 0.3357720768
-0.004564054012 0.06060000229 -0.07943141174 -0.242833827 -0.448700002 -0.8600581612
