# .PCD v0.7 - Point Cloud Data file format
VERSION 0.7
FIELDS x y z normal_x normal_y normal_z
SIZE 4 4 4 4 4 4
TYPE F F F F F F
COUNT 1 1 1 1 1 1
WIDTH 560
HEIGHT 1
VIEWPOINT 0 0 0 1 0 0 0
POINTS 560
DATA ascii
-0.01053687668 0.0176786232 -0.0009202767015 0.4613967024 -0.8416050121 -0.2807384664
-0.01875172234 0.01104938889 -0.04745999908 0.9186896784 -0.2932867717 -0.2645602847
0.003332052469 0.01956297684 0 0.2399362852 0.8942475134 0.3778253085
0.01709615517 -0.0001321219504 -0.01743161583 0.9900247919 -0.1363267336 0.03557995387
-0.01943420887 0.006715180874 -0.02096212673 0.947181 -0.319598464 -0.02655136471
-0.01977536392 -0.005743970394 -0.03638186646 0.9465981252 0.3223446631 -0.006775505846
0.01624649874 -0.005183991988 -0.02096031952 0.9472682567 -0.3194023716 -0.02578710713
-0.02027011808 0.003413658142 -0.002765258272 0.9678138503 -0.1831772262 -0.1725759398
-0.01973826027 -0.005878339767 -0.03858248901 0.9411164849 0.3377208712 0.01563250005
-0.01914585114 0.004333711624 -0.06294373322 0.958408623 0.1808440197 0.2207902892
-0.01355158774 0.02187730916 -0.04512287521 -0.6575386339 0.07639057184 0.7495381414
-0.005237951279 0.0198783083 -0.01192336321 -0.2562282514 0.966607783 -0.004059204659
-0.002083043218 0.02048918152 -0.0301093483 0.08271848501 -0.9965613495 -0.004809245399
0.01315843058 -0.01086081839 -0.02096586132 0.7384763924 -0.6742363683 0.007611673937
0.009542208195 -0.01413373899 -0.02078721809 0.5819178187 -0.813227562 -0.005708290885
0.01265087128 0.06015613174 -0.07209257507 0.6461475275 -0.5056410352 -0.5716821812
-0.002513720572 0.03681946373 -0.04018896866 -0.07290896986 0.006419178261 0.9973179414
-0.0002422497794 0.0205728817 -0.02116812897 0.02177096139 -0.9996712362 0.01354417929
0.007380831957 -0.01541329384 -0.0213382225 -0.4514232408 0.891892386 0.02729522692
0.005764823675 -0.01606936169 -0.02083643913 0.3859051217 -0.9221108864 -0.02808469702
-0.0198872776 0.002884315014 -0.05888790512 0.9736231901 0.1575336997 0.1650485298
0.0001052489504 -0.01706700516 -0.01740242004 -0.1002032316 0.994927806 -0.008830249156
-0.0201356039 0.04944020462 -0.0564292717 0.9768302097 0.009179428435 -0.2138188005
-0.01851938248 -0.002291616797 0 0.8442028362 0.115967625 -0.5233288462
-0.007819189707 0.01903359413 -0.03597875595 0.3963866361 -0.917256633 -0.03896028551
-0.01819202805 0.05756688563 -0.05106847 0.8718310236 -0.1643198546 -0.4614213385
0.00384546113 0.02019744301 -0.002696188629 -0.2443073126 -0.943099923 -0.2255581349
-0.01047506714 0.01772076321 -0.009236571789 0.5119911629 -0.8588608387 -0.01493682897
-0.01909254932 0.007622717381 -0.01196232033 0.9255584346 -0.3780997722 0.01954856307
-0.01946683311 0.006618397713 -0.02694648075 0.9518014292 -0.3065561202 0.009868358217
-0.002936226606 0.01907143656 0 -0.1880141711 0.9127093427 0.3627841332
0.01460392475 -0.008839785576 -0.02370699406 0.8324340039 -0.5540997854 -0.005201631221
0.003020907402 0.06060000229 -0.08093560028 -0.07708473087 0.7126103702 0.6973122719
-0.01516981411 0.007976329327 0 0.7409130585 -0.3588656614 -0.5676823731
-0.02020491091 0.00369682622 -0.01516307131 0.9878604636 -0.1552058613 -0.006545611552
0.00952920723 -0.01414235759 -0.02382713604 -0.5926411121 0.8044460316 -0.04053510244
-0.0205072155 -0.00124080658 -0.0002377492338 0.9606927123 0.03932509037 -0.2748145735
-0.02019657803 -0.003846444011 -0.002697188139 0.963822383 0.2239652339 -0.1445198533
0.002057029963 0.02048441219 -0.02059394073 -0.06413377303 -0.9979335827 0.003927291996
-0.008583613276 0.02800178862 -0.04190808964 -0.4362961137 0.001843862293 0.8998012566
-0.02008850574 -0.004380389929 -0.01244112158 0.9830452698 0.1829434713 -0.01239692507
0.007175557613 0.01929229927 -0.005870094299 -0.2921494185 -0.9550209328 -0.05083045532
0.0005842880805 0.02054661306 -0.002926208814 -0.0926801712 -0.9590901901 -0.2675002675
0.002524283171 0.02395264816 -0.04017165756 0.07782569089 0.2139306307 0.9737437276
-0.005270878474 0.01929548518 -0.0004596640766 -0.2405925962 0.9006667418 0.3618212582
-0.015529006 0.01347308302 -0.005988665104 0.7540772961 -0.6565982828 -0.01568842091
-0.008838354349 0.01601060534 0 -0.4206226531 0.8113498567 0.4059408747
0.005569395542 0.01980871868 -0.03314585114 -0.2615699972 -0.9651602374 -0.006844906004
0.0001453694689 0.04882748159 -0.04003387451 0.02949881329 0.009163428485 0.9995228119
-0.0174411513 0.006843489329 0 0.709015896 -0.2385342046 -0.6636248131
-0.01556236935 0.01344167256 -0.02417050123 0.7554442278 -0.6551740872 0.007136808996
-0.01987425804 0.003773667812 -0.000345074892 0.938996485 -0.1884419806 -0.2877068318
-0.02050086594 -0.001357328236 -0.003057992101 0.9818963357 0.06669127507 -0.1772903264
-0.01794846296 0.04317000294 -0.05057137203 0.8655012139 0.009132995904 -0.5008235589
-0.002827575773 0.04908170891 -0.04023826885 -0.1484236372 -0.009721836398 0.9888760842
0.007386816025 0.01922606087 -0.008845827341 0.2798490528 0.9600424547 -0.001729963503
-0.02040326881 -0.002835885048 -0.03837247086 0.9912638625 0.1314075538 0.01131413762
0.003988507271 0.02017867279 -0.005565126896 -0.1777188037 -0.9836583371 -0.02884965488
-0.008506675879 0.01838400078 -0.0004248375495 -0.3668205908 0.8777364304 0.3082554345
-0.01789964994 0.01314109166 -0.0473474261 0.8777741011 -0.3548919407 -0.3218141357
-0.01179229403 0.0158728919 -0.000306874603 -0.5092448921 0.7959898068 0.3272153226
0.00479219079 0.02002544212 -0.02047107315 -0.218436542 -0.9758186319 0.007967111357
-0.0180486412 0.06060000229 -0.05971725655 0.8101730175 -0.5860739777 0.01170360181
0.01618075538 0.0577362299 -0.06594092369 0.9505752128 -0.1258510544 -0.283845516
-0.01886098289 -0.008220929146 -0.0181685257 0.949585736 0.3135056084 0.001078626944
-0.02028633753 0.05785159302 -0.05736170578 0.9691294551 -0.1774386321 -0.171183034
-0.01276368809 0.01378518867 0 -0.6021798251 0.6809237898 0.4168000128
-0.01680033684 0.040352108 -0.04872935613 0.8051356251 0.009227951626 -0.5930189459
-0.0158290062 0.0107213192 0 0.7042198738 -0.4731340006 -0.5293567671
0.007414333582 0.04928651619 -0.07596762466 -0.4307851057 -0.006175935246 0.902433405
-0.01769621515 0.009524732828 -0.000548614502 0.8105186839 -0.4255249372 -0.4024773172
0.008714978695 0.0186375227 -0.0235211134 0.3357231633 0.9419451649 -0.005409619421
-0.01959882927 0.006292251587 -0.0003577238321 0.8255238305 -0.3081463342 -0.4728173453
-0.02054014015 0.0008519722819 -0.002773492336 0.9772253605 -0.0645253032 -0.2021560785
-0.02049445724 -0.001474945426 -0.005904751301 0.9973280317 0.07093891079 -0.01744901705
-0.01115705395 0.04370075226 -0.04329562378 -0.5443786754 -0.01871055392 0.8386308919
-0.02016459084 -0.004004482746 -0.005581225872 0.9852699786 0.1710003753 0.001393195085
0.002476160765 0.0204302597 -0.02987060356 -0.08560754316 -0.9963258077 0.002496695734
-0.02048223209 0.003813797951 -0.0478969059 0.993565208 -0.1094326436 -0.02920058247
-0.008497448325 0.01942441607 -0.04122195816 0.5132000093 -0.6319490749 -0.5807461728
0.004134451628 0.02015864086 -0.008469824553 -0.182460505 -0.9831573532 0.01047773497
0.01347357368 0.02389696121 -0.04505598068 -0.5317024958 -0.04452492501 -0.8457600055
-0.003845631838 0.02021235085 -0.03637108612 0.2129589309 -0.9649075564 -0.1536291032
-0.01949190712 0.04215776825 -0.06713995361 0.9657578665 0.02248966517 0.2584684859
-0.01528378105 0.02818252754 -0.04681703568 0.7544256879 0.005671189405 -0.6563609671
-0.008238380591 0.01883694394 -0.002757720232 -0.3789280175 0.8938231502 0.2397785098
-0.01999106789 -0.001490673661 -0.05284504318 0.9708202848 0.2067636854 0.1214773768
-0.01400831413 0.01502623463 -0.0004758860767 -0.6431350169 0.7173195965 0.2680110941
-0.01687824821 0.01178332329 -0.0006783297062 0.8107056733 -0.4945516874 -0.3133288045
-0.01903138638 0.007745951414 -0.002615555227 0.889261293 -0.3945659171 -0.2313700278
-0.01961932278 0.0062484231 -0.003111246824 0.9158149152 -0.3094991444 -0.2559166284
-0.002644937158 0.02037921143 -0.008384847879 0.1719712767 -0.9849775325 0.0156569605
-0.01663184929 0.04288629532 -0.04848408127 0.8060871733 0.006243130618 -0.5917638823
-0.02055073929 0.0007645776868 -0.005590379 0.9995715127 -0.02926032854 0.0007900934027
0.007632609844 0.01913093758 -0.01188488674 0.2922018756 0.9563556433 -0.001395483441
0.005627026558 0.04591016006 -0.04081702614 0.2595754278 -0.001306049719 0.9657219535
0.0004485275596 0.02054881668 -0.00906194365 0.001585847278 -0.999936818 -0.01112857212
-0.002720201731 0.02036670494 -0.005550494671 0.1812352932 -0.9817058368 -0.05837309788
-0.008501218637 0.01872694079 -0.02097345861 0.4301271961 -0.9027677314 0.001009073237
0.01267158294 0.0487801075 -0.07201122856 0.7357666228 0.003774882662 -0.6772246503
-0.02042212296 0.003532484531 -0.0558312149 0.9975790956 0.05238398047 0.04573692925
-0.005094869137 0.01992708588 -0.005725965023 0.2667058489 -0.9635439176 -0.02123932966
-0.01401173592 0.01509328127 -0.03626354408 0.6815889468 -0.7315005245 -0.01853349055
-0.01052330685 0.01768787384 -0.002746036768 -0.4840142888 0.8390840567 0.2483306548
-0.01951659679 0.04272772503 -0.05412670898 0.9596334187 0.0003228422838 -0.2812536178
-0.008545433998 0.02481194639 -0.0419158659 -0.4023017902 0.04248541271 0.9145207812
-0.01234291434 0.01643751335 -0.003350683808 0.59997127 -0.7881267513 -0.1374434393
0.01016276073 0.06060000229 -0.07701591492 0.4565258112 -0.5460910284 -0.7024021444
-0.01689002037 0.01177069902 -0.003416607618 0.8215149639 -0.5455406582 -0.1658268808
0.01225012589 0.06060000229 -0.04533594513 0.6383075711 0.3501724467 0.6855236701
-0.01804102325 0.009844776154 -0.002924138546 0.8579133576 -0.4503889628 -0.247253823
-0.01690189934 0.01175795937 -0.006179693222 0.8241706776 -0.5663366393 -0.002346307062
0.006898926258 0.03677423477 -0.04122944641 0.3411045128 0.007949944814 0.9399917605
-0.02048797131 -0.001593965292 -0.008785460472 0.9999435004 0.01058631955 0.000962239647
0.007811430454 0.01905533409 -0.01394596672 0.3034836053 0.9528170556 -0.00611227965
0.004335684299 0.02012785721 -0.01239463615 -0.2046979734 -0.9787823939 -0.009152321712
-0.01868525505 0.03726513672 -0.06922231293 0.9572741728 0.00296596003 0.2891666667
-0.01050276804 0.01770187759 -0.005509521723 0.5024774493 -0.861119265 -0.0773952473
-0.00398862505 0.02018560791 -0.03013713455 0.2043642267 -0.9788521121 -0.009154529617
-0.01805822849 0.009822491169 -0.005689345121 0.8739489407 -0.4858841496 -0.01139483188
0.004603545189 0.02007804489 -0.01739461327 -0.2175297452 -0.9759911701 0.01104743669
-0.01963758278 0.006201597214 -0.00589255619 0.9560791987 -0.2930951996 -0.002787421889
-0.02056503582 0.0006466846466 -0.009390283108 0.9988411405 -0.048125938 -0.0005196512085
-0.02056642151 0.0002701954941 -0.04192822266 0.999931988 -0.0108789896 0.00420320142
-0.01896177673 -0.00796526432 -0.01505073071 0.9524963497 0.3045494421 0.000584071091
0.008002349854 0.01896985435 -0.01603489494 0.3093802168 0.9509303583 -0.003916005405
-0.0155873313 0.02424149704 -0.0471529789 0.7575408073 -0.02342927759 -0.6523672235
-0.005295235991 0.01986333656 -0.009071020961 0.2592602397 -0.9657299338 -0.01224022216
-0.01233197498 0.0164462862 -0.006113548517 0.5992124386 -0.8002806663 -0.02225553051
0.004488762856 0.02010424042 -0.01537515163 -0.2035444138 -0.9790077616 -0.01065242972
-0.01965517807 0.006153287649 -0.008707030296 0.9580956136 -0.2864417518 0.00197941833
-0.02017862447 0.00383466355 -0.009397810936 0.9844254199 -0.175487371 -0.01052498847
-0.01762540627 0.06027597936 -0.05094249217 0.8445753868 -0.3013073948 -0.4426130023
0.009277207375 0.04092834091 -0.0422693882 0.4338451666 0.002350241741 0.9009843771
-0.005952306986 0.0338222065 -0.0408942852 -0.3091600719 0.01169694975 0.9509380796
0.00820374012 0.01887593651 -0.0181505146 0.3163643487 0.9485987837 -0.008599210639
0.01268876457 0.06060000229 -0.07663144684 -0.3533647098 0.8207342277 0.4489194909
0.006343832016 0.0600384388 -0.04148560715 -0.2105970436 -0.4777342316 -0.8528885562
0.0006723386943 0.02054157591 -0.01490260267 -0.005659912512 -0.9999834624 -0.001019932105
-0.002543395042 0.02039608479 -0.01220877504 0.1124525991 -0.9936179922 -0.008814677619
-0.00269028914 0.02769556713 -0.04021067619 -0.08734281911 -0.005952755973 0.9961605275
-0.008400978565 0.01876584816 -0.00887897253 -0.3984478972 0.917175595 0.00531048353
-0.01232053757 0.01645479298 -0.008908600926 0.5945719878 -0.8040363985 -0.003101808035
0.01599775076 0.05179538345 -0.06648435593 0.9489521279 -0.001275468917 -0.3154175521
-0.01724155744 0.0124947497 -0.04463054276 0.8517822739 -0.4462903697 -0.2743936291
-0.01530434561 0.02181991291 -0.04683884239 0.7432186581 -0.07479255366 -0.6648549467
-0.01400910521 0.01504174089 -0.008752622128 0.6800565507 -0.7331493315 0.003891738697
-0.01559266567 0.01341755962 -0.03945128059 0.7589448843 -0.647285835 -0.07087813788
-0.01691391563 0.01174507475 -0.008974532604 0.8247063471 -0.5655611678 8.049019239e-05
-0.01795173645 0.01001524766 -0.009053116798 0.8742186915 -0.4855323135 -0.0002280613853
0.01775007057 0.06011772537 -0.06197576141 0.9915040916 -0.1297347028 -0.009409744068
-0.02030808576 0.003170368274 -0.0122198054 0.9899063346 -0.1397352264 -0.02365407321
-0.02057588577 0.0005572149158 -0.01227405453 0.9989298654 -0.04419439513 -0.01363742712
-0.01920168686 -0.006772587776 -0.04587443924 0.9608297952 0.2682383563 0.06967272646
-0.02047479439 -0.001835776031 -0.01463815212 0.9996075062 0.02705535737 0.007269199182
-0.01401086044 0.01507612324 -0.02710493279 0.679511805 -0.7336065724 0.009225172048
0.008406839371 0.0187812233 -0.02028408241 0.324911412 0.9457290573 -0.005396721233
-0.01639792347 0.05549478722 -0.04817426491 0.8070573407 -0.07432814958 -0.5857762157
-0.01237191105 0.04879179192 -0.04418380356 -0.5990501873 0.007476857708 0.80067657
-0.008367272139 0.01878297043 -0.01171406817 0.431542536 -0.9020466466 0.009104223814
-0.01893206596 0.03493373871 -0.05252184296 0.9176794441 0.004408317244 -0.3972971238
-0.01821937688 0.009550756772 -0.0116746966 0.8727313231 -0.4881535595 0.006792645955
-0.01772952461 -0.006377866268 -0.05535058212 0.9232816684 0.3389535396 0.1807248153
-0.01067992783 0.0226286869 -0.0429928627 -0.5226028942 0.02631178518 0.852170115
-0.01967293739 0.006104525566 -0.01154788017 0.9637418042 -0.2665140772 0.01311417333
-0.0196209259 0.05448805618 -0.05448674774 0.9632091477 -0.004289421374 -0.2687186979
-0.02028479131 0.02500665665 -0.05723006694 0.9886146256 0.009828370487 -0.1501483437
-0.02058158779 0.0004607943296 -0.01519897509 0.9995210582 0.03085798962 -0.002332117084
-0.01406677818 0.05748052088 -0.04562588755 0.7087337373 -0.1692005239 -0.6848851527
-0.02003296089 -0.004654815197 -0.01744908905 0.9786611133 0.2051244835 0.01209841126
-0.01874600315 -0.008494826317 -0.02134462643 0.9459372797 0.3243409111 0.002374067024
-0.00803844285 0.01893783092 -0.03867561913 0.4696157983 -0.856646828 -0.2135818672
0.01103092861 0.04458541489 -0.04322213745 0.5338967025 -0.02342075501 0.8452252832
0.001920420647 0.02050206184 -0.01757035255 -0.0564504695 -0.9984047266 0.001160354612
-0.002682331413 0.02134541798 -0.04006005478 -0.03574636636 0.6986269146 0.7145926332
-0.002467648745 0.02041009712 -0.01510968876 0.1004265933 -0.9949116277 -0.008084087984
-0.01230899334 0.01646337891 -0.01172969818 0.5984469468 -0.801067427 0.01233812175
-0.02056288147 0.03033372211 -0.06028173828 0.9998569846 -0.01618074098 -0.004918731406
-0.005748938084 0.01975865364 -0.03032985306 0.2750524234 -0.9614226568 -0.003555183212
-0.01400937462 0.01504701233 -0.01156666946 0.6802242261 -0.732845689 0.01523805527
0.005963517189 0.06060000229 -0.04403236771 -0.2105970436 -0.4777342316 -0.8528885562
6.531042606e-05 0.02058609772 -0.0303461647 0.01944415377 -0.9997441509 -0.0115567098
-0.01538495636 0.01365406481 -0.0122085743 0.7548271803 -0.6559061082 -0.004806774262
-0.01692604256 0.01173206902 -0.01179538727 0.8186048591 -0.5742900297 -0.008777612954
-0.008053955078 0.01893243345 -0.01787068303 0.3927739232 -0.9194836318 -0.01668820261
-0.01521407795 0.06021363831 -0.0477826004 0.7119403667 -0.3198794423 -0.6251544263
-0.02005303764 0.01669585609 -0.06496005249 0.9900561437 0.01499044916 0.1398717941
-0.0204681015 -0.001958624125 -0.01761151695 0.9974403162 0.07090894609 0.009205269764
-0.0003425354362 0.02056857109 -0.01817546272 -0.01553925092 0.9998046865 0.01221149322
-0.02042641258 0.05168493271 -0.0628288269 0.9930479408 0.006365843928 0.1175383481
-0.002392400742 0.02042556953 -0.01804436493 0.1319461381 -0.9912555461 -0.001630648756
0.007905107021 0.04705499649 -0.04162382507 0.3753688533 0.009037861345 0.9268314523
-0.008566626072 0.01869139862 -0.01514310169 0.4328468619 -0.901352582 -0.01439156378
-0.01867895508 -0.0007728510499 -0.05995789719 0.9428776452 0.2398239384 0.2312276468
-0.01043278265 0.01774959183 -0.01492577553 0.5109021371 -0.8596380274 -0.001211703802
-0.01229731274 0.01647206688 -0.01458413839 0.5959486956 -0.8028540239 0.01644896514
-0.02009370486 0.03682290522 -0.05620279439 0.978490173 -0.01737000153 -0.2055608535
-0.01400964689 0.01505234671 -0.01441383076 0.6804598825 -0.7327088735 0.01058560148
-0.01570016098 0.01326569366 -0.01478795815 0.7586543965 -0.6514831308 -0.003638258922
-0.01963390287 0.04856241608 -0.05450007375 0.9584723136 -0.003924482248 -0.2851585917
-0.02031914838 0.03983667247 -0.05753355916 0.9863392671 -0.01616155532 -0.1639318587
-0.01693831348 0.01171891022 -0.0146495471 0.826153722 -0.5634377905 -0.002807832057
-0.0181118412 0.009741289377 -0.01511725926 0.8700546847 -0.4927127212 -0.01546026943
-0.02058555794 0.0003614364862 -0.01815480804 0.9995333432 0.02415440271 0.01869921495
0.01395476723 0.03408382034 -0.04545058823 -0.571550412 0.009346238138 -0.8205137259
-0.008605401993 0.02203824298 -0.04192354584 -0.5540597752 0.2420596697 0.7965079296
-0.0165542024 0.01254972871 -0.04220529429 0.8001470405 -0.5691995591 -0.1891469681
-0.01862973404 -0.008771792412 -0.02455631065 0.9416049179 0.3366581835 0.006437860924
0.004982838631 0.0199722805 -0.02358019066 -0.226842508 -0.9739239462 -0.003824075481
-0.01948222303 0.00656785059 -0.02999355698 0.9439376303 -0.3299174956 -0.01167031434
-0.005394434293 0.0198365256 -0.0182541345 0.2690399434 -0.9631210387 0.003920937787
-0.01941817617 0.006762738347 -0.01802146959 0.9351094278 -0.353957993 -0.01685518419
-0.0199648571 -0.004991291523 -0.02358941078 0.9624262948 0.2715362578 0.001920349094
-0.01956476593 0.04840351486 -0.06688743591 0.9597758814 -0.007534975004 0.2806661391
-0.01854169655 -0.008969635963 -0.02673372269 0.9379805089 0.346638806 0.005839778755
0.009378654957 0.01831369781 -0.03015751648 0.3629483719 0.9317872956 -0.006396497192
0.005176053762 0.01991840267 -0.02673117065 0.2386450227 0.9711016088 0.00319663649
-0.008086035728 0.06060000229 -0.04434534836 -0.2876869416 0.7628912962 0.5789931725
-0.002316411734 0.02044119453 -0.02100794601 0.08103257571 -0.9966893564 0.006636898357
-0.004769461632 0.02000163205 -0.02112785085 0.2114497927 -0.9772993262 -0.01322921442
-0.0104113121 0.01776423073 -0.01781456566 0.5146132889 -0.8574215585 0.001197432006
-0.01681978703 0.02225017548 -0.04875001717 0.8113874125 -0.006115285337 -0.5844767489
-0.008629262447 0.0400260404 -0.04194297028 -0.4370024493 -0.004309886129 0.8994499898
-0.01695056152 0.01170547962 -0.01753116608 0.8193400772 -0.5731249587 0.01447824625
-0.01833436584 -0.007860341072 -0.04929514313 0.9271981554 0.353961551 0.1225348977
0.002904784203 0.03095101357 -0.04020877838 0.1565958096 -0.002053843348 0.9876606371
-0.01812783813 0.009715902328 -0.01801022243 0.869181805 -0.4944257211 -0.008136108393
-0.02045094299 -0.00221265626 -0.0236681385 0.9958565548 0.09092993461 0.001212106393
-0.01829334259 -0.009402117729 -0.0301834116 0.9310438018 0.3647125718 0.01192389103
-0.0001409504712 0.02057723427 -0.02419104576 0.004728845487 -0.9999612126 0.007430426274
0.01449712658 0.06060000229 -0.07084129333 0.8492721785 -0.2688672906 -0.4543645527
-0.002239473581 0.02045701504 -0.02400854874 0.1168028739 -0.9931238629 0.007879182627
-0.01696121025 0.01169009113 -0.02044984722 0.8205560136 -0.5713921974 0.01409912213
-0.01893695259 0.04378380203 -0.06867108917 0.9625285513 0.001516410808 0.2711761207
-0.01814403009 0.009690205097 -0.02093842554 0.8852921483 -0.4650304568 0.002118125562
-0.02050766818 0.001551686923 -0.02405617905 0.9950266514 -0.09912736171 0.009784124135
-0.02044220543 -0.002341973782 -0.02675122166 0.9959082977 0.09035211223 0.001777158176
0.009741947174 0.01812696457 -0.03356821823 0.3750917498 0.9269790172 -0.004010093142
0.005371374607 0.01986393738 -0.02991649246 -0.2534231854 -0.967070386 0.02348526447
-0.01557428002 0.01343219256 -0.03017811584 0.7566449291 -0.6537724541 -0.008368369997
-0.005281702042 0.01987032382 -0.024189593 0.2506511307 -0.9680587113 -0.006028440689
-0.007978860537 0.01896670659 -0.02376887894 0.3771145075 -0.9261594297 0.003654992754
-0.01401029301 0.01506500721 -0.02117155075 0.6796153396 -0.7334306174 -0.01423094107
0.0001351438463 0.02058909988 -0.03243009186 -0.008217916213 -0.9999177725 0.009844499184
-0.01945043898 0.006667031884 -0.02393932629 0.942306443 -0.3342908016 0.01755640957
-0.02014803314 0.004115859032 -0.02406098175 0.9710257311 -0.2389734193 0.0008569450595
-0.0205566438 0.000758648416 -0.02716744041 0.9990368987 -0.03827327565 -0.02145766511
-0.01988481712 -0.005347569466 -0.02988984299 0.9582805445 0.2857206014 -0.007882634684
-0.01807679558 -0.009799803734 -0.03363264847 0.9222624652 0.3864294921 0.01020749302
-0.002161756992 0.02047299576 -0.027039505 0.08521153293 -0.9963477187 -0.005497106444
-0.004060041428 0.0201735878 -0.02707497311 0.2032860367 -0.9791123045 0.003725909968
-0.01036763477 0.01779401016 -0.0236912365 0.5098865424 -0.8600863827 0.01634405839
-0.01401057529 0.01507053709 -0.02412353516 0.6792236229 -0.7339009617 0.006681960304
-0.01697558594 0.01166931868 -0.0243894825 0.8212965575 -0.5705011332 -0.0006494325024
-0.007900521914 0.01900031217 -0.02980273819 0.403420296 -0.9150128322 0.0018925026
-0.01834993172 0.03052179337 -0.06993981934 0.941295549 0.0002140903498 0.3375835356
-0.01816038132 0.009664255142 -0.02389551353 0.8864077824 -0.4626385467 0.01571045831
-0.02016750336 0.004053413868 -0.02708263969 0.9700863498 -0.2427590551 0.0007176741532
-0.01983039474 -0.005544667482 -0.03311780548 0.9500622548 0.3119980047 -0.006241565151
-0.01793445206 -0.01006384659 -0.03595633698 0.9196603848 0.3926015562 0.009423095916
0.0102346344 0.01787372017 -0.03819372559 0.3616760423 0.9138579489 0.1845375019
-0.005653231859 0.03661426926 -0.04082874775 -0.3043352932 -0.005645324789 0.9525482453
0.002620244741 0.02041096783 -0.03304090309 -0.09320577359 -0.9956361037 0.004629556896
-0.01556774473 0.04883862877 -0.0471551857 0.7565167508 -0.0002229104358 -0.6539742778
-0.01199611664 0.01670649529 -0.03895436986 0.605879853 -0.772570762 -0.189852631
-0.005805002213 0.01974302101 -0.02727498436 -0.2756814114 0.9612457767 -0.002513212095
-0.008433155378 0.01876215808 -0.0269355971 0.4145008502 -0.9097807623 0.02209094265
-0.01034541464 0.01780915928 -0.0266808691 0.5168620824 -0.8559132513 0.016312388
-0.02012809753 0.05537236595 -0.05639567375 0.9758894962 -0.04348317517 -0.2138899361
0.0003616863439 0.04269161987 -0.04003647741 0.02456256441 0.00676068245 0.9996754341
-0.02052264468 0.001368256857 -0.03018680191 0.995556377 -0.09403969559 -0.004902641513
-0.01779074669 -0.01033041382 -0.03830224609 0.9162916765 0.400432446 0.007963652012
0.01253856564 0.03104134369 -0.04429504013 -0.5479165588 -0.01669688712 -0.8363663423
0.009915107727 0.01828240299 -0.04092197227 0.3271974137 0.874409974 0.3582583562
0.005769632816 0.01975288391 -0.03641135025 -0.3072276283 -0.9229581001 -0.2318610143
-0.01225077248 0.01651617336 -0.02730259418 0.6018660972 -0.7985899043 -0.003371310355
-0.01700872421 0.0116214323 -0.03347165298 0.8335315139 -0.5523820004 -0.009966993567
0.01212673187 0.05763755417 -0.04399567032 -0.6079237033 -0.183885779 -0.7724084356
-0.01698650169 0.01165354538 -0.02738114548 0.8219896127 -0.5694879958 -0.00406191661
-0.01775589752 0.06060000229 -0.06342214584 -0.7007224032 0.7118734735 -0.04716218119
-0.01066743231 0.0491868763 -0.04301981735 -0.5198740667 -0.003364118105 0.854236289
-0.01051249743 0.02774995327 -0.04289536095 -0.499480215 0.01567127466 0.8661835406
0.002769106627 0.02038862038 -0.03624938202 -0.157532291 -0.9555673627 -0.2491477324
-0.01681518936 0.03421147029 -0.04874070104 0.805641319 0.001233889232 -0.5924023486
-0.02018717384 0.003990331411 -0.03013513184 0.9715496282 -0.23679521 -0.004398691553
-0.02054630947 0.0009331292659 -0.03282191467 0.9973894658 -0.07095061146 0.01342624977
-0.01908210373 0.05522365952 -0.05287030411 0.9195608918 -0.05238316665 -0.3894403294
-0.01760050011 -0.01065170288 -0.04073038101 0.9142379812 0.4050491579 0.01020262075
-0.02055105972 0.001685512841 -0.04493754196 0.9984750261 -0.05407569105 -0.01111044219
0.005904633045 0.01971523857 -0.03861296082 -0.3735691742 -0.8776180374 -0.3003875039
0.000244223021 0.02059076977 -0.03559305 -0.01154381535 -0.9981027057 -0.06047916406
-0.001998177648 0.0205007 -0.03321736145 0.07525117749 -0.9971604762 -0.002871398935
-0.003916565061 0.02019804859 -0.03323887825 0.1975253104 -0.9801925656 -0.01436266552
-0.01245131874 0.01637733459 -0.02995145988 0.5935827457 -0.8046783958 0.0123370733
-0.01699755669 0.01163757133 -0.0304108181 0.8221295804 -0.5690914508 -0.01542315517
-0.01819306564 0.009610811234 -0.02991476822 0.8880248919 -0.4597925618 0.001609783194
-0.0202070961 0.003926432729 -0.03322712898 0.9816750542 -0.1904858911 -0.005404931134
-0.0204153862 -0.002738889456 -0.03621417618 0.9934247121 0.1141570161 -0.008690059037
-0.02053024673 0.04601595116 -0.06215631866 0.9970933195 -0.001746250529 0.07616995986
0.009619533539 0.02077588272 -0.04240411758 -0.4909076053 -0.4217164499 -0.7623417599
-0.005837936401 0.06060000229 -0.04389627838 0.2213801534 -0.6969755314 -0.6820673987
0.006746152878 0.02011346817 -0.04100712776 0.4168002056 0.5400004028 0.7312162153
0.006430103302 0.02993335342 -0.04103344727 0.3382143783 0.00365889515 0.9410619782
-0.01949668884 0.006695511182 -0.04199582291 0.9608952067 -0.2704666166 -0.05939874675
0.00312675492 0.02089404996 -0.03965507634 0.1633825587 0.6705926063 0.7236101823
-0.001908323109 0.02050886726 -0.03637112236 0.1136515568 -0.9522957387 -0.283224557
-0.00569229269 0.0197744503 -0.03341640091 0.2730221081 -0.9619522758 -0.01033186988
0.0004216782252 0.05147088496 -0.07762797038 0.0729102737 0.002101745284 -0.9973362897
-0.008362674872 0.01879737727 -0.03303580093 0.403508564 -0.9149378593 -0.008339810716
-0.01202054373 0.01668298912 -0.03274353155 0.5809690872 -0.8139198759 0.003058639028
-0.01820898438 0.009582856655 -0.03297936583 0.8698646152 -0.493145097 -0.01197766664
-0.0115909214 0.05795686722 -0.07309645844 -0.6228266945 -0.2990018811 -0.7229694211
-0.02022723007 0.003861864328 -0.03635152435 0.9837764909 -0.1788961841 -0.01341533801
-0.02055496407 0.0007317231745 -0.03917420769 0.9983678183 -0.05414344019 -0.01817105811
-0.02034904385 -0.00302351439 -0.04169433403 0.9881610631 0.1490210661 0.036475132
0.01136920738 0.02779808044 -0.04343024445 0.4807978936 -0.00605150756 0.8768105638
0.009165612221 0.02756482887 -0.04216163254 -0.4195614936 -0.005089992999 -0.9077126446
-0.01404569435 0.06000778389 -0.04559406281 0.7075933576 -0.2486506105 -0.6614261215
0.006213109016 0.0280323658 -0.04102772331 0.3328122291 -0.006775020617 0.9429687796
0.005844400406 0.02624980927 -0.04085561371 0.2650270937 -0.01488411636 0.9641260824
0.004437690258 0.02539375496 -0.04049139786 0.238922972 0.02937472405 0.9705941165
-0.003798277378 0.02022238922 -0.0384809227 0.3233311724 -0.8630995536 -0.3879640621
-0.005596285582 0.01980122185 -0.0386477108 0.4568176404 -0.7877644159 -0.413212861
-0.0170162487 0.01161056137 -0.03553342056 0.8263772694 -0.5631061459 0.003475216683
-0.01105002213 0.02511170959 -0.04322770691 -0.5510421504 -0.003523012388 0.8344699736
-0.02036527252 -0.001986055672 -0.0452898941 0.9925360914 0.1195068346 0.02429452031
-0.02038669586 0.02149401093 -0.06350600052 0.9873837126 -0.0113166056 0.1579409339
-0.0182242527 0.009553761959 -0.036076931 0.8716959969 -0.4899305839 -0.01068232025
-0.01962207476 0.0061512146 -0.03875421143 0.9586414967 -0.2844587032 0.009472433563
-0.02024079323 0.00381836319 -0.03845650864 0.985015786 -0.1721917955 0.009689528996
-0.002445584655 0.03369085693 -0.04017484283 -0.09641280671 0.008292907728 0.9953068865
0.009012552261 0.03084945488 -0.04212902451 0.4180563903 0.008020906419 0.9083856668
0.0124102726 0.04656328964 -0.0722129008 0.7336338354 -0.02128088702 -0.6792116897
-0.01702717209 0.01159358978 -0.0386593132 0.8043152025 -0.5940671571 -0.01269912664
-0.01811122513 0.009767266909 -0.03879122035 0.8766337041 -0.4805874665 -0.02343151618
-0.02026824093 0.003759927869 -0.04163860893 0.9765158248 -0.2152801579 -0.008443786167
0.00974796772 0.03439079857 -0.04249845695 0.4658561287 -0.008008564682 0.8848242369
0.004184601784 0.03189627266 -0.04044301224 0.2017065337 -0.008038766815 0.9794130143
5.083939433e-05 0.0283132534 -0.04002893639 0.02216068973 -0.002596120887 0.999751051
-0.003025598884 0.02485521603 -0.04023624229 -0.1576725435 0.2934833102 0.9428716327
-0.02054579353 0.05790036964 -0.05976784706 0.9776939234 -0.209112858 -0.01965717995
-0.02056393051 0.003749866962 -0.053362957 0.9979373078 0.04722953728 0.04347988631
-0.01401128387 0.01509838295 -0.03938653183 0.6886456118 -0.7108918248 -0.1428286903
-0.01842686017 0.009311952591 -0.04169007111 0.895989842 -0.4384633601 -0.07037105116
0.009453698158 0.03771900177 -0.04231552887 -0.4325114528 -0.01552443621 -0.9014947782
0.008937179565 0.04422555542 -0.04203965759 0.4334159869 -0.01979087695 0.9009766387
-0.02058063698 0.001614941716 -0.04820217133 0.9998337753 -0.01067764378 -0.01477868712
0.004720341682 0.0355541954 -0.04057056808 0.2526832956 0.01083515745 0.9674883728
0.00280468452 0.03414015961 -0.04021257019 0.1099022957 0.009488459785 0.9938971046
-0.005382817745 0.0249637661 -0.04073475266 -0.2543121164 0.1498842258 0.9554371075
-0.01530919981 0.01421768808 -0.04228055763 0.7781434603 -0.5772362801 -0.2475702569
-0.01983812586 0.006238234361 -0.04491679128 0.9716524145 -0.219000114 -0.08905355356
-0.02034281158 0.003752011299 -0.04479127884 0.9916247048 -0.1241018682 -0.03576550267
-0.01956717491 -0.004209177494 -0.0505136795 0.9557136261 0.2654373347 0.1271003002
-0.005558042526 0.03036007357 -0.04079882526 -0.2671191406 -0.003722578819 0.9636563221
-0.005864981174 0.02752065563 -0.04086771202 -0.3173222341 0.006323431575 0.9482966909
0.01640413475 0.06052739716 -0.06530059814 0.95415231 -0.1835120877 -0.2364670863
-0.01848318418 0.01006722736 -0.04470568085 0.894474503 -0.4116974487 -0.1744149483
-0.01978609657 0.0339722023 -0.06619566345 0.9594322942 0.004846829325 0.2818974656
-0.01555741501 0.04285187149 -0.04713434601 0.7431629918 0.003760482994 -0.6690998628
-0.02030569077 -0.001059570193 -0.05015116501 0.994435722 0.09815209805 0.0382591213
0.01486615562 0.04369861984 -0.04638982391 -0.6418029546 -0.002271247818 -0.7668662262
-0.003317050576 0.05836933899 -0.07733086014 -0.1407802228 -0.2513741348 -0.9575969785
-0.01819145902 0.04576014328 -0.05105342738 0.8684056872 0.004506310676 -0.4958338993
0.006541050911 0.04315992546 -0.04111197472 0.3232845637 -0.001955503482 0.9462997764
0.002564416111 0.04046001434 -0.04018400955 0.1043737638 -0.01011860866 0.9944866672
1.399990916e-05 0.03964476013 -0.04004492378 -0.02124197175 0.01698814053 0.9996300224
0.01275506535 0.05800706863 -0.07183523407 0.7191206224 -0.2747074495 -0.6382799916
-0.01639626503 0.0313718977 -0.04814408302 0.7881236622 0.02169467397 -0.6151344847
-0.004136178017 0.03317722321 -0.04043380737 -0.2085494914 0.002055048052 0.9780096556
-0.01192861176 0.02171233273 -0.04382940483 -0.6181147496 0.1455233436 0.7725005584
-0.01258984613 0.01913389587 -0.04402982712 0.6960378035 -0.3627037331 -0.6196590822
-0.01997495333 0.007068984509 -0.0478690656 0.9758638806 -0.190919459 -0.1060162568
-0.02054045486 0.001500877857 -0.05048653793 0.9967462526 0.07492948461 0.02970656845
0.01195269012 0.04789261246 -0.04384291077 0.5639218642 -0.01710788717 0.8256509258
0.009673276901 0.04765005493 -0.04244332123 0.4248271922 0.03952119246 0.9044113733
0.003255430341 0.04587836266 -0.04027040291 0.1841133909 0.00342967159 0.9828990267
0.002433027506 0.04358431625 -0.04016217041 0.0932692673 0.003125272889 0.995636016
-0.002590212584 0.03992590332 -0.04019674492 -0.1001698712 0.001860002958 0.9949686112
-0.008594424486 0.03113763523 -0.04194038677 -0.3984805453 -0.006926861049 0.9171506276
-0.01222105535 0.02483663813 -0.04404051844 -0.6128239324 0.01151376727 0.7901355966
-0.02046498871 0.01935540771 -0.06271784592 0.9962518035 0.01041992921 0.08587065284
-0.01441296832 0.01913704999 -0.04566331228 0.7198428614 -0.1891390736 -0.6678717434
-0.01638835335 0.0152937088 -0.04619478989 0.8268036526 -0.3892611036 -0.4060437332
-0.01940180397 0.009473449707 -0.04808418655 0.9434025935 -0.2498083095 -0.2181452616
-0.008796491782 0.05205205027 -0.04202909597 -0.4415594393 0.002363066024 0.897228888
-0.02035544968 0.006645834764 -0.05080689621 0.9899252508 -0.1161162864 -0.08102472373
-0.002664673001 0.04300186729 -0.04021186829 -0.08739859092 -0.002760010952 0.9961695983
-0.02056585312 0.003813671112 -0.05111355972 0.9999044685 0.01254680432 0.005799273422
-0.02042743683 0.001305593729 -0.05289362717 0.9930064621 0.09359901333 0.07195408919
-0.01887361145 -0.002821732759 -0.05670415115 0.9430647241 0.2860474382 0.1697226832
0.0132117939 0.05095013809 -0.04486015701 0.6113205916 0.02071943555 0.7911117742
-0.0204259758 0.05764643097 -0.06275908915 0.9752282168 -0.187528702 0.1173154341
-0.0180056076 0.02770536041 -0.05066251183 0.8654998779 -0.004339822583 -0.5008903346
0.009463359833 0.05079546928 -0.04237310982 0.4446433384 0.004686174941 0.8956954513
0.006169237375 0.04943720055 -0.04099261475 0.2831382442 0.01121268539 0.9590135611
0.0004592827559 0.04593286641 -0.0400691541 0.04743223823 -0.004130695158 0.998865917
-0.01556690073 0.03055845833 -0.0471342907 0.7513404722 -0.008922436154 -0.6598544422
-0.005449675401 0.03980667114 -0.0407746582 0.2711118872 -0.002270533405 -0.9625451622
-0.001850766122 0.06028304482 -0.07829404068 -0.01043183535 -0.4624050836 -0.886607419
-0.0182283872 0.03353452428 -0.05111184565 0.8815262014 -0.01902825248 -0.4717515043
-0.01407939911 0.02488591385 -0.04559760666 -0.6787938757 0.0109216406 0.7342476368
-0.01193512106 0.02807508183 -0.0438397789 -0.590118621 0.003777066356 0.8073077151
-0.01543443012 0.01870794868 -0.04669794846 0.7651124843 -0.1688016535 -0.6213766074
-0.020057621 0.0008253684044 -0.0556879425 0.9768678571 0.168657595 0.1314678873
0.01585928059 0.05306212616 -0.04747697067 0 0 1
0.01118738747 0.05440829849 -0.04332857513 0.4968891385 -0.01864341006 0.8676137432
0.01733105469 0.06060000229 -0.05451700211 0.9266535505 -0.2846148066 0.2455760761
0.009092125893 0.05402060318 -0.04212237549 0.4402826496 -0.01058469895 0.8977968326
0.006702792645 0.05294231415 -0.04116905403 0.3069609429 -0.01093378253 0.9516593046
0.004627837181 0.05165940475 -0.04057268906 0.2324415911 0.016512402 0.9724701781
0.002974481463 0.05201978111 -0.04023302078 0.120788326 0.003814879399 0.9926709561
-0.01668122228 0.01922569211 -0.04838296636 0.7996158287 -0.1106082992 -0.5902375205
0.002187766314 0.04973535919 -0.04015107727 0.09913144595 0.003101929637 0.9950695124
-0.01888041687 0.05890066528 -0.05245783615 0.8879629862 -0.2101820654 -0.4090785189
-0.002747968435 0.04605701065 -0.04022026634 -0.1076864977 -0.01299871265 0.9940999204
-0.005759752154 0.04276111889 -0.04086347198 -0.3273755322 -0.004182171274 0.9448850567
-0.0105418601 0.03400735855 -0.04292243195 -0.4986617811 0.006225201379 0.8667742929
-0.02036548424 0.05499055862 -0.06336475372 0.9903248224 -0.01007098272 0.1384027511
0.0001397255659 0.06012266159 -0.04013915825 0.02798495908 -0.3160179996 -0.9483403745
-0.01228003979 0.03049787998 -0.044099823 -0.6117042889 0.01854779949 0.7908690423
-0.01396130308 0.02724022675 -0.04551096471 -0.6777287161 0.01209959419 0.7352124776
-0.01838547262 0.01582368183 -0.05026913834 0.8874990491 -0.2385755765 -0.3942424788
-0.01890026665 0.01339735508 -0.05011994934 0.9205384507 -0.2393351159 -0.3087517825
-0.01823184586 0.02526637077 -0.05112253284 0.8708419908 0.005266524529 -0.4915348317
-0.0204962527 0.007485418161 -0.05381416194 0.996123893 -0.07345766468 -0.04838554837
0.01113243484 0.05330402756 -0.07351886749 -0.6517438647 0.0141009852 0.758308049
0.008929028511 0.0570750618 -0.04211405754 0.4114214916 0.2082656981 0.887331818
0.005787577391 0.05560749626 -0.04087710762 0.2781061289 0.1383451445 0.9505354291
0.002873827994 0.05502350998 -0.04026543617 0.1062824607 0.04001223636 0.9935306032
0.01703998756 0.06060000229 -0.07045775604 -0.6035095647 0.7219814704 0.3384065037
0.0009556257874 0.051738657 -0.04006229591 0.08749525197 0.01125553794 0.9961013471
-0.0055649786 0.04590234375 -0.04081212234 -0.3116703098 -0.01157621408 0.9501197868
-0.01201194795 0.03369130707 -0.04389189275 -0.5986467073 0.00902374905 0.8009623535
-0.01386061064 0.0306354688 -0.0454062589 -0.6777073744 0.01195979336 0.7352344374
-0.0183263464 0.0188718996 -0.05113005161 0.8817827122 -0.1010423042 -0.4607056558
-0.01992553329 0.01292264207 -0.05340974045 0.9713966342 -0.1099959586 -0.2104506312
-0.02027398682 0.01028553486 -0.05351661682 0.9823027312 -0.1112364241 -0.1506910824
-0.02055720615 0.007107758284 -0.05663162231 0.9995249407 0.02511065476 0.01787030641
-0.01798901272 0.03085407448 -0.05063759041 0.8650222328 -0.0084414003 -0.5016625156
0.009649969101 0.06041098785 -0.04253412628 -0.3706097263 -0.5114098541 -0.775311803
-0.02025634861 0.06060000229 -0.06017709351 0.9258323548 -0.3779250858 0.002660875853
0.005573576927 0.05866650009 -0.04079865646 0.2776625324 0.249693907 0.92766183
0.004294150829 0.05774682617 -0.04050531006 0.2576613765 0.2187062018 0.9411579104
-0.002008899927 0.05005950928 -0.07754641724 -0.03170199188 -0.0001693243835 -0.9994973512
0.002682243109 0.05806126785 -0.04019908905 -0.146266412 -0.3412019407 -0.9285404527
-7.708751162e-05 0.05485928345 -0.0400414416 0.01988882799 0.00238303807 0.9997993577
-0.002344799399 0.05224899801 -0.04019490178 -0.07288674252 -0.009904797942 0.9972910396
-0.005877933025 0.04880568695 -0.04090343857 -0.3199013026 -0.002342087689 0.9474479781
-0.01058300495 0.0401556778 -0.0429562664 -0.4936568182 0.004129035846 0.8696469956
-0.01110967541 0.03761273956 -0.04326556015 -0.5807783595 -0.009179511843 0.8140099715
-0.0205278492 0.02814685631 -0.05965167999 0.9982093538 0.005068011878 -0.05960202303
-0.0122984705 0.0367012291 -0.04411978149 -0.6125369652 0.0112450783 0.7903619516
-0.01395944214 0.03350013606 -0.04551310349 -0.6773710596 0.008590159102 0.7355913654
-0.01940234375 0.03576837921 -0.06745832825 0.9589825623 0.01818576424 0.2828811114
0.003874919415 0.04710874557 -0.07721788788 -0.2296751812 0.00856229472 0.9732296739
-0.01641927719 0.02506429958 -0.04817481232 0.7872317553 0.007132281011 -0.616616002
-0.005629944086 0.06019008255 -0.04114907837 0.263855423 -0.4742269268 -0.8399340079
-0.01969729233 0.01565504106 -0.05388436635 0.9651293691 -0.07668969481 -0.2502878174
-0.0123680172 0.06060000229 -0.07273484802 -0.4969072126 -0.4706808755 -0.7290697741
-0.02052244186 0.01049275637 -0.05654386711 0.995635032 -0.04454883511 -0.08201392803
-0.02033899212 0.006822776556 -0.05923168182 0.9906319283 0.08146096126 0.1096015252
-0.02032257843 0.03654595566 -0.06381897354 0.9852083835 -0.01235631953 0.1709144885
0.009475435257 0.05200466156 -0.07477590434 -0.5556302102 0.01637646559 0.8312682364
0.01379960155 0.06060000229 -0.04753390503 0.8618617613 -0.2794139244 0.4232282638
0.008330170631 0.06060000229 -0.04359909439 -0.3554907111 -0.5032693196 -0.7876206868
0.003486084223 0.06029588699 -0.04032455063 -0.1984181062 -0.4400056491 -0.8757997967
-0.002615979075 0.05505537287 -0.04020103582 -0.1349482646 0.03809243034 0.9901201607
-0.005693390052 0.05189922969 -0.04085334269 -0.3088948913 0.002954766639 0.9510915915
-0.01666180038 0.06055457687 -0.04857160568 0.7610171703 -0.3711863088 -0.5320466057
-0.008706588268 0.04608846919 -0.04198298772 -0.4415514545 -0.01342377493 0.8971355055
-0.01395686722 0.05480860774 -0.0454932874 -0.6796069836 0.004881460338 0.7335601674
-0.01203785165 0.03983870951 -0.04391913859 -0.6000033573 -0.0006370431672 0.7999972284
-0.01386701743 0.03683568827 -0.04541290029 -0.6784746951 0.004793373415 0.7346081347
-0.0168389384 0.02795657984 -0.04876816813 0.8068576954 -0.009650572039 -0.5906670177
-0.0205178957 0.03982832527 -0.06231739807 0.9962117261 -0.02323900453 0.08379824291
0.0169665699 0.06060000229 -0.05202266693 0.8942427291 -0.2959676533 0.3357574864
0.01456628132 0.05849220657 -0.05170476151 0.8870134158 -0.3091397645 0.3429865978
0.003327945471 0.06060000229 -0.04212226486 -0.1984181062 -0.4400056491 -0.8757997967
-0.0139910876 0.04569287109 -0.04554605865 -0.6765088274 0.0008176685249 0.736434069
-0.002534250736 0.05818874995 -0.04022506841 -0.1696370862 0.2856227073 0.9432088465
-0.01232924557 0.04279767799 -0.04414734268 -0.599593261 0.0003928519241 0.8003047963
-0.01396945667 0.03964936193 -0.04552445857 -0.6805989532 0.01078878871 0.7325767311
-0.01527143574 0.03442567635 -0.04680996513 0.7547329319 0.008387525635 -0.6559785445
-0.01901162148 0.02227885628 -0.05267027283 0.9204515175 0.002913653837 -0.3908458961
-0.008388056278 0.06060000229 -0.07737343979 -0.4510034275 -0.4248863014 -0.7848997001
0.006951558113 0.05178018761 -0.07616821289 -0.4183518655 -0.01063440603 0.9082227844
-0.01959890175 0.02141795031 -0.05433713023 0.9594727132 -0.03142385087 -0.2800440218
-0.02048633194 0.01039891911 -0.06001426697 0.9954716701 0.04106306095 0.08573201906
-0.01975727463 0.007299380779 -0.06271947861 0.9783086187 0.1090142443 0.176148066
0.005220788479 0.05223696899 -0.07686943054 -0.3053774668 -0.002697011739 0.9522275615
0.01680057335 0.05537007141 -0.05769771194 0.9889316498 -0.07760738381 0.1264566567
0.01707314301 0.05234129143 -0.05997079086 0.9994143438 -0.006579182085 -0.03358100212
-0.008418620825 0.05845174408 -0.07539398575 -0.53725719 -0.3257847651 -0.7779582242
0.001009778023 0.06060000229 -0.04256272507 0.0507992116 0.7631373169 0.6442366612
-0.002222996672 0.06060000229 -0.04161138407 0.1271557938 -0.533642285 -0.8360964752
-0.002951663971 0.05980076218 -0.04022024918 0.1264604738 -0.3655554162 -0.9221588726
-0.008329500294 0.05486107712 -0.04182264099 -0.3999541325 0.0002007475976 0.9165351339
-0.01388556798 0.04292826843 -0.04542867152 -0.6779330186 -0.01077202563 0.7350447509
-0.01555670404 0.03675987053 -0.04712816811 0.7438522711 -0.007002621153 -0.6683073859
-0.01944160652 0.02487070274 -0.05384712982 0.9561450042 -0.002215081753 -0.2928853435
-0.02029916954 0.01919870377 -0.05727881241 0.9895691925 -0.01024908831 -0.1436933174
-0.02054556783 0.0157289362 -0.0599601415 0.999506369 0.006632294592 0.03070880843
-0.02051607323 0.01269191265 -0.06063642502 0.9978185755 0.02793622033 0.05981352733
-0.02003466034 0.009884194374 -0.06298039627 0.9780671636 0.09525015179 0.1852350722
0.01669901848 0.05939648819 -0.05712440109 0.9649727487 -0.1964040865 0.1739339791
0.01702706528 0.05743453026 -0.05985882378 0.9950817973 -0.07794073981 0.06113475091
0.0170832901 0.05540320587 -0.06015770721 0.9974296418 -0.05945249556 0.03999388041
0.01695167351 0.0516817894 -0.06262911987 0.986821088 0.00339155311 -0.1617795956
0.0167686615 0.04987791824 -0.063741642 0.966368305 -0.02021284452 -0.2563664174
-0.01070248699 0.05214632225 -0.04304490662 -0.5387984517 -0.003144342219 0.8424288347
-0.01526802588 0.04055586052 -0.04681729698 0.7535617152 0.01164294179 -0.6572740549
-0.01896871567 0.02866840744 -0.05258488846 0.916378522 -0.008393659447 -0.4002248754
-0.01956119537 0.02784730021 -0.05421923319 0.955922793 -0.002918634605 -0.2936036364
-0.02012800407 0.02231242561 -0.05629398918 0.9812101231 0.009713966967 -0.1926975173
-0.02028142166 0.03012122154 -0.06408863068 0.9905790501 -0.007198915789 0.1367527736
-0.02010194016 0.01223054409 -0.06354878616 0.9904052366 0.04986552258 0.128883269
0.01756696892 0.05999698067 -0.05962824249 0.9979773291 -0.0583038633 -0.02533594518
0.01677446461 0.05499455833 -0.06366204071 0.9850074771 -0.01972447726 -0.1713803229
0.007460220814 0.0460857048 -0.07595057678 -0.4025961226 0.02992501088 0.914888439
0.01665076256 0.05210072327 -0.06442870331 0.9664538135 -0.004430896137 -0.2568022461
0.01619932461 0.04950729561 -0.06590142441 0.9453320345 -0.01010986876 -0.3259526577
-0.01964112949 0.05970032692 -0.05457752609 0.9387398213 -0.255601361 -0.231161182
-0.008256922563 0.05990365092 -0.04186901474 0.3248879121 -0.3249357983 -0.8881804837
-0.01073998833 0.05508531189 -0.0430713768 -0.5196873632 0.02162164546 0.8540828701
-0.01391591263 0.04891794459 -0.04545471446 -0.6763991026 0.003800955592 0.7365254963
-0.01796412992 0.0370682745 -0.05059576511 0.8646695248 0.001971857549 -0.5023372618
-0.02054795551 0.02164819717 -0.05985047913 0.9974996389 -0.008283070922 -0.07018447963
-0.02030543232 0.01583331823 -0.06309998894 0.9925734575 0.02640819563 0.1187456892
0.01689642334 0.05786412048 -0.06290604401 0.9944646805 -0.08515072172 -0.06155772763
0.01622487879 0.05463298607 -0.06582886124 0.9613407778 -0.002812698816 -0.2753470495
0.0148757689 0.04878614044 -0.06893683434 0.8847979846 -0.03621797923 -0.4645651563
-0.01078162909 0.05799848557 -0.04310019493 -0.5023487262 0.2417449382 0.8301838002
-0.0124245019 0.05468679428 -0.04423245049 -0.608840137 0.02478720942 0.7929055945
0.01256357312 0.0551107645 -0.07212236977 0.729373547 -0.06329843402 -0.6811809871
-0.01402335517 0.05163484446 -0.04557987086 -0.6761726708 0.003969181781 0.7367324921
-0.01527587652 0.04658050728 -0.04683657265 0.7546861718 0.01131410326 -0.6559883941
-0.01820516078 0.03970232391 -0.05107383092 0.866638087 -0.003747668799 -0.4989232217
-0.01955737686 0.0334827404 -0.05422076988 0.9548538763 -0.0129507154 -0.2967934531
-0.01890462303 0.04108379745 -0.05247750473 0.9234327862 0.00276262171 -0.3837502538
-0.02022604752 0.02781651878 -0.05673116684 0.9806846946 -0.0174045013 -0.1948194373
0.01902251244 0.06060000229 -0.0660923996 0.749274604 -0.6407313279 -0.1674841283
0.01677770805 0.06004856491 -0.06359832382 0.9792695406 -0.1404290385 -0.1459823687
-0.01028529739 0.06041357422 -0.04281759644 0.456717476 -0.3742073092 -0.8070799445
-0.01219222355 0.05767681376 -0.04404704285 -0.5907762357 0.1584290216 0.7911281088
-0.01940673955 0.03679838181 -0.05376360957 0.9438854836 -0.004270935716 -0.330245292
-0.02043532944 0.02446886635 -0.06281166585 0.9962198412 -0.001903606004 0.08684701674
0.01477613211 0.05509269142 -0.06909687805 0.8833602058 -0.06862454405 -0.4636436334
-0.01161975416 0.06041779327 -0.04465017955 0.4864659765 -0.3897053506 -0.7819722459
-0.01529525328 0.05250484467 -0.04686809349 0.7395895697 0.006257272547 -0.6730290595
-0.01662974485 0.04886924998 -0.04850301361 0.816296293 -0.008193573524 -0.5775753002
-0.01952950096 0.0396769352 -0.05414968109 0.9576248832 -0.007717189085 -0.2879149667
-0.02019966888 0.03414985275 -0.05660165405 0.9808714929 0.02112494819 -0.193506721
0.01566654046 0.06007263819 -0.06818482463 0.8698228538 -0.3023413056 -0.3898691293
0.01473093653 0.0582075367 -0.06919176102 0.8066229333 -0.2890873599 -0.5155462557
0.0125957911 0.05197306061 -0.0720369072 0.735458387 0.01064589653 -0.6774862551
0.01001120472 0.04593329048 -0.0744218483 0.581979632 0.00904961732 -0.8131530067
-0.01558937931 0.0547265873 -0.04718907547 0.7601595449 -0.01477743791 -0.6495683903
-0.01794140816 0.04916432476 -0.05056578827 0.8665075862 0.00125200172 -0.4991623339
-0.0200859127 0.0457274189 -0.06505285645 0.9833819586 0.008474188992 0.181350797
