# .PCD v0.7 - Point Cloud Data file format
VERSION 0.7
FIELDS x y z normal_x normal_y normal_z
SIZE 4 4 4 4 4 4
TYPE F F F F F F
COUNT 1 1 1 1 1 1
WIDTH 392
HEIGHT 1
VIEWPOINT 0 0 0 1 0 0 0
POINTS 392
DATA ascii
-0.01869478861 0.01686403147 -0.05138015238 0.9346025695 -0.154369046 -0.3204500502
-0.02045438433 0.001970445842 -0.001425315589 0.9986779246 -0.02195732307 -0.04647879933
-0.01973601087 -0.005886488756 -0.01136102931 0.9765145252 0.2154454251 0.001628182067
-0.007822854042 0.01903459644 -0.001064480059 -0.3946789785 0.9184145156 0.02726318776
-0.01058725185 0.06060000229 -0.04566233749 0.443545687 0.2154579736 -0.8699684392
-0.01112439668 0.01721795654 -0.001858541898 0.5660251412 -0.823818243 -0.03064379375
-0.008907785416 0.02157431889 -0.07914922333 0.4195592586 0.03554053658 0.9070319172
-0.001231080149 0.02045548875 -0.002072001954 0.0689340682 -0.9962667903 -0.05196707442
-0.01924666739 0.007011164665 -0.001648050647 0.9260549964 -0.3548340964 -0.1285103405
-0.008086771011 0.01893420792 -0.01948962784 0.3811529096 -0.924050781 0.02919954764
-0.01882230568 0.04224651031 -0.05236860886 0.9298384462 0.01868773168 -0.3674931736
-0.01401260424 0.01502569723 -0.002230771959 -0.6619474562 0.7375652511 0.1335030549
-0.0002830052257 0.0205564724 -0.01615609646 0.0181811206 -0.9997985368 -0.00850486392
-0.01717245293 -0.01134123325 -0.002000502825 0.9324561651 0.3607644072 -0.01935310313
-0.02044589106 0.002112458766 -0.005982187231 0.9995057755 -0.03079613942 -0.006308923161
0.004648979108 0.019967254 -0.001353127485 0.2548436426 0.9652741362 0.0574504986
-0.01638492489 0.01232670879 -0.002056018107 0.7855389327 -0.6165203477 -0.05320945525
-0.02041299716 0.0122914746 -0.06110229666 0.9841293387 0.06691736491 0.1643517901
-0.005513002753 0.01979979181 -0.002046799034 0.3635435425 -0.9304903675 -0.0449863167
-0.007887273153 0.01901009242 -0.005561851501 0.3865069885 -0.92210439 0.01832598703
-0.01704299316 0.04196597366 -0.07207193756 0.8082670901 -0.003011354639 0.5888083243
-0.01115565515 0.01720124459 -0.006324020902 0.5583855181 -0.8295521628 0.006987306714
-0.01150162775 0.03693835623 -0.077622569 0.5909761316 -0.0190174944 0.8064648453
-0.009124653816 0.06060000229 -0.04319825363 0.2908780532 0.2382823249 -0.9266129137
-0.01766172218 -0.01049379349 -0.008102199554 0.94213861 0.3351384543 -0.007553542408
-0.02052686005 0.03681883698 -0.06146264915 0.9985044073 0.006257231275 0.05431202169
-0.01402126153 0.01502640375 -0.006684765816 0.6577263966 -0.7524559038 -0.03472895148
0.003716309369 0.01790336895 -0.080677248 -0.07779316831 0.07917469924 0.9938207031
0.01743737888 0.06060000229 -0.07080567551 0.8896407137 -0.1880906823 -0.4161265381
-0.01637363164 0.01234731547 -0.006514122923 0.7872057054 -0.6166249793 -0.008989568467
-0.006928329945 0.01939197159 -0.03560400899 0.4125643473 -0.9101709941 -0.03714055582
-0.005084695498 0.01988746601 -0.02131630071 0.2337562016 -0.9722264918 0.01156230283
-0.01862392426 -0.0009284753799 -0.05998654938 0.9053348581 0.323432969 0.2752451802
-0.0182200915 0.00970560805 -0.04104529572 0.9162366351 -0.3961210271 -0.05998800236
-0.01922391129 0.007085760832 -0.006144469678 0.9330324527 -0.3582015904 -0.03379441992
-0.01406892371 0.01503029418 -0.03120574999 -0.6791055963 0.7339200949 -0.01329974933
-0.01106624941 0.01727082807 -0.01657904113 0.552505041 -0.8332477001 -0.02089138443
-0.005604214509 0.01977696323 -0.006549022834 0.3481376852 -0.9373573575 -0.0127018296
-0.020079602 0.01714296281 -0.05588689375 0.9810333038 -0.03255628248 -0.1910857015
-0.01895562887 0.02211039543 -0.05264213943 0.9454489245 0.02527295231 -0.3247885607
-0.01883145809 -0.008291263103 -0.0261788969 0.9589580198 0.2834507923 -0.007427288679
-0.02038057089 -0.002376896709 -0.001831249233 0.9803366331 0.1486896371 -0.1297361843
-0.001109295675 0.02048481887 -0.006380107743 0.07163876417 -0.9970479386 -0.02762780462
-0.01741845703 -0.01091514349 -0.005068413496 0.9377416361 0.3465111385 -0.02388838387
0.01156783867 0.01697641945 -0.001788201928 -0.3881504458 -0.9210790795 -0.03086358394
0.004886095603 0.0199044838 -0.005718304157 -0.2520129571 -0.9673327733 -0.02750954785
-0.02047810854 0.001573669425 -0.05148033524 0.9934943251 0.1003416488 0.05385702913
-0.01916761468 0.007230540406 -0.01122460088 0.9340453596 -0.3569923373 0.01075812418
-0.01572975699 0.03740113322 -0.0474202741 0.845123891 -0.005280603554 -0.534544408
-0.007963247617 0.01898119291 -0.01086595058 0.3807567107 -0.9245379606 0.01593382088
0.01068479029 0.017577425 -0.006161597888 0.3753735601 0.9266622237 0.01979428293
-0.01982657852 0.04689645437 -0.06589601847 0.9711420659 -0.02006091401 0.2376565748
-0.01119190788 0.01718092426 -0.01159065453 0.5564675631 -0.8308562535 -0.004662319331
-0.01403147348 0.01502723757 -0.01193863805 0.6899897443 -0.7238120165 -0.003212072479
0.01831905794 0.06060000229 -0.06619608402 0.9767270471 -0.1436890842 -0.159241083
-0.01636031024 0.01237162193 -0.01177284193 0.7838949344 -0.6208158721 -0.009817570366
-0.0203995182 -0.002400226164 -0.005972831011 0.98962482 0.1427523882 0.01626257527
-0.01947513771 -0.006612648487 -0.001910287142 0.9682838221 0.2482487234 -0.02826678796
-0.004653644264 0.01998742294 -0.01122952986 0.2180503638 -0.9758299195 0.01449161782
-0.02043129031 0.002274871012 -0.01135003217 0.9972713356 -0.0737223225 0.003860367912
-0.01960374641 -0.006292720159 -0.005753607273 0.9672799969 0.251299058 -0.0349025928
-0.00503707844 0.06060000229 -0.04239961052 0.2244369832 0.1245181428 -0.9665005291
-0.0003075574835 0.02055327129 -0.01130343628 0.0825676601 -0.9965576158 -0.007449825524
-0.02046080812 -0.001912326723 -0.01103392347 0.9920118622 0.1236507368 0.02495917689
0.004538285414 0.0199956646 -0.01126984978 -0.1816992913 -0.9833388882 0.005477080613
-0.01943009673 0.006626698123 -0.02127178065 0.9363383087 -0.3507311732 -0.01606909596
-0.01352983093 -0.01273038578 -0.05383201218 0.7729420505 0.5826528866 0.2511497568
-0.004968897687 0.01991160393 -0.01617601458 0.2238744102 -0.974335668 0.02345750349
-0.01178726578 -0.00711798954 -0.06512947464 0.6548369761 0.5529870346 0.5151639296
-0.02000328146 0.001525122966 -0.05647730909 0.9707545742 0.1767399309 0.1624763165
-0.01940342564 0.0067181148 -0.02630262523 0.9171611289 -0.3984716262 -0.005985548686
-0.0006647377014 0.02055225849 -0.02094492849 0.02171952486 -0.9997403465 -0.006892161661
-0.005709408257 0.02179040549 -0.08031902737 0.2386875383 0.01017311358 0.9710431334
-0.008037790298 0.0189528389 -0.01607007631 0.3779611673 -0.9257006285 0.01495668164
-0.01883494806 0.03723333931 -0.05236538315 0.9345586911 0.01024199111 -0.355661573
-0.01403984213 0.01502792072 -0.01624398327 0.6994867576 -0.7146443417 0.001319400575
-0.01472992182 0.02028041077 -0.04636344719 0.8123924546 -0.1868122253 -0.5523764045
-0.01651852999 0.01216994171 -0.01656681671 0.78338772 -0.6211197415 -0.02267039707
-0.01925062717 0.007053786018 -0.01604474432 0.9158239457 -0.4015166613 0.00713239926
-0.01627295113 0.06060000229 -0.05126160955 0.8038886671 -0.2474147186 -0.5408779604
-0.01081430496 0.01739781822 -0.0215024534 0.5546003574 -0.8321121622 0.002791607864
-0.009214747429 0.002809453011 -0.07465838369 0.4092738919 0.408507876 0.8158530484
-0.01882634926 0.007303520816 -0.06554394695 0.9197688802 0.1819101069 0.3477555465
0.01633592486 0.0424108243 -0.05579346323 0.9364150916 -0.0142915092 0.3506030933
-0.02009058228 0.04679004135 -0.0564692482 0.9834662869 0.00574279993 -0.1810002284
-0.02044929423 0.001719575047 -0.01640950298 0.9926645076 -0.1197608968 -0.01656812893
-0.01067400176 0.0174791062 -0.02636498807 0.548662897 -0.8357716878 0.02132396071
-0.0179016552 -0.01007821894 -0.01109440613 0.9429253076 0.3329822801 -0.003829533267
-0.01404807472 0.01502859243 -0.02047948074 0.685616972 -0.727844802 0.01308861952
-0.01867220116 -0.008458076119 -0.01575547647 0.9518141343 0.3060332054 -0.01983761167
-0.01633563224 0.01241712896 -0.02116219298 0.779321251 -0.626159606 0.02413577161
-0.005660227169 0.0417833193 -0.08032844613 0.308684605 -0.01402874557 0.9510609912
-0.0009917671855 0.04712407255 -0.08110953522 0.05604492058 -0.002752464607 0.9984244542
-0.01830820465 0.009423360825 -0.01814094925 0.8946396294 -0.4458028361 -0.02966083157
-0.01930382156 0.01205504357 -0.06612815406 0.9177089671 0.1145908727 0.3803671695
-0.02011285082 0.0518217392 -0.05651056332 0.9840497762 -0.03528238961 -0.1743593732
-0.02024392732 -0.003322789172 -0.01662937148 0.9825293064 0.1846758944 -0.02304291863
0.009929503918 0.01803055954 -0.01122823477 0.3584609755 0.9333753065 0.01778387717
-0.005699357122 0.01699341416 -0.08011379051 0.2438752618 0.08652255484 0.965939286
0.004197855711 0.02008470694 -0.01670868063 -0.1647447404 -0.9860834031 -0.02233142827
-0.01884307022 0.05203563766 -0.05242834854 0.9309019185 -0.059214491 -0.3604375981
-0.01829010836 0.009459742864 -0.02152033997 0.9015705297 -0.4316549937 -0.02906107896
-0.01974822181 0.03699209431 -0.06620154626 0.9699345721 -0.0004653626894 0.2433653822
-0.02046612273 0.00160387596 -0.02106633441 0.9890776857 -0.1446444303 0.02834290918
-0.01391845632 0.06060000229 -0.04692482376 0.5894808135 -0.3003527487 -0.7498670528
-0.01621024587 0.01258674952 -0.03163089649 0.7766158255 -0.6296152991 -0.02127051082
0.009388415337 0.01830232302 -0.01600868193 0.2665416096 0.9635284847 0.02384176112
-0.01405779807 0.01502938588 -0.02548172696 0.7274313373 -0.6861790223 0.00141380555
-0.01629108539 0.01248393536 -0.02634935716 0.7780440447 -0.6280115618 0.01577791841
-0.01753828239 0.02743924332 -0.04982698059 0.9026587069 0.02469661627 -0.429647921
-0.0005076704323 0.06053257561 -0.0421465079 -0.03342598844 -0.1077599277 0.9936148657
-0.00650342385 0.06050162506 -0.04440838623 0.2493777242 0.1669040257 -0.9539149841
-0.01970193643 0.04190728496 -0.06634143507 0.9712646893 -0.01884974577 0.2372542737
-0.01583011913 0.0569871664 -0.04757149124 0.7488688777 -0.1863687067 -0.6359733557
0.003636472845 0.02020518074 -0.02165238342 -0.1400832725 -0.9896756098 -0.03031277122
-0.005198411014 0.01986376169 -0.02636419699 0.2120785114 -0.9770031744 -0.02207945354
-0.01826264572 0.009512840271 -0.02651906268 0.8997750771 -0.4360784962 -0.01550341009
0.01686408997 0.06051250839 -0.06307660675 0.9856086793 -0.1095916259 -0.1287058925
-0.02021595078 -0.003624295902 -0.02166309929 0.9849097695 0.1724365405 -0.01477787288
-0.002635805368 0.05201966095 -0.04370792389 0.02060960087 0.05419143667 -0.9983178515
0.003737602989 0.06045825005 -0.04218828265 -0.1440632413 0.1268163732 -0.9814088801
-0.0008500103423 0.02054854329 -0.02606232516 0.004135819291 -0.9997716119 -0.02096709606
-0.02050510632 0.006687381138 -0.05605729398 0.9942211937 0.08240369152 0.06880297715
-0.01751746178 0.02205917454 -0.049795784 0.8990098603 0.0006298612823 -0.4379279329
-0.02045766216 0.001773845063 -0.026167696 0.9886839222 -0.1500104339 -0.0009857082181
0.002114759445 0.046441185 -0.04365793228 -0.2875304266 -0.0305309861 -0.9572847605
-0.0001143623633 0.05701715142 -0.04357754626 -0.02977789124 -0.08655881621 0.995801611
-0.002645567656 0.05693389511 -0.04371473694 0.06108458242 0.0577884096 -0.996458315
-0.005043280065 0.05678362274 -0.04436329079 0.1756669605 0.1133629344 -0.9779007946
0.004854272472 0.05691028807 -0.04429262585 -0.2757197051 0.14858323 -0.9496850362
-0.0188494215 0.05992066574 -0.05247994804 0.9151530039 -0.1793670835 -0.3610019789
-0.01777920151 0.05605020142 -0.05020452881 0.8335497541 -0.1431827291 -0.5335667845
-0.01570612288 0.05208198547 -0.04741632652 0.8150309143 -0.0665475828 -0.5755832068
0.008764859835 0.01861074702 -0.02162130864 -0.2330823803 -0.972274498 -0.01883890874
-0.01967044544 0.01700854699 -0.06618144894 0.948942441 0.05040824993 0.311395652
0.01195486546 0.05640598679 -0.04843644333 0.7122874852 -0.1058164105 0.6938655675
-0.01086095327 0.01736251456 -0.03141921997 0.5192651072 -0.854607872 0.003022191953
-0.008967384577 0.04678742409 -0.07912027168 0.3972067551 -0.020792283 0.9174935829
-0.01865312258 -0.008716078758 -0.0216631724 0.9563849933 0.2919347103 -0.01009303827
-0.0002884841859 0.003064232826 -0.07723652649 -0.2088684503 -0.395084118 -0.8945851051
-0.0185465229 0.02220421982 -0.06950984039 0.9120134281 0.007566572819 0.4100905437
0.007397004843 0.06060000229 -0.04238362503 -0.3573873486 0.1878401733 -0.9148717682
-0.005250945091 0.05410933685 -0.04434075546 0.1732695545 0.1176437101 -0.9778228975
0.004462325533 0.05678590838 -0.08063900248 -0.1840780547 -0.1698033563 0.9681333018
-0.01887408829 0.05681509781 -0.05248157787 0.9199646548 -0.1552601919 -0.3599434772
0.005784632921 0.04332943916 -0.0445541687 -0.4152388121 0.01095458943 -0.909646484
-0.01558499002 0.04707535362 -0.0472660799 0.8396879558 0.003076280811 -0.5430604694
-0.01936894417 -0.006953036149 -0.04093284225 0.9466574084 0.3220510257 0.01108548133
-0.01629476547 0.01248415565 -0.0366781559 0.7742867675 -0.6302131899 -0.05754421682
0.002024418592 0.05647911835 -0.0436627121 0.1064028502 -0.08408341576 0.9907615317
0.003905240631 0.02016781464 -0.02589438171 0.1137466016 0.9935089771 -0.001274013794
-0.00530841136 0.01983885447 -0.03132234595 0.3151770219 -0.9475477046 -0.05307346158
-0.01935191981 0.006896813711 -0.03610603375 0.9150285699 -0.4030003028 0.0177051473
-0.001031979478 0.02054489326 -0.03108853149 -0.0786279536 0.9968624462 -0.00910539553
-0.01823565674 0.009565021833 -0.03143156942 0.8990654069 -0.4377897754 -0.004637534988
-0.01937839805 0.006809228155 -0.03124702835 0.9132740364 -0.4073181796 -0.004736569082
0.0008172592968 0.04836219978 -0.04355569458 -0.1760368963 -0.01457915171 -0.9842756014
-0.02016206741 -0.003911755848 -0.02588884163 0.987322794 0.1587053091 -0.002515014409
-0.01732754962 -0.008636555354 -0.05209006882 0.860004777 0.4642141879 0.2118890543
-0.01639598656 0.02636698246 -0.04814371109 0.8883444937 0.009436352823 -0.4590806201
0.005158620516 0.05992202123 -0.04434822464 -0.3173356029 0.1670484192 -0.9334843013
0.009099894524 0.03102806282 -0.07907894135 0.2874614274 0.004164044561 -0.9577831636
-0.01787018776 0.0003048845232 -0.0631306572 0.857567313 0.3571310208 0.3701833838
-0.0002346535563 0.05205307159 -0.04356215363 0.08682944559 -0.06816050472 0.9938887226
0.01691729546 0.05630794907 -0.05840540314 0.9932548862 -0.05599265349 0.1015359729
-0.01711275387 0.06060000229 -0.05483716202 0.9140973947 -0.2336691021 -0.3313981047
-0.01932828217 0.06059053268 -0.05679555664 0.9609290285 -0.2514905378 -0.1156196853
-0.02009390132 0.04157179006 -0.05643942218 0.9839361469 -0.01880898363 -0.1775271271
-0.02012541077 0.05700467786 -0.05664628289 0.9738378283 -0.1297331663 -0.1865722103
0.003911316007 0.03123555279 -0.08074567795 -0.1056063857 -0.02176811911 0.9941697241
-0.0177244606 0.05121691132 -0.0501187439 0.8904681398 -0.02428960331 -0.4543968608
-0.0204464052 0.001937517785 -0.03117577638 0.9957321097 -0.09218004402 -0.004517200413
0.009560509026 0.06040716076 -0.04554086018 -0.5456116479 0.1442141457 -0.8255363165
0.004647586107 0.05186197853 -0.04422049751 0.3050851519 -0.06329911302 0.9502190655
0.002066915035 0.0514990921 -0.04366014671 0.1578544174 -0.04134726749 0.9865963645
-0.01431420779 0.0120844419 -0.07426979065 0.6995125682 0.1681291359 0.6945608401
-0.01767428303 0.04628693199 -0.05004010963 0.8966990566 0.006056119062 -0.442599283
0.016048208 0.05177053165 -0.06625029087 0.9752322801 -0.04581845565 -0.2163854639
-0.01544213533 0.04196361732 -0.04710037231 0.8416853561 0.003360089487 -0.539957842
-0.0003134765114 0.06050403159 -0.08026301902 -0.01455928918 0.280871824 -0.9596348501
-0.008806336021 0.05689951935 -0.07918343353 -0.3770382373 0.2092713705 -0.9022458983
0.00835614872 0.01881290436 -0.02530012131 0.2330542853 0.972449452 0.005269108053
0.002765646756 0.02037501764 -0.03014946985 0.05194308585 0.9985277378 -0.01562922503
-0.02025919946 -0.003383976022 -0.03065001647 0.989777751 0.1421605176 0.01141887936
-0.01651713415 0.01173162339 -0.07151932456 0.7807524719 0.1673173064 0.6020220067
0.0096583129 0.05697235489 -0.046624403 -0.5378028004 0.1738577621 -0.824949469
-0.01884965706 0.04720243835 -0.05241093159 0.9292434658 0.006656691784 -0.3694079989
-0.00569823887 0.05690364043 -0.08030671183 0.2534832844 -0.1672878453 0.9527649245
-0.01973916785 0.02192428446 -0.06625456111 0.9716282747 0.002949016776 0.2364948182
-0.0107572169 0.01743844172 -0.03642337062 -0.5202290137 0.853484013 0.03044359993
-0.0140788873 0.01503023497 -0.03682241694 0.6866267974 -0.7178814343 -0.114847235
0.008689004898 0.01778313446 -0.07914241028 0.1933635359 -0.04445823384 -0.9801193848
-0.01820911916 0.009616328875 -0.03626171239 0.9032904124 -0.4285943891 -0.01932046741
0.01331677704 0.0604209259 -0.04719860382 0.7101987764 -0.09295623885 0.6978372559
-0.006820652962 0.009520641327 -0.07842459106 0.3560985238 0.2616397125 0.8970721834
0.01849504967 0.06059478989 -0.06074686813 0.9957453757 -0.0852436235 -0.03499530636
0.009232722346 0.05204664892 -0.04635484111 0.4741757008 -0.06799990748 0.8778003289
0.016353899 0.05201293425 -0.0559062819 0.9619739743 -0.05530243837 0.2674840428
0.004708679289 0.04678947783 -0.04422886515 -0.3739743306 -0.04659443322 -0.9262678656
-0.01954048872 0.06054256821 -0.06141369534 0.9761401691 -0.2162452286 0.01970713856
-0.02050512981 0.05710547147 -0.06129982022 0.9864362554 -0.1603289759 0.03518712089
-0.01762851143 0.0412768898 -0.04996837616 0.9009240837 -0.0003204650911 -0.4339766039
-0.01848490779 0.04194864146 -0.06962229156 0.9181766952 -0.001668943055 0.3961676047
-0.002114251137 0.02048939705 -0.03478781891 -0.2481378496 0.9684795772 0.02179257158
-0.004810792112 0.01998857613 -0.03622144928 -0.2541552346 0.9671101086 0.01015649992
-0.01902749681 -0.007056901217 -0.04631224537 0.9498368972 0.3068309305 0.0605363434
-0.01963576603 0.007431446373 -0.04613440037 0.9623696068 -0.249562061 -0.1075337972
-0.01966146558 0.05694827398 -0.06647405752 0.9637788355 -0.1074042951 0.2441202033
-0.02043043772 0.002092944577 -0.03609311846 0.9942518498 -0.1050205543 0.02083128082
-0.01900661278 -0.007874022802 -0.03061409314 0.9586330336 0.2813245682 0.04334967349
-0.01602083244 -0.008238407421 -0.05668729401 0.8092632885 0.4933442242 0.3189112829
-0.01758923054 0.03616330338 -0.0499068203 0.9070752225 -0.01935859558 -0.4205232283
-0.01861427574 0.0109611866 -0.0466995636 0.91558097 -0.3209919553 -0.2422305762
-0.02030295308 -0.003111073832 -0.03568477694 0.9919200256 0.1265640716 0.008729183412
-0.005558372259 0.00646691072 -0.07777611542 0.3222912053 0.3607064897 0.8752252323
-0.0170104084 0.05165103325 -0.07209906593 0.798230212 -0.04057475909 0.6009843738
0.009619536463 0.04691606038 -0.04660814489 0.5050133111 0.001862678661 0.8631095446
-0.006705188274 -0.008530844212 -0.06745698929 0.5032044131 0.6007217724 0.6212235272
0.01495702887 0.06030894089 -0.05116065979 0.8358332642 -0.1504227518 0.5279732477
-0.02051522207 0.05160225519 -0.0613785127 0.9973217716 -0.02900519801 0.06714151046
0.007395562172 0.02743430138 -0.07981661224 0.2041018689 -0.001087329904 -0.9789490512
0.004208867232 0.06060000229 -0.07966971334 0.2639838363 0.3239605553 -0.9084944099
-0.01645244598 0.03171022415 -0.04821910477 0.907958155 -0.000725238477 -0.4190602138
-0.006983386517 0.01937207794 -0.03880459595 -0.4050507943 0.9139157972 0.02630151358
-0.01061738512 0.01766814899 -0.04032863066 -0.6108704258 0.7485777855 0.2578150924
-0.01432513771 0.01526814976 -0.0420642128 0.7333841515 -0.6140009143 -0.291805695
-0.01921314367 -0.007382041136 -0.03584377925 0.9530819682 0.3004027733 0.03732205226
-0.01648284808 0.01245006041 -0.04132989883 0.8232739041 -0.5440157926 -0.1620706519
-0.01925510907 0.002418175038 -0.06087536097 0.9370632897 0.2263462691 0.2658566486
-0.0193573267 0.007022944975 -0.04117624054 0.9455495099 -0.3216559772 -0.0497348637
0.01406252975 0.05709388835 -0.0510935641 0.8302201386 -0.1828873645 0.526580225
0.009895159912 0.04248583298 -0.04679673386 0.538720001 -0.03641052938 0.8416977093
-0.01881269341 0.0320861145 -0.05233781509 0.9403350384 -0.01473844973 -0.3399305719
-0.01755596733 0.03096407509 -0.04985469437 0.9115268908 -0.01758662779 -0.4108642572
-0.01839055443 -0.007582789898 -0.04978143311 0.895022208 0.4173687628 0.1572849741
-0.02042303104 0.002264546436 -0.04120185318 0.9953914293 -0.08947852081 -0.03448908158
0.01776101685 0.06060000229 -0.05164852333 0.9150283472 -0.1942289493 0.3535509003
0.01402610797 0.0520475111 -0.05101733875 0.8566712841 -0.06320201854 0.5119763821
0.01203650665 0.05138668251 -0.04850471306 0.6811776805 -0.04868434328 0.7304976402
-0.01704044914 0.06060000229 -0.06649584122 0.8901103678 -0.3100869549 0.3339904392
-0.01941520214 0.06029122543 -0.06621831894 0.8953425264 -0.3170209416 0.3128250038
-0.02052570801 0.04660132332 -0.06133166466 0.9985213323 -0.01419419303 0.0524754595
-0.02015917842 0.03662930086 -0.05674680159 0.983240043 -0.01793631733 -0.1814312715
-0.01570590544 0.01664010906 -0.04619882298 0.8605166701 -0.2661144062 -0.4343894373
-0.02035445431 -0.002671665141 -0.04104509299 0.9907283436 0.1351975106 0.01337842959
0.01705756103 0.04669225778 -0.06058084361 0.9947140702 0.00700885475 0.1024441044
-0.02018311773 -0.002901366489 -0.04651202011 0.9776566371 0.1985246054 0.06910485455
0.01408976037 0.04216229112 -0.05109436226 0.858015336 -0.05601726378 0.5105602308
0.01410765028 0.04697695378 -0.05112540109 0.8716437716 0.00567104633 0.4901071053
-0.01967854202 0.0520494442 -0.06634736371 0.9726912754 -0.03393196413 0.2296090255
-0.02051889957 0.04174914308 -0.06138676591 0.9976836932 -0.002993552592 0.06795797938
-0.02016975832 0.0317669847 -0.05675541115 0.9787811979 -0.0003012303871 -0.2049079693
-0.01883728695 0.02688206339 -0.05235638046 0.9302076979 0.03086217678 -0.3657337348
-0.01740216208 0.01272962451 -0.04547053719 0.8644795784 -0.451385961 -0.2211917103
0.01212145901 0.04629412842 -0.04857842636 0.7131395567 -0.0542096171 0.69892295
-0.005664934115 0.04689752787 -0.08032520502 0.241433284 -0.02393099381 0.9701223
-0.02005091313 0.02700293214 -0.05614174053 0.9562564763 -0.0117307866 -0.2922942699
-0.02048221503 0.002505231731 -0.04628125 0.9978375338 -0.05051073803 -0.04205854885
0.01651988173 0.06007141876 -0.05641370487 0.9726202317 -0.06992568803 0.2216309615
0.01630475307 0.0568277785 -0.05576006826 0.9612669844 -0.08402237955 0.2624995705
-0.01827012444 0.002669108152 -0.06411317444 0.8926479435 0.2738789343 0.3580083496
0.01217985344 0.04284875107 -0.04863192368 0.7131395567 -0.0542096171 0.69892295
-0.01950738468 0.01175684347 -0.05104496994 0.9486611055 -0.1943674729 -0.2495263362
0.01679597378 0.05253144455 -0.06355472755 0.9900244868 -0.05977043978 -0.1275892236
-0.01588661194 -0.01309145355 -0.03699643707 0.8693099501 0.4941322781 0.01155432482
-0.005269818226 0.0124330163 -0.07957417043 -0.3106618156 -0.183073322 -0.9327236435
0.01842319202 0.06060000229 -0.05700834656 0.9937831085 -0.06973819257 0.08678546943
-0.0009367334526 0.02178553363 -0.08112845394 0.1270787175 0.006209485245 0.9918731985
0.01690813255 0.04485403824 -0.05825014496 0.9815168166 0.001776907273 0.19136766
-0.01610553226 0.06043503456 -0.0715315567 0.7867020343 -0.2088687643 0.5809249079
-0.008997368813 0.06002707291 -0.07912597656 -0.3701489314 0.2872835855 -0.8834352891
0.01701526642 0.04301876831 -0.05898429108 0.9794016357 -0.01613611966 0.2012760829
-0.01854310226 0.05979623032 -0.06944290924 0.8830809177 -0.219512076 0.4147077782
-0.01851589508 0.05675793381 -0.06950946045 0.9020642261 -0.1324594038 0.4107732202
-0.02051596225 0.0317733163 -0.06153228101 0.9973755491 0.03026997711 0.06577037679
-0.02011816897 0.02202984238 -0.05644075939 0.9859020085 -0.02418010524 -0.1655673641
-0.02035835181 0.006391880141 -0.05085970179 0.9928425453 -0.07675722778 -0.0914986788
-0.01672104963 -0.01194450855 -0.04105649821 0.9069195599 0.4206525062 0.02341753427
-0.01710713019 0.05688560104 -0.07195583126 0.7972057517 -0.1476549012 0.5853725476
-0.02051687972 0.02664439472 -0.06114793428 0.9991165708 -0.01207450518 0.04025275461
0.01608761168 0.05721160774 -0.06608909149 0.9513947448 -0.07767217159 -0.2980185788
0.01630791585 0.04711898804 -0.05575381692 0.952680733 -0.01409928897 0.3036455682
-0.01847257757 0.05213913631 -0.06961470222 0.9091970378 -0.04316566514 0.4141225325
-0.02040245586 0.01220173412 -0.05616413201 0.993782866 -0.03062720795 -0.1070401298
0.007594161034 0.05141642761 -0.07970157623 0.2380112748 0.0865909673 -0.9673947682
-0.01445087107 0.05690330664 -0.07518844032 0.6907997624 -0.2110802336 0.6915495812
0.01704079418 0.0572086235 -0.06064459419 0.9971570282 -0.06998356377 -0.02793137896
-0.01855575398 0.04711387907 -0.06945861925 0.9185710337 0.02029612369 0.3947344974
-0.02052196277 0.0215629354 -0.06126430546 0.9973292508 -0.02352314675 0.06914497158
-0.0197427899 -0.003025095284 -0.05127973366 0.9662997469 0.2218646475 0.1305407113
0.01459573603 0.05268822479 -0.06945151138 0.885455084 -0.1421446028 -0.4424524902
-0.01623861408 -0.01227767801 -0.04475772285 0.8168230019 0.5656549884 0.1132899713
0.0169585371 0.05137866783 -0.05860936165 0.9898581912 -0.03253498242 0.1382831743
-0.01261993599 0.06060000229 -0.07277650452 0.6886388938 -0.2851083924 0.6667005914
-0.01489187932 0.0600395422 -0.07472943115 0.6886388938 -0.2851083924 0.6667005914
-0.01963995728 0.03198429416 -0.0665609436 0.9702408582 0.01942505759 0.2413614391
-0.02051770646 0.01707159192 -0.06108639635 0.9993644408 0.01543203631 0.03213357762
0.01705262608 0.05211528312 -0.06092582915 0.9952392762 -0.0352409558 -0.09086725543
-0.01116041036 0.06041482925 -0.07647875006 0.5745639519 -0.2194576353 0.788488815
-0.01701601791 0.04675971014 -0.07211021978 0.8089462919 -0.01696955422 0.5876375848
-0.01972105138 0.02708792623 -0.06631813749 0.9537002179 0.01747422187 0.3002508052
0.01620831331 0.06056367874 -0.06622402445 0.9617532782 -0.06241669293 -0.2667110579
-0.01432889633 0.002442610765 -0.07025190582 0.6935708772 0.3741514445 0.6156055026
0.01683768654 0.05734258652 -0.06326259995 0.9897137485 -0.06768740629 -0.1260361496
-0.01454460023 0.05186087105 -0.07511309329 0.7061518018 -0.05618265801 0.7058279831
-0.01854107208 0.03634005051 -0.06952417755 0.9167918873 -0.02691539487 0.3984572711
-0.0006854084773 0.04192358889 -0.08113112313 0.04704771333 -0.01696280608 0.9987486049
-0.01892535146 -0.003402506113 -0.05541640027 0.908942026 0.354071096 0.2201318975
-0.01702253041 0.03709628267 -0.07208741819 0.8064643857 0.01379924181 0.591121625
-0.02002316952 0.007262066126 -0.06127443409 0.9664278078 0.1241397349 0.2249591487
0.01688323402 0.04764570427 -0.06307460976 0.9960787909 -0.01978115567 -0.08623078396
-0.00611315546 0.06060000229 -0.07727502747 -0.357842685 0.3223760978 -0.8763687947
-0.01136551261 0.05663527075 -0.07768902779 0.5851089002 -0.1401011905 0.7987610602
-0.01455084475 0.04682674662 -0.07509459305 0.7071436933 -0.01759799849 0.7068508382
0.007348443031 0.04377656555 -0.07980982971 0.1938908518 0.003226157779 -0.9810178029
-0.01848025227 0.03132184076 -0.06966099358 0.91246901 -0.009636027044 0.409032337
0.01440003268 0.06045295842 -0.07109101613 0.8555131726 -0.165393233 -0.4906549601
0.01657166417 0.04825609843 -0.06464311727 0.9951866201 -0.002899126547 -0.09795502164
0.003951002598 0.04722217369 -0.08073323822 -0.1013445394 0.0129534539 0.9947670543
-0.01165664621 0.05200659665 -0.07749933208 0.6066190241 -0.03904836179 0.7940331133
-0.0145405185 0.04196382592 -0.07512173254 0.7067880115 0.0001107643461 0.7074253986
-0.01706808243 0.03208245907 -0.0720440918 0.8064845805 0.01381699172 0.5910936577
-0.01856340942 0.02668668022 -0.06948678589 0.919844986 0.003537517462 0.3922660929
-0.008937885125 0.04220659256 -0.07912626775 0.3992061301 -0.001720129346 0.9168595895
0.01391767597 0.05670498047 -0.07037436371 0.8613960639 -0.1338017942 -0.4899937765
0.003294247079 0.03680204697 -0.08088048553 -0.1077373757 -0.005691705552 0.9941630965
-0.005436604602 0.06029914093 -0.07986291504 0.1896370029 -0.2178125234 0.9573899476
-0.01448368792 0.03207169117 -0.07517862632 0.7082843829 0.01744903776 0.7057115303
-0.01702357795 0.02697241644 -0.07211302046 0.8039971562 0.002837135277 0.594626373
-0.01693795163 -0.003536468983 -0.06121878924 0.8128439006 0.4321300166 0.3905745026
0.01105772686 0.06027697372 -0.07358384705 0.7031262288 -0.2224510753 -0.675373249
-0.0001292207837 0.06060000229 -0.07824215698 0.01964601606 0.3183275118 -0.9477772045
-0.005609017587 0.0369496521 -0.0803519455 0.2541431701 0.02129464919 0.9669321522
-0.01137548785 0.04701040615 -0.07770313471 0.5915356067 0.01822715258 0.8060728236
-0.01454539661 0.0369944767 -0.07512971115 0.7064463712 0.01548035699 0.7075972606
0.01316508071 0.06060000229 -0.07483958181 0.7338931296 -0.2035774709 -0.6480409614
-0.01279585552 0.004626308441 -0.07306173706 0.59342333 0.3488412816 0.7253678458
0.009088272095 0.04719216537 -0.07908475494 0.2922861093 0.004690476152 -0.9563194183
0.009240241051 0.06060000229 -0.07680756226 0.5630572175 0.2986860658 -0.7705538293
-0.01457828636 0.02697699223 -0.07509353638 0.7091093493 0.005165405465 0.7050796049
0.005219823917 0.06060000229 -0.0775317688 0.3412602482 0.2922344095 -0.8933870902
-0.008982897186 0.05163051147 -0.07911581421 0.4079078248 -0.04040054791 0.9121288298
-0.01152757397 0.04183367081 -0.07759533081 0.5896206568 0.0005711888685 0.8076801068
-0.01707104025 0.02177103462 -0.0720406105 0.8051620247 0.01902337333 0.5927497156
-0.01846837807 0.01758300591 -0.06949894714 0.9088316355 0.05348252189 0.4137205314
-0.005882168163 0.05182403634 -0.08025074074 0.2461444238 -0.03905338779 0.968446052
-0.0009219148383 0.01175991511 -0.08014535522 -0.08868393199 -0.2038856257 -0.9749696466
-0.01704329615 0.01668592434 -0.07177753677 0.7970516303 0.07485600811 0.5992539334
-0.01821109772 0.01286720657 -0.06914739609 0.9082369044 0.1036194077 0.405424153
-0.0174267602 0.006098495722 -0.06793491936 0.8366984342 0.2349980308 0.4946833895
-0.01676540506 0.001846767297 -0.06640712738 0.7893915668 0.3563938499 0.4998443538
-0.01435721874 -0.007444579124 -0.06139794922 0.7060865438 0.565626351 0.426038289
0.007648796558 0.06060000229 -0.07897504425 0.3412602482 0.2922344095 -0.8933870902
-0.0007461240888 0.05701779842 -0.08110367298 0.02196092322 -0.2025303556 0.9790297099
-0.01466299305 -0.002243201697 -0.06643894958 0.7514362208 0.4115508106 0.5157223442
0.007999609947 0.05876185608 -0.07953108978 0.3412602482 0.2922344095 -0.8933870902
-0.0007876797421 0.05195304966 -0.08110002136 0.06646937033 -0.04579061334 0.9967371983
-0.01161397733 0.03182364104 -0.07754916636 0.5922941549 -0.01884420639 0.8055014152
-0.01458071899 0.02177597462 -0.07508526056 0.7089994393 0.01259729053 0.7050965206
-0.0154567657 0.007137523015 -0.07128907691 0.750985554 0.2515405087 0.6105309739
-0.01389957905 -0.005862597466 -0.06404106903 0.6952594749 0.503752693 0.5126865386
0.003507864952 0.051808815 -0.08082325745 0.1144538165 0.08067068311 -0.990147749
-0.008831837893 0.0368091507 -0.07919476128 0.3954630362 -0.005095779751 0.9184677567
-0.0114746356 0.01697370517 -0.07741720295 0.5826160824 0.1041667531 0.8060445323
-0.01151440133 0.02731197908 -0.07761891768 0.595898238 0.01218085604 0.8029675689
-0.01440419233 0.01681986833 -0.07502023792 0.7000782891 0.06738723032 0.7108792797
-0.009127605677 0.03221821785 -0.0790500946 0.416459954 0.003990033948 0.9091453054
-0.0114463069 0.02189645367 -0.07766550751 0.5936326514 0.03426826025 0.804006195
-0.005787335157 0.03225414886 -0.0802924469 0.2430912457 0.02672148871 0.9696352966
-0.00915398941 0.02695235519 -0.0790334198 0.3948251236 0.003409445456 0.9187499646
-0.01033357334 -0.002201612949 -0.07073434067 0.4912278671 0.5166680672 0.7012483803
-0.01147997475 -0.00441858387 -0.06816996002 0.6235228758 0.4970340757 0.6034702568
0.004424173594 0.04195988388 -0.08065198975 -0.1810030298 0.006178912078 0.9834631281
-0.001117267691 0.0371744709 -0.08111578242 0.07052476236 0.02055750934 0.9972981734
-0.005858045757 0.02684134467 -0.08027190336 0.2426520751 -0.01533621202 0.96999215
-0.0107690674 0.01193088179 -0.07698576707 0.5561006386 0.2040936352 0.805666102
-0.0110119115 0.007100325902 -0.07535754649 0.5613965504 0.2722368532 0.78148641
-0.01154242063 0.001450951941 -0.07232559776 0.5862675154 0.3876506411 0.7113489867
0.008088958979 0.03758544159 -0.07951315689 -0.2007431468 -0.007593653015 0.979614478
-0.000825076744 0.03205476952 -0.08111324406 0.09268221393 0.04745571874 0.9945642071
-0.009007894516 0.01781155396 -0.07898139572 0.4171885411 0.0822366912 0.905091624
-0.0005532627565 0.02685391331 -0.08113881175 0.0473894648 -0.002069273924 0.9988743448
-0.008148638725 0.01436505318 -0.07898484802 0.393408168 0.1653689933 0.9043689012
-0.005814750731 0.002134499595 -0.07576796341 0.3234122776 0.4202769581 0.8478040913
-0.006423256397 -0.001951631188 -0.07320565033 0.3669571948 0.4954208592 0.7873376591
0.003893075069 0.0270954806 -0.08077484639 -0.08618160138 -0.006894898176 0.9962555857
0.00404717958 0.02274846935 -0.08071565247 -0.1153127833 0.0144170904 0.9932246017
-0.001051200151 0.01660313606 -0.0808664917 0.05655479199 0.09021924388 0.9943148614
-0.004523291588 0.00904318428 -0.07897666168 0.2867372584 0.2653281801 0.920533922
-0.001401116252 -0.001406003237 -0.07472389221 -0.2650655714 -0.4698442486 -0.8420134351
-0.001456210494 0.007836296082 -0.07908109283 -0.1840620043 -0.2729224863 -0.9442639965
-0.001275800586 0.005858041763 -0.07840927887 -0.2098717531 -0.3725938578 -0.9039511405
