# .PCD v0.7 - Point Cloud Data file format
VERSION 0.7
FIELDS x y z normal_x normal_y normal_z
SIZE 4 4 4 4 4 4
TYPE F F F F F F
COUNT 1 1 1 1 1 1
WIDTH 559
HEIGHT 1
VIEWPOINT 0 0 0 1 0 0 0
POINTS 559
DATA ascii
-0.01244171047 0.03288136292 -0.07699016571 0.6058511212 -0.0008298819305 0.7955776079
-0.01760676193 0.01062029839 -0.01152033997 0.8491813829 -0.5280328784 -0.008500488957
-0.01865321159 0.008645723104 -0.01104947948 0.8990909989 -0.4377509699 0.003076364495
0.004633028984 0.02307053375 -0.08064141083 0.2768312289 -0.2927890793 -0.9152262156
-0.01953025913 0.006496273041 -0.01127506828 0.9532118309 -0.3023018048 0.0009079422924
-0.01931475067 0.04098913956 -0.05347457123 0.9358087868 -0.001138196941 -0.3525061973
-0.01915857887 0.008845032692 -0.04574875641 0.9262240076 -0.3335208212 -0.175706999
-0.01454765868 0.01454770327 -0.02132961655 0.7141887676 -0.6999472583 0.002870530049
-0.01996351051 0.004850839615 -0.009789079666 0.9760069366 -0.2173341143 -0.01327939937
-0.017939991 -0.008017250061 -0.05100087357 0.8858560138 0.4053134365 0.2257878231
-0.02035381126 0.00316522646 -0.00913198185 0.9846953409 -0.1742703879 -0.002217535747
-0.01776042747 0.0544516983 -0.05017510605 0.8745218068 0.001094274299 -0.4849849606
-0.02051965904 0.001247098029 -0.009124528885 0.9970982791 -0.07601172579 0.004152021188
-0.007544092655 0.02577153587 -0.07976088715 0.3745635288 -0.001262616366 0.9272003929
-0.01877264118 -0.002835868716 -0.05708761406 0.9087000772 0.3346492763 0.2495476539
-0.01975771904 0.01146590137 -0.05163454819 0.9654535579 -0.1570126851 -0.2079577945
-0.02031270218 -0.00335693717 -0.005803003311 0.9842842461 0.1764593835 -0.006827071788
-0.006708192348 0.01946077156 -0.02328142548 0.3421534491 -0.9396440797 -0.0001442629051
0.01156783867 0.01697641945 -0.001788201928 0 0 1
-0.01756689835 0.02364529228 -0.07135441589 0.8497297148 0.005970723425 0.5271847515
0.006361963749 0.01954301262 -0.005692703247 0.2378995038 0.971280328 0.004283759134
-0.01465146637 0.01902778244 -0.07498353195 0.7013033551 0.03867598956 0.7118130176
-0.01937822533 0.006913706779 -0.03559447479 0.9396510376 -0.34213369 -0.0006824824171
0.0008304667473 0.02055533028 -0.008980186462 -0.02451513392 -0.9996974138 0.002022115597
-0.001373102784 0.02054862213 -0.01183514023 0.09421835911 -0.9955439504 -0.003891482515
-0.004926152229 0.0199880867 -0.01158736229 0.2459137812 -0.969214581 -0.01222735511
-0.02033165836 0.0006370604038 -0.05291460228 0.9840266594 0.1515550054 0.09339493469
-0.008442932447 0.03699327977 -0.0793544871 0.4181563294 -0.002112702455 0.9083726222
-0.008668342113 0.01864443016 -0.01279244518 0.4031085442 -0.9151426297 0.004179569631
-0.01064229202 0.0176067524 -0.01326285839 0.5139951163 -0.8577924117 0.001094938801
-0.01241239309 0.01638647032 -0.01353910828 0.6168820193 -0.787035256 -0.005663930233
-0.01454363108 0.01454369831 -0.01368404245 0.7067734561 -0.7073853402 -0.008789893288
0.0168196125 0.05521303813 -0.06338957214 0.982019039 -0.006274558969 -0.1886776006
-0.01594408798 0.01296480656 -0.01359439564 0.7838758895 -0.6208801584 -0.006813132082
0.01625449181 0.06042973137 -0.0551833477 0.8724231538 -0.4624038427 0.1583051707
-0.01760052299 0.0106358242 -0.01325648117 0.850206467 -0.526439479 0.003230849422
-0.01932437992 0.01667026043 -0.06735428619 0.937150251 0.04974041831 0.3453625599
-0.02037207699 0.002862131953 -0.0310124445 0.9904870727 -0.1372986641 0.009188892885
-0.01864492226 0.00866877079 -0.01279290771 0.9031284381 -0.4291344853 0.01423438521
-0.0147791357 -0.0009338102937 -0.06751258087 0.723365208 0.4218478398 0.5466142843
-0.02025538826 0.03333480263 -0.057081604 0.988169013 -0.003028132404 -0.1533389455
-0.0199546032 0.004889866829 -0.01155231571 0.978072109 -0.2082628177 0.001244356268
-0.02054442787 -0.0008426681757 -0.0089685812 0.999231793 0.03918946058 -0.0001004395961
0.007200324297 0.05470873642 -0.04514567947 -0.4285754594 -0.002123066847 -0.9035034965
-0.0107179575 0.01755516434 -0.0234434433 0.5188813916 -0.8548159572 -0.007195885852
-0.02033341408 -0.0032554636 -0.007650402069 0.985417699 0.1700611808 -0.005581505509
-0.01960767555 -0.00628801775 -0.005762329578 0.9718347022 0.2355004812 -0.008765550523
-0.01401993752 0.005880311966 -0.07244980621 0.6829224217 0.301453316 0.6653892577
-0.01717245293 -0.01134123325 -0.002000502825 0 0 1
0.01111586666 0.017285429 -0.003996281147 0.9786566342 0.08058185373 -0.1890443262
-0.01958466148 0.007360390186 -0.04531324768 0.9541710662 -0.2782146493 -0.1102460221
-0.008779233932 0.01860166073 -0.0213471365 0.4050393806 -0.9142979087 -0.001560235386
-0.006844720364 0.01942218208 -0.03074355316 0.3091302208 -0.9509539312 0.01118603186
0.006225041389 0.01958787727 -0.007576048374 0.2320772965 0.9726859053 0.004717846918
-0.005239124298 0.06056074905 -0.04434714508 -0.2524662448 -0.5321305408 0.8081447165
0.01379829502 0.04895689583 -0.05055680466 0.8046233039 0.002028525023 0.5937821351
0.0007577009201 0.02055792046 -0.01077946091 -0.0219178699 -0.999714065 0.009560080585
-0.01070553589 0.01756363297 -0.021772089 0.5196632028 -0.854335034 -0.007861632463
-0.02003990618 0.04702220027 -0.06521224721 0.9781720098 0.01043896059 0.2075344484
-0.02022946612 0.05660091909 -0.05697725296 0.9809080532 -0.009126108132 -0.1942578319
-0.004963292599 0.0199777298 -0.01333752632 0.235183359 -0.9719224056 -0.007458220724
0.01490754461 0.058820755 -0.06886374664 0.8452408937 -0.2285913632 -0.4830256932
-0.006529315472 0.01950282288 -0.01388044643 0.2966685061 -0.9548940368 -0.01285208458
-0.01862313525 0.03697093582 -0.06933740234 0.9078165731 0.0008093963848 0.4193666827
0.003253429532 0.05135945511 -0.04383587646 0.2147455605 -0.0177437919 0.9765088336
-0.004241688728 0.00515539217 -0.07766724396 0.2148186379 0.355347277 0.9097149364
-0.008473309835 0.01874161212 -0.01504105155 0.4010398628 -0.9160322947 0.007201635927
-0.01893701744 -0.008039809227 -0.02885181046 0.9484551004 0.3168438454 -0.006549826675
0.009994740009 0.05068403625 -0.04675634003 0.5932451881 0.004409451533 0.8050097537
-0.02000457573 0.006564041615 -0.04721773911 0.973354168 -0.2035994917 -0.1054936524
-0.0106550951 0.01759802246 -0.01498555851 0.5198437753 -0.8542567178 0.002812339601
-0.02003125954 -0.004734727383 -0.02912817955 0.9688343667 0.2477020536 0.001913796151
-0.01241942644 0.01638123894 -0.01525800133 0.6201860388 -0.7844533 -0.001515680889
0.01891470146 0.06060000229 -0.06308194733 0.7451998342 -0.6608188079 -0.08941873541
-0.0205683403 0.01242324972 -0.05901756859 0.999929282 -0.0003190841637 -0.01188819271
-0.01594060326 0.01297051811 -0.01531295776 0.7800946231 -0.6256611839 0.0006796348659
-0.01720737267 0.01125921345 -0.01509177446 0.846099699 -0.5330246681 5.146838035e-05
-0.006820652962 0.009520641327 -0.07842459106 0.3443793592 0.2642882179 0.9008632498
-0.0187379233 0.008469341755 -0.01503728008 0.9100379256 -0.4143004798 0.01364135155
-0.02051818657 0.02140747452 -0.05884447479 0.9949950993 0.01053502097 -0.099366824
-0.0044674263 0.007192684174 -0.07837721252 0.2071971828 0.3168639596 0.9255628334
-0.01703669167 0.03482918167 -0.04908272552 0.8551904248 0.0003907449012 -0.5183137898
-0.01951390076 0.006541189671 -0.01389186954 0.9540670597 -0.2993803497 -0.01128945347
0.00966616106 0.0551030407 -0.046549366 0.5883497821 -0.009363778296 0.8085523196
0.0002612265646 0.02057559967 -0.02305574608 0.007992064305 -0.9998974589 0.01188270198
0.01603772783 0.04674027443 -0.05482321167 0.9394946897 -0.008622451124 0.3424549334
-0.01067339802 0.0005548353791 -0.07247312164 0.5162123819 0.4567617367 0.7244953366
-0.02033793449 0.00325885272 -0.01266864872 0.9873244616 -0.1586083452 0.005813809009
0.009798773766 0.06060000229 -0.07826277924 0.05918497475 0.9470423951 -0.3156070987
-0.01454543495 0.01454549217 -0.01710849667 0.693368319 -0.7205247665 0.009188857157
-0.02051671219 0.001337781787 -0.01180167961 0.9956400437 -0.09327729411 0.0004997930631
0.005554635048 0.01980754471 -0.01679739189 0.2006633242 0.9796445733 0.005544397961
-0.0205518074 -0.0007645410895 -0.01077301407 0.9999098199 0.0113469699 0.007183201944
-0.02035307503 -0.003155709505 -0.009484238625 0.9871270466 0.1599330352 0.001272025466
-0.01661196804 -0.01193568707 -0.04343606186 0.7421965297 0.6691873892 0.03650410144
-0.02045289707 0.01038056421 -0.05522672653 0.9920321702 -0.07589046428 -0.1005624714
-0.01966191101 -0.006140414238 -0.007655011654 0.9732983431 0.2294569282 -0.006312953732
-0.01933493423 0.02712480354 -0.06770384979 0.933930388 0.004713300787 0.3574238592
0.007525483608 0.06060000229 -0.04155902863 0.09939724002 -0.9782468666 0.1820803578
0.009440822601 0.05281916809 -0.04639816666 0.5459575743 -0.009365647282 0.8377604739
-0.005073330402 0.01994704628 -0.01852286911 0.2119203841 -0.9772803104 0.003598024062
-0.004812535286 0.06027709961 -0.08038689041 0.2271350893 -0.7631435046 0.6049972252
-0.01733691597 -0.01105637646 -0.004051512718 0.9936126094 0.09075018191 -0.06707001555
0.01674863942 0.05114520264 -0.05734947332 0.9779691157 -0.006342625443 0.2086532528
-0.01648135281 0.05275379562 -0.07287892914 0.7926477166 -0.007649845165 0.6096319195
0.009095478058 0.0588537178 -0.04618305206 0.5707144536 -0.2331052346 0.7873671076
0.01066839123 0.017591362 -0.006182393551 0.6718912213 0.7398695276 -0.03398924573
-0.01633829069 0.01248962879 -0.03108746338 0.7836162844 -0.6212444361 0.0009324351883
-0.002732206285 0.02037812901 -0.02684888649 0.1343349024 -0.9908896454 -0.009583563889
-0.01461033249 -0.00510581255 -0.06380320549 0.6954924406 0.5313006068 0.483745729
0.006089086533 0.0196324234 -0.009446090698 0.2261183038 0.9740861742 0.005161189459
-0.01808429527 0.05933436203 -0.07039715576 0.853388165 -0.3059909411 0.4220168052
-0.01994594383 0.04479700724 -0.06563563029 0.962523026 -0.008565345745 0.2710646774
-0.001432715535 0.02054639244 -0.01360396004 0.1024811703 -0.9946786838 -0.01057949288
-0.02057699299 0.004775810957 -0.05309269142 0.9999978133 -0.0003125465465 0.002067758179
0.001955481172 0.03043878555 -0.08108337402 -0.09751974613 -0.005132576665 0.9952203554
0.009598825455 0.01819824982 -0.01411477757 0.6718801117 0.7398797067 -0.03398727985
-0.003283974528 0.02028570843 -0.01524881887 0.1698606655 -0.985467956 0.0005119181639
0.01707165718 0.05745992851 -0.0610290966 0.9886911407 -0.1345469727 -0.06623398313
0.01125381231 0.04537789726 -0.04777595329 0.6479640316 -0.001117471085 0.7616701156
-0.006562295437 0.0194950695 -0.01561370659 0.3028663511 -0.9530252201 -0.003860468097
-0.008953808784 0.01851369985 -0.0174446106 0.4216416133 -0.9067186218 -0.008926970762
0.01745988178 0.06060000229 -0.05922897148 0.7999148355 -0.574655422 -0.1729375663
-0.01934877205 -0.007058956623 -0.03927811813 0.962740778 0.2703838326 -0.004772567519
-0.01242847967 0.01637804794 -0.01696835995 0.6194386985 -0.7849992314 0.008479705298
-0.01593714046 0.01297619438 -0.01702097702 0.7751213842 -0.63178747 0.005606467205
0.003027339697 0.02033082581 -0.01305132103 -0.1637214822 -0.9865059945 -0.001095035637
-0.01769944 0.04827490616 -0.0711280899 0.8575503546 0.000666169405 0.5143995971
-0.01976981258 0.03884899902 -0.05490221405 0.9631485024 0.003409487754 -0.2689485781
-0.0193130188 0.03081144905 -0.05346957016 0.9411415919 -0.004612911135 -0.3379811015
-0.01720120335 0.01127141905 -0.01680383682 0.8426204312 -0.5384945722 0.00379534702
-0.018519104 0.008959436417 -0.017450044 0.8979520786 -0.4398662193 -0.01413412868
-0.01435445118 -0.009577397346 -0.05835985184 0.7455604486 0.5333075142 0.3996532408
-0.01856160259 0.008888362885 -0.0296506834 0.9133133036 -0.407024398 -0.01378219318
-0.020551898 0.05294925308 -0.06128416252 0.997943715 -0.002050186429 0.06406354974
-0.02027078724 0.02645757294 -0.05714616585 0.9859889147 -0.01332906995 -0.1662774671
-0.01025276852 0.02329717445 -0.07843165588 0.4901585928 0.003968513838 0.8716242337
-0.01714074135 0.05083361816 -0.07192580414 0.8466387046 0.001484244709 0.5321660464
-0.01950308418 0.006570884705 -0.01562189484 0.9524380899 -0.3046932365 -0.004869963261
0.01666620445 0.05253870392 -0.06433232117 0.9752630941 0.01273164192 -0.2206803175
0.002701076984 0.02038605881 -0.01927953815 -0.1448426541 -0.9894529808 -0.001845088149
-0.0205534687 0.02670405388 -0.05952008438 0.9992392726 -0.01108979926 -0.03738839944
-0.006451578617 0.01270563602 -0.07932273865 0.3116868169 0.183340389 0.9323291425
-0.01993695641 0.004967183113 -0.01504541016 0.9727359007 -0.2318264883 -0.006430142275
0.016693326 0.04347749519 -0.05703017044 0.9705694366 0.01465595311 0.2403750649
-0.0203261652 0.003328258514 -0.01529041243 0.9856231781 -0.1689526058 -0.001402794342
0.01521427393 0.04676072884 -0.05287903786 0.8953932776 0.007407804689 0.4452145583
0.0005779038966 0.02056432343 -0.01522528887 -0.01660578747 -0.9998619328 0.0006026654533
-0.02051476288 0.001397718072 -0.01357110786 0.9949180607 -0.1005470462 -0.005323914512
-0.02055913925 -0.0006869276762 -0.01256558132 0.9999060703 0.01369813583 0.0004600807395
-0.02037171364 -0.003057635546 -0.01130476284 0.9869464961 0.1610151122 -0.003278327072
0.01472146893 0.04218261719 -0.05194704819 0.8730418898 -0.03257577366 0.4865559348
-0.01675590324 0.003048356652 -0.06736784363 0.8076865157 0.3130703256 0.4996293261
0.00399543035 0.04907298088 -0.04401548958 0.2242085326 0.00217969861 0.9745387539
-0.02058420753 0.0003952241838 -0.03969698715 0.9997400457 -0.01795233896 -0.01405541338
-0.01970203018 -0.00600955534 -0.009519626617 0.9745951044 0.2239372099 -0.004063061203
-0.01247441673 0.0163522377 -0.02701027584 0.6193005831 -0.7851016879 0.009062420433
-0.007224775791 0.04950031281 -0.07984951782 0.358644495 0.004575461964 0.9334630102
-0.01749999809 -0.01077391052 -0.006085314274 4.703567989e-07 -0.990492682 -0.1375654276
-0.0124819169 0.01634802294 -0.02864985657 0.6196706598 -0.7848214337 0.007974366138
0.01027011299 0.01785548401 -0.008306118965 0.6718877696 0.7398727101 -0.03398820234
-0.01933176899 0.02882128048 -0.06764551163 0.934101177 0.00297457566 0.3569959986
-0.01930878448 0.04833320236 -0.06772663116 0.9327088653 -0.004725356623 0.3605992839
0.005954083443 0.01967666054 -0.01130304146 0.2200180158 0.975479653 0.005614209572
0.01657349396 0.05733688354 -0.06480957031 0.9725517259 -0.09043535051 -0.2143935351
-0.0163499279 0.02093374825 -0.04808220673 0.82603268 -0.0275123941 -0.5629503351
0.01666113567 0.04686116219 -0.05689437866 0.9789882354 0.00551055996 0.2038422643
-0.02029794693 0.003486559629 -0.0213168087 0.9835735886 -0.1805020146 -0.001420767272
-0.001491948485 0.0205441761 -0.01536150742 0.1039112644 -0.9945852207 0.001639502475
-0.005036877632 0.01995721054 -0.01680511284 0.2062576841 -0.9784904679 0.003764576337
-0.02047598457 0.0007067395449 -0.05070649338 0.9944210206 0.08569418087 0.06150887107
0.01469995689 0.05307465553 -0.05193699646 0.8709045398 -0.02139406623 0.4909863303
0.0009379683435 0.02551335716 -0.08116216278 -0.03818114778 -0.004287505704 0.999261636
-0.01608660412 0.008905587196 -0.07130892181 0.7811829933 0.2264285019 0.5817931459
-0.004704364061 0.04656388283 -0.0806111908 0.2208092077 -0.006447041595 0.9752957139
-0.006595070362 0.01948736572 -0.01733621597 0.3018264603 -0.9533611523 -0.001816878062
0.003894135714 0.05904700851 -0.04400434494 0.2143281029 -0.472437598 0.854907118
-0.01068675327 0.0175764389 -0.0192450676 0.5212287385 -0.8534163575 0.001059647882
-0.01974494743 0.05503180885 -0.05489144897 0.9617650232 0.005293946276 -0.2738247877
-0.02044549179 -0.002303069353 -0.02707907867 0.9939198109 0.1100169214 0.00443694534
-0.01983343887 -0.00552509594 -0.01682371902 0.9789102341 0.2042908553 1.000478364e-05
-0.01243625069 0.01637368155 -0.01866710377 0.6197957269 -0.7847278768 0.007444218272
-0.02024071884 0.04332526588 -0.05701735115 0.9844007237 -0.002678727114 -0.1759205491
-0.01593369865 0.01298183632 -0.01871861267 0.7750236772 -0.6319321347 0.0002773350599
-0.003924224854 0.05793581772 -0.04401034927 -0.228307849 -0.3176356232 0.9203168677
0.003892144442 0.06060000229 -0.07753235626 -0.2031067489 -0.9333140236 0.2960955622
-0.01995438067 0.004995300452 -0.03925958379 0.9732054826 -0.229587812 -0.01266985628
-0.01732203102 0.01108802541 -0.0190351429 0.8444720738 -0.5354967781 0.01049367744
-0.01886680222 -0.008207069397 -0.02707386208 0.9465244634 0.3225671411 -0.006471450103
-0.01992821503 0.005005479336 -0.01677560997 0.9785982048 -0.2057160409 -0.005144333552
-0.003233741283 0.03337136459 -0.08094304657 0.1527579155 0.004067983633 0.988255266
0.01122702694 0.06060000229 -0.0452810936 -0.393102152 0.7660206081 -0.5086090109
-0.02038468552 -0.002966478348 -0.01310736275 0.9876374804 0.1567547986 -0.0003747036669
-0.01244781399 0.01636718512 -0.02119481468 0.6193989936 -0.7850756652 0.001042365028
-0.0197360878 -0.005886208057 -0.01136522961 0.975679648 0.219184456 -0.002720049799
-0.01766172218 -0.01049379349 -0.008102199554 7.425797462e-06 -0.9904926214 -0.1375658638
0.005820016861 0.01972058868 -0.01314710712 0.2137719222 0.9768646952 0.006077208921
-0.0143174715 0.04185995102 -0.04581409454 0.7529998524 0.003581980141 -0.6580109359
-0.001550196409 0.02054141998 -0.01710739326 0.1061968909 -0.9943211915 0.006898443157
0.0196712265 0.06060000229 -0.05912669373 -0.3053769876 0.9519801357 -0.02187959408
-0.01938771915 0.03556052017 -0.0674773407 0.9369542671 0.009032840309 0.3493352389
-0.006787595749 0.01944210625 -0.02745451355 0.3139184435 -0.9494492891 0.001121760767
-0.006627643585 0.01947970772 -0.01904813766 0.3178962987 -0.9481236505 0.001867239005
-0.008758137226 0.01861088467 -0.01965778828 0.4238427828 -0.9056879261 -0.009309990151
-0.01453955364 0.03461069997 -0.07516261292 0.7091969401 -0.009854635074 0.7049415481
-0.01845118523 0.06060000229 -0.05891250992 0.7855672725 -0.6159653665 -0.05891288137
0.00835614872 0.01881290436 -0.02530012131 0.3288987316 0.9442934882 0.01163754701
-0.01592948294 0.01299115276 -0.021245574 0.7798942783 -0.6259064528 0.002455004209
0.01707445145 0.05260140991 -0.06127666092 0.9980140419 0.0107183744 -0.06207325273
0.001633315146 0.05268573952 -0.04362566757 0.07090570613 -0.006247349953 0.9974634587
-0.001930644512 0.02050683784 -0.02901716042 0.1238641265 -0.9922986063 -0.001074258654
-0.01705595144 0.01150314267 -0.02135168711 0.8296949465 -0.5580593341 -0.01326933603
-0.00542617178 0.01984865761 -0.03514990234 -0.2635812613 0.9646027278 0.008154519726
-0.01666649437 0.05201858139 -0.04855743027 0.8198040448 0.00342926421 -0.5726338868
-0.01939337158 0.006872121572 -0.03317175293 0.9382073778 -0.3460625289 -0.002764484985
-0.01663094521 0.04874102402 -0.04849720001 0.8176033898 0.003478896449 -0.5757713038
-0.02054781723 0.008606537819 -0.05532119751 0.9990698802 -0.02765759591 -0.03308219963
-0.01861201572 0.008759270191 -0.01965888405 0.8977621131 -0.4403944898 -0.008711004889
-0.01991952896 0.005043539047 -0.01849513435 0.9775169472 -0.2108497957 -0.00172673507
-0.01640446949 0.05089240265 -0.07300571823 0.7913597366 -0.0120356697 0.611232288
-0.01634468937 0.01247860289 -0.02864678669 0.7833790413 -0.6215029299 0.007168390907
-0.02031449318 0.003397087097 -0.01789036751 0.9849623194 -0.1725301168 -0.009087799919
-0.02058084679 -0.0004570906758 -0.01787392426 0.9999275447 5.055930326e-05 -0.01203755774
-0.0185045042 0.009032993317 -0.04088374901 0.9016570483 -0.4315485721 -0.02793559019
-0.01467841959 0.00930190134 -0.07310109711 0.7171734423 0.2257483694 0.6593177742
0.005686872482 0.01976421547 -0.01497849083 0.2074525258 0.9782239297 0.006433725487
-0.02008928108 0.04119923019 -0.06515202332 0.9782017078 0.003916161971 0.2076200439
-0.006688848019 0.05056673813 -0.08005820465 0.3414206865 -0.004539954616 0.9398996243
-0.01077899742 0.0175135479 -0.03165608215 0.5227089867 -0.8524700383 -0.008375497762
0.0004713109732 0.02056811905 -0.01786100388 -0.001469545429 -0.9999697456 -0.007638612635
-0.003797275543 0.01364258766 -0.0802040329 0.1733857423 0.1695765463 0.970144927
0.002472358227 0.02042477798 -0.02364567757 -0.1335218425 -0.9909486457 -0.01388161149
-0.0202390995 0.04495417023 -0.05701122284 0.9839049961 -0.004178179298 -0.1786435041
-0.002503786325 0.02040303898 -0.01920611382 0.1156951995 -0.993277598 0.003772816975
-0.02044340897 0.02655407524 -0.06298117638 0.9926884733 -0.01322415324 0.1199779845
-0.005127566099 0.01993192291 -0.02107863712 0.2507168537 -0.9680553865 0.003134965732
-0.0193842659 -0.006935326099 -0.04094940948 0.9632362179 0.2684593548 0.01027440206
-0.006660018921 0.0194720974 -0.02074963379 0.3448700424 -0.9386412254 0.004159786796
-0.003814051628 0.02021542358 -0.03460534668 0.1866624409 -0.9824234454 -0.001143268251
-0.019471035 0.006658882618 -0.02074858093 0.9527025186 -0.3037346817 0.0101564884
-0.01859501266 0.008802809715 -0.02302884388 0.9098883821 -0.414827277 0.004632758021
-0.01990660381 0.005100165606 -0.02105347538 0.9686627152 -0.2483414406 0.004367273812
-0.01904084587 0.01279468536 -0.06727765656 0.9288395461 0.09699532029 0.3575597927
-0.01634898663 0.0124711957 -0.02700725937 0.7837495582 -0.6210224864 0.00822809204
-0.01785754776 0.06060000229 -0.07082923126 0.7237073493 -0.5066416098 0.4685743824
-0.02050899315 0.001575257301 -0.01881239319 0.9949286514 -0.1003978857 0.006102711263
0.0076047647 0.04686495209 -0.0453290062 0.4619438245 -0.00300610117 0.8869040908
-0.02040050125 -0.002797098875 -0.016667202 0.9885546467 0.1503028927 0.01299041553
-0.01980351257 -0.005642026424 -0.01501883125 0.9778154238 0.2094602925 -0.001839244176
-0.004887212753 0.06060000229 -0.04119618607 -0.2231898973 -0.7841770055 0.5790100982
-0.01719480896 0.03664293671 -0.07187275696 0.84424931 -0.001982480091 0.5359469866
-0.02001287937 0.006307130575 -0.0609193325 0.9756792836 0.1265132416 0.1790093163
-0.01835712433 0.06042889595 -0.06896774292 0.8346454552 -0.4601506401 0.302701755
-0.01989378357 0.005156337261 -0.02359127045 0.9652694013 -0.2612416618 0.002788726126
-0.02017421532 -0.004030685902 -0.04086797714 0.9769864522 0.2123017739 0.02062593228
-0.007118101358 0.06060000229 -0.04299822426 0.2253945759 0.7478998515 -0.6243741645
-0.01853418922 0.05878761546 -0.06946475474 0.8794055756 -0.2160871772 0.4242076914
-0.002554639399 0.02039737034 -0.02092221355 0.117734422 -0.9929448775 0.01410943322
-0.0176044445 -0.006124670982 -0.0562050705 0.865577733 0.4249511171 0.2649372307
-0.009124653816 0.06060000229 -0.04319825363 0.03988061674 0.9986700125 -0.03267633085
-0.01119992161 0.06060000229 -0.04417898941 1.090669632e-13 1 -6.075681215e-14
-0.01251415348 0.05665438588 -0.07690180969 0.6126014111 0.0006246787155 0.7903917516
-0.001624167323 0.05612660217 -0.04362911606 -0.08903269853 0.02249330945 0.9957746882
-0.01324710751 0.06060000229 -0.04514661026 -0.1722738781 0.9756974515 0.1354112039
-0.01422506475 0.0288122139 -0.07548017883 0.6894768559 0.00533719343 0.7242880502
0.002992351294 0.06060000229 -0.0436091423 0.005745525439 0.7561358972 -0.6543894054
-0.003149154902 0.06060000229 -0.04339893341 0.1354472231 0.6622930821 -0.7369002125
-0.02045109177 0.008467533112 -0.05373160172 0.9921783674 -0.08138869414 -0.09464654107
-0.008826351166 0.02698118782 -0.07920858765 0.4271785958 -0.01218394894 0.9040851723
0.0004008459747 0.02057062912 -0.01960338593 -0.00845195358 -0.9999342957 -0.007743954709
0.009640412331 0.05676460648 -0.04653543854 0.5671706831 0.0003063307986 0.82360022
-0.01974242973 0.03757416534 -0.06633079529 0.9605756268 0.005368867624 0.2779669773
-0.02039815521 0.05269281006 -0.06316910934 0.9922172314 -0.004853136857 0.1244243255
-0.0088002038 0.0185924921 -0.02302640915 0.4084302146 -0.9127367694 0.009815781237
-0.02059773636 -0.0001701087207 -0.02478526497 0.9999919032 -0.004011816711 0.000314471773
-0.01987854195 0.06055265427 -0.0553513298 0.6410668829 -0.6882930615 -0.3395377933
-0.01245928526 0.01636073875 -0.02370250607 0.6168858975 -0.7870438868 -0.003702657584
-0.01674310684 0.05845938873 -0.04868569183 0.7168012315 -0.3439864368 -0.606522321
-0.01965625572 0.05182513809 -0.06658473206 0.9587820246 0.0009942387524 0.2841408821
-0.01661885262 -0.01215298653 -0.03931253815 0.7421955204 0.6691885452 0.03650343
-0.01635765696 0.01245625353 -0.02369960213 0.7833603188 -0.6215650589 0.001867739269
-0.005391795635 0.01985824203 -0.03352999878 0.2705445596 -0.9627020626 0.003221783363
-0.01756213379 0.01072518921 -0.02345018959 0.8512159822 -0.5246172441 -0.01442562897
-0.01886829567 0.03214219666 -0.05238521194 0.9110796539 0.003176839371 -0.4122181122
-0.00719338131 0.0345079174 -0.07988364029 0.3663842543 -0.009667433552 0.9304134129
-0.01945523548 0.006702264786 -0.02327601242 0.9524898423 -0.3044866971 -0.007138044764
-0.004478186607 0.01862817955 -0.0806041069 0.2094174922 0.05551373285 0.9762492199
-0.01455286455 0.01455288148 -0.03121328259 0.7077391681 -0.7064692957 -0.00253066081
-0.02059393311 0.0001518236697 -0.03316871262 0.9998069974 -0.01840764904 0.006864864138
-0.01852190208 0.03468292427 -0.06956858063 0.9053683151 -0.006477687167 0.4245777356
-0.02049375534 0.06060000229 -0.06116989136 0.9148981282 -0.4021368234 -0.03531841276
-0.0127059083 0.01647716808 -0.04158160591 0.6008352375 -0.7512401261 -0.2731946015
-0.02058799171 -0.0003814537227 -0.01962084389 0.9999287117 -0.0008172772448 -0.01191232916
0.0008997747898 0.03785237885 -0.08116269684 0.03032402191 -0.004739484227 -0.9995288845
-0.02041190147 -0.002671912313 -0.0193055582 0.9895384309 0.1442681644 -0.0006249572536
-0.02039953105 0.05476116562 -0.06314097595 0.9930392834 -0.01115867811 0.1172538507
-0.0007524283528 0.06060000229 -0.04077129745 0.04957914215 0.9024538353 -0.4279240398
0.007395562172 0.02743430138 -0.07981661224 0 0 1
0.003350357294 0.06060000229 -0.04115914726 0.05263897137 -0.9583444207 0.2807224786
-0.002937163591 0.06060000229 -0.04179232025 0.155848017 0.8154843011 -0.5574017852
-0.009310626984 0.06060000229 -0.04477201843 0.0276472213 0.9994011707 -0.02080699671
-0.02050426674 0.00172064811 -0.02310459518 0.9932323303 -0.1160951644 0.003383898978
-0.01137718296 0.06060000229 -0.04573853302 5.948771003e-14 1 -4.002349223e-14
-0.01905182648 0.01814288902 -0.05254504776 0.9265872737 -0.08457557614 -0.3664464437
-0.0134158783 0.06060000229 -0.04669219589 -0.1873223385 0.9704499763 0.1521091219
-0.01833178902 0.05005704498 -0.05130632019 0.8814497699 5.626836991e-05 -0.4722777784
-0.01542734718 0.06060000229 -0.0476333046 -0.388105848 0.8678447356 0.3101924655
-0.01887818527 0.0251578331 -0.05239181137 0.9115840377 0.008977202183 -0.4110157564
-0.01500141144 0.05875944138 -0.04656263351 -0.6373234016 0.4316030697 0.638386773
-0.01871254222 0.008968184789 -0.0430284373 0.9075787793 -0.410244194 -0.08944529441
0.0003308200836 0.02057312202 -0.02133491135 0.00187447584 -0.9999912261 -0.003746195042
0.01206450176 0.04970139313 -0.04852817154 0.7046635581 0.00182623571 0.7095392412
-0.02007954597 0.06060000229 -0.05685668945 0.8010150898 -0.5693329802 -0.1850264399
-0.002326642672 0.02043498484 -0.0230767587 0.1190902071 -0.992883045 0.0008840549989
-0.01608815384 0.01515615749 -0.04555110168 0.7904517381 -0.4261520996 -0.4399777696
-0.005181367397 0.01991691971 -0.02361393356 0.265886329 -0.9639784133 -0.007076632299
-0.01894818878 -0.007106851101 -0.04705123138 0.944161015 0.3168390348 0.09040466706
-0.008608327866 0.01868813451 -0.02519701767 0.3943154387 -0.9189529864 0.006383068373
-0.0199882164 0.008186742783 -0.06233623123 0.9693816682 0.1249743326 0.2113778549
-0.01943955994 0.006745305538 -0.02578352547 0.9499334902 -0.3123984861 -0.005792232769
-0.01073030663 0.01754674339 -0.02510499191 0.5205478063 -0.8538071044 0.006588619236
-0.02022878075 0.05452005386 -0.05697983551 0.9841860404 -0.002692960545 -0.1771174351
-0.01246687317 0.01635647631 -0.02536120796 0.6201552604 -0.7843891164 -0.01188137561
-0.01859321117 0.06041593933 -0.053302742 0.6862402017 -0.6861143072 -0.2414985362
-0.02043810844 -0.002384138346 -0.02537051582 0.9914005118 0.1308615792 -0.0005217152288
0.008764364243 0.01861099243 -0.02162576675 -0.3448840466 -0.938562911 -0.01243609579
-0.01635330963 0.01246374607 -0.0253582468 0.7832107668 -0.6216588626 -0.01100696342
-0.01755421066 0.01073805237 -0.02511215019 0.8533055231 -0.5213930555 0.0043549985
-0.003768821955 0.02022084808 -0.03297319794 0.1732672146 -0.9848001572 -0.01212941921
-0.0202333107 0.05295207787 -0.05698456573 0.9842685281 -0.002191269355 -0.1766653984
-0.0196534996 0.02938388634 -0.05447057724 0.9521745154 -0.002879530054 -0.3055411601
-0.02007139492 0.04280005074 -0.06510293198 0.9739684092 -0.01645143784 0.2260860194
-0.01868898837 0.008609189669 -0.02519783783 0.9215587301 -0.3881827518 0.006607432283
0.006052172422 0.04902585983 -0.04463847542 0.3575107105 -0.005979464232 0.933889896
0.001232209563 0.06060000229 -0.04137307739 0.02518907854 -0.9726067016 0.2310881094
-0.0007955350876 0.06039772224 -0.04297185898 -0.05881921049 0.6809493936 -0.729964536
-0.00385902667 0.0202100296 -0.03622830582 -0.219818998 0.9755400599 -0.001095305205
0.01276796007 0.04486457825 -0.04924423027 0.7383330711 0.009643634694 0.6743673157
-0.007055589676 0.06034412384 -0.04508565903 0.4128305094 0.4519361321 -0.7907747486
0.01669116592 0.0451636734 -0.05695264435 0.9704100306 0.0063874282 0.2413784857
-0.0192901535 0.04515926743 -0.06779901886 0.932567316 0.002664836482 0.3609862875
-0.00206269598 0.0204948349 -0.03315097809 0.1366362987 -0.9905974304 -0.006874058914
-0.008274512291 -0.001942610741 -0.07234040833 -0.4333992396 -0.5062143578 -0.7455951468
-0.009495306969 0.06060000229 -0.04633483887 0.03001333121 0.9994571381 -0.0135878297
0.001661404312 0.04933745003 -0.04362390518 -0.1201061022 -0.0006863611139 -0.9927608237
-0.01155322075 0.06060000229 -0.04728730774 -0.1748168173 0.9720517746 0.1566985257
-0.01980899048 0.002220481396 -0.05859099197 0.9606914251 0.1977929029 0.1948074777
-0.02046012306 -0.002142393112 -0.03046539879 0.9932430354 0.1158847518 0.006244747321
-0.01358349228 0.06060000229 -0.0482271843 -0.43843474 0.8559592401 0.2740597708
-0.0197340374 0.01883116913 -0.05458191681 0.9591595041 -0.01225911843 -0.2825999995
-0.01794455433 0.05694091797 -0.07068917847 0.8684445109 -0.03354156851 0.4946504774
-0.003880823612 0.06060000229 -0.07754481506 -0.1463915534 0.9369839735 -0.3172231808
-0.0146683569 0.06060000229 -0.04945325279 -0.3717746066 0.8270584055 0.4216136097
-0.01829954147 0.04015655518 -0.05122562027 0.8798702059 0.0005756015081 -0.4752137303
-0.01147997475 -0.00441858387 -0.06816996002 0.6182908577 0.5190353268 0.5901853479
-0.01756359482 0.06060000229 -0.05007032013 0.6895928127 -0.6405787204 -0.3378174887
-0.01487198448 0.05547208405 -0.04641724396 0.7688365477 0.001931861872 -0.6394424375
0.007748831987 0.05916326141 -0.04538908386 0.4056286308 -0.3477951585 0.8452833499
-0.01400213146 0.01311499405 -0.07486118317 0.6893765068 0.1544857656 0.7077387796
-0.002994648695 0.05279135513 -0.08096176147 0.1580022739 -0.01825104175 0.9872700648
-0.007148706436 0.05323857689 -0.07987358856 0.3669151632 -0.001439821447 0.9302532934
-0.02031169224 -0.001510919094 -0.04900224876 0.9828883576 0.1678650483 0.07584063642
-0.00268242842 0.0203836813 -0.02516867256 0.1244718592 -0.9921126517 -0.01480684171
-0.005216950893 0.01990699768 -0.02529074478 0.2497147076 -0.9682016566 -0.01510354265
-0.006755984306 0.01944953728 -0.02579315186 0.3245078872 -0.9458799932 0.00238108726
-0.009075054487 0.01846044858 -0.02750716146 0.4326684686 -0.9015148677 -0.008302990705
-0.01717891121 0.007250383615 -0.06896854782 0.8211553167 0.2371770685 0.5190866825
-0.01670397377 0.05525775146 -0.04862039566 0.8182426768 0.002406702653 -0.5748679236
-0.02055920601 0.04069817479 -0.06143490219 0.9980918014 -0.007895683017 0.06124062563
-0.01074258423 0.01753837395 -0.02675688553 0.5245269806 -0.8513896881 0.002654340775
-0.0204673748 -0.002062770844 -0.03214347076 0.9941803533 0.1076717981 0.003494126551
-0.02059888077 2.802224644e-05 -0.02984821892 0.9999694001 -0.007629652485 -0.001728356901
-0.01455071831 0.01455074596 -0.02713788509 0.7076524044 -0.7064608556 0.01187998402
-0.01754633331 0.01075084019 -0.02676444435 0.8500271133 -0.5267334381 0.002406607479
0.01816992188 0.06060000229 -0.06697579956 -0.3770301919 0.9167916149 0.1316866329
-0.01846746381 0.009082398415 -0.02751382573 0.9042423856 -0.4269191319 -0.00926083053
-0.008542617798 0.01896155167 -0.04087073898 -0.4584640673 0.884099283 0.0904386909
-0.02050094604 0.02491698074 -0.05878554535 0.993623702 -0.002819661944 -0.1127119709
-0.009843938828 0.0183521843 -0.04116388702 -0.5034074139 0.8569620571 0.1104400668
-0.0198853035 0.005193487167 -0.0252696991 0.9660850329 -0.2581842225 -0.004540525516
-0.0193435955 0.05456632233 -0.06759346008 0.9349410574 -0.003564232583 0.3547851679
-0.02028118515 0.00357449913 -0.02470157623 0.9840107388 -0.1779705406 0.007025140506
-0.020596838 -0.0002375220507 -0.02307669067 0.9999651781 -0.00814945302 0.00179693627
-0.01830565071 0.06060000229 -0.05746268082 -0.3405334766 0.9330343465 0.1161200223
-0.02042320633 -0.002547775745 -0.02192178726 0.9915642337 0.1296161091 0.0001861283159
-0.02051706696 0.05719957097 -0.05921912511 0.9911689192 -0.09637894586 -0.09107838572
0.01102753925 0.06046271133 -0.04758834457 0.4466736131 -0.6048257436 0.659293943
-0.01698033714 0.01324104118 -0.04512373924 0.845570713 -0.4341244876 -0.3107186807
-0.01994756317 -0.005069123745 -0.02392229271 0.9634101771 0.2678911097 -0.008670866854
0.005490809917 0.06060000229 -0.04094625854 -0.06857859738 0.9817847481 -0.177188274
-0.003846998453 0.05873566818 -0.08079452515 0.2427267346 -0.3409623491 0.9082006435
-0.01389797783 0.01670709419 -0.04374029922 0.6889752767 -0.4988785409 -0.525769217
0.01701526642 0.04301876831 -0.05898429108 0.9918932966 -0.01231471324 0.1264754367
0.001002429962 0.06060000229 -0.04299863434 -0.120023141 0.7614112384 -0.6370615133
-0.002140997112 0.05896805954 -0.04367541313 -0.1315357005 -0.2853336117 0.9493593047
-0.01981820297 -0.004059853077 -0.04858530045 0.9594862103 0.268868719 0.08423671485
-0.01637882614 0.02457103348 -0.0481207962 0.8271767416 0.000498228964 -0.561941625
0.009044912338 0.06060000229 -0.04547203827 -0.5128318653 0.4355779378 -0.7397806013
-0.01865201124 0.05487316132 -0.06923305003 0.9046574777 -0.002857540451 0.4261298892
-0.00524627924 0.05735348511 -0.04434429169 0.217321159 0.1293701873 -0.96748895
-0.02046790314 -0.001504901648 -0.04517718124 0.99336149 0.1126820901 0.02314512366
0.003422259331 0.05831181717 -0.08086683655 0.2109317251 0.2376049055 -0.9481833769
-0.007080039024 0.05715852737 -0.04509331512 0.3386830749 -0.006333489979 -0.9408791961
-0.01582370567 0.06060000229 -0.05141649437 -0.3884421803 0.9071146627 0.1620359874
-0.01931527328 0.02733028984 -0.05347608185 0.9472958247 -0.004168115422 -0.3203330256
0.008970689774 0.01850893974 -0.01976863289 -0.3529883631 -0.9355583665 -0.01139115705
0.00451133585 0.03965960693 -0.08064881897 0.1812850594 0.00233880296 -0.9834278099
-0.017713974 0.06060000229 -0.05156838989 -0.5973232404 0.7532627862 0.2753182185
0.001407515407 0.03418856812 -0.08112949371 0.03019493019 -0.004982974908 -0.9995316084
-0.01837577438 0.05960945511 -0.05141091919 0.7873571079 -0.5347736451 -0.306734304
-0.004878680706 0.03076763916 -0.08058599854 0.2250172185 -0.01492996406 0.9742403952
-0.01462342644 0.04877888107 -0.04613734436 0.7614164517 0.001643352634 -0.648260971
-0.01807901478 0.05705552673 -0.05080392838 0.8831416714 -0.03550633994 -0.4677607167
-0.006756092548 0.04678289604 -0.08003635406 0.3548595319 -0.004506144121 0.9349087695
-0.01976202965 0.04085256958 -0.06626140594 0.9615260331 -0.0003697219002 0.2747135798
-0.01474575138 0.05214538956 -0.04627522278 0.7650814419 0.001483615541 -0.6439318179
0.007594161034 0.05141642761 -0.07970157623 0 0 1
0.005186299324 0.01991554451 -0.02216114807 -0.2745113835 -0.9615828659 -0.001375616198
0.001503058136 0.01646923447 -0.08089069748 0.05530354044 -0.09005306556 -0.9944003036
-0.01986849403 0.005267134666 -0.02859704399 0.9620644117 -0.2722289604 0.01798501542
-0.0114229269 0.0470524826 -0.07773227692 0.5484042118 0.005723322022 0.8361937958
-0.02014212513 -0.003953852057 -0.04326673126 0.974919642 0.2212039599 0.02450509644
-0.02022787476 0.05917957306 -0.05697383308 0.9243613798 -0.3505226123 -0.1506317954
-0.01753828239 0.02743924332 -0.04982698059 0.8629304787 -0.001057173436 -0.5053215524
0.0001920588017 0.02057806206 -0.02476605034 0.005505083148 -0.9999749194 0.004455849941
0.01493699551 0.06060000229 -0.04902861404 0.3189822155 -0.9082086808 0.2709378864
-0.01457166958 0.04891167323 -0.0751154302 0.7087964224 -0.008591638945 0.7053607696
-0.005252325535 0.01989713478 -0.02695770454 0.246454441 -0.969154283 -0.0004292939757
-0.02047158813 0.004540720463 -0.04915258408 0.9959433375 -0.07434341479 -0.05069443032
-0.01753460598 0.01076987553 -0.02922391415 0.849736771 -0.5272058821 0.001173834433
-0.01942918968 0.006773775578 -0.0274421711 0.9464450776 -0.3228028198 -0.00632887345
-0.01987687492 0.005230418682 -0.02693824005 0.967756908 -0.2518746298 -0.002395391793
-0.02026874828 0.003639738202 -0.02721261311 0.9831508488 -0.182795972 0.0002026229594
-0.01914511681 0.01268808174 -0.05036965561 0.9226182582 -0.2376929177 -0.3037723269
-0.02050146294 0.001806894302 -0.02565073967 0.9917218378 -0.1282516723 -0.006269365697
0.01608923531 0.05083255768 -0.05497587204 0.9406433071 -0.01451727554 0.3390861505
-0.0203551321 0.002981405497 -0.03510839844 0.9903565857 -0.1379034858 -0.01328389084
0.0170083437 0.0529034214 -0.05920486259 0.9971676298 0.003366288969 0.07513578489
-0.02043067932 -0.002465704679 -0.023651474 0.9913218913 0.1313417253 -0.005500816805
0.01444827843 0.04074335098 -0.05146311951 0.8417255154 -0.01323321755 0.5397434934
-0.01964318085 0.03282288361 -0.05445380402 0.9554112125 -0.002845673314 -0.2952648256
-0.0185811348 -0.008887562752 -0.01984032822 0.9347880128 0.3549662772 -0.01305041344
-0.009875735283 0.03616358185 -0.07863780975 0.4837368407 -0.004480262588 0.8752020317
-0.01546801567 0.01824531555 -0.04658575439 0.7364803966 -0.2569071074 -0.6257758094
-0.0189125824 0.05841305161 -0.05252395248 0.8619561127 -0.3217239189 -0.3918231486
-0.009702092171 0.03275679016 -0.07874436951 0.4608670269 0.01278867971 0.8873770524
0.005242491722 0.06060000229 -0.04259137726 0.081671624 -0.9667028177 0.2425188817
0.002071103454 0.02049171352 -0.03133069706 0.1062826631 0.994303663 -0.008013822785
0.001584481835 0.05926844788 -0.04362966728 0.1802563642 -0.3589746838 0.915775529
-0.01962005043 0.04288059235 -0.05442760086 0.9536748337 0.003058290816 -0.3008237998
-0.002643073797 0.0553082962 -0.04371254349 -0.128890386 0.001115384367 0.9916582195
0.004309720039 0.05297484589 -0.04410075378 0.2925252419 0.001095459982 0.956257174
-0.0005856023431 0.05366062164 -0.04354004669 -0.02132960386 0.009115325515 0.9997309432
-0.01986025143 0.005326357365 -0.03107010365 0.9648192456 -0.2628103203 0.00738639535
-0.01968699455 0.0579862175 -0.06647408295 0.9374232747 -0.2037102766 0.2823822362
-0.003922577143 0.05468666077 -0.04400520706 0.1809376725 0.001999251382 -0.9834925326
-0.01928124619 -0.007219811916 -0.03756824875 0.9610549351 0.2763370981 -0.00334962557
-0.005250945091 0.05410933685 -0.04434075546 0.2771844157 0.009518408474 -0.9607695872
-0.01632431984 0.03470325216 -0.0731068573 0.7939668115 -0.0007751338436 0.6079606085
0.01600849485 0.06060000229 -0.067030159 0.7854816939 -0.5169162231 -0.3403176851
0.00506802845 0.01994852448 -0.02392323494 -0.2658583867 -0.9640120388 0.0003273708588
-0.01989061356 0.05117247009 -0.0553449707 0.9693266404 0.01262920461 -0.2454513544
0.002381902218 0.02044009209 -0.02537244606 -0.1266986838 -0.9919385947 -0.002295192536
8.914248087e-05 0.02058172798 -0.02731085491 0.02433178952 -0.999621925 -0.01280512249
0.008689022064 0.05097210312 -0.04590377426 0.5079034916 -6.976397571e-05 0.8614139762
0.005383910894 0.05125788879 -0.04438914871 0.3531723983 -0.009146926294 0.9355135439
0.006946242809 0.05077893448 -0.04503175735 0.3938089004 0.003544762257 0.9191855007
0.01689801216 0.04928427505 -0.06297169113 0.991778526 -0.01040325784 -0.1275426501
-0.003632736921 0.02023838043 -0.02802124023 0.184397244 -0.9827722642 -0.01250332031
-0.005287494183 0.01988732719 -0.02861496353 0.2499847818 -0.9681458897 0.014182562
-0.01659761429 0.04542421341 -0.04844013214 0.8150802737 0.003648913007 -0.5793365455
-0.006816516876 0.01943237495 -0.029104002 0.310006215 -0.950614182 0.01512691654
-0.004803971767 0.05728348923 -0.08057757568 -0.2658076387 0.1538881358 -0.9516641954
-0.008882368565 0.01855588055 -0.02964532661 0.4132315013 -0.910534428 -0.01291440299
-0.01850595665 0.009005770683 -0.03929948044 0.899977082 -0.4351200423 -0.02667959068
0.01217985344 0.04284875107 -0.04863192368 0.7089596437 -0.0003581866889 0.7052489598
-0.01855260563 0.008908636093 -0.03128169441 0.9131309377 -0.4076656122 -0.0007995698107
-0.008341241837 0.01883134079 -0.03757115173 0.4011205472 -0.9152371177 -0.0379911178
-0.01941888046 0.006802081108 -0.0290912323 0.9455764634 -0.325399755 -0.0003890084534
-0.009612862587 0.0181933136 -0.03705056572 0.4732429678 -0.880728645 -0.01892478096
-0.0205495615 0.0009137171954 -0.02775310326 0.9995316891 -0.03048267489 0.002684945024
-0.02059862709 -0.0001031028479 -0.02648351288 0.9999717826 -0.006819535685 0.003150854102
-0.01938552952 0.0228767519 -0.06753655624 0.9344553488 0.0001131981653 0.3560803116
0.005346127748 0.05460041237 -0.04437984467 0.3217262552 0.01590790331 0.9466990838
0.007836358547 0.05252654266 -0.04542536163 0.4536838799 0.01682192173 0.8910039058
0.007268526077 0.06060000229 -0.04320822144 -0.1782844281 0.9120525669 -0.3692895583
0.004995943069 0.06060000229 -0.04422476578 0.1173507564 -0.8238057703 0.5545925106
0.0035617944 0.0568739624 -0.0439184227 0.1778781025 -0.01229200931 0.9839757554
0.002024418592 0.05647911835 -0.0436627121 0.1286802609 -0.001009458369 0.9916856213
0.01302456427 0.04036373138 -0.04956329727 0.7560983792 -0.008005248542 0.6544090136
-0.02009226036 0.02903566043 -0.06498474121 0.9728461845 0.007837581224 0.2313198514
0.001191088676 0.05551213074 -0.04359247971 0.03427089623 0.004787503761 0.9994011134
0.007476793528 0.05694220161 -0.04526766968 0.4602440914 -0.04103807863 0.8868434205
-0.002123931825 0.05242952538 -0.0436660099 0.1125963373 0.01787883049 -0.9934799506
-0.02025391579 0.03838355255 -0.05705186081 0.9827859511 0.004853633878 -0.1846840995
0.01315090275 0.06060000229 -0.04674181366 -0.3421865201 0.8703819472 -0.3540390537
-0.01455498219 0.01455498791 -0.03523402405 0.7076695524 -0.7063222604 -0.01768244801
-0.01605856133 0.06060000229 -0.05365816498 -0.4414991691 0.8969614889 0.02320713621
-0.02054747391 0.05656395086 -0.06124625905 0.9983957855 -0.001099201219 0.05660960457
-0.01808546257 0.06060000229 -0.05526916504 -0.5651417093 0.8053695384 0.1788707774
-0.01960225296 0.05884674072 -0.05444734955 0.9052232481 -0.3564086204 -0.2313952601
-0.01455552101 0.01455552411 -0.03919642258 0.7138059843 -0.7000688344 -0.01961233979
-0.01932287216 0.05712111282 -0.0535332489 0.9396365439 -0.03591463518 -0.3402841523
-0.01911209774 0.0546190834 -0.0530073719 0.9242685381 -0.007176441815 -0.3816754748
-0.01607429647 0.0289458704 -0.07342738342 0.7912182425 -0.0001195139108 0.6115338735
-0.01834534454 0.05327853394 -0.05133894348 0.8907267791 0.001114729384 -0.4545377458
0.000889295578 0.02971955872 -0.08117424774 0.02987845079 -0.01105685973 -0.9994923832
-0.0177244606 0.05121691132 -0.0501187439 0.8790903318 0.007787163321 -0.4765915952
-0.01931912804 0.02380280495 -0.05348720932 0.9495734289 -0.006715986411 -0.3134728037
-0.01448797417 0.04535729599 -0.0459896431 0.7573309825 0.002984332941 -0.6530244075
-0.02005263233 0.004878123999 -0.04292429733 0.977895312 -0.2072354817 -0.02782469899
-5.240088701e-05 0.03300868416 -0.08118801117 -0.006696424084 -0.003631940746 0.999970983
0.00855952549 0.01871230888 -0.02346952629 -0.3366910115 -0.9415294535 -0.01270633657
0.01633139801 0.04779929733 -0.06552642822 0.9624930392 -0.005445321508 -0.2712517243
-0.005339843035 0.0198727293 -0.03108181858 0.2560480129 -0.966647934 0.00558450994
-0.01662027931 -0.009364110947 -0.05310361099 0.7398695692 0.6718911729 0.03398929861
-0.01941404915 -0.002216736794 -0.05528382874 0.949261856 0.2730000391 0.1561182481
-0.008902375221 0.01854663181 -0.03127615261 0.4132982182 -0.9105950899 -0.001079379285
-0.01967209816 0.0549239769 -0.06652783966 0.9558962342 0.002476599189 0.2936941537
-0.02056850052 0.01054750443 -0.05756367111 0.9999834057 -0.002443537298 -0.005217039889
0.01701750183 0.06060000229 -0.04968305588 -0.3692824252 0.9212566813 -0.1221336054
-0.01083187485 0.01749588966 -0.03727723503 0.516367212 -0.8563632484 -0.002624719664
-0.0175229702 0.01078876591 -0.03166477203 0.8508898928 -0.5252807503 -0.008156205686
-0.02037708759 0.00281255132 -0.02935631084 0.9898066565 -0.1424075562 0.001694302682
-0.01872494507 -0.008544988632 -0.02348182869 0.9435685796 0.3311207668 -0.006113385317
-0.01779259491 0.05452011108 -0.07097904968 0.8740939934 -0.008391891806 0.4856843283
0.009308753967 0.06060000229 -0.04383042526 0.3745676448 -0.7644866472 0.5246515469
0.007013398647 0.06060000229 -0.04484567642 -0.3069634654 0.6533450529 -0.6920358898
0.01343258953 0.06060000229 -0.0450915947 0.2249245465 -0.9569329771 0.1835435254
0.005943926096 0.05901708794 -0.04459728432 0.2829678132 -0.4785139638 0.8312361897
-9.516912699e-05 0.05078285789 -0.04352811813 -0.0370677762 -0.005476405946 -0.9992977479
-0.0124097681 0.002354875803 -0.07218546295 0.6021732616 0.3807111541 0.7017452388
-0.01621375847 0.06060000229 -0.05513949585 -0.2418486859 0.9679625281 0.06751116526
-0.006703107357 0.005794103146 -0.07720526886 0.3458896056 0.3412215765 0.8740298716
0.01536915302 0.05487592506 -0.05318599129 0.9012111768 0.003236634696 0.4333681334
0.00635561657 0.05538673019 -0.08018153381 0.2741092918 0.008251327885 -0.9616631488
0.01614962769 0.05272169113 -0.06604195404 0.9475705851 0.00526536972 -0.3195031489
-0.01988176918 0.05746182251 -0.05534679794 0.9570936878 -0.09322616204 -0.2743730224
0.004833750725 0.02001385307 -0.0274136734 0.1724405108 0.9850079461 0.004859676604
0.002202659607 0.0204704361 -0.02879411125 -0.1143357369 -0.9934188086 0.006812486793
-0.008610998154 0.005890413761 -0.07641046143 0.4384182279 0.3353675656 0.8338573339
-0.01623547006 0.04293255997 -0.07322185707 0.7978758962 0.004849880189 0.6028022337
-1.295441855e-05 0.02058536339 -0.02983539772 0.02498802984 -0.9995534054 -0.01638866067
-0.01884409428 0.04311388016 -0.06885479736 0.9158831129 0.003946987872 0.4014256405
-0.003112607718 0.04520610046 -0.08094553757 -0.1552274444 0.0003983913264 -0.9878786777
-0.01936884022 0.05914608955 -0.06750358582 0.9161002855 -0.3242739555 0.2358106629
-0.02053842545 0.006645500183 -0.05305272675 0.9975778195 -0.03943855158 -0.05729829596
-0.01287082243 0.01286914635 -0.07581092072 0.6176402836 0.1622098397 0.7695508092
-0.001983709574 0.02050201416 -0.030678339 0.1227371646 -0.9924344721 -0.003067093371
-0.006886707067 0.01940701199 -0.03318435097 0.3101582135 -0.9506367471 -0.009573796641
-0.02012313461 -0.001621694922 -0.05119846344 0.9800977937 0.1818847135 0.07953782647
-0.01079502487 0.01750924873 -0.03327433777 0.5218475757 -0.8530384005 -0.0007713925098
-0.01250416327 0.01633552408 -0.03351309586 0.6204381906 -0.7842006447 -0.009262854804
-0.01633194017 0.0125005722 -0.03350987625 0.7832690023 -0.6216306157 -0.008065214972
-0.01735418034 0.05485813522 -0.07161274719 0.8557191197 -0.001840186482 0.517437341
-0.02045282936 -0.002222490072 -0.02877732086 0.9943875964 0.1057956356 -0.0007691105531
0.01547033882 0.05301709747 -0.0678396225 0.9229293179 -0.002860349567 -0.3849588192
0.000393640846 0.04787583542 -0.04352292633 -0.1313935599 -0.02416377306 -0.9910357433
-0.01960676384 0.05257332993 -0.05443154526 0.9540922379 -0.01564351624 -0.2991041323
