# .PCD v0.7 - Point Cloud Data file format
VERSION 0.7
FIELDS x y z normal_x normal_y normal_z
SIZE 4 4 4 4 4 4
TYPE F F F F F F
COUNT 1 1 1 1 1 1
WIDTH 562
HEIGHT 1
VIEWPOINT 0 0 0 1 0 0 0
POINTS 562
DATA ascii
0.005887050152 0.01969862461 -0.01222507429 -0.2896796223 -0.9571081395 -0.005452131039
-0.01975300121 -0.005824955463 -0.01228173065 0.9532815312 0.3020800571 -0.001400473632
-0.008885284615 0.05875495529 -0.07912602692 -0.4397067432 0.2838135538 -0.8521196199
0.0005779038966 0.02056432343 -0.01522528887 -0.06444353541 -0.997899758 0.006565346789
-0.005833230495 0.01971783257 -0.0179280839 0.287330048 -0.957757161 0.01194420755
0.009178524971 0.01840613937 -0.01789790535 0.3611101911 0.9325055223 0.005734171288
-0.008074575901 0.01893884659 -0.01863823318 0.3907081081 -0.9204140145 -0.01360941517
-0.009409675598 0.01829515648 -0.01812788963 0.4442429561 -0.8958386788 -0.01101169894
-0.02023371935 0.01106001925 -0.05391389275 0.982438512 -0.09496658981 -0.1606110733
-0.01948699474 0.006615062475 -0.01819566631 0.9457940897 -0.3244610255 -0.01409194139
-0.01960529391 0.05362768173 -0.05443189367 0.960877748 0.007321327581 -0.2768760581
-0.02016592598 -0.004002278924 -0.04167107201 0.9858408965 0.1662773518 0.02166954076
-0.01981480522 0.02313661804 -0.06610275574 0.9710975343 0.01376941516 0.2382855056
-0.0200513827 0.004497069438 -0.01829326057 0.9791585083 -0.2029916868 -0.006556734664
-0.01512812686 0.00793158555 -0.07208024025 0.722829841 0.2519429782 0.6434607655
-0.00960438633 0.01819766998 -0.03625432968 -0.4499259268 0.8927418492 0.02405516653
-0.002658586701 0.0200548528 -0.0809671758 0.1497229515 0.03922387357 0.9879496574
-0.02057003975 -0.0005715151131 -0.0152311635 0.9997126586 0.00893614027 0.02224287798
-0.01980571365 0.04980700073 -0.06608331909 0.9704467223 0.000476028726 0.2413150069
-0.01266116238 -0.001209048033 -0.0696343689 0.6437893239 0.4618750117 0.6100875183
-0.01774191856 -0.01035489035 -0.00910232687 0.9116417827 0.410964057 -0.004219456934
0.002886645794 0.02035464382 -0.0157371068 -0.08218455738 -0.9965811454 -0.008468714082
-0.0118649718 0.01676742109 -0.02110702101 0.5816726179 -0.8133317426 0.01218367999
-0.01500826677 0.0140288531 -0.02130160236 0.7300685642 -0.6831732146 0.01656050758
0.006158436775 0.04697106679 -0.04470949173 -0.364048995 -0.01885088416 -0.9311890106
-0.01899446297 0.01440203762 -0.05100317764 0.9394898558 -0.1930166517 -0.2830254105
-0.01962544886 0.0316605835 -0.0544406395 0.9486701239 -0.0188640969 -0.3157042001
-0.002808152556 0.0588957901 -0.08094478099 0.1199082436 -0.2212092223 0.9678266855
-0.00558935833 0.05866963005 -0.08037828636 0.3810287667 -0.2657780935 0.8855388664
-0.01755554072 0.01068467522 -0.02091848373 0.8533486904 -0.5210640661 0.01697797412
-0.01851036758 0.05614917603 -0.0695229538 0.8864217156 -0.1338790755 0.443094725
-0.005535930634 0.05009593709 -0.0803858134 0.2780040085 0.007874778271 0.960547635
-0.02044479688 0.002162931442 -0.01792635091 0.9932183835 -0.116089856 0.006355149079
-0.01961368179 0.04397012838 -0.0544218305 0.9480567128 -0.001154564656 -0.3180992553
-0.02055515734 0.02025854683 -0.05985512924 0.9982861909 0.0102689289 -0.05761276119
0.009816552162 0.01808861732 -0.01219725704 0.3786044536 0.9255406042 0.005766945061
-0.01443752178 0.02594415633 -0.07523052343 0.7099220345 -0.003236401009 0.7042728382
0.005686872482 0.01976421547 -0.01497849083 -0.2793535186 -0.9601031232 0.01279079792
-0.02045942688 0.002251947284 -0.03963119507 0.989913534 -0.1416015562 -0.004493821589
-0.01261993599 0.06060000229 -0.07277650452 0.634319578 -0.4847960108 0.6021723182
0.0004360784739 0.02056937408 -0.0187321949 -0.06215091081 -0.998016014 -0.01006479285
-0.01697769976 0.04990428925 -0.07216662216 0.8356570861 0.003285746233 0.5492416939
-0.005901837468 0.01970011854 -0.02133694315 0.2874742223 -0.9577159889 -0.01177523137
-0.008111014366 0.01892498589 -0.02118213654 -0.4455039276 0.8952727596 -0.003596715554
-0.02040421009 -0.001474603951 -0.04750276756 0.9866913372 0.1579651239 0.03856455149
-0.01891688728 0.008102432251 -0.02117413902 0.9258981748 -0.3777154841 -0.006601744163
-0.01946575832 0.00667337203 -0.02159273052 0.9493262486 -0.3139104733 -0.01548833242
-0.02003705152 0.004562296947 -0.02114125315 0.9767776146 -0.2140073415 -0.01031258357
-0.02058441925 -0.0004192721993 -0.01874738407 0.9999882633 -0.003566862414 0.003278830477
-0.02056930478 0.01365634028 -0.05973410924 0.9999326453 -0.009393001741 -0.006817359198
-0.01980351257 -0.005642026424 -0.01501883125 0.9632349531 0.2686275574 0.004202433855
-0.008240444183 0.01887395573 -0.03031168842 0.4006708252 -0.9162219811 0.0004137366391
-0.00885343647 0.02279981709 -0.07919119263 0.4268997348 0.01768118647 0.904126093
-0.01798119545 -0.009940450668 -0.01208635807 0.9192051993 0.3936004729 -0.01185197253
-0.005666386286 0.06060000229 -0.04206650289 0.2078563103 0.5464859298 -0.8112637566
0.01193832588 0.04391568565 -0.04841205406 0.7130337292 -0.001971830765 0.7011269592
-0.01698033714 0.01324104118 -0.04512373924 0.8277035585 -0.4277749894 -0.3632015662
-0.01597926044 0.05278257751 -0.07358731842 0.7825474502 -0.009295648547 0.6225215491
-0.02007528941 -0.004369333029 -0.02091407839 0.9690605138 0.2468169264 -0.001767917704
-0.01823241329 0.06060000229 -0.05673309135 0.8819011833 -0.3918345376 -0.2621373648
-0.009124653816 0.06060000229 -0.04319825363 0.3166896794 0.7494442488 -0.581412904
0.008957189242 0.0562499911 -0.04609279378 0.4755401082 -0.133039075 0.8695758794
-0.01641791534 -0.00319418478 -0.06286340714 0.8146227552 0.4171395027 0.4029694802
-0.0133314929 0.06060000229 -0.04591940308 0.583962193 -0.5311120303 -0.6139284717
-0.02037338781 0.02037139368 -0.06342118073 0.9871626435 0.009349213704 0.1594443714
0.009493360519 0.01825041485 -0.01506407022 0.3705301007 0.9287840344 0.008225686348
-0.02042207766 0.03749569988 -0.06309569263 0.9935581094 -0.0009490369545 0.1133198244
-0.005510085106 0.02273438899 -0.08040947469 0.2521579305 -0.001998271448 0.9676840316
0.005489899874 0.01982824135 -0.01769987297 -0.2529066695 -0.9674888513 0.001881242032
-0.01191285934 0.01673214188 -0.03019323883 0.5834991103 -0.812107495 -0.003194514777
0.0156858983 0.06060000229 -0.05098967934 0.742541748 -0.4196665235 0.5220265908
0.002747170448 0.02037825584 -0.01839963341 -0.08515676428 -0.9963669082 0.001144459102
-0.02034387016 0.004664788961 -0.05746705437 0.9854011758 0.1124475445 0.1278282926
-0.01703799057 0.01703572941 -0.04825736237 0.829220189 -0.2529843958 -0.4983901822
-0.002274833719 0.02044038709 -0.02137262917 0.0822515419 -0.9964993908 -0.01495486842
-0.008147089481 0.01891126347 -0.02370072937 0.3923237001 -0.9196923566 0.01575066822
-0.009474164963 0.01826460552 -0.0240214386 0.4410994002 -0.8973965453 0.01052423959
-0.01188343016 0.01675605631 -0.02444597721 0.5864889182 -0.8098578397 -0.01268968789
-0.02049683666 0.001948802769 -0.02984054756 0.9911821857 -0.1324759755 0.002826765871
-0.01500762399 0.01403415934 -0.0246355896 0.727886289 -0.6854853172 -0.01707132713
-0.01754046694 0.01071149047 -0.02426334667 0.8532509606 -0.5214909268 -0.003164086271
0.003285121759 0.02257201576 -0.08088969676 -0.1188968355 0.001287276964 0.9929057787
0.01237716913 0.06060000229 -0.0753376503 -0.3039035686 0.8639410766 0.4015575141
-0.01890529442 0.008140765667 -0.02369491482 0.9263029015 -0.3765772873 0.01234833316
-0.02050614929 0.001662741601 -0.02139508915 0.9905712536 -0.1369209471 -0.004609309469
0.01488727029 0.05279784902 -0.06891421509 0.9145772634 0.03239876055 -0.4031113365
-0.02003460185 -0.004549515406 -0.01795643298 0.972245662 0.2324357161 0.02668352616
-0.01853769264 0.0591909996 -0.06945614319 0.828202074 -0.3054847969 0.469851427
-0.01920627975 0.05896722794 -0.06803105164 0.8970270616 -0.279161592 0.3426532595
0.01707336569 0.0502718935 -0.06034662151 0.999209455 -0.01660890851 -0.03611937377
-0.01821725082 -0.0095315938 -0.01503019619 0.9226891099 0.3852362466 -0.01542209042
-0.0004714764059 0.02426203537 -0.08118744659 0.06092143689 0.002287701552 0.9981399426
0.0001270498186 0.06060000229 -0.04188402271 0.103289293 0.3713728931 -0.9227207032
0.006004670858 0.06060000229 -0.0445352211 -0.357848077 0.4250031642 -0.8314547878
0.01196221447 0.06060000229 -0.0452179273 -0.5048219598 0.291356284 -0.8125677232
-0.01523469305 0.0137833035 -0.02750848866 0.7298604948 -0.6834065666 -0.01609729275
-0.01887409592 0.008240592003 -0.03031181812 0.9272682181 -0.3743887311 0.002594166106
-0.003043159246 0.06060000229 -0.04259562683 0.1504470794 0.2044239378 -0.9672520509
-0.01902787399 0.001469177842 -0.06100378799 0.9126486648 0.2812298321 0.2966179297
-0.01860104465 0.02295398235 -0.06938132095 0.8955094318 0.008148141467 0.4449679374
0.0003308200836 0.02057312202 -0.02133491135 -0.05623789783 -0.9984142039 -0.002525132616
-0.01178816923 0.02023563957 -0.07744676717 0.5587330816 0.03132748221 0.828755653
0.01184053636 0.05609395218 -0.04834914303 0.7082291694 -0.1710971045 0.6849359273
-0.002657390624 0.02038647413 -0.02432354021 0.144371206 -0.9895196107 -0.002809798693
-0.0002433042427 0.01375153065 -0.08056370036 -0.02524822496 -0.1495862868 -0.9884262592
-0.005707501411 0.01976030986 -0.02434222158 0.2921820412 -0.9562774989 -0.01276714337
-0.02008745337 0.004363746226 -0.02414420414 0.9800904218 -0.1983940068 0.007910956891
-0.01621106339 0.01339434528 -0.04331742859 0.8288890834 -0.5103771208 -0.2290372939
0.006333353043 0.02327783012 -0.08019351959 0.1932656773 0.001277657348 -0.9811456291
-0.005553358078 0.0009377478957 -0.07530562592 0.2487081381 0.4770810352 0.8429341302
0.01607826519 0.05593684292 -0.06624031448 0.9391333813 -0.1163752337 -0.3232418554
-0.0205091486 -0.001427033871 -0.02163928699 0.997134458 0.07466566508 -0.01216187063
-0.01905565453 0.005379141808 -0.06389834976 0.917602493 0.2065113293 0.3396450144
-0.01763878441 0.06060000229 -0.05081935501 0.8105396067 -0.4037413113 -0.4242858701
-0.01674310684 0.05845938873 -0.04868569183 0.7551021311 -0.4377439119 -0.4880584384
-0.02057005215 0.03184391975 -0.0608747921 0.9993345653 0.01667434283 0.032440606
-0.006327898979 0.01957737796 -0.03003674189 0.3010441506 -0.9535457042 0.01109095917
0.003422259331 0.05831181717 -0.08086683655 -0.1965785177 -0.2501375004 0.9480443646
-0.01487198448 0.05547208405 -0.04641724396 0.7408312922 -0.09471325987 -0.6649799958
0.005245820045 0.01989894772 -0.02127436447 -0.2322766879 -0.9726180814 -0.007849078658
0.0002266426831 0.02057683086 -0.02391089821 -0.05333935934 -0.9984852723 0.01349347076
-0.006020849943 0.01966902637 -0.02720508337 0.2997631413 -0.9540136257 0.0002470610281
0.01449290872 0.04662646008 -0.05158649635 0.844119527 0.01492197021 0.5359473472
-0.008194588184 0.01889302158 -0.02702588177 0.4004773077 -0.916238317 0.01119251486
-0.0095094347 0.01824647617 -0.02733462811 0.4453513598 -0.895350783 -0.003023525578
0.01701750183 0.06060000229 -0.04968305588 0.7342369299 -0.4694710189 0.4904009515
-0.004139802933 0.01221743774 -0.07985903931 0.22568269 0.2042142419 0.9525564901
-0.01167408409 0.01690624542 -0.02755175629 0.5846240179 -0.8111073546 -0.01787783831
-0.01939337158 0.006872121572 -0.03317175293 0.9430331922 -0.3324459548 0.01296478131
-0.01888998699 0.008191375256 -0.02702298164 0.928249669 -0.371756125 0.01224481807
-0.01599506474 0.03870930862 -0.07356939697 0.7849382084 -0.00840770901 0.6195170049
0.003562878132 0.02023458195 -0.02725110435 0.1907626901 0.9815429533 0.01352874453
-0.01943437481 0.006759540558 -0.02661284828 0.9501037299 -0.3114356621 0.01762755548
0.005755933285 0.01864759254 -0.08029930115 -0.2385546732 0.06646294586 0.9688520758
-0.02051584053 -0.001314368449 -0.02422098637 0.9992243055 0.03933361408 0.001911573871
-0.01845079041 -0.009127090454 -0.01794268227 0.940016714 0.34101322 -0.008863480238
-0.01641314697 0.02816293144 -0.04816662598 0.8551184111 0.003461096879 -0.5184211838
0.003777655482 0.06060000229 -0.0782447052 0.2013871403 0.7450148947 -0.6359213996
0.008867527008 0.01855996609 -0.02069719982 0.3482037724 0.9373972375 0.00636804297
0.006381827831 0.06060000229 -0.04207622147 0.3834008356 -0.4227366303 0.8211562218
-0.007245352268 0.06003807831 -0.07982514191 -0.3322111889 0.3486193411 -0.8764133049
0.00311140132 0.06060000229 -0.04279442978 0.1161297644 -0.3952079348 0.9112214693
-0.01162500572 0.01728639984 -0.04146676826 -0.5943071772 0.7560753277 0.2741333214
0.0002978419264 0.05893612925 -0.04355673472 -0.1180507204 -0.2722635997 0.9549536951
-0.00163393271 0.05937662506 -0.04363389587 0.09510597321 0.185185715 -0.9780905402
-0.006163159132 0.05725600624 -0.04471880341 0.1982368744 0.1760757005 -0.964209256
-0.009629769325 0.01818462372 -0.03863873291 0.4506031565 -0.8922955447 -0.0276668797
-0.01474575138 0.05214538956 -0.04627522278 0.7650743764 -0.0009886014666 -0.6439411628
-0.01656679916 0.04206728363 -0.04838665009 0.8062575633 0.002483303545 -0.5915594431
0.0144884847 0.04353764979 -0.05157717005 0.869824149 -0.002496266412 0.49335557
0.003435508728 0.06060000229 -0.08037352753 0.2168135057 0.2930331187 -0.9311946602
-0.01579593468 -0.008022526741 -0.05790711975 0.8074938636 0.5013793888 0.3107609511
-0.003032383164 0.02033154615 -0.02723967107 0.1797526336 -0.9836767097 0.008313929904
-0.01144127674 0.05319515762 -0.07765478668 0.5587482387 0.01043473529 0.8292716817
-0.01482454224 0.01424662151 -0.02973737831 0.7309792724 -0.6821643824 0.01791811057
-0.007290492535 0.02215670013 -0.07985928345 0.3539849997 0.02467090942 0.9349256474
-0.01861721134 -0.008801623821 -0.02075384426 0.9459656688 0.3238756457 -0.01592229724
0.002081930876 0.04982633591 -0.04365934753 0.145748448 0.02814124069 0.9889213621
-0.02055521507 0.02565311127 -0.06024799423 0.9996336415 -0.01509981304 0.022462823
-0.02052013636 0.001424698137 -0.04247017097 0.9988588233 -0.04666252029 -0.0101813744
-0.01590732479 0.04964958572 -0.07366889954 0.7701687016 -0.007031112664 0.6378014852
-0.0197645483 0.05882891337 -0.06619123332 0.8838626157 -0.329502944 0.3319859732
0.01997746849 0.06060000229 -0.05752560043 0.8823179092 -0.4498516278 0.138378539
0.001999250412 0.05974948883 -0.04366462326 -0.06597735764 0.3704075349 -0.9265232033
-0.001624167323 0.05612660217 -0.04362911606 -0.06354951417 -0.06759717863 0.9956867382
-0.002485606392 0.02609813754 -0.08102622223 0.1144091889 0.015107584 0.9933188302
-0.00746604538 0.0339466629 -0.07977887726 0.3467912091 0.002724786757 0.937938395
-0.01886680222 -0.008207069397 -0.02707386208 0.9477513604 0.3189854142 -0.003957815532
-0.006192717075 0.01961543083 -0.03618196201 0.3121542833 -0.9497867508 -0.02155994816
-0.01836300087 0.03203944683 -0.06988622665 0.8938833542 0.001195153412 0.4482980266
-0.00328282547 0.05499747849 -0.04385887527 -0.1149627865 -0.04556214805 0.9923243665
-0.005250945091 0.05410933685 -0.04434075546 0.1588854637 -0.01557489979 -0.9871741649
-0.01884936047 0.01141514254 -0.04821168137 0.9118165703 -0.3150492834 -0.263314434
-0.01140787792 0.0260948925 -0.07769745445 0.5644098129 0.005454054901 0.8254767207
-0.01415417767 0.0383203392 -0.04564596939 0.7500941066 -0.00151787165 -0.6613293637
-0.01736295382 0.06060000229 -0.05424361038 0.7026906221 -0.6447104944 -0.3009555914
-0.01937162018 0.008102711439 -0.04553100204 0.9342077285 -0.3216353733 -0.1542938973
-0.01960236359 0.0588468132 -0.05444770813 0.8845732914 -0.3269638084 -0.3326030067
-0.0199616003 -0.005013039351 -0.02479541683 0.9706315467 0.240245742 -0.01250536063
-0.01834044202 0.0553926417 -0.05134807205 0.894127272 -0.0128773339 -0.4476277424
-0.01666649437 0.05201858139 -0.04855743027 0.8197650418 -0.001989405914 -0.5726965327
-0.01911241341 0.01645900536 -0.06791075134 0.9249636368 0.06063290366 0.3751878483
0.006338138008 0.04961923676 -0.04478104019 0.3828265999 0.01585754801 0.9236841086
-0.01462342644 0.04877888107 -0.04613734436 0.7613603724 -0.0008945018375 -0.6483282989
0.005009272337 0.0199649086 -0.0247986269 -0.2149431818 -0.9764829845 -0.01674543273
8.914248087e-05 0.02058172798 -0.02731085491 0.03120194311 0.9994853542 0.007447509585
-0.0204907856 0.06049173737 -0.06248286438 0.9453891937 -0.3042516624 0.1169196238
-0.01426041698 0.01396427536 -0.07476445262 0.6843781204 0.1363007788 0.7162741696
-0.009544299603 0.01822855663 -0.0306097908 -0.4565145806 0.8897106318 0.003070725419
-0.01766001282 0.01052494526 -0.03063439407 0.8508812146 -0.5250450147 -0.01813535855
-0.01941375542 0.006816152811 -0.02991104126 0.9491791122 -0.3144959729 0.01230024441
-0.02014902115 0.06060000229 -0.05758013535 0.9151297866 -0.3095329131 -0.2583154069
-0.02049960899 0.00186393261 -0.02733461571 0.9898244665 -0.1421947407 -0.005308595096
0.003244589925 0.05085982132 -0.08090156937 -0.1678819958 0.002174592578 0.9858047001
-0.001612058282 0.0528393898 -0.04362409592 0.03971343991 -0.01221174467 -0.9991364852
-0.01831267039 0.05004292806 -0.05129028066 0.8946226173 0.01084826453 -0.446690819
-0.008330152512 0.01883602905 -0.03677248192 0.4066913689 -0.9128113534 -0.03711554276
0.01234987958 0.06055423864 -0.04757019424 -0.6271882798 0.3888925047 -0.6748314467
-0.002635805368 0.05201966095 -0.04370792389 0.07895861152 0.00231213196 -0.9968752137
-0.01946350002 0.0564246521 -0.05398577499 0.9270764091 -0.1467047883 -0.3449739654
-0.02029336023 0.04740632153 -0.05738823414 0.9932307848 0.01470654498 -0.1152229387
-0.01448797417 0.04535729599 -0.0459896431 0.7850979017 0.00666503598 -0.6193358233
0.008457837105 0.01876260662 -0.0243848238 0.323803934 0.9459206238 -0.01962615122
-0.002828937829 0.02036684656 -0.03017710447 0.1291391832 -0.9916263039 -0.0005871052743
-0.02013397408 -0.004267333269 -0.03673890495 0.9786176717 0.2053695427 -0.01143693938
-0.01215938606 0.01657192593 -0.03282055626 0.5833986133 -0.8120783082 0.01322419895
-0.01500604932 0.01404715904 -0.03280351893 0.7318121707 -0.6813518993 0.01450986514
-0.02030975151 0.05246011098 -0.05750016149 0.9872909485 -0.004191139775 -0.1588679243
0.01490754461 0.058820755 -0.06886374664 0.8316115522 -0.4183194577 -0.3652821615
-0.0174949379 0.01078051014 -0.03326058617 0.8502665245 -0.526332521 -0.004573248792
-0.002999302387 0.02034818649 -0.03591595268 -0.2254339256 0.974240774 0.005870219954
-0.02012230937 0.004252559423 -0.03043488757 0.9784089047 -0.2064365877 -0.009997522399
-0.01876052952 -0.008460222721 -0.02438288021 0.9477455373 0.3188887766 -0.009399182113
-0.01453697157 0.0173352499 -0.04504335594 0.7516633586 -0.3770626717 -0.5411339362
0.009176833153 0.06060000229 -0.04465123177 -0.5253783771 0.3070171436 -0.7935477518
0.006551619411 0.05851808071 -0.04486353016 0.3662643073 -0.2513155532 0.8959302149
0.006106016874 0.05602454376 -0.04469273853 0.3458844706 -0.1478044045 0.9265623514
0.003597012838 0.05300913366 -0.04392245102 0.2204332216 -0.01164943445 0.9753325
-0.01920758629 0.04744179344 -0.06800568771 0.9308668933 -0.001116662563 0.3653567846
-0.002455998898 0.06058628082 -0.08101596832 -0.1136408697 0.309633997 -0.9440405397
0.002051899195 0.0531718483 -0.04366094589 0.1092202762 0.007699130611 0.9939877538
-0.02028555059 0.05842804623 -0.05735648441 0.9662838304 -0.1618230186 -0.2002719892
0.000393640846 0.04787583542 -0.04352292633 -0.105135265 -0.007307153046 -0.9944310844
-0.01659761429 0.04542421341 -0.04844013214 0.809485971 -0.0009683831234 -0.5871384206
0.008832191467 0.05907311726 -0.04601677704 0.484798423 -0.2241902867 0.8454047577
-0.01826511803 0.0138201643 -0.06921855469 0.8801523951 0.1162177549 0.4602447119
0.003011412064 0.02033403778 -0.0294752725 0.04114419422 0.9989051653 0.02226266153
-4.671875993e-05 0.02058656502 -0.03067028618 0.0003425188792 -0.999818644 -0.01904105497
5.962195434e-05 0.0203818512 -0.0811673762 0.0339794806 0.03620889823 0.9987663944
-0.007544092655 0.02577153587 -0.07976088715 0.3546372739 -9.739272841e-05 0.9350039543
-0.006130609035 0.01963503695 -0.03294991684 0.3033848619 -0.9528665035 0.001747027389
-0.008285548687 0.01885488605 -0.033560112 0.3835468271 -0.9234219991 -0.01355149052
0.01673822308 0.05334171295 -0.06389370537 0.9801463521 -0.008701714773 -0.198084347
-0.009578771591 0.01821083736 -0.03384806824 0.4548527735 -0.8905609353 -0.003189809278
-0.01831473112 0.01082538295 -0.04544441509 0.8746155258 -0.4286908074 -0.226432934
-0.01885464191 0.008285288811 -0.03355988884 0.9244171474 -0.3812480971 -0.01014031784
-0.01448566614 0.03772362682 -0.07518164716 0.7083330043 -0.004927497398 0.7058612291
0.01473629602 0.04102985764 -0.05197957102 0.8604345601 -0.03038536961 0.5086542018
-0.01925908089 0.02013676643 -0.06788800049 0.9360001404 0.02631977559 0.3510142542
-0.0200454402 0.004588301897 -0.03325683594 0.9789184302 -0.2042472374 0.001331520985
-0.02052705812 -0.001061689602 -0.03015105534 0.9993595616 0.03578014636 0.0004978594425
-0.02000353622 -0.00484549284 -0.02740377998 0.9733200492 0.2290012203 -0.01437090796
0.003629610459 0.04965628942 -0.04392700704 0.2566149955 0.01837459155 0.9663390287
-0.01789903069 0.01419428086 -0.04819661522 0.8751107319 -0.312853763 -0.3691933503
-0.01922031307 -0.006917627335 -0.04486819267 0.9392871651 0.3388714428 0.05390516368
0.01698711491 0.05334503937 -0.06234119987 0.9969217217 -0.003978477554 -0.07830231448
-0.02028729153 0.05532562923 -0.05736268139 0.9898417419 -0.04869651096 -0.1335738592
-0.01960847982 0.05044800313 -0.0544267985 0.960819441 0.001097406761 -0.2771728656
-0.01798349094 0.04406374359 -0.05063216209 0.8714375964 -0.002389871278 -0.4905005649
-0.01194957781 0.01672037856 -0.03583662224 0.5867646074 -0.8096393311 -0.01383650807
-0.01637882614 0.02457103348 -0.0481207962 0.8520533256 -0.005240268876 -0.523428763
-0.007236664772 0.03046597481 -0.07987428284 0.3599353674 -0.006318126603 0.9329558471
-0.01500533183 0.01405215772 -0.03600677236 0.7304027601 -0.6830162255 0.0008023854419
-0.02055106354 0.0525124766 -0.05994558589 0.9966917489 -0.004584025329 -0.08114520592
-0.0203949173 0.05884505463 -0.06308228836 0.9687011339 -0.203747129 0.1417928792
-0.009019547224 0.03537214088 -0.07909109497 0.4414670633 -0.008166288792 0.8972402932
-0.02055225468 0.001666313991 -0.04803803825 0.9995255795 0.02688325676 0.01503018294
-0.01734166451 0.01104197025 -0.03587067947 0.8495023769 -0.5274434984 0.01220932461
-0.02004503536 -0.004679687262 -0.02998504257 0.9754802005 0.2200164171 0.005581638583
0.002114759445 0.046441185 -0.04365793228 -0.2177131894 -0.01159833463 -0.9759438743
-0.0204251585 0.06060000229 -0.06045557976 0.9608294122 -0.2771360163 0.001571330697
-0.008818962812 0.03193308258 -0.07918943596 0.4458799587 0.01584071518 0.8949525877
-0.02054512835 0.05842936802 -0.06023363113 0.9885073617 -0.1494498231 -0.02275843133
-0.01961099307 0.04722897975 -0.05442314911 0.960975256 0.009893135321 -0.2764573806
0.01037520552 0.05859062004 -0.04703357697 0.539736832 -0.1854078147 0.821162648
-0.0182662487 0.04124207179 -0.0512013677 0.8930118969 0.007154626746 -0.4499761808
-0.0165388031 0.0386693573 -0.04833720016 0.809163054 -0.003807126327 -0.5875718321
-0.0001476174742 0.02059015846 -0.03316519928 -0.01039598348 0.999901131 -0.009468455753
-0.008684107463 0.03774731445 -0.07924929555 0.4451664689 -0.01142650241 0.8953749215
0.01574563236 0.05283693466 -0.05413627319 0.9226545305 -0.001584732161 0.3856243068
-0.01389957905 -0.005862597466 -0.06404106903 0.7150995713 0.52022339 0.4669049449
-0.01930052567 0.02365821457 -0.06779524994 0.9422698574 0.0122813652 0.3346291738
-0.01604814911 0.05587661743 -0.07350919342 0.7580068202 -0.1392483481 0.6372091949
-0.01883491707 0.008328977108 -0.03677148247 0.9215805827 -0.3878719456 -0.01563916104
-0.01608815384 0.01515615749 -0.04555110168 0.8113970171 -0.4569686516 -0.3644372816
-0.01937321472 0.006927466393 -0.03639610481 0.9459394385 -0.3240581363 -0.01359790452
-0.01996872648 0.004918248494 -0.03604887899 0.9769199263 -0.2133085868 0.01126518158
-0.0203882515 0.04701644897 -0.0632465683 0.9909482916 -0.01203342499 0.1337037028
-0.0189718914 -0.007956733942 -0.02973488712 0.9494781248 0.3138210077 -0.00276869562
0.008913899899 0.05326846504 -0.04605818939 0.4865566847 -0.01394409305 0.8735377238
-0.01232659022 0.01380143706 -0.07641074371 0.5981041205 0.1516516918 0.7869391498
-0.02054874849 0.05534828377 -0.06025815773 0.9983594287 -0.04661918487 -0.03324308484
-0.006238870144 0.01960086155 -0.03858373642 -0.3236024548 0.946035144 0.01729038659
-0.0202344195 0.05031136449 -0.05699115753 0.9795430209 -5.002251299e-05 -0.201234857
-0.01743132973 -0.0008108659387 -0.06307139079 0.8459849389 0.3541180187 0.3986350611
-0.01825377401 0.03786917114 -0.0511763382 0.8930468813 -0.01038280782 -0.449843823
-0.01649629021 0.03521370316 -0.04827765274 0.8194209157 -0.01563258386 -0.5729790443
0.0158248105 0.04696999264 -0.05424328518 0.9235648455 0.002063101849 0.3834367221
0.003144713283 0.04315318298 -0.08092049789 -0.1147597449 -0.01054936236 0.9933372599
-0.01196817525 0.01671059879 -0.03901049805 0.5827432862 -0.8111096634 -0.05011363527
-0.02028927676 0.007605984211 -0.05131558736 0.9873611932 -0.1180282195 -0.1057696247
-0.01500378831 0.01405627298 -0.03917446645 0.7280822266 -0.6815673016 -0.0732276227
-0.02047528553 0.002155921817 -0.03640750122 0.989487375 -0.1445572133 -0.004236361707
-0.01709364796 0.01443747044 -0.0714328537 0.8341533968 0.1143855191 0.5395406042
-0.02053778791 -0.0008110508285 -0.03596381092 0.9998640923 0.01227144465 0.01100947618
0.01218634367 0.04112772751 -0.04867619801 0.7146206056 -0.02431055192 0.6990896846
-0.01942360401 0.004781085849 -0.06235042 0.9341981953 0.2180466997 0.2823638941
-0.02009468079 -0.004466691494 -0.03338682938 0.976613338 0.214969793 -0.003791582222
0.01508138657 0.06060000229 -0.0482070961 0.7027763402 -0.5050734415 0.5010052239
0.01231823883 0.0590139946 -0.04882281876 0.6502043951 -0.2970800409 0.6992694001
0.008962228537 0.04990165997 -0.04608464146 0.5269658239 0.01073609247 0.8498186611
-0.02027731768 0.02587982114 -0.05715698751 0.9795746664 -0.006994859684 -0.2009590629
0.0166391538 0.04965038427 -0.0567827301 0.9774453146 0.01781673879 0.2104357878
0.006408253956 0.04415754471 -0.04480569229 -0.3955032632 0.02594070367 -0.9180981694
0.01706080294 0.05840602016 -0.05994981766 0.9853914315 -0.1685762701 0.02420264342
-0.01605693245 0.02724934006 -0.07349922943 0.7871565583 -0.01319981201 0.6166119669
-0.01844257355 0.06060000229 -0.06336082935 0.9091391278 -0.3735505458 0.184190217
-0.01961744881 0.04067103831 -0.05442377599 0.948012087 -0.01499906211 -0.3178806555
-0.01822203445 0.03500638199 -0.05113851738 0.8919327985 0.001013524053 -0.4521668449
-0.01645244598 0.03171022415 -0.04821910477 0.854043015 0.0002003730273 -0.5202023533
-0.0192901535 0.04515926743 -0.06779901886 0.9355452187 -0.0003472340502 0.3532067713
-0.01882025909 0.008361444473 -0.03915826035 0.9234039601 -0.3832559575 -0.02097611709
-0.02049435329 -0.001577857673 -0.04279941177 0.9914671825 0.1303259755 0.002822443322
-0.01935514832 0.006984204769 -0.03958684158 0.9415297219 -0.3342114163 -0.04271430643
-0.01907605553 -0.007708600521 -0.03237250519 0.9530201613 0.302897978 -0.002321012482
0.01070435143 0.05256457901 -0.04727999496 0.6273561456 0.01210833265 0.7786383338
-0.02056736994 0.03438158321 -0.06048612499 0.9991671316 -0.01460483716 0.03810172928
0.01049940538 0.05024668884 -0.04712085724 0.6174079282 -0.0003717739289 0.7866430652
-0.02037056208 0.05613863277 -0.0632637701 0.990066186 -0.05393635745 0.1298453571
-0.017024333 0.005221645355 -0.06821276855 0.8361682978 0.2560430441 0.4850407584
-0.01352983093 -0.01273038578 -0.05383201218 0.7308659201 0.6137914045 0.2984880544
-0.02055257861 0.05038575999 -0.06041173045 0.9997776444 0.004886902948 0.02051292185
-0.02029733896 0.04417230225 -0.05740457726 0.9934659257 0.003734681464 -0.1140679909
-0.009843938828 0.0183521843 -0.04116388702 -0.4665294673 0.8552400146 0.2256430225
-0.01393611622 0.01581857824 -0.04260165596 0.7020087126 -0.6132850655 -0.362029275
-0.01518789458 0.01424616504 -0.04207652569 0.7520276974 -0.6125550729 -0.2433734271
0.01835260773 0.06059348679 -0.06035930634 0.9372988721 -0.3446149913 -0.05207045399
-0.0175572141 0.01095345068 -0.04207648277 0.8658877115 -0.4814821594 -0.1356959882
-0.02054207277 -0.0006729993448 -0.03923048019 0.9998846082 0.01336265659 -0.007225629571
-0.01884161568 0.008431563377 -0.04155493927 0.916874748 -0.3972542279 -0.03911233723
-0.01960375977 0.00781205066 -0.06351692581 0.9433965547 0.1606095579 0.2901853038
-0.01914489555 -0.007544617653 -0.03411561584 0.9553199057 0.2955233571 -0.00546106052
-0.01077067232 0.01343400669 -0.07742004013 0.5225433939 0.1710781218 0.8352728163
0.01705860367 0.04685010605 -0.06017982407 0.9998685604 -0.01090425071 -0.01199830522
0.01363500023 0.05896800423 -0.05036920166 0.767783432 -0.3130621864 0.5590175928
0.01350201003 0.05610796356 -0.05019199371 0.7750672629 -0.1762935842 0.6067876977
0.01055059814 0.04684617996 -0.04716042137 0.6214542574 0.004026630009 0.7834401012
-0.01599338722 -0.0125163517 -0.04536831284 0.742196216 0.6691877458 0.03650394162
0.009052207708 0.04391656494 -0.04613471413 0.5008479872 -0.01964627444 0.8653122659
-0.01990216446 -0.00400180614 -0.04786195374 0.9733891035 0.2145214467 0.08058661272
-0.02039345016 0.05331007996 -0.06315585556 0.9914951749 0.009033033685 0.1298295904
-0.0170979248 0.02894781647 -0.07200268097 0.8378078823 0.004906327614 0.5459431108
-0.02055603123 0.04748204613 -0.0603289156 0.9996553107 0.01830968073 -0.01881529732
-0.01793527794 0.01975981331 -0.05050871658 0.8998972821 -0.07760253418 -0.4291418512
-0.01823117256 0.02866397476 -0.05113016129 0.8894521924 -0.01044226902 -0.4569089149
-0.01310991573 0.01962707329 -0.04464468765 0.6479580665 -0.3741038255 -0.6634731884
0.01576549768 0.05568377304 -0.05412052917 0.9089882569 -0.118478507 0.399628818
-0.01290703297 0.02753763008 -0.07663865662 0.6204435001 0.01485840085 0.784110382
-0.01941433811 0.007122634649 -0.04281017303 0.9510442518 -0.2971761458 -0.08485970451
-0.0200363121 0.004837135553 -0.04211598587 0.9748620393 -0.2209952786 -0.02837412834
0.01577263912 0.04979037857 -0.05416595713 0.9188499578 0.01198877534 0.3944249287
-0.01924726772 -0.007300752878 -0.03670786095 0.9587701199 0.2841486331 -0.004405852579
-0.01588661194 -0.01309145355 -0.03699643707 0.7421951291 0.6691889633 0.03650372311
-0.0002884841859 0.003064232826 -0.07723652649 -0.1366858615 -0.4242126729 -0.8951874571
0.01461145973 0.05886471176 -0.05180726433 0.831243143 -0.3019673772 0.46674462
-0.009004330158 0.02547499132 -0.07910316277 0.4447772054 -0.01175099615 0.8955641527
-0.01694902763 0.01957235336 -0.07219618225 0.8170977027 0.03583727066 0.5753842493
0.01337760115 0.05266353798 -0.05002451515 0.8005352583 0.01310968034 0.5991422507
0.01209503689 0.04698814926 -0.0485802948 0.7075120408 0.0002671236868 0.7067012386
-0.01133326321 0.01713901176 -0.07756263275 0.5723891502 0.07642356785 0.8164129464
0.0103499651 0.04448519135 -0.04699605179 0.6117910798 -0.008657454032 0.7909720116
-0.01975177161 0.05577652613 -0.06624359131 0.9621348673 -0.1262961072 0.241548733
-0.0203910408 0.05018229904 -0.06319960098 0.9856198409 0.000523884448 0.1689770837
-0.02055921316 0.04426880836 -0.06036319065 0.9996007024 0.001281254309 0.02822754207
-0.01858095169 0.02576274586 -0.05178174782 0.9100872125 -0.008567142511 -0.414328215
0.01729197121 0.06060000229 -0.07156589508 0.6703115941 -0.6342744122 -0.3851990873
-0.0189947834 0.008640686989 -0.04404774475 0.9218176433 -0.3715356223 -0.1105147676
0.01628173828 0.06060000229 -0.05375080872 0.8291864685 -0.4315304479 0.3552904065
0.01578209782 0.05866040192 -0.05417379913 0.887039758 -0.3185645463 0.3341812347
0.01479820474 0.05597982661 -0.05212646484 0.8510656849 -0.1930840185 0.4882681248
0.01438869214 0.05337216282 -0.05143228531 0.8186365966 -0.006224625611 0.5742781353
0.0004174972102 0.0374600296 -0.08118048859 0.009413803142 -0.02448931223 0.9996557677
0.01323480892 0.05031017685 -0.04983583832 0.7739529033 -0.005072341394 0.6332228477
0.01063248444 0.04167252159 -0.04722220802 0.6217023045 -0.02105364992 0.7829706178
-0.01455137694 0.04682962084 -0.07509560776 0.7074098499 0.003118218599 0.7067967042
-0.02056245327 0.04101539516 -0.06040089035 0.9998637217 -0.001012652378 -0.01647763556
-0.02037218348 0.03455200195 -0.05787377167 0.9947704157 -0.02275068755 -0.09957020812
-0.01978942013 0.02863717079 -0.0549443779 0.9621458569 -0.02051935247 -0.2717614876
-0.005423968673 0.02879293299 -0.08043969345 0.2459010196 0.005687625264 0.969278257
-0.02040415382 0.02908418131 -0.06324890995 0.9850082181 0.0056445749 0.1724150491
-0.01159961128 0.04095163155 -0.07756520462 0.5492148128 0.004286676583 0.8356702183
-0.02014942598 0.005052280426 -0.04537195683 0.9800576979 -0.1788295366 -0.08664240053
-0.01934877205 -0.007058956623 -0.03927811813 0.9205518929 0.390371314 0.01394452234
0.01444010472 0.05001728821 -0.05150755215 0.8433205701 0.0001284410243 0.5374108294
-0.01883468056 -0.007196175098 -0.04775629807 0.947811831 0.2985498412 0.1118960471
-0.01763976574 0.06060000229 -0.06875053406 0.8363540538 -0.4281860013 0.3422990578
-0.02038420715 0.04381061859 -0.06329631729 0.9925427484 0.001743150635 0.1218845931
-0.01582763529 0.004934029102 -0.06986728287 0.7597032391 0.3097584784 0.5717522834
0.01700383568 0.05656516266 -0.06215932083 0.9943816316 -0.08865700225 -0.05783689718
-0.02056501627 0.03771993923 -0.06044166756 0.9991124182 -0.01786679453 0.03814647349
-0.02026856995 0.02934827995 -0.0571213239 0.9883184798 0.007809806215 -0.1522024617
-0.01870762253 0.0171851387 -0.05151590602 0.9107737957 -0.1211410003 -0.3947352925
-0.01969019318 0.008165953 -0.04774035009 0.9681193846 -0.2085975475 -0.1386791996
-0.02039580154 0.02563901186 -0.06331738186 0.9852325841 -0.01399846782 0.1706481708
-0.01927036667 0.04194525909 -0.06787535858 0.9359301181 0.003624628117 0.352167114
-0.02056030083 0.001244000336 -0.0452849973 0.9999471534 0.01011874707 -0.00181696837
-0.01937903023 -0.006900075912 -0.04176020432 0.9384336497 0.3431311162 0.04004150509
-0.01589429188 0.06060000229 -0.0693892746 0.7694795622 -0.4172820858 0.4835047716
-0.01199389496 0.007852817726 -0.0750025238 0.5938151162 0.2679496589 0.7586742306
0.006312190294 0.04379539299 -0.08014354706 0.2944349509 0.004872140539 -0.9556591034
0.0004573285282 0.06060000229 -0.08070293427 0.04716190783 0.4029303451 -0.9140147107
-0.01918833542 0.05592287064 -0.06809325409 0.9190339773 -0.1335045432 0.3708814979
-0.0197901104 0.04664377441 -0.06614290314 0.9712513722 -0.017928688 0.237380147
-0.0203794548 0.04056407242 -0.0633495018 0.9919659206 -0.01358565501 0.1257737742
-0.0196676534 0.01996681531 -0.05452019246 0.959450025 -0.05188888195 -0.277061714
-0.01937733841 0.0129381361 -0.05131747627 0.937042109 -0.2147135457 -0.2754091127
-0.02010058594 -0.003925921798 -0.04483875847 0.9840463257 0.1724957979 0.04356637072
-0.01661885262 -0.01215298653 -0.03931253815 0.8715146556 0.4903687442 -0.0008365175438
0.0177559185 0.06060000229 -0.05763777542 0.9140115236 -0.3733485415 0.1587255535
0.01663757944 0.05590419388 -0.05686152935 0.947854148 -0.2222792062 0.2283954215
-0.0167505277 0.06060000229 -0.07171748098 0.7328610481 -0.4540029878 0.5067504034
0.01357752991 0.04070631599 -0.05025487137 0.779436072 -0.0009050752142 0.6264811175
-0.001398231983 0.009566428185 -0.07960353088 0.1506102925 0.2504111605 0.9563528588
-0.01848152504 0.0530710083 -0.06959303741 0.8856952836 -0.001069941559 0.4642657857
-0.0198598938 0.0165348266 -0.05469735591 0.9732907253 -0.08507468208 -0.2132310075
-0.02047381528 0.005241479556 -0.05095874659 0.9957809502 -0.08142870362 -0.0423044385
-0.0197200036 0.04121188927 -0.06638820839 0.9614953711 0.01256374928 0.2745337931
-0.01677214813 -0.01184026957 -0.04192847824 0.8684109934 0.4953192776 0.02282892488
0.01574292049 0.04386347427 -0.05406755753 0.9279409551 -0.008018714132 0.3726409587
-0.01437564341 0.06060000229 -0.07211893463 0.7380312561 -0.3805132383 0.5572428021
-0.01156458206 0.02924695511 -0.07760299988 0.5543626487 0.0110594156 0.8322017442
-0.01845062599 0.04995496063 -0.06966624603 0.889274063 -0.006951048553 0.4573219039
-0.01913570404 0.04971350479 -0.06821790314 0.9319163832 -0.009363111205 0.3625523229
-0.008671126842 0.0104612236 -0.07789455032 0.4203854804 0.2467992521 0.8731358296
-0.02029493713 0.01999515343 -0.05722797521 0.9931083601 -0.02174779519 -0.1151643105
-0.01955140305 -0.002096004367 -0.05462037849 0.9499258695 0.2631445203 0.1685105454
-0.02051216745 0.001736964867 -0.05112367344 0.9978087017 0.04537184966 0.04815796922
0.01691729546 0.05630794907 -0.05840540314 0.9770168477 -0.1856501546 0.1047477899
0.01577287356 0.04112028885 -0.05416070302 0.9169715884 0.001879597195 0.3989480833
-0.01707492956 0.05559918404 -0.07202389018 0.8216817335 -0.1205195526 0.5570584945
-0.0185351038 0.04676051521 -0.06950267029 0.8956038885 -0.0161631976 0.4445586867
-0.02037097613 0.0321552194 -0.06350694656 0.9834467752 0.01109875654 0.1808570098
-0.01147862864 0.04373039881 -0.07764305369 0.555133425 -0.01613448869 0.8316048092
-0.02057234955 0.02263459078 -0.0603104159 0.9995381823 -0.02600223323 -0.01572596602
-0.02039200115 0.0140455575 -0.05663380241 0.9888845864 -0.02128409169 -0.1471538727
-0.02052587414 0.007609180689 -0.054175457 0.9981541099 -0.03264946625 -0.05120923048
-0.01648384094 -0.01203900433 -0.04414713287 0.8713534449 0.4871178302 0.05881660959
-0.002612191399 0.05323784002 -0.08099788666 0.1293034091 0.01617442788 0.9914731546
-0.007415954113 0.05271105957 -0.07976951599 0.3635109016 -0.0173020437 0.9314292586
0.01705901909 0.05546429189 -0.05997741699 0.9983632379 -0.04842457941 -0.03042869085
-0.006010289351 0.04065070216 -0.08028505707 0.2804981709 -0.009075710613 0.9598116521
0.01694449425 0.05303263855 -0.05853970337 0.9917911217 -0.005262954554 0.1277602134
-0.01424617926 0.004870411873 -0.07171033732 0.6922405159 0.3179781224 0.6478371568
0.01663934755 0.04687369156 -0.05690664864 0.9743547487 0.003805810315 0.2249851984
-0.0170234286 0.0525088253 -0.07210066223 0.836286173 -0.008656416815 0.5482248656
-0.01873668194 0.04380105209 -0.06908472443 0.8946870463 -0.00134414544 0.4466914847
-0.01972653885 0.03491959 -0.0663896698 0.969246693 0.0067327316 0.2459990213
0.01681024265 0.0468346405 -0.06351912689 0.9883774506 -0.01585138138 -0.1511911002
-0.01978319995 0.03181181431 -0.06617574183 0.9672912496 -0.01070092761 0.2534425547
-0.02055956602 0.01697860384 -0.06003404903 0.9999505721 0.00697112528 0.007089202833
0.01354397583 0.05566469193 -0.0709550705 0.8799656806 -0.1507965508 -0.4504673143
-0.01945196104 0.01410592079 -0.06646927643 0.9387495344 0.07421656435 0.3365133179
-0.02054118061 0.01143729019 -0.05715575695 0.999259942 -0.03398322184 -0.01801968385
-0.01952307415 -0.004283437252 -0.05070897102 0.9470993659 0.3004506606 0.1128370141
-0.01453053729 0.01687412008 -0.07490574646 0.6980715168 0.08605297129 0.7108382682
0.01891470146 0.06060000229 -0.06308194733 0.9075855391 -0.3746397998 -0.1895613613
0.01673602009 0.06050177002 -0.06384418106 0.9121301715 -0.3511878143 -0.2113898514
0.01698000145 0.0589389534 -0.06239577866 0.9742915881 -0.1832094006 -0.1311114677
0.01697257996 0.04972469711 -0.05867901993 0.9934661199 0.003673350189 0.1140682917
0.01669260597 0.0440395546 -0.05700432841 0.9625379929 -0.006727889292 0.2710633648
-0.01468901157 0.06060000229 -0.07487593842 0.74590363 -0.3572942022 0.5621108679
-0.005702748895 0.01721099925 -0.0801828289 -0.2886841174 -0.08207097693 -0.9539003277
-0.0146132416 0.05584012822 -0.07503547559 0.7239127103 -0.1543726636 0.6723982961
-0.0170772122 0.04722718539 -0.07201748766 0.8396578134 0.009647951848 0.5430300852
-0.009119441032 0.04731173801 -0.07903046989 0.4464197738 7.209344663e-05 0.8948236588
-0.01858949814 0.04093266907 -0.06940021362 0.8889363196 -0.002642509578 0.4580231838
-0.01984828415 0.02866992149 -0.0659669693 0.9708092439 -0.01666539197 0.2392732259
-0.01156493266 0.03477125041 -0.07758916219 0.5811868336 -0.008963976766 0.8137207823
-0.02047626495 0.02252891095 -0.06261924108 0.9950037217 0.007045999262 0.09958889369
-0.0205481782 0.007710117698 -0.05721045208 0.9992816088 0.0335693324 0.01758880877
-0.01791764132 -0.008042781671 -0.05098267619 0.883708661 0.4341933161 0.174743145
0.01676627254 0.05654378319 -0.06369755745 0.9659156638 -0.1206568506 -0.2290171496
0.01690813255 0.04485403824 -0.05825014496 0.9916733412 -0.02346664919 0.1266226709
-0.01453194196 0.05274178859 -0.07512095424 0.705758582 -0.009601927466 0.7083873425
-0.01702124623 0.0440317579 -0.07210359192 0.8419344294 0.002940373909 0.5395718403
-0.01855469084 0.03798748684 -0.0694742012 0.8871162069 0.001919262896 0.4615421452
-0.01921219063 0.03537839127 -0.06802989197 0.9389061201 8.989008797e-05 0.3441733424
-0.01982579041 0.02591413943 -0.06602838643 0.9721687752 0.01237639187 0.2339544775
-0.007224775791 0.04950031281 -0.07984951782 0.3498641692 0.01022578995 0.9367446271
-0.02049646759 0.01113875993 -0.06021147029 0.9920602418 0.04110488307 0.1188564903
-0.02006287257 0.002445990403 -0.05727376302 0.9719335368 0.1713691835 0.1611763103
-0.0186602389 -0.005076621691 -0.05392745972 0.8950765114 0.3898893734 0.216389268
0.01615130615 0.06060000229 -0.06626255035 0.8733388587 -0.4112129686 -0.2611190002
0.01600053787 0.05859229914 -0.06647623698 0.9181518286 -0.2624608934 -0.2968358117
0.01703100204 0.05091345215 -0.06209402084 0.9984553829 -0.008841058627 -0.05485147317
0.01705551783 0.04400849279 -0.05985621134 0.9953938316 -0.01770455524 0.09422138113
-0.008363736153 0.06060000229 -0.07583361053 -0.3304069723 0.7248315244 -0.6045250151
-0.01277566147 0.06035219955 -0.07668689728 0.5825451824 -0.4423038826 0.6819152337
-0.005880076408 -0.008408144951 -0.06797588348 0 0 1
-0.01444766871 0.04982553418 -0.07519991811 0.7067391609 0.006332244833 0.7074458715
-0.01720569153 0.04084939728 -0.07183986053 0.8369094529 -0.005907906749 0.5473094776
-0.01852009697 0.03500791245 -0.06955392914 0.8925220572 0.009279897659 0.4509082621
-0.01719847298 0.001575372159 -0.06554963303 0.8375668984 0.3238247759 0.4400218236
-0.02029824734 0.007518730044 -0.06000294495 0.9872012485 0.08439863824 0.1353165358
0.01572377157 0.06060000229 -0.06856054688 0.8286672367 -0.4338007129 -0.3537337308
0.0167704277 0.04983643087 -0.06372275162 0.9856977724 -0.0097863534 -0.1682383093
0.01700562477 0.04764348984 -0.0622902565 0.9986941567 -0.01269578351 -0.04948533546
-0.001456210494 0.007836296082 -0.07908109283 -0.1636549281 -0.3225080106 -0.9323119905
-0.008632485271 0.06060000229 -0.077906744 -0.3605787593 0.4336100636 -0.825811886
-0.01136155987 0.06060000229 -0.07757640839 -0.4710983986 0.424894367 -0.7730013426
-0.011400037 0.05884607849 -0.07769650421 0.5176693115 -0.2889620862 0.8053070202
-0.01706079419 0.03786286926 -0.07205642319 0.8330716856 0.0115793238 0.5530438373
-0.01856493664 0.02889186716 -0.06947423553 0.8968725701 -0.006297722017 0.4422441991
-0.01914381409 0.02862990379 -0.06819940948 0.9346923748 -0.01769753867 0.3550168469
-0.01921962929 0.02615370083 -0.0679966507 0.9323600869 0.00652352383 0.3614721455
-0.005708589554 0.05578920364 -0.08033190308 -0.27348996 0.09700760307 -0.9569706196
-0.01978071823 0.01960301666 -0.06618576355 0.9607390404 0.01210660088 0.2771893332
-0.0200672718 0.01087001801 -0.06306219864 0.978941156 0.09174321878 0.1823661014
-0.01987270927 0.004890014966 -0.06058977636 0.9618198178 0.1489400089 0.2296072994
0.0001573325917 0.05252481715 -0.08116031138 -0.01537050459 -0.01531093186 0.9997646338
-0.01877264118 -0.002835868716 -0.05708761406 0.9297105714 0.2996390664 0.2141370667
-0.01662027931 -0.009364110947 -0.05310361099 0.7987964362 0.541753508 0.2615862958
0.01609564559 0.05060098775 -0.06620400492 0.967239707 0.002005385183 -0.2538569039
-0.01336812878 0.00145237565 -0.07075701141 0.6425435764 0.3998787307 0.6536319707
-0.00587207222 0.06060000229 -0.07824234009 -0.3322111889 0.3486193411 -0.8764133049
-0.01456282345 0.0200921526 -0.07508679708 0.7073052727 0.03286306372 0.7061439444
-0.0129603138 0.05304114532 -0.07655223083 0.6145434158 0.001619192452 0.7888813398
-0.01607606697 0.04198446655 -0.07347753143 0.7882098568 0.0007858598138 0.6154060481
-0.01697097816 0.03478961487 -0.07218983154 0.8321865905 -0.003805372033 0.5544826397
-0.01865117455 0.02586757342 -0.0693085022 0.8916241387 -0.009741834986 0.4526715055
-0.01980699412 0.01655352434 -0.06582636007 0.9678543187 0.03545776431 0.2489995275
-0.01947524643 0.00190718627 -0.05984189987 0.9484173843 0.2216901502 0.226622908
-0.01857109578 -0.0009869751632 -0.05994636408 0.8876867467 0.3436932722 0.3064101408
-0.01151145824 0.02309832382 -0.0776305453 0.5520372409 -0.0001976894367 0.8338194323
-0.01720108032 -0.006544136763 -0.05666667938 0.8382727656 0.4600165994 0.2927174382
-0.008915802956 0.01996063271 -0.07910291901 0.4407187839 0.04057872042 0.8967275623
-0.002096248925 0.03480022049 -0.08106757355 0.1171201131 -0.01061575421 0.9930610177
-0.005564472771 0.03513780212 -0.08038813629 0.2283649741 0.01487031645 0.9734620241
-0.01555161572 -0.01050383949 -0.05383613968 0.7763234474 0.5709966475 0.2669920102
0.0151596508 0.06060000229 -0.0715926857 0.7658711919 -0.47575601 -0.4325477272
0.01383089066 0.05861574554 -0.07057990265 0.7739694066 -0.4357913666 -0.4594096672
0.01475626183 0.05576375771 -0.06915162659 0.8884241226 -0.1725824442 -0.4253444233
-0.003074840188 0.06060000229 -0.07859074783 -0.2616020707 0.5256276759 -0.8094936089
-0.01285412407 0.0498952713 -0.07664233398 0.6105530377 -0.001337509754 0.7919742415
-0.008721676826 0.00781962347 -0.07706329346 0.4306987427 0.2856495049 0.8560975139
-0.01694271564 0.03173960718 -0.07223745982 0.8175587798 -0.00460410992 0.575826748
-0.01950588036 0.01143211031 -0.06551932907 0.9437115195 0.1226269541 0.3071989553
0.00322822237 0.04700876872 -0.08088823446 -0.1234630365 -0.002040719948 0.9923470734
0.01187935829 0.05899696159 -0.07280871964 0.6201936505 -0.4910951855 -0.6117069189
0.01531337261 0.04990245438 -0.06813816071 0.9416499459 0.009350084355 -0.3364638989
-0.008726069832 0.05563992004 -0.07920464172 0.4280578986 -0.07388642641 0.9007259469
-0.01161499135 0.04697138786 -0.07754932531 0.5524723776 -0.004093170213 0.8335211563
-0.01591038132 0.03538908386 -0.07366543579 0.7711628738 0.01318294525 0.6365013999
-0.01712981097 0.02577157752 -0.07196696726 0.838406736 0.01115316103 0.5449309609
-0.01843696594 0.02018697023 -0.06972013474 0.894610206 0.01754946388 0.4465026268
-0.01849559069 0.01717174959 -0.06936166763 0.9015110018 0.05014657531 0.429840941
-0.01928647614 0.009371216774 -0.06541720581 0.9388075619 0.1443359793 0.3127418852
0.01474090385 0.06060000229 -0.07384344482 0.5586196187 -0.5833927192 -0.5895736229
0.00922671032 0.06060000229 -0.07571585083 -0.07810959016 0.9968018625 0.0168801323
0.006567762661 0.06060000229 -0.07825012817 0.2789017063 0.5465467365 -0.7896204804
0.001051597029 0.06060000229 -0.07894780986 0.104613896 0.5587524938 -0.8227099024
-0.004273654938 0.06060000229 -0.0803238678 -0.1916030087 0.4050673362 -0.8939847539
-0.008845228553 0.05242589474 -0.07916443443 0.4577750088 -0.009856636578 0.8890134352
-0.00882619822 0.04974553394 -0.07916025925 0.4591295855 -0.00770174422 0.8883359201
-0.01301893616 0.04226573563 -0.07652404785 0.6224086903 0.001559979171 0.7826908641
-0.008896554232 0.02871242619 -0.07913507271 0.4308704074 -0.01272215198 0.9023241318
-0.01432483063 0.03484029236 -0.07535289764 0.7054132324 0.00144434289 0.7087948119
-0.01147641983 0.03796727142 -0.07765957031 0.5549995559 0.01314770473 0.8317467347
-0.01470214871 0.03211422975 -0.0749680579 0.7067954123 0.00455706214 0.707403335
-0.01716064873 0.02255325508 -0.07193273926 0.8387543665 -0.002214569778 0.5445054714
-0.01856305631 0.008026085854 -0.06660320282 0.8918531018 0.1994138374 0.4059952786
-0.01792856121 0.00471881777 -0.06617863274 0.8777337032 0.2551593842 0.4055579303
