# .PCD v0.7 - Point Cloud Data file format
VERSION 0.7
FIELDS x y z normal_x normal_y normal_z
SIZE 4 4 4 4 4 4
TYPE F F F F F F
COUNT 1 1 1 1 1 1
WIDTH 521
HEIGHT 1
VIEWPOINT 0 0 0 1 0 0 0
POINTS 521
DATA ascii
-0.0162629522 0.04660692284 -0.07311139471 0.7956211571 -0.01264169901 0.6056625809
-0.004547359109 0.01523687029 -0.08024173228 0.1938618163 0.1195185393 0.973721169
-0.004302370214 0.02006523857 -0.001366394489 -0.1760504038 0.9816988584 0.07261960354
0.009099894524 0.03102806282 -0.07907894135 -0.2726536188 0.002480962063 0.9621090629
-0.0003047346473 0.02054499944 -0.00180584087 -0.04058019142 -0.9982101949 -0.04392783769
-0.009197131952 0.0183552955 -0.001436122306 0.4382250033 -0.8977385291 -0.04499310822
0.00322822237 0.04700876872 -0.08088823446 -0.1795307099 -0.004344360481 0.9837427767
-0.004968466818 0.05928948689 -0.08039972878 -0.2069063846 0.2871602006 -0.9352693554
-0.01625060412 0.05080878038 -0.073122791 0.796208735 -0.01059941074 0.6049291718
-0.01768271708 0.01046383321 -0.0129925034 0.8363436181 -0.5481877833 0.004416632181
-0.02037144508 0.002866782856 -0.03714822311 0.9949318922 -0.1005407692 -0.001443452871
-0.01862392426 -0.0009284753799 -0.05998654938 0.895672382 0.3337024545 0.2939619975
-0.01551494789 0.01348825264 -0.002211942405 0.7841480467 -0.6197717504 -0.03154073913
-0.01920229594 0.007305468877 -0.001179411838 0.9204960682 -0.3897905359 -0.02739208946
-0.007800851345 0.01577130604 -0.07932870483 0.3711605436 0.1096547318 0.922071413
-0.01291388305 0.01595541112 -0.002140350898 -0.6765230777 0.7352504391 0.04151285522
-0.01795894861 0.01140414739 -0.04515120411 0.868223718 -0.4372301531 -0.2345578151
-0.01835997009 0.01927047157 -0.05123099136 0.9254442875 -0.04048380214 -0.3767146565
-0.01579593468 -0.008022526741 -0.05790711975 0.8006499158 0.5010397272 0.3285101279
-0.0193377224 0.006973391247 -0.0049007267 0.9247401686 -0.380592991 0.00214378951
-0.01251605306 0.01516407531 -0.07645771572 0.6020984586 0.1052009222 0.7914608089
-0.02030436516 0.002870968401 -0.0015201524 0.9935547115 -0.09127377651 -0.06721705871
-0.0143174715 0.04185995102 -0.04581409454 0.7972632446 0.005480906471 -0.6036068906
-0.01279134941 0.01605755602 -0.01306911414 0.6416218675 -0.7669098092 0.01306613114
-0.007837064981 0.03509620857 -0.07962137604 0.3876959306 0.01461715102 0.9216714188
-0.01763328425 0.01052221266 -0.001758601944 0.823705799 -0.5645431503 -0.05291302406
-0.02052548663 0.01874560992 -0.06142272631 0.9986526815 0.002679216772 0.05182319424
0.003027547598 0.02033079084 -0.01304735247 -0.132270928 -0.9910372371 0.01869749351
-0.004951130595 0.01990388434 -0.005007873195 0.2499071351 -0.9682018979 0.01146772208
-0.02043389511 0.00225947268 -0.01705379562 0.997228728 -0.07282335911 0.0152191433
-0.01809200516 0.01861521072 -0.07029808044 0.8808292662 0.04647803742 0.4711471063
-0.009237459977 0.01833757877 -0.005029938062 -0.4791177816 0.8776218961 0.01503192725
-0.004912512302 0.01993301037 -0.01328861741 0.233312521 -0.972136131 -0.02272906273
-0.01728451983 0.0426581955 -0.04945666885 0.8547914102 0.003236053441 -0.5189616296
0.01382802153 0.04725564957 -0.05059122467 0.829719134 0.01865063225 0.5578694404
0.003458288431 0.02025787067 -0.004824698329 -0.2373405987 -0.9713963283 0.007655954589
-0.01292663749 0.01594903962 -0.005712372224 0.6634920668 -0.7480280515 -0.01524176605
-0.01550973773 0.01349577212 -0.005780483246 0.7561359503 -0.654379334 -0.006790571614
-0.01761880334 0.0105526708 -0.005342861811 0.8182457054 -0.574207561 -0.02756161279
0.003654082656 0.02022472477 -0.001087070711 0.08537910991 0.9959473 0.02827336733
-0.01549325943 0.01351955398 -0.01706654978 0.7076647544 -0.706492299 0.008900946471
-0.01067414379 0.01758503532 -0.01754851341 0.5129510332 -0.8583283332 -0.01239798411
-0.01532108593 -0.004349027634 -0.06356534195 0.7571666065 0.4722150312 0.451344319
-0.02029415957 0.002974052489 -0.005162874103 0.9950458009 -0.09655151662 -0.0236993394
-0.0003767056763 0.02055464077 -0.01308727098 0.01189166193 -0.9998271165 0.01429424945
-0.02051441002 -0.001160478354 -0.001628400564 0.9989506492 0.04519406365 0.007422744149
-0.01260536534 0.0590602605 -0.07658969716 -0.553989414 0.3946696399 -0.7330290611
-0.01998700651 -0.004626514435 -0.00137489374 0.9611869994 0.2554406984 -0.1042573822
-0.01500141144 0.05875944138 -0.04656263351 -0.6751754484 0.264103817 0.688757786
0.003374308268 0.05458165868 -0.08085748291 -0.1367893592 -0.1498612139 0.9791987989
0.0001247715235 0.0205502079 -0.005422837448 -0.03880169688 -0.9989946909 -0.02245074329
-0.01872117233 -0.007285499096 -0.04846136475 0.9321115017 0.3505346192 0.09106936488
-0.0205295035 -0.001000675639 -0.005319222212 0.9991604019 0.03818747974 -0.01483939379
0.00398106877 0.06060000229 -0.04163655726 0.1406850666 -0.3813849819 0.9136482954
-0.008481410408 0.01872881432 -0.008903619003 0.4358667085 -0.8999877448 0.006501663332
-0.01613299408 0.05897406082 -0.07310836589 0.7578783555 -0.226089012 0.6119674476
-0.01060991907 0.01762882233 -0.00890730381 0.516746837 -0.8560618698 0.01143596959
-0.01999438882 0.03907056522 -0.06529539824 0.9686308519 0.01097017644 0.2482618132
0.003265172601 0.02029056358 -0.008511194944 -0.1427979841 -0.9896215893 0.01605757381
-0.01293853871 0.01594207255 -0.009237706184 0.6453545168 -0.7637941269 0.01166530562
-0.01819058863 0.0549150753 -0.07018444061 0.8684694447 -0.1446591601 0.4741672183
-0.01550459456 0.01350319505 -0.009303162813 0.7504976856 -0.660811679 0.009008266149
-0.01073028278 0.01754676056 -0.02510177358 0.5257499116 -0.8500265611 0.03227810294
0.01635943426 0.05104119655 -0.06531183624 0.9651377385 -0.006416377008 -0.2616638603
-0.01760451031 0.0105827349 -0.008880795002 0.8541533667 -0.5198327493 0.01399781819
-0.01947100989 0.006486466646 -0.01355458577 0.9438863591 -0.3301332041 -0.009518862868
-0.02033081703 0.002837887907 -0.01280278111 0.9908159125 -0.1345057607 0.013857414
-0.01919997749 0.007337643337 -0.009261010838 0.9159056057 -0.4011556041 -0.01382399122
-0.01400213146 0.01311499405 -0.07486118317 0.6729684179 0.1454951425 0.72522043
-0.01653142452 -0.009465418498 -0.05303515752 0.8308518011 0.5157012368 0.209135169
-0.01945681981 0.006560779708 -0.01730296707 0.9431939301 -0.3319338864 -0.01432149924
0.006638772011 0.01945231247 -0.001885241032 0.2875408015 0.9565089078 0.04910190206
-0.004568339143 0.01999686595 -0.009159297807 0.2186201298 -0.9758081384 0.001927668326
-0.01299123812 -0.0008684189096 -0.06949215317 0.6283071368 0.4533137872 0.6322473821
-0.02029097039 0.003093138712 -0.009062436376 0.9881839567 -0.1518270916 0.02100004572
-0.02026681169 0.02293537458 -0.05717624982 0.9913064612 0.02959617313 -0.1282012735
-0.010642265 0.0176067702 -0.01325927448 0.5172946244 -0.8556039669 -0.01865806641
-0.0199367466 -0.004890400052 -0.004836024702 0.9670940211 0.2543478348 -0.006027712231
0.006430916071 0.01952041912 -0.004744271874 0.294508955 0.9550390995 0.03412907615
-0.01816527271 -0.007800019979 -0.05039115334 0.8785044709 0.4456622732 0.172090188
-0.01298177973 0.01592103211 -0.02123703035 0.6576535493 -0.7533190154 0.001506710997
-0.000244412452 0.02055431128 -0.009519372463 -0.01428420139 -0.9998932467 0.003075201345
-0.008809293175 0.01857710266 -0.01317264042 0.4378906141 -0.8990271446 -0.001415370389
0.01846693484 0.06060000229 -0.06542295456 0.9277752762 -0.3124440813 -0.2039895413
0.007276780605 0.03579896545 -0.07985029602 0.2827647399 -0.006085216434 -0.9591699912
-0.01549951601 0.01351052451 -0.0127813859 0.7088691147 -0.7052422815 0.01174319073
-0.008253420949 0.01881833792 -0.02140664577 0.3828095274 -0.9236616206 -0.01749503938
-0.004745047251 0.03091992919 -0.08059803391 0.2078203309 -0.01528773595 0.9780475424
-0.01310688663 0.01581979632 -0.01723720193 0.6506660784 -0.7590595521 0.02150001778
0.01156783867 0.01697641945 -0.001788201928 -0.4365709285 -0.8993159386 -0.02523225928
-0.02009468079 -0.004466691494 -0.03338682938 0.9893849485 0.1450147172 -0.009389111756
-0.02054811764 -0.0008036046326 -0.009870797634 0.9988527217 0.04685412792 -0.009896009875
-0.02052570513 0.05484686195 -0.06094554944 0.9859525718 -0.1622425632 0.03968471867
-0.0190653019 0.02307300072 -0.06833375244 0.9241864666 0.01454311244 0.3816646078
-0.02001260757 -0.004640285671 -0.008577319741 0.9715587832 0.2365873671 0.009997428041
0.006157063961 0.01961015034 -0.008511069536 -0.2714805142 -0.9624181796 0.007041169629
-0.01879442215 0.0125488348 -0.0678158493 0.913924727 0.1215685699 0.3872501467
-0.01717245293 -0.01134123325 -0.002000502825 0.9218424352 0.3870771319 -0.01943755634
-0.01855017471 -0.003051948071 -0.05768190765 0.8865257163 0.3688139403 0.2793714944
-0.01892430353 0.01537720656 -0.06816309738 0.9302625571 0.0722976913 0.3597007349
-0.007726772189 0.04296211433 -0.07965914345 0.3886237758 -0.01528340175 0.9212697643
0.01089212894 0.0174383955 -0.005089337349 -0.3851447886 -0.9226043734 -0.02155602226
-0.01746253858 0.01082923821 -0.01719923701 0.8305416614 -0.5569416934 -0.004061886703
-0.0202300717 0.05477291552 -0.0570915877 0.9722813053 -0.1137337399 -0.2042882761
-0.02024082184 0.03092867775 -0.05708525543 0.9742382331 -0.01295326037 -0.2251490132
-0.01741845703 -0.01091514349 -0.005068413496 0.924035951 0.382104776 -0.01238956775
0.01704865837 0.05521648788 -0.06115759506 0.9857051523 -0.1669024265 -0.02299853947
-0.004988396168 0.01990753937 -0.01704154968 0.238992144 -0.9708493646 0.01828295163
-0.008305382156 0.01879472542 -0.01749111595 0.3843248238 -0.9230796144 -0.01478023302
-0.02045495911 -0.002040426302 -0.01324348698 0.9983055129 0.0575164115 0.008829795261
-0.01865328789 -0.008715684891 -0.02166736031 0.9622557137 0.2718612206 -0.01246668163
0.01197086536 0.05070290248 -0.04849116389 0.7079900799 0.01979309284 0.7059449556
0.01015628433 0.01791399288 -0.00928266573 0.3685511432 0.9292640794 0.02526510634
0.005820324262 0.01972048823 -0.0131428798 -0.2294474201 -0.9733200118 0.001426919685
-0.006423256397 -0.001951631188 -0.07320565033 -0.3622615609 -0.5283828789 -0.7678398888
-0.0007268313527 0.02055113983 -0.01705550957 0.05816847224 -0.99830338 0.002605814937
-0.001401116252 -0.001406003237 -0.07472389221 -0.2062773707 -0.4922493655 -0.8456596292
-0.01976983833 -0.005763979117 -0.01319409752 0.958255666 0.2852947475 -0.01878790984
-0.01774191856 -0.01035489035 -0.00910232687 0.9244602339 0.3806761015 -0.02142385843
0.01203078432 0.05895006294 -0.04846318169 0.6807069515 -0.3321999819 0.6529021506
-0.01619297965 0.04289421622 -0.07319232814 0.7981905853 -0.0007760002038 0.6024045047
-0.01069928741 0.01756789303 -0.02093143368 0.5107189065 -0.8595534462 0.01827762586
-0.01548754454 0.0135289166 -0.02129167271 0.7498850365 -0.6615681181 0.0002391498798
-0.02007107925 0.03498877504 -0.06497505569 0.9811130295 0.003159442713 0.1934095171
-0.01997236361 0.02679899543 -0.0654169584 0.9670846496 -0.0125176277 0.2541467871
-0.01755554072 0.01068467522 -0.02091848373 0.8304394216 -0.5570684495 0.006716362828
-0.01935649054 0.00683631679 -0.02125780978 0.9253146917 -0.3789881964 0.01267550442
-0.02049078083 -0.001625216126 -0.01727170181 0.9889946743 0.1470573015 0.01623835694
-0.01879595375 -0.00837583828 -0.02527987417 0.9635501828 0.2673681303 -0.009237323255
-0.02054523315 0.01126378307 -0.0575333847 0.9995421401 -0.0221286889 -0.02063567831
-0.004937912385 0.01995959981 -0.03711733246 -0.3166976683 0.9485256666 0.001283232951
0.009707688808 0.01814343357 -0.0131560173 0.3305571764 0.9437746638 0.004619215346
-0.01301235533 0.01590729793 -0.02950525697 0.6471439354 -0.7623296619 -0.007629776836
0.002793561459 0.02037040234 -0.01751404762 -0.09361493628 -0.9955029639 0.01449457376
-0.007556412061 0.01841867256 -0.07964691671 0.3855035664 0.06735913401 0.9202443954
0.006119343281 0.04786238861 -0.08026824951 0.1907779684 0.0003496063769 -0.9816331517
-0.004120206165 0.02013078766 -0.02119882736 0.2294032533 -0.9729794021 -0.02617690606
0.003285121759 0.02257201576 -0.08088969676 -0.1152213124 0.01860739467 0.9931655522
-0.01935796833 0.05120569897 -0.05370895576 0.952529347 0.01483926096 -0.3040849214
-0.01609896946 -0.001034923125 -0.06535909843 0.7871349317 0.3882928944 0.4792152204
-0.02038123817 0.002756978822 -0.02134605904 0.9910327296 -0.1328529327 -0.01429080802
0.01921591854 0.06060000229 -0.06150712967 0.9503272045 -0.3092564142 -0.03519480945
-0.01822837305 0.02258112097 -0.07016110992 0.8859529128 0.004963014904 0.4637486439
-0.02014210796 0.007080705404 -0.04927051353 0.9836493927 -0.1450296901 -0.106772006
-0.01806009197 -0.009803799152 -0.01307027197 0.9280003825 0.3720471152 -0.01990563193
-0.00430522577 0.06060000229 -0.041929245 0.1818494559 0.2951990161 -0.9379703174
-0.01822321396 0.03471081085 -0.07015611877 0.8996683334 -0.01076106827 0.4364413927
-0.008072649479 0.06060000229 -0.04270117378 0.4827312807 0.4650539845 -0.7420884733
-0.004523291588 0.00904318428 -0.07897666168 -0.2340348802 -0.2698471317 -0.9340290148
-0.02051906745 0.007680203676 -0.05718758265 0.9970447483 0.04470577862 0.06247530144
-0.01231002259 0.06060000229 -0.04543908215 0.5336278455 -0.4287328374 -0.7289920964
0.01702867699 0.04691889509 -0.0612565066 0.9997177393 0.02063065845 -0.01178208939
0.00202835083 0.02049795723 -0.03217206192 -0.02657159894 0.9995732977 0.01213147454
0.007386555076 0.01909130049 -0.01732775354 0.3002750994 0.9538383069 0.0052296172
-0.009755603552 0.04671558285 -0.07869750977 0.4592824891 -0.02763563884 0.8878602743
-0.0004765762806 0.02055543213 -0.02136590424 0.08604522215 -0.9961735773 -0.01531089766
-0.01299717161 0.01591411813 -0.02539924007 0.6463558503 -0.7630247369 -0.00416722354
-0.0007921045348 0.05084633942 -0.0811339447 0.03938904079 0.01946179295 0.9990344049
0.003360211134 0.05077882671 -0.08083568764 -0.1232779414 -0.002076290216 0.9923700107
-0.01548229837 0.01353851636 -0.0254506073 0.7074219211 -0.7066477634 -0.01425355737
-0.02040286217 0.002625481391 -0.02895323143 0.996130232 -0.08643360217 0.01593089014
-0.01753663699 0.0107180268 -0.02509130902 0.8276446303 -0.5612388142 0.003919100392
-0.02052376251 -0.001220680681 -0.02123148041 0.9930908123 0.1172831964 0.003910289087
-0.01984784412 -0.005467540741 -0.01771973801 0.9758555394 0.2171265142 -0.02370744734
-0.01924726772 -0.007300752878 -0.03670786095 0.9391051584 0.3420115205 0.03331097892
-0.02043197327 0.01482695255 -0.05739579849 0.9877537755 -0.06318485485 -0.1426539627
-0.02035111014 0.01131895971 -0.06144316864 0.9871735082 0.07825030818 0.1391594555
0.0001270498186 0.06060000229 -0.04188402271 0.06189383191 0.3133711692 -0.9476115575
-0.008031424046 0.05986053162 -0.04501563721 0.3315847718 0.3770298976 -0.8648121157
-0.01947365411 0.01078369411 -0.06527275658 0.9448945342 0.1284939772 0.301103997
-0.01647730748 0.0597513504 -0.04940733147 0.7923559331 -0.3042543945 -0.5287734285
-0.009902659655 0.055229352 -0.07860578537 0.4555900193 -0.1033685304 0.8841677902
-0.01911047888 0.01910874653 -0.06816416931 0.936984941 0.02628419069 0.348379623
0.0039275015 0.02015028143 -0.02115405989 -0.1979345795 -0.9800927602 -0.0154946344
-0.004555813885 0.02004328232 -0.02537717018 0.2332183036 -0.9720520844 -0.02690665469
0.01474981133 0.0549890639 -0.06909000905 0.8694138329 -0.1896555756 -0.4562349722
-0.009695265134 0.04289323807 -0.07873442332 0.4662036729 0.004361646273 0.8846666668
-0.02013851929 0.01114119568 -0.05345802383 0.9831541374 -0.1095695297 -0.1462957975
-0.01894818878 -0.007106851101 -0.04705123138 0.9323753933 0.351038444 0.08630258856
-0.01628280077 0.03898986855 -0.07310246658 0.7964797899 0.0160025522 0.6044533585
-0.008302924156 0.003739599705 -0.0756244812 -0.4388105206 -0.3735571319 -0.8172517337
-0.008134303729 0.01887032255 -0.02533622169 0.3874862229 -0.9218751926 -0.0007459327954
-0.004443115562 0.05511814404 -0.08064627552 0.1941565037 -0.1424884564 0.970566995
-0.01947724969 0.006482072353 -0.02520365061 0.941746907 -0.3360798008 0.01277226247
-0.0145942297 0.04057234955 -0.07511090088 0.707695812 -0.002766939547 0.7065118412
-0.01837315178 -0.009261565208 -0.01697444439 0.953044702 0.3017346447 -0.02572936593
-0.004041368961 0.05900190964 -0.04396352997 -0.05510722326 -0.1404697201 0.9885501766
0.0152507762 0.05087045517 -0.0530581871 0.8819629935 0.0007702361512 0.4713180293
0.006044167995 0.04001922607 -0.08029286957 -0.1984122711 -0.003260787015 0.9801132271
-0.01296222623 0.06060000229 -0.04842207718 0.6292507511 -0.4429042161 -0.6386543256
-0.01487198448 0.05547208405 -0.04641724396 0.7386733633 -0.1401630007 -0.6593299596
-0.01927115186 0.03534449895 -0.05343261337 0.9528527715 0.01890573153 -0.3028434729
-0.0008194421288 0.02054915619 -0.0252179985 0.07478963443 -0.9969978082 -0.02004697102
-0.02038971329 0.002687245846 -0.0251719842 0.9963061694 -0.08386347316 -0.01846441676
-0.01936320076 -0.001033636999 -0.05691517792 0.9344254897 0.2960181727 0.1980460692
-0.01990509129 -0.005238819599 -0.02128047085 0.9670646428 0.2539684326 -0.01691188414
0.006508146763 0.06060000229 -0.04125264359 -0.2466604158 0.3688426164 -0.8961661473
-0.0177224191 -0.001178516358 -0.06205476634 0.8613756225 0.3528120992 0.3654526777
-0.0002685880065 0.05862630386 -0.04356991272 -0.1414279518 -0.1493909836 0.9786115003
-0.01752084054 0.05975192091 -0.06975687663 0.8072824215 -0.3778740465 0.4533280236
-0.01716278716 0.06045849555 -0.05307647705 0.8429032632 -0.3985782125 -0.3614546962
-0.01723220062 0.05485472488 -0.04939775085 0.8181800641 -0.1218357266 -0.5619051864
-0.0007617979795 0.03117836618 -0.08114191628 0.03650299218 0.015448694 0.9992141259
-0.01474575138 0.05214538956 -0.04627522278 0.8057972596 0.0003841537039 -0.5921913786
-0.01673200428 0.007022530913 -0.06945580482 0.8064125512 0.2434389268 0.53892141
-0.01771464062 0.003064543863 -0.06552205658 0.8474901002 0.2836412753 0.4486737757
0.008867527008 0.01855996609 -0.02069719982 0.2935504852 0.9558444044 0.01376906451
-0.01833178902 0.05005704498 -0.05130632019 0.8968004537 -0.01824731543 -0.4420587989
0.003432962132 0.02024999962 -0.02514078255 -0.1292018567 -0.9915100892 -0.01465002676
-0.008023731172 0.01892599368 -0.02921643186 0.3729428409 -0.9274290279 0.02808977694
-0.01076085997 0.01752591324 -0.0292157793 0.511096593 -0.8595232534 0.000222512409
-0.01547712326 0.01354798675 -0.02955347872 0.7482911553 -0.6630429616 -0.02084173603
-0.01751759688 0.01075051991 -0.02920729955 0.8313974641 -0.5553481498 -0.01914912852
-0.02029035409 0.02705305545 -0.05739595731 0.9875713778 0.0145063387 -0.1565002873
-0.01932773018 0.00695803386 -0.02932291365 0.9231531661 -0.3844002381 -0.004968787743
-0.007644963551 0.03117097397 -0.07970321198 0.3439046502 0.01783258039 0.9388352308
-0.01926908112 0.03872034454 -0.05343312963 0.9510493835 -0.01055023101 -0.3088588071
-0.004612535914 0.03514467112 -0.08062851334 0.2024832095 0.01495613887 0.9791715191
-0.01538023777 0.01366902618 -0.03711413879 0.7555313991 -0.6516932447 -0.06684474415
-0.0205021286 -0.001485224789 -0.02547396927 0.9918592998 0.1272635333 -0.00437292932
0.01706295156 0.05923215914 -0.06120374107 0.9478592527 -0.3177399384 -0.02457984115
-0.0185811348 -0.008887562752 -0.01984032822 0.9541205534 0.299069655 -0.01453654432
0.003656687123 0.05912301581 -0.04393174689 -0.1671300441 0.3736764047 -0.9123779332
-0.02006196567 0.02318642453 -0.06508275495 0.9800698144 0.01983473269 0.1976606746
-0.01820907211 -0.005513928413 -0.05512685776 0.8955459565 0.3872327979 0.2191989962
-0.01898882834 0.05111642647 -0.06850656509 0.9258986206 0.01605640248 0.377430704
-0.02003198942 0.007272240639 -0.06128398959 0.9684203193 0.1271130922 0.2144862396
-0.0001650642827 0.05496115112 -0.04357098579 0.06262605105 -0.1253921259 0.9901286747
-0.003938865344 0.05470143127 -0.044019502 0.1077693987 0.123448576 -0.9864817311
-0.01929019403 0.05865319538 -0.05351338196 0.9333704538 -0.224648119 -0.279915735
-0.01835269928 0.05487044144 -0.05135642433 0.8897600959 -0.06999079064 -0.4510302218
-0.01719547749 0.05161774635 -0.04933808708 0.8388182473 -8.371540811e-05 -0.5444115548
0.01020478694 0.04290510178 -0.046895504 -0.6220541587 0.04117431021 -0.7818908491
-0.01462342644 0.04877888107 -0.04613734436 0.800779032 0.004236239 -0.5989449025
-0.01316915067 -0.005293575605 -0.06547800191 0.6458474975 0.5362079303 0.5434722306
-0.001149920409 0.02053777008 -0.02900657082 0.09158046725 -0.9957505629 -0.00968682279
-0.004480188608 0.0200588789 -0.02914501715 0.2256948126 -0.9741942711 -0.002715440556
-0.0199616003 -0.005013039351 -0.02479541683 0.9827895956 0.1847242744 -0.001246280007
-0.01918267775 0.02676506758 -0.05318642807 0.93254782 -0.01683195093 -0.3606539184
-0.005880076408 -0.008408144951 -0.06797588348 0.4581914788 0.6219768292 0.634984561
0.007688983137 0.05933681904 -0.04494254823 -0.4281500626 0.3942807792 -0.8131606182
-0.01806361923 0.03057145882 -0.07046899567 0.8840033654 -0.006979787349 0.467428425
0.003445697989 0.05462200546 -0.04392343957 0.1718194086 -0.1491674536 0.9737695629
0.01106696148 0.05996761856 -0.04613521805 -0.4997846734 0.3847465003 -0.7760060636
-0.02031151314 0.003331040001 -0.04112897644 0.9896872616 -0.1422064007 -0.01721812615
-0.0001469163597 0.05165118408 -0.04356768036 -0.1122227335 -0.01475741227 -0.9935734884
0.003597443581 0.05057281723 -0.0439443367 -0.2626379208 -0.02633676849 -0.9645349642
-0.002635805368 0.05201966095 -0.04370792389 0.001918351889 -0.0123916996 -0.9999213798
-0.02015006948 0.05911583328 -0.05691054201 0.9451938843 -0.250520081 -0.2093996419
0.002716576481 0.05903538132 -0.08056773987 0.1310332238 0.3685810789 -0.9203142303
-0.01927610779 0.05498878606 -0.0534843483 0.9429103188 -0.1092057306 -0.3146334996
-0.01697295888 0.04736956278 -0.04900085704 0.8349016747 0.006409614942 -0.5503617996
-0.02001694241 0.05067132721 -0.06516455612 0.9687773604 -0.01338706489 0.2475706211
0.01214566381 0.0428727853 -0.04865667234 0.7160323272 0.006808608109 0.698033917
-0.01448797417 0.04535729599 -0.0459896431 0.7999438376 0.00966110292 -0.5999970997
0.01203406882 0.04657643223 -0.04854403353 0.7138568283 0.02022538121 0.6999995447
0.008457837105 0.01876260662 -0.0243848238 0.2951804615 0.9554374563 -0.002786097784
-0.009672252655 -0.002408762455 -0.07117942047 -0.4964625013 -0.5343886614 -0.6840714462
-0.008436431544 0.0187385104 -0.03322985431 0.3811201261 -0.9245254497 0.0003773784739
-0.01079524644 0.01750949987 -0.03327154541 0.5138124893 -0.8571711873 -0.03541583632
-0.01289613032 0.01600928617 -0.03333900905 0.6479463441 -0.7616739848 -0.004275057986
-0.01555978832 0.01345296898 -0.03326660004 0.7522162796 -0.6589108047 -0.002687012804
-0.01749884415 0.01078252241 -0.03326119698 0.8202701933 -0.5719734763 -0.001775488483
-0.02054816389 0.03496876097 -0.06124629927 0.9992013618 0.007857824397 0.03917771173
-0.0205278368 -0.001093339789 -0.02931563234 0.9934814028 0.1139774669 -0.00195942857
-0.01830533727 0.06060000229 -0.05745956421 0.9283991667 -0.3651518873 -0.06884102274
0.003466996729 0.0202539916 -0.02895987272 0.08956162516 0.9958058405 0.01869340426
-0.004580233494 0.02003955936 -0.03324852276 0.2635697522 -0.9646009929 0.008712650777
-0.02019627158 0.05108122444 -0.05684412066 0.9762316664 0.003260642559 -0.2167051031
-0.01943572508 0.006638230528 -0.03343213436 0.9419823694 -0.3356276285 -0.004828109507
-0.01977365335 0.05918163077 -0.06499752585 0.9430646759 -0.2978752695 0.1479842588
-0.02022623291 0.03902344742 -0.0570237442 0.9754679975 0.007063727669 -0.2200279293
0.0170328384 0.0510213729 -0.06115242979 0.9950481523 0.01286620676 -0.09855777632
-0.02033889694 0.003095505619 -0.03305030327 0.9948859331 -0.09900146228 0.02001725845
-0.02054639871 0.03898612976 -0.06085467475 0.9997014218 0.02229078176 0.01000941263
-0.02003120232 -0.004734955788 -0.02912462171 0.9866355306 0.1628801649 -0.004514598561
-0.01713496828 0.0230457778 -0.04929477787 0.8443461528 0.007315116766 -0.5357481342
0.007408038987 0.05480657281 -0.04527170605 0.4517398827 -0.1341126941 0.8820118274
-0.01588661194 -0.01309145355 -0.03699643707 0.8672275095 0.4978338285 0.008827573337
-0.01546801567 0.01824531555 -0.04658575439 0.8012199318 -0.3135480261 -0.5096413015
-0.01459648418 0.05453214264 -0.07508198547 0.7193977562 -0.1489200585 0.678446523
0.0008172592968 0.04836219978 -0.04355569458 -0.1441913421 -0.02558340468 -0.9892190588
-0.01992782932 0.03074552812 -0.0655842726 0.9675320181 -0.009691692406 0.2525625962
-0.01917343426 0.04704086208 -0.05319832706 0.9503377453 0.005465738503 -0.311172453
-0.0183195343 0.04679689407 -0.05127635193 0.8938749707 -0.0159306456 -0.4480332034
-0.01415417767 0.0383203392 -0.04564596939 0.7971966362 0.0009531801825 -0.6037189865
-0.001088373134 0.02054189873 -0.03274308252 0.1440701695 -0.9893556929 -0.02047191338
0.01645398045 0.05875079836 -0.06500162452 0.9463645133 -0.2175447076 -0.2388901592
-0.01318947479 0.01577025414 -0.03721142578 0.676728339 -0.7299055104 -0.09631563263
-0.02013397408 -0.004267333269 -0.03673890495 0.9908680292 0.1345861089 0.008193164006
-0.01903228493 0.02715725021 -0.06844176178 0.9265604062 0.0173049827 0.3757477228
-0.02054475441 -0.0007182540014 -0.03309036102 0.9984935617 0.04316026439 0.03387917836
0.01343258953 0.06060000229 -0.0450915947 0.5969078515 -0.3712832821 0.7112311448
0.007515488148 0.05100983701 -0.04532965578 0.4005779009 0.02601151433 0.9158934144
0.003640738765 0.04684637451 -0.04394552739 0.324326236 0.02712810803 0.9455562164
-0.02033609772 0.05921582482 -0.06123642765 0.9511338697 -0.3062672415 0.03930316434
-0.01830873299 0.04349707413 -0.05124934387 0.8926013919 -0.001727695052 -0.4508433989
-0.01451839256 0.0514212265 -0.07517205048 0.707759993 0.01260539494 0.706340496
-0.01905034018 0.03106042528 -0.06838926506 0.9255440636 -0.003277666044 0.3786257297
-0.01707008553 0.03827565193 -0.04913152122 0.8378508458 -0.01225861792 -0.5457615657
-0.008139632106 0.01887833977 -0.03730345488 -0.4113745385 0.9112407302 0.02028104179
-0.001156550422 0.06060000229 -0.07859314728 -0.06142162867 0.3841605456 -0.9212209609
-0.01083187485 0.01749588966 -0.03727723503 0.5318399815 -0.8338484158 -0.1477939562
-0.01748039436 0.01081417449 -0.03726284599 0.821236483 -0.5680019218 -0.05426284012
-0.01928291297 0.007099674463 -0.0374261446 0.9180426539 -0.3944374052 -0.04020968649
-0.0189718914 -0.007956733942 -0.02973488712 0.9718279254 0.2355664967 -0.007675222235
0.009840619405 0.05495230738 -0.04666308339 0.5022189145 -0.1129203011 0.8573360879
0.01377027416 0.05064700699 -0.05052455139 0.8087055519 0.02138138221 0.5878249458
0.007565388775 0.04689246559 -0.04535961189 0.4386796761 -0.01015206736 0.8985861546
-0.01256419826 0.003452353835 -0.07259957314 0.609459914 0.3628459173 0.7049123729
0.003223979086 0.03508980083 -0.0808688488 -0.1363844154 0.01829778276 0.9904869925
-0.01859579659 0.06060000229 -0.06035313797 0.9316083794 -0.3633894154 -0.007345762769
-0.02025396456 0.04680512837 -0.05721210316 0.9757348509 -0.0002719160657 -0.2189553079
-0.01928082609 0.04261487865 -0.05344892025 0.9524576696 -0.009844059203 -0.3045118751
-0.01435445118 -0.009577397346 -0.05835985184 0.7583338162 0.5453951765 0.3570349068
-0.01829954147 0.04015655518 -0.05122562027 0.8806763902 0.008873802514 -0.4736352513
-0.01745334053 0.03433585612 -0.0497849439 0.8838698001 -0.01569475832 -0.4674696258
-0.01174037266 -0.008191337585 -0.06400014496 0.5681051204 0.639920621 0.5174535448
-0.002139578104 0.02048634338 -0.03560359955 -0.1804744545 0.9835467357 -0.008049215112
-0.02016909726 0.04272603798 -0.0567301801 0.9692703068 -0.01718620779 -0.2453970387
-0.001121949732 0.04274222183 -0.08112078476 0.07770187246 -0.01025078898 0.9969239391
-0.009008080149 0.06002284622 -0.07781637497 -0.370953182 0.4131571505 -0.831681974
-0.01627418213 0.0228740881 -0.07312611313 0.7957386318 0.002072352125 0.6056366362
-0.00753030014 -0.008653543472 -0.06693809509 0.4784214181 0.6179593365 0.6238903791
0.01475582668 0.05971266828 -0.04979651151 0.7995586218 -0.3445987616 0.4918919635
-0.008567134698 0.006756793181 -0.07667628479 0.4159425002 0.3123008059 0.8540843302
0.01196022785 0.05475633144 -0.04847520256 0.7202460765 -0.1320251769 0.6810396038
0.005131937027 0.04389065933 -0.04430485535 -0.3522670575 0.002186651047 -0.9358969702
-0.01829212189 0.03677428818 -0.05120552063 0.8953562227 0.005790841653 -0.4453130368
-0.01743055916 0.03085150274 -0.04975045268 0.9185870181 0.005881315438 -0.3951750249
0.01531302238 0.04286182833 -0.05314098787 0.9032970179 0.01663944076 0.428692928
-0.009341585477 0.01849800873 -0.04048843002 -0.5383252748 0.8293082281 0.149845792
-0.0113672994 0.0173529822 -0.04086216482 -0.5436120393 0.8142118288 0.203826025
-0.01331373615 0.01577124348 -0.04059904938 0.7062340234 -0.6772341418 -0.2063672004
-0.0197669735 -0.005497156898 -0.04089484596 0.957432987 0.2870182195 0.03070206843
-0.0155020504 0.01361320591 -0.0407686491 0.772465408 -0.6089328578 -0.1802719285
-0.0175280376 0.01091336886 -0.04126363881 0.8351384017 -0.536688004 -0.1204567816
-0.02052844963 -0.000974279356 -0.03717558365 0.9946555333 0.1025582051 0.01192412314
-0.0194031105 0.003139735599 -0.06100770632 0.938447497 0.2139438253 0.2711905879
-0.01911047554 -0.007626609087 -0.03324406052 0.9469671472 0.321177692 0.009905164526
0.009994740009 0.05068403625 -0.04675634003 0.5593052768 0.0127341765 0.8288639503
0.007976524639 0.04314402771 -0.0455573761 -0.5375727919 0.04797683868 -0.8418513624
-0.02052485037 0.05115442896 -0.06136191607 0.9995410466 -0.01087048754 0.02827593855
-0.01378467655 0.01050902398 -0.07438893382 0.6645997463 0.2141393513 0.7158571893
-0.01741171583 0.02732327779 -0.04972176361 0.8923002749 0.00198629542 -0.4514380068
0.01534021819 0.05489343882 -0.05320519447 0.8600862181 -0.1362896421 0.491606378
0.01621550179 0.04065019608 -0.05532469177 0.9398307315 -0.02218458636 0.3409194043
-0.01942003468 0.006816450187 -0.0414540438 0.9403379013 -0.3255095952 -0.09903602774
-0.02042705688 0.003195768261 -0.04519259415 0.9892650419 -0.1410220707 -0.03830734188
0.01850453186 0.06060000229 -0.05361399078 0.9180238446 -0.3165442393 0.2388136624
0.01004805088 0.04728620911 -0.04678979492 0.5515097389 -0.005612588975 0.834149571
-0.0002884841859 0.003064232826 -0.07723652649 -0.1487754495 -0.4139141752 -0.8980762335
-0.01727240054 0.06060000229 -0.0652440834 0.8710611969 -0.4337867479 0.2303941158
-0.02054765463 0.04684171534 -0.06092205143 0.9996776273 -0.02403363226 0.008186942918
-0.01936949873 0.03129010391 -0.05369479084 0.9545064448 0.02013717916 -0.2975095643
-0.01313380003 0.01873090935 -0.04427493477 0.7519769503 -0.4295970231 -0.4999770635
-0.01261207277 0.04274905118 -0.0768060705 0.6107019513 -0.01932359631 0.7916247376
-0.01389797783 0.01670709419 -0.04374029922 0.7153770899 -0.5996312951 -0.35871706
-0.01619569076 0.05492606978 -0.07318970073 0.779235528 -0.1465030019 0.6093675921
-0.01607035923 0.01460292407 -0.04486883599 0.810048203 -0.481268957 -0.3349658189
-0.02054534187 -0.0003872439742 -0.04125628586 0.9998608075 0.004933330052 0.0159382516
0.01554901505 0.05919393886 -0.05296837859 0.8388600462 -0.2774750876 0.4683176258
0.01388237381 0.05466801453 -0.05067833805 0.8523596616 -0.04475879452 0.5210370981
-0.0198913748 0.05482863786 -0.06567607795 0.969785096 -0.1215374184 0.2115313772
-0.02054420312 0.03096055031 -0.06121702449 0.9996597956 -0.002961028789 0.02591380597
-0.02053623881 0.04293144281 -0.06128722055 0.9991864188 -0.007640656099 0.03959950619
-0.02023787172 0.03501002829 -0.05705606352 0.9838784883 -0.0004496701808 -0.1788376864
-0.009666823387 0.05070978699 -0.07874469299 0.4791942501 -0.01493348519 0.8775818262
-0.01956526756 0.0073382567 -0.0452945246 0.9552888384 -0.2804299157 -0.09371391328
-0.01352983093 -0.01273038578 -0.05383201218 0.778220627 0.5763201703 0.2494548398
-0.01910188993 0.05886569405 -0.06817044067 0.8752249833 -0.269385901 0.4017617016
0.01661341476 0.05067990821 -0.05685479682 0.9575296442 0.01337622521 0.2880244036
-0.01755465508 0.01846871694 -0.049568765 0.8565754981 -0.1778548461 -0.484402797
-0.01772119665 0.01494814157 -0.04843505859 0.8488063611 -0.2875436796 -0.4436737468
-0.02051121712 -0.000661379683 -0.04522105255 0.9911836117 0.129382477 0.02855210242
-0.01901747926 0.04302248001 -0.06843227132 0.9271351649 5.84626014e-05 0.3747270774
-0.02053977737 0.003579389286 -0.05306786346 0.9987968619 0.03413097458 0.03521228918
-0.01869994164 0.01028432083 -0.04615254593 0.9331618285 -0.2912659541 -0.2106493432
0.01199093485 0.0404485302 -0.04847019958 0.720376227 -0.01046025649 0.693504632
-0.01421804142 0.06060000229 -0.07073235321 0.7831480333 -0.3793183919 0.4927440669
0.0177291069 0.06060000229 -0.06928046417 0.8501468248 -0.334527926 -0.4066219904
0.01529777114 0.04685112762 -0.05313651148 0.9041060038 0.01247956478 0.4271259702
-0.02000430775 0.04692309523 -0.06521392727 0.9672418341 -0.001711305153 0.2538509518
-0.01809347153 0.006307860374 -0.06679463196 0.8736316629 0.2374286053 0.4247297671
-0.01929382006 0.02258852895 -0.05346855291 0.9336100412 -0.03848344549 -0.3562180729
0.0164254364 0.05487363434 -0.06504469528 0.9738445072 -0.1430824925 -0.1765057395
-0.01931463487 0.01069613034 -0.04919554356 0.9380455275 -0.2259124358 -0.2627435246
0.01867279892 0.06060000229 -0.05743201599 0.9368621501 -0.3273209852 0.1230864912
0.01661766648 0.05872856379 -0.05692739677 0.9123951783 -0.3290366237 0.2434541821
0.01384063307 0.04301951472 -0.05059987132 0.7983333418 -0.02520563565 0.6016880847
-0.01452320862 0.01715951729 -0.07499914551 0.6972384875 0.07431558551 0.7129766372
-0.01905439615 0.05502772522 -0.06834019089 0.908156827 -0.14902666 0.3912061249
-0.0200779224 0.04298878818 -0.06495289527 0.9688277485 0.0103270938 0.247519989
0.007348443031 0.04377656555 -0.07980982971 0.2801674271 0.001118538831 -0.9599504996
-0.0193717804 0.01906884766 -0.0535447108 0.9607421554 -0.05809199856 -0.2712928869
-0.01960320187 0.0150393184 -0.05325322851 0.9586609499 -0.0999298129 -0.2664267548
-0.01899446297 0.01440203762 -0.05100317764 0.9357712702 -0.188370316 -0.2980750811
-0.02050687065 0.003802576351 -0.04917750015 0.9974732179 -0.05904290642 -0.03951094619
-0.02045877991 0.007319181728 -0.05298189926 0.9934514789 -0.06552058641 -0.0936013451
-0.01972558479 -0.005126171494 -0.04531050186 0.9496610652 0.3118102192 0.03030261547
-0.01672104963 -0.01194450855 -0.04105649821 0.8858270962 0.4632742612 0.02621668587
0.01671621386 0.05479094866 -0.05736309263 0.9733379983 -0.1442993548 0.178299852
0.01340669823 0.04000880051 -0.05003384018 0.7685065633 -0.02076313564 0.6395049292
-0.02024022802 0.01874216715 -0.05695239321 0.9776060011 -0.04127515745 -0.2063561679
-0.02038853931 -0.0004219470123 -0.0494604702 0.9867222282 0.1458190375 0.07152658756
0.01474370956 0.04045347786 -0.05199583244 0.8444330551 -0.01007967596 0.5355662569
-0.0191184899 0.04682750448 -0.06817543284 0.9295133712 -0.01312229228 0.3685548781
-0.02054908419 0.02689098692 -0.06119997454 0.996924107 -0.008552212631 0.07790497127
-0.01306725197 0.06060000229 -0.07347736816 0.6740168055 -0.3591330917 0.6455422282
-0.01810794353 0.05100440121 -0.07035654259 0.8778133092 -0.007333254078 0.4789467795
-0.02052663858 0.02266546113 -0.06160169492 0.9955021376 -0.00259918949 0.09470342296
-0.01972457981 -0.004128963232 -0.04929792595 0.9616913991 0.23978187 0.1328695137
-0.01623861408 -0.01227767801 -0.04475772285 0.8941525089 0.4471808779 0.02281563656
0.0167010231 0.04679619271 -0.05717483412 0.9801708628 0.003726352658 0.1981191409
-0.0125524579 0.05101366459 -0.07684022869 0.607670727 0.008476557902 0.794143838
0.01665767942 0.0432596659 -0.05706347438 0.9598075197 -0.01119730056 0.2804356354
-0.01809002647 0.04741111374 -0.07039879456 0.8872531257 0.006941934506 0.461230637
-0.01906227875 -0.004694912593 -0.05268763733 0.9187074447 0.3517906838 0.1794991529
-0.01918353081 0.0389484169 -0.06803295746 0.9437217887 -0.00135624342 0.3307375791
-0.0200768055 -0.0004000174344 -0.05348542175 0.9754735012 0.1715068969 0.1379740294
-0.0125345231 0.05485592825 -0.076856944 0.6087713301 -0.09970383218 0.787055661
-0.01819646072 0.04285861588 -0.07020701027 0.8889948279 0.01022675839 0.4578030247
-0.02047992452 0.0151029137 -0.0614620622 0.9901618838 0.02654888927 0.1373848624
-0.02023292351 0.003575695594 -0.05701535606 0.980150159 0.144677343 0.1355512159
-0.01812962418 0.03885939713 -0.07033518219 0.8893583889 -0.01012117587 0.457098696
-0.01906831474 0.03490075684 -0.06834354553 0.9251088365 -0.01513535321 0.3794002658
0.01707564354 0.04450335503 -0.06029217148 0.9913408388 -0.004443160666 0.1312387125
-0.01998329026 0.01909619658 -0.06534096527 0.9633874871 0.03283433938 0.266094825
-0.009816053073 0.03503004964 -0.07867230479 0.4353693179 0.009331592967 0.9002035761
0.01515856361 0.0596103047 -0.06908158766 0.80242671 -0.3812246784 -0.4591068717
-0.005183092038 0.002422518392 -0.07614186859 -0.2618726873 -0.4350995745 -0.8614586792
-0.01976951354 0.01480405603 -0.06551148496 0.9586494088 0.06392063087 0.2773183441
0.01654171371 0.04773072243 -0.06469357681 0.9885659182 -0.01396870959 -0.1501409353
-0.004878395796 0.06060000229 -0.07789578629 -0.252928735 0.3006356508 -0.919589724
-0.01274577538 0.04684147135 -0.076679643 0.6065058248 -0.003996247411 0.7950689998
-0.008274512291 -0.001942610741 -0.07234040833 0.4030227303 0.4929355431 0.771094825
-0.01622104471 0.03509835087 -0.07317587072 0.7946424166 0.01817582013 0.6068056272
-0.01744455338 -0.005588915984 -0.05735634104 0.8525756626 0.4345129891 0.2903673567
0.01241947899 0.05995878601 -0.07299128113 0.5757839074 -0.452971017 -0.6806542071
-0.01600019732 0.03099232119 -0.07345705414 0.792457061 -0.01104214786 0.609827744
-0.0181611379 0.02651300812 -0.0702953949 0.8844057719 -0.01129476268 0.4665821031
-0.01907165298 0.00728263464 -0.06487760544 0.93277901 0.1800040833 0.3122848834
0.01568412368 0.06060000229 -0.07258511861 0.7546565169 -0.4183432411 -0.5054527418
-0.00901701498 0.001986400843 -0.07433230591 0.4622722347 0.4026537566 0.790047045
0.01507474184 0.05083359337 -0.06857657242 0.9596092035 0.02498035341 -0.2802251925
-0.0078475564 0.05817230988 -0.07959139252 0.3073795825 -0.1831306723 0.9337992017
-0.01636564914 0.02693920188 -0.07299675473 0.792850675 -0.01629996313 0.6091979304
-0.01853237343 0.0009783935547 -0.06212932205 0.8871925097 0.2945806629 0.3551220689
-0.01629914069 -0.004861201763 -0.06110996056 0.7943118319 0.463567042 0.3926503677
0.01060200572 0.06060000229 -0.07662357712 0.4286129813 0.4917284964 -0.7579538232
0.00709061327 0.06060000229 -0.07753134308 0.4734441974 0.3249686115 -0.8186855278
0.003121720433 0.06060000229 -0.07824411519 0.1844348128 0.3884069167 -0.9028421052
-0.000955581326 0.05963473225 -0.08081779099 -0.0313195608 0.3595207948 -0.9326113248
-0.007820406079 0.05456459427 -0.07960791779 0.3572057509 -0.10100286 0.9285485845
-0.01267732182 0.03876871605 -0.07674451904 0.6095662767 -0.01633211935 0.7925668528
-0.001175971761 0.03480467319 -0.08112218475 0.06345867025 0.01919957638 0.9977997662
-0.007553256607 0.05100466614 -0.07971827087 0.3793714437 0.01218527115 0.9251642162
-0.01270992737 0.02684408073 -0.07674603577 0.6090516353 -0.01382579019 0.7930100586
-0.007915042996 0.02695667219 -0.07959281349 0.3824891112 -0.000125016327 0.9239599906
-0.01275348221 0.03488214701 -0.07670002677 0.6084571119 0.01645645686 0.7934161128
-0.01611053223 0.01912251854 -0.07326882765 0.7940923544 0.04213900964 0.6063345913
-0.01781292057 0.01426459169 -0.07020955849 0.8550916022 0.1086235679 0.506970682
-0.01772808571 0.01074846706 -0.06937368011 0.83534694 0.1741015125 0.5214251176
0.006373863061 0.05944194539 -0.07986804454 0.202105525 0.4320646718 -0.8789047026
-0.004574239731 0.05095434025 -0.08063202231 0.1989338161 -0.01319805751 0.9799240522
0.003164723436 0.03916640218 -0.08090178172 -0.1690173674 0.004862593157 0.9856010779
-0.007893358231 0.04669313278 -0.07958805847 0.3569360346 0.009684165696 0.9340786285
-0.0009516685322 0.02704388084 -0.08113938141 0.1017386451 0.007032024824 0.9947863081
-0.01240699253 0.03087873993 -0.07695680008 0.6082774641 0.005256237193 0.7937070609
-0.0159676584 0.01508153903 -0.0730294857 0.7878186096 0.09804127329 0.6080540659
-0.01353388119 -0.008331698418 -0.06155293274 0.7276148426 0.5388897965 0.4244695844
-0.0002745789886 0.05499001389 -0.08113306427 0.03667847981 -0.1934290489 0.9804284228
-0.004854358401 0.04680423464 -0.08055936541 0.2587551705 -0.01148740814 0.9658746302
-0.009699238968 0.03888552246 -0.07873352203 0.4643608697 -0.005465612721 0.8856292168
-0.01453035831 0.02575350952 -0.07519441986 0.7165502122 -0.001760780444 0.6975332917
-0.01585618172 0.01139673958 -0.07236467133 0.7997943799 0.1598058702 0.5786112977
-0.01572902164 0.003131546926 -0.06893138123 0.7723419433 0.3190520066 0.549266547
0.00635561657 0.05538673019 -0.08018153381 0.3032697147 0.1684048705 -0.9379057947
-0.004531849662 0.0430367616 -0.08064435959 0.2029627008 -0.001091815395 0.9791858608
-0.007789577365 0.03906292534 -0.07964137268 0.3562248391 -0.001028766779 0.9343997033
-0.01266586028 0.02280339495 -0.0767635337 0.6065250588 0.004553172836 0.7950513327
-0.0147791357 -0.0009338102937 -0.06751258087 0.7314470124 0.4082522118 0.5461825698
0.007594161034 0.05141642761 -0.07970157623 0.2723611208 -0.005099263475 -0.9621815927
-0.0005219509047 0.04661785202 -0.08114616394 0.04284091174 -0.02730784905 0.998708635
-0.004956466981 0.03904245813 -0.08053779711 0.2631515085 0.0124973834 0.9646735712
0.006103610039 0.03184537506 -0.08027374268 -0.1845181987 0.005614342391 0.9828130613
-0.009605838537 0.03102546597 -0.07879616165 0.4318984018 0.009029487219 0.9018770642
-0.01203545237 0.01113953114 -0.07602364731 0.558085223 0.1925795626 0.8071270011
-0.0125092161 0.01902715111 -0.0768185162 0.6027060457 0.04908231117 0.7964523521
-0.01514302874 0.007945926428 -0.07208976746 0.7666113147 0.2319067699 0.5987706926
-0.009624251366 0.0184115653 -0.07868206787 0.4728486939 0.07397823202 0.8780326497
0.009088272095 0.04719216537 -0.07908475494 0.2827161496 0.002184539254 -0.9592011293
-0.009914604187 0.02689916992 -0.07862346903 0.4612519745 0.008075230762 0.8872324423
-0.01293337091 0.006918117126 -0.07386490631 0.6377031266 0.2905042848 0.713401698
-0.004654496392 0.02697651736 -0.08062103144 0.2019937245 -0.01210749558 0.9793119747
-0.01336812878 0.00145237565 -0.07075701141 0.6673505098 0.3780384206 0.6416620993
-0.01110317039 -0.00383230722 -0.0689765625 0.5464309484 0.5581883951 0.6243708306
0.003253555059 0.04307289982 -0.08085852242 -0.1379228566 -0.002424612415 0.9904400067
-0.0006001909822 0.03880943604 -0.08115017395 0.04183678744 -0.005712636789 0.9991081268
-0.009688268661 0.02275054359 -0.07875684357 0.4628568775 -0.00328412596 0.8864269431
0.008901137352 0.03937191772 -0.07917601776 0.2752503033 0.008322020084 -0.9613365771
-0.007702412128 0.02288647957 -0.07968096771 0.3592147033 0.009912343658 0.9332023052
-0.01067339802 0.0005548353791 -0.07247312164 0.5363988923 0.4162807386 0.7341570506
-0.004546616602 0.02295790138 -0.08064360657 0.206916806 0.01910114295 0.9781720614
-0.009206778526 0.01481881905 -0.07853605652 0.4659862144 0.1471858049 0.8724638599
-0.008752815723 0.01098810196 -0.07791658688 0.4188498164 0.229368707 0.8786095991
0.00318055133 0.0310322787 -0.08090298971 -0.1211000397 -0.001214541522 0.9926395646
-0.004955488062 0.01959706573 -0.0805101181 0.2430966062 0.05577073673 0.9683974726
0.007395562172 0.02743430138 -0.07981661224 0.2722504003 0.006612872714 -0.9622037151
0.003279497832 0.02679762936 -0.08086512566 -0.1148870497 -0.02501307372 0.9930635992
-0.0007282702997 0.02280803728 -0.08114508057 0.01960970574 0.01170088116 0.9997392404
-0.00498996973 0.01186839326 -0.07954332733 0.2838678322 0.2065628083 0.9363497531
0.006333353043 0.02327783012 -0.08019351959 -0.2020017717 0.01769375709 0.9792253138
-0.001147163 0.01892959547 -0.08107177925 0.08361521274 0.05524329544 0.994965665
-0.004354557514 0.006174038172 -0.07802222824 0.2540290512 0.3415794262 0.9048716687
0.008689004898 0.01778313446 -0.07914241028 -0.2708261019 0.04083992611 0.9617615728
0.005755933285 0.01864759254 -0.08029930115 -0.1650746563 0.05022222474 0.9850015665
0.00303643473 0.01765529442 -0.08080323029 0.1107767102 -0.1011897811 -0.9886805089
0.0003703964452 0.01491909186 -0.08074484762 -0.02434483218 -0.1277278273 -0.9915104292
-0.001138100366 0.011086092 -0.07999986013 -0.1399043273 -0.1775550126 -0.9741154945
-0.00136600554 0.006847168922 -0.07874518585 0.2079215193 0.3364590981 0.9184573573
