# .PCD v0.7 - Point Cloud Data file format
VERSION 0.7
FIELDS x y z normal_x normal_y normal_z
SIZE 4 4 4 4 4 4
TYPE F F F F F F
COUNT 1 1 1 1 1 1
WIDTH 563
HEIGHT 1
VIEWPOINT 0 0 0 1 0 0 0
POINTS 563
DATA ascii
0.01774941063 0.03391248703 -0.07105086517 0.8686317807 0.01411491388 -0.4952571037
0.001282908738 0.02055199718 -0.009158921242 -0.09079405607 -0.9957986298 0.0118965693
0.02056899548 0.000472143203 -0.04209646416 0.9999827151 0.005701738179 0.001435154561
0.01726644516 -0.01118521309 -0.003038664579 0.9006537841 -0.4343310181 0.0133913396
0.01963479328 -0.006214215994 -0.006708670616 0.9562231288 -0.2926363735 0.001131708087
0.01679499092 0.0319817421 -0.07245690613 0.8075127718 0.01108697135 -0.5897458796
0.02054442787 -0.0008426681757 -0.0089685812 0.9990080088 -0.04398828713 -0.006930289013
0.02042881441 0.002301635563 -0.01223685479 0.9974024397 0.07190880359 -0.004182974278
0.01712425995 0.06060000229 -0.0638300972 0.8399846325 0.4917100084 -0.2294495255
0.01995256615 0.004911845207 -0.01243083 0.9764295235 0.2150164327 0.01879678828
-0.002027458549 0.02042380905 -0.009199980259 0.1282499183 -0.9916630857 0.01250131665
0.01763976574 0.06060000229 -0.06875053406 0.7868968001 0.5424555006 -0.2941690939
0.01007135701 0.01792780542 -0.0208025775 -0.4879003407 -0.8728895896 0.004125756028
0.004069576561 0.020143641 -0.01210522509 -0.1645628186 -0.9863176056 0.00983155965
-0.006293502569 0.01956544495 -0.006634375811 0.3092725284 -0.9509728043 -0.001108448323
-0.01134798098 0.01712562084 -0.002886536241 -0.4412163162 0.8967358584 0.03453929043
0.008042943001 0.05848629951 -0.07951451111 -0.3988653249 -0.2669062628 0.8773069585
0.02035307503 -0.003155709505 -0.009484238625 0.9931969173 -0.1158500302 0.01177514038
0.02055547333 -0.0007257343829 -0.0116692977 0.9987561963 -0.0460136684 -0.01920423792
0.01500315428 0.03532723236 -0.07468013763 0.7358606795 -0.005689804282 -0.6771090654
0.01892455737 0.007987382412 -0.01517649778 0.9238075177 0.3828536937 0.001649084712
-0.01428597323 0.05889914258 -0.05132791011 0.747616218 0.2661299015 -0.6084774984
0.01759124088 0.01065892076 -0.01583914137 0.8379437585 0.5456804409 0.009116685982
0.01682160759 0.01186839008 -0.01520293903 0.8121897228 0.5831153458 0.01800965524
0.01468901157 0.06060000229 -0.07487593842 0.6736338042 0.3655148367 -0.6423522414
0.01549800396 0.01351825809 -0.01536527681 0.7463505297 0.6655128648 0.007315298092
0.01242120934 0.01638297462 -0.01525975227 -0.5940626823 -0.8042234171 -0.01772638699
0.01925156021 0.001688181877 -0.06042284393 0.9421711766 -0.2223974102 -0.2507047384
0.01960529391 0.05362768173 -0.05443189367 0.9607020562 -0.006953481049 0.2774945193
0.004378531933 0.01068210983 -0.07944820404 -0.2333805097 0.2536941265 0.9387080632
0.009805649439 0.01807123311 -0.01536929607 -0.5305167246 -0.8476136674 -0.01015262902
0.008163246155 0.04019602585 -0.07949035263 -0.4049601601 -0.01649129976 0.914185597
0.007285650253 0.01922823095 -0.01497938585 -0.3505459863 -0.9363306196 0.02006195866
0.00140290916 0.02054750729 -0.01271955013 -0.04685776101 -0.9988043941 -0.01393314835
0.00424404037 0.05002343559 -0.08070511055 -0.1912020149 0.01621843858 0.9814167065
-0.01454865996 0.05875241852 -0.06943579865 0.7916176313 0.2736517727 0.54631148
0.01256835651 0.06060000229 -0.04775724602 -0.6014207366 -0.5158487214 -0.6100763839
-0.001633315146 0.05268573952 -0.04362566757 -0.06381750233 0.009050192801 0.9979205481
0.01752362061 -0.01074662781 -0.006110414505 0.9044151512 -0.4265550951 0.009164338151
0.01588661194 -0.01309145355 -0.03699643707 0.7421949123 -0.6691891948 -0.03650388547
0.01970203018 -0.00600955534 -0.009519626617 0.9605426756 -0.2781108986 0.003477993437
0.02037819958 -0.003012056947 -0.01220606279 0.9954967622 -0.09479346462 -0.0006288740317
0.005494353771 0.01982964516 -0.03836287689 0.328569071 0.9441608583 0.02454871095
0.02023586337 0.05031256358 -0.05699230321 0.9860375769 0.009444255842 0.1662549334
0.01771761894 0.01859525299 -0.07099994659 0.8720443861 -0.05155942102 -0.4867034156
0.02038838577 0.0027045964 -0.01530335967 0.9902524071 0.1388491333 -0.0110040146
0.01548584819 0.01353916001 -0.02462769175 0.7517098531 0.6593717151 0.01269795896
0.01782242489 0.04761506844 -0.07091489792 0.8713279073 -0.009258588345 -0.4906138568
0.01993984795 0.004970315456 -0.01504838085 0.9769555147 0.2131413908 0.01134327719
0.007055823803 0.06034429169 -0.04508584595 -0.3125444191 0.4130641228 -0.8553911483
0.02031141472 0.03543525187 -0.06385217794 0.9805178677 -0.005261760087 -0.1963594282
0.01549464965 0.01352402496 -0.01792092419 0.7496324749 0.6617197944 -0.01334414681
0.01500141144 0.05875944138 -0.04656263351 -0.6451307175 -0.4146552804 -0.6417689271
0.01404315186 0.01502819061 -0.0179467392 -0.6670363144 -0.7449483752 0.01069923131
0.01520167955 0.05001393382 -0.07443831126 0.7371793039 -0.008880840046 -0.6756388122
0.01808696683 0.0140749553 -0.04847837575 0.8869957315 0.2956270952 0.3547438412
0.001070906587 0.03793478966 -0.08113463974 -0.09461933297 0.005674133194 0.9954973561
0.01243236518 0.01637586474 -0.01781773186 -0.5941070601 -0.8042681373 0.01376824083
0.01025542068 0.01782440758 -0.01774430402 -0.5266141534 -0.8499850694 0.01424483047
0.01406577492 0.0150300374 -0.02958582211 -0.6778329527 -0.735087407 0.01374744818
0.003861424367 0.02018452899 -0.01519649887 -0.1664363201 -0.9860131636 -0.008774537039
-0.006089086533 0.0196324234 -0.009446090698 0.2860622656 -0.9580968859 -0.01478977306
-0.01122702694 0.06060000229 -0.0452810936 -0.5774500958 -0.4218037836 0.6990228573
0.02055225468 0.001666313991 -0.04803803825 0.9997066709 -0.02308360277 -0.007329353013
-0.01105856037 0.06027642059 -0.07358335114 0.6248786903 0.4106802531 0.6639791805
-0.0106814537 0.01758005142 -0.006170375824 0.4252681534 -0.9048039575 -0.02183566439
0.01803326225 0.01016954041 -0.04220693207 0.8900874727 0.4492702819 0.07681474316
0.01250047636 0.01633759522 -0.03270711088 -0.5974324412 -0.8018411035 0.01119477523
0.01621473866 0.0110371891 -0.07179732666 0.7647511734 -0.1769280477 -0.6195579946
0.01777720261 -0.01031416845 -0.009139263153 0.9129709877 -0.4079868775 0.005539259809
0.007305501223 0.003651076794 -0.07599931335 -0.3768501181 0.3799290273 0.8447709291
0.02027731768 0.02587982114 -0.05715698751 0.9799859216 0.00889971181 0.1988677667
0.009581041972 0.005036097209 -0.07549280802 -0.4721547086 0.3475977104 0.8100899721
0.01975300121 -0.005824955463 -0.01228173065 0.9543081793 -0.2988194421 0.001685202836
0.02057003975 -0.0005715151131 -0.0152311635 0.99971173 -0.009111601583 -0.02221340965
0.02005364291 0.004499516408 -0.01829554876 0.9766586462 0.2147844257 0.002353563629
-0.0177559185 0.06060000229 -0.05763777542 0.8669280589 0.4747432762 -0.1518372895
-0.007397004843 0.06060000229 -0.04238362503 0.4009414261 0.4451012636 -0.8007064618
0.01920779657 0.007339387536 -0.01841181517 0.9322384734 0.361206293 0.02148121488
0.007535531402 0.01915061712 -0.030117733 -0.3982934686 -0.9172408544 -0.00561496046
-0.005480168343 0.02317679501 -0.0804192276 -0.204782292 -0.002744993103 -0.9788036973
0.007342966437 0.01921119165 -0.018415205 -0.3883172333 -0.9212826715 -0.02116519772
0.01582370567 0.06060000229 -0.05141649437 0.6810339847 0.5976357137 0.4231125918
-0.001738298967 0.02045414972 -0.01547572803 0.07419249514 -0.9969769828 -0.02307313207
-0.005887050152 0.01969862461 -0.01222507429 0.2895650114 -0.957158031 -0.000779722561
0.02001979923 0.004725518465 -0.03890781021 0.9707682078 0.2399479671 0.00583607668
0.01672269287 0.04387659912 -0.07254880981 0.8080038913 0.001293337462 -0.5891757284
-0.01015628433 0.01791399288 -0.00928266573 0.393649341 -0.9192038495 -0.01022151985
0.02039666843 -0.002839184403 -0.01578023052 0.9966371859 -0.08179666746 -0.004860537263
-0.007348443031 0.04377656555 -0.07980982971 0.2949714629 0.001726957263 0.9555045022
0.02044479688 0.002162931442 -0.01792635091 0.9933054885 0.1154851496 0.002717862425
0.0179338212 0.01007766414 -0.02080851173 0.8796732142 0.4754112719 -0.01261581592
0.01846915436 -0.009105938911 -0.01796109581 0.940897653 -0.3386177586 0.007044164787
0.0127059083 0.01647716808 -0.04158160591 -0.6037707235 -0.7506234941 -0.2683752664
-0.01524495792 0.04505231476 -0.05292219543 0.8873636678 0.004689973975 -0.4610463373
0.01680013943 0.01189988899 -0.02113955975 0.8298433752 0.5577777842 -0.01561781118
0.01549022269 0.01353163743 -0.02129427338 0.7532998027 0.6576742581 0.001994365
0.02035263316 0.005031334877 -0.04827776972 0.9893916323 0.1317887667 0.06112216319
0.01404971123 0.0150287261 -0.02132146168 -0.6682565094 -0.743925775 -0.002771086563
0.01244781399 0.01636718512 -0.02119481468 -0.6303058927 -0.7763259799 0.005696883666
0.0005708960667 0.02055413961 -0.0183529582 -0.04255191902 -0.9988772164 0.02082404048
0.02057506371 0.04102658081 -0.06041068649 0.9998689382 -0.002114317846 0.01605104792
0.01448797417 0.04535729599 -0.0459896431 0.7850501518 -0.006639247587 0.6193966253
0.01802798462 -0.0098864851 -0.01213466167 0.9207495385 -0.3899767621 0.01176487632
-0.005245820045 0.01989894772 -0.02127436447 0.2847541188 -0.9585849787 -0.005470871768
0.01980351257 -0.005642026424 -0.01501883125 0.9640748423 -0.265588339 -0.004746850186
0.02058441925 -0.0004192721993 -0.01874738407 0.9999885672 0.001801300248 0.004429535757
0.02003975042 0.004565216939 -0.02114393361 0.975637112 0.2193816068 0.001984013247
-0.008011412525 0.05845393295 -0.04556316757 -0.4143953412 -0.2555295169 0.8734879319
-0.004482972503 0.03565361214 -0.08066796112 -0.1873597895 0.02362489887 -0.9820072166
-0.001948704302 0.03453908157 -0.08107923889 0.1286882865 -0.01377236049 0.9915894549
0.02043439388 -0.002424921513 -0.02451099491 0.9968560757 -0.07922927606 -0.0008283791039
0.01928280131 0.007149725437 -0.02145320002 0.9388181267 0.3440645823 0.01549478232
0.01857109642 -0.0009869750241 -0.05994636408 0.8994607755 -0.3257769531 -0.291272536
-0.01685121536 0.05893100548 -0.06316761589 0.9754157557 0.1692986516 0.1410746969
0.004571215789 0.02004538282 -0.02114952787 -0.2428219468 -0.9699987646 0.01182788032
-0.005686872482 0.01976421547 -0.01497849083 0.2883725014 -0.9575013369 0.005700017805
0.02054350281 0.04011207199 -0.06211769104 0.9973859037 0.005004590232 -0.07208545787
-0.009816552162 0.01808861732 -0.01219725704 -0.3783562087 0.9256403612 0.006041610519
0.01826086521 -0.009481318474 -0.01507461691 0.9345272417 -0.3558691009 0.00400219106
0.02003460185 -0.004549515406 -0.01795643298 0.9690133803 -0.246286951 -0.01886283383
-0.002434141517 0.02042621613 -0.02450298023 0.102013758 -0.994724557 -0.0107818776
0.02050614929 0.001662741601 -0.02139508915 0.9947802099 0.1020043889 0.002727402552
0.01252964878 0.01632120395 -0.03908450699 -0.5813261735 -0.806389538 -0.1086084386
0.01908685939 0.007666066488 -0.02383499146 0.9182721085 0.3959070653 -0.005824985985
0.0168889637 0.02890864182 -0.07232705116 0.8012319179 -0.01082804831 -0.5982559378
0.02059907055 -6.980053335e-05 -0.02732755184 0.9999541946 -0.009419486414 0.001697617551
-0.005029993868 0.04937944183 -0.0443180542 -0.3093212521 0.003305975869 0.9509518566
0.007473526955 0.06060000229 -0.07617192841 0.3714226293 0.6057833864 -0.7036133308
0.01791723871 0.01010902548 -0.02415696907 0.8573688634 0.514668716 -0.005894472867
0.01034575963 0.06060000229 -0.04525609493 -0.1340098996 0.9594728409 -0.2478975885
0.02025854174 0.01399076239 -0.0631303215 0.9852084137 -0.04921774944 -0.1641401679
0.01678807068 0.01191759777 -0.02447720146 0.8219525271 0.5695151956 0.006817994916
0.0006367067297 0.0591325353 -0.04356979624 -0.01228013406 0.2182368175 -0.9758185742
0.01961099307 0.04722897975 -0.05442314911 0.9472641716 -0.009109370692 0.3203242242
0.01405619335 0.01502925491 -0.02465616703 -0.6751911689 -0.7376054417 -0.007422789986
0.01246307921 0.01635860753 -0.02453185701 -0.599630318 -0.8001267828 -0.01551171243
0.00767334342 0.0190970459 -0.03898220634 -0.421838505 -0.9064612173 -0.01950223835
0.0101020174 0.01791054535 -0.02415049124 -0.5302847743 -0.8478089783 -0.004241977282
0.007672788302 0.0190931797 -0.02384114838 -0.3959433554 -0.9181451583 0.01543786005
9.516912699e-05 0.05078285789 -0.04352811813 0.05433388382 -0.01043627569 -0.9984682835
-0.002760211468 0.02036670303 -0.0183879509 0.1077762771 -0.9941163825 -0.01081166439
0.01407800055 0.01503076172 -0.03602930832 -0.6819577873 -0.7308232917 -0.02882520863
-0.005489899874 0.01982824135 -0.01769987297 0.2905606336 -0.9568563725 -0.0006328827811
0.007348884344 -0.001947120905 -0.07277302933 0.4500912342 -0.4983761774 -0.7409717043
-0.009598825455 0.01819824982 -0.01411477757 -0.3712352601 0.9285134993 0.006860267947
0.01960236359 0.0588468132 -0.05444770813 0.9030564901 0.3014447944 0.3059738741
0.001291410993 0.02332348506 -0.08113530477 -0.1164892518 0.00461216318 0.9931812434
0.0133314929 0.06060000229 -0.04591940308 -0.605943689 -0.4819440016 -0.6328998539
0.007215557575 0.06060000229 -0.04379235458 -0.3125444191 0.4130641228 -0.8553911483
0.0008632201254 0.06060000229 -0.04158218956 -0.2047031641 0.4339765015 -0.8773602514
0.009124653816 0.06060000229 -0.04319825363 -0.3235165718 0.7072344578 -0.6286147067
0.02051953316 0.002513753414 -0.04526538849 0.995964481 0.08654975106 0.02374643676
0.003969678819 0.02911584187 -0.08077250099 -0.1874680687 -0.0004698548276 0.9822705851
0.007020645142 0.06060000229 -0.04220409393 -0.265553414 0.5977550253 -0.7564194036
0.004016208053 0.06060000229 -0.0422966671 -0.145668972 0.3499418393 -0.9253762801
0.02007528941 -0.004369333029 -0.02091407839 0.9720320262 -0.2348482071 -0.0002442357654
0.00393731006 0.05578281403 -0.04402068075 -0.1822193201 0.0941864326 -0.9787364483
0.02059509087 -0.0003062919974 -0.02135678673 0.9997687348 -0.006962328643 0.02034706193
0.02008980227 0.004366286576 -0.02414649343 0.9828432864 0.1843390763 -0.006178948039
-0.01526833868 0.05251660347 -0.05298575211 0.8965604395 -0.008959815995 -0.4428307803
-0.002619621873 0.02039236259 -0.02102453041 0.1059050878 -0.9943717377 0.00299327402
-0.01532020807 0.04915879631 -0.05307360077 0.8951264381 -0.01397321071 -0.4455933226
0.01937903023 -0.006900075912 -0.04176020432 0.9454632377 -0.3241418103 -0.03211468426
0.007686468124 0.03737434006 -0.07968706512 -0.4021882992 -0.009875806175 0.9155037086
-0.009387895584 0.01830257988 -0.01601336288 -0.3690738354 0.9293776323 0.006459152938
0.01670397377 0.05525775146 -0.04862039566 0.8185498515 0.03946130802 0.5730784814
0.02042320633 -0.002547775745 -0.02192178726 0.9958502037 -0.09096972244 0.002623229262
0.01568983364 0.01380834532 -0.04249301147 0.7750458696 0.5712469845 0.2701495562
0.02059728718 -0.0002038153857 -0.02393097782 0.9999101656 -0.006221542257 -0.01187237213
0.02050239563 0.001778203607 -0.02480373859 0.9984724494 0.05429036784 0.01026273276
0.01674310684 0.05845938873 -0.04868569183 0.7350033316 0.3420470029 0.5854690004
0.02020465183 0.03244420242 -0.05669323158 0.9827223904 -0.0001308316328 0.1850856189
0.0191621809 0.007475457907 -0.02681791496 0.9317108218 0.3630402306 -0.0108044218
0.01310991764 0.0196270752 -0.04464468765 0.6161002318 0.4852576295 0.6204397936
0.01790026045 0.01013940907 -0.0274657526 0.855812673 0.5171840409 0.01026335726
0.01677614117 0.01193510151 -0.0277760191 0.8230966004 0.5678360524 0.00861416979
0.01548259878 0.0135447464 -0.0271034584 0.7530263627 0.6579902958 -0.0002603072985
0.01229101499 0.01648760096 -0.0275342083 -0.5960987418 -0.8027058629 -0.01815455075
-0.004970112944 0.06060000229 -0.07824618378 -0.2974993497 0.4738650774 -0.828822071
0.01013232017 0.01789348602 -0.0274593215 -0.5325560033 -0.8463496663 -0.008737601979
0.01371905327 0.02608557192 -0.07595208995 -0.667175604 0.008850300036 0.7448478943
0.007483189106 0.01916942167 -0.02682485723 -0.3888587747 -0.9211651415 0.01560882181
0.0007849630639 0.02054792833 -0.02436543751 -0.01582950636 -0.9997384865 -0.01650409774
0.02058027649 0.002772418261 -0.05079049492 0.9999786285 -0.002297940211 0.006120615661
-0.009926510811 0.06060000229 -0.07753601074 -0.1344128829 0.9503756382 -0.2805696404
0.01831526121 0.05004507955 -0.05129239782 0.894610739 -0.01087159913 0.4467140405
-0.009178524971 0.01840613937 -0.01789790535 -0.3612998844 0.9324305362 0.005973996421
0.01487198448 0.05547208405 -0.04641724396 -0.6466477638 -0.1310195232 -0.7514522966
0.001456215262 0.00783630085 -0.07908109283 -0.1754657876 0.3221877326 0.9302724452
0.01763878441 0.06060000229 -0.05081935501 0.7530887374 0.4608671505 0.4695304285
0.005239124298 0.06056074905 -0.04434714508 -0.241754565 0.4147074923 -0.8772527721
0.02000353622 -0.00484549284 -0.02740377998 0.9772676139 -0.2119274711 0.005895571667
-0.002114360541 0.06060000229 -0.04249014282 0.1098069237 0.4589591773 -0.8816455711
0.01546518111 0.01357035136 -0.0391639061 0.7682647794 0.6367513873 0.06570311657
-0.01130174294 0.05860138092 -0.04785875931 -0.6765138356 -0.2121078011 0.7052228803
0.01861721134 -0.008801623821 -0.02075384426 0.9464850837 -0.3224313169 0.01428398701
0.01518055725 -0.006557459354 -0.0612429657 0.7621553579 -0.5020504507 -0.4087353122
0.02007338572 0.004447143734 -0.0274926796 0.981535389 0.1907090241 0.01477661498
0.01547927427 0.01355017161 -0.02955547142 0.7483706102 0.6632155847 -0.009301503413
-0.01666529846 0.05923943863 -0.0570486763 0.8966265186 0.3879197863 -0.2134926825
0.004443873703 0.02007046652 -0.02748983574 -0.2016819932 -0.9793329295 -0.01521140182
0.02049435329 -0.001577857673 -0.04279941177 0.9930848919 -0.1168163914 -0.01167596408
-0.008867527008 0.01855996609 -0.02069719982 -0.3480695428 0.9374517971 0.005632181527
-0.01590445932 0.0554029808 -0.05444713974 0.9293268006 0.1202313917 -0.3491362343
0.01474575138 0.05214538956 -0.04627522278 0.7650743764 0.0009886014666 0.6439411628
0.01858348846 0.02576517868 -0.05178382111 0.9100941221 0.008479845683 0.4143148335
0.02028927739 0.007605984211 -0.05131558736 0.9881143833 0.1227135317 0.09258161127
0.007083183765 0.05716085815 -0.04509584045 -0.303140046 0.2454043384 -0.9208055296
-0.00536665082 0.06060000229 -0.0417688179 -0.2810142557 -0.6018185832 0.747559617
0.01912729263 0.007776375651 -0.04218195534 0.9375904725 0.3407542521 0.06935881692
0.01966281954 0.01996200562 -0.0545162735 0.9631934751 0.05079661936 0.2639659695
0.0119750344 0.03810860062 -0.07734061686 -0.5750530078 0.009994695228 0.8180550986
0.0199616003 -0.005013039351 -0.02479541683 0.9740714541 -0.2258646963 0.01303615376
-0.01403685045 0.06060000229 -0.07198106384 0.6209215259 0.4332951859 0.6532317663
0.02055956602 0.01697860384 -0.06003404903 0.9998926157 -0.01232101974 -0.007934079896
0.02037401517 0.03455368296 -0.05787521362 0.9923819569 0.013621881 0.1224438484
0.02049960899 0.00186393261 -0.02733461571 0.9948400447 0.1012383843 0.006638902766
0.01914392567 0.007528372407 -0.03011142969 0.9292329357 0.3693112285 0.0116347636
0.009858324814 0.02595313644 -0.07864960632 -0.501804483 0.001153190899 0.8649803067
0.01788347673 0.01016944408 -0.03073662567 0.8555579008 0.5174745572 0.01551647324
0.01676728058 0.01194810295 -0.03022650909 0.8054211784 0.5925434273 -0.01374816674
0.01016227555 0.01787662363 -0.03073024511 -0.5272483447 -0.8496536873 -0.009889118563
-0.01891470146 0.06060000229 -0.06308194733 0.8508287202 0.5014558967 0.156947356
0.0005663277445 0.02055838203 -0.027322649 -0.003082231418 -0.9999951078 -0.0005331531127
-0.001661404312 0.04933745003 -0.04362390518 -0.1439726569 0.007008775383 0.9895568458
0.0002433042427 0.01375153065 -0.08056370036 0.07488299954 -0.1473985199 -0.9862384158
-0.005009272337 0.0199649086 -0.0247986269 0.2106351515 -0.9771280619 -0.02921615239
0.02031531715 0.006320820808 -0.04980060959 0.9903614077 0.116827945 0.07440103097
0.02055306435 0.004701808929 -0.05153781509 0.9988332285 0.03795998518 0.02985332868
0.01945196104 0.01410592103 -0.06646927643 0.9459679263 -0.08411498105 -0.3131602663
0.01659761429 0.04542421341 -0.04844013214 0.8094000583 0.0009906843456 0.5872568128
0.01462342644 0.04877888107 -0.04613734436 0.7613603724 0.0008945018375 0.6483282989
0.0200454402 0.004588301897 -0.03325683594 0.9750316571 0.2220642841 -0.0008492936424
0.01348377442 0.04970166874 -0.07613172722 -0.6686637586 -0.01715970456 0.7433668828
0.01834164492 0.05539359919 -0.05134905497 0.8884864011 0.08736329227 0.4505103442
-0.004995943069 0.06060000229 -0.04422476578 0.3101450592 0.5725556408 -0.7589401033
0.01924600792 0.008282036622 -0.04503658295 0.9486261351 0.2955660739 0.112912142
0.01858454831 0.06058421961 -0.0543142217 0.8371572417 0.4396812763 0.3253430926
0.0165388031 0.0386693573 -0.04833720016 0.8090913316 0.003787733428 0.5876707159
0.01777518749 0.04442608452 -0.07099579239 0.8755148126 -0.01600771011 -0.4829260463
0.00394337523 0.0530644989 -0.04402433968 -0.1708207108 0.01079566297 -0.9852429845
0.0006227588554 0.0558727862 -0.04356562678 -0.03507637354 -0.1366729934 0.9899950206
-0.001584481835 0.05926844788 -0.04362966728 -0.02994510677 -0.342576548 0.9390125661
0.01876052952 -0.008460222721 -0.02438288021 0.9477455373 -0.3188887766 0.009399182113
0.02044549179 -0.002303069353 -0.02707907867 0.9972800536 -0.0737053988 9.454287871e-05
0.0143174715 0.04185995102 -0.04581409454 0.7527331279 -0.0001763956491 0.6583257606
0.02049683666 0.001948802769 -0.02984054756 0.994341613 0.1060798175 -0.005641711724
0.02012354469 0.004253895203 -0.03043605232 0.9812100822 0.1926755398 0.01014450551
-0.001554379245 0.04988393784 -0.0810975825 0.045841986 0.007207282652 0.9989227034
0.01701075745 0.01157441076 -0.03286261177 0.8256571126 0.5639927636 -0.01423007674
0.01985015182 0.02867169647 -0.06596835327 0.9574902057 0.02223632768 -0.2876074613
0.01547453833 0.01355698729 -0.03279380322 0.7605198727 0.648992374 -0.02045535902
0.01982722092 0.02591552162 -0.06602944438 0.9614589227 -0.001062560088 -0.2749465603
0.004245773633 0.02011614672 -0.0304290727 -0.2067885425 -0.978250981 -0.01623320436
0.001001947901 0.02054549551 -0.03025901794 -0.02171947637 -0.9997639808 -0.0004970853061
0.02056629308 0.008039429029 -0.05709466553 0.999383099 -0.02932594415 -0.01932383057
-0.007983769576 0.04710230891 -0.04552838516 -0.4573895313 0.01491939964 0.889141287
0.004273654938 0.06060000229 -0.0803238678 -0.2895191692 -0.4223560639 0.8589493617
-0.002296476603 0.02045134163 -0.02708471298 0.09301066585 -0.9955936297 -0.01193065629
0.01798665905 0.04406647301 -0.05063475609 0.8714164632 0.002387557862 0.4905381201
-0.008457837105 0.01876260662 -0.0243848238 -0.3367151652 0.9416065513 9.414141856e-06
0.01352783108 0.0172709198 -0.04382274055 0.7197843204 0.5675723472 0.3997151021
0.01030286837 0.02920910645 -0.07840031433 -0.4978785527 0.01026968664 0.8671859549
0.01663094521 0.04874102402 -0.04849720001 0.8158578043 0.008703650828 0.5781870715
-0.0129145813 0.05962339783 -0.04944505882 0.6929601019 0.44631641 -0.5662225352
0.01946350002 0.0564246521 -0.05398577499 0.9432101929 0.1461991907 0.2982957069
0.02047528553 0.002155921817 -0.03640750122 0.9928947503 0.1188475056 0.005940147177
0.0161361599 0.06060000229 -0.05439883041 0.6924243298 0.6301897841 0.3512967172
0.01975298119 0.0557774957 -0.06624448522 0.9528942095 0.1481629553 -0.2646514011
-0.001607753634 0.05599562454 -0.0436275959 -0.0456785231 -0.1344801394 0.9898629019
-0.002849119425 0.05745281219 -0.0437401886 -0.2081331131 -0.2639965046 0.9417995821
-0.004919225931 0.05903191376 -0.04430066776 0.3187004566 0.3676769494 -0.8736381859
0.0205751791 0.04749832439 -0.06034379101 0.9998752783 -0.00551448312 -0.01479926845
0.02045647621 -0.002182441592 -0.02962135983 0.9926000561 -0.1209266911 -0.01103920258
0.0189718914 -0.007956733942 -0.02973488712 0.9602686256 -0.2790580165 0.0032848253
0.02057357725 0.02263580259 -0.06031137085 0.9998358575 0.01223195921 0.01336552644
0.02059764004 5.906238873e-05 -0.03068075085 0.9998904948 -0.004530981991 0.01408788835
0.009959726095 0.03784797382 -0.07858678246 -0.506369511 -0.001443390754 0.8623153918
0.01923538494 0.06060000229 -0.06672472382 0.8779642586 0.4082873452 -0.2499604057
0.01912400675 0.007578705192 -0.03336582088 0.9302832955 0.3660904966 0.0234678143
0.01822232246 0.009590802193 -0.03385856628 0.8899017029 0.456130774 0.004435787439
0.009985467593 0.01797820791 -0.03365795135 -0.4753632795 -0.8797736907 -0.005292027787
-0.001699800014 0.06060000229 -0.0789492569 0.01336783714 0.48465883 -0.8746011202
0.007586127877 0.01913094902 -0.03337223148 -0.3975367406 -0.9174211229 -0.01740755782
-0.01688256121 0.05655611134 -0.06293002701 0.9740730033 0.1850851211 0.1300972031
-0.002160218239 0.0204762125 -0.0296400671 -0.08904341629 0.9960255279 -0.002101860928
0.01387725512 0.02285094643 -0.07580333964 -0.6630518671 0.007293751918 0.7485379234
0.01775838661 0.02639447594 -0.07103087997 0.8719653122 -0.01221824012 -0.4894151704
-0.01600109927 0.05859193166 -0.06647589111 0.9156873135 0.3122489133 0.2530165214
-0.004833750725 0.02001385307 -0.0274136734 -0.1872211663 0.9819193551 0.02797525498
0.01521941352 0.04354262066 -0.07442821503 0.7442626429 0.01315710192 -0.6677574477
0.0182980353 0.0467804896 -0.05125836436 0.8940738358 -0.003633251168 0.4479048735
0.01919071722 0.06060000229 -0.05715661335 0.8724374992 0.4371365723 0.2185507426
-0.01279411983 0.05566573715 -0.04928151321 0.72751691 0.08010558686 -0.6813972708
0.01868071213 0.02883947449 -0.06921927032 0.9204926754 0.005960532437 -0.3907143543
-0.004956104326 0.05606600647 -0.04430174866 -0.2922707067 -0.173193973 0.9405220262
0.01097763872 0.001812420547 -0.07298264313 -0.5278913841 0.4198211391 0.7382959419
0.01886680222 -0.008207069397 -0.02707386208 0.9472731059 -0.3204252837 0.001140347538
0.02004503536 -0.004679687262 -0.02998504257 0.9794581426 -0.2012261014 -0.01303085057
-0.01692231305 0.06060000229 -0.05424461746 0.8184126006 0.446087002 -0.3622253467
0.0204870224 0.002054080486 -0.03314371872 0.9935558294 0.1133031242 -0.003035766331
-0.01121482124 0.04709839401 -0.04776150665 -0.6706830662 0.007796123761 0.7417030708
0.01712535524 0.01139893794 -0.03577268505 0.8259840156 0.5633946146 -0.0183552226
0.01251514244 0.01632935476 -0.03591326237 -0.6032522056 -0.79724936 -0.02191425213
0.01041376114 0.01773417409 -0.03587367121 -0.4933251046 -0.8697097817 -0.01533743322
-0.01674648762 0.04424317551 -0.05731578255 0.9699350474 0.004474002525 -0.2433228042
0.001424336478 0.02052660942 -0.03315571849 0.07006926835 0.9975202824 -0.006601808945
-0.004717720509 0.02004620743 -0.02914237404 -0.09746271907 0.9952069749 0.008005963134
0.01415417767 0.0383203392 -0.04564596939 0.7500941066 0.00151787165 0.6613293637
0.01960847982 0.05044800313 -0.0544267985 0.9606420878 -0.001022824001 0.2777872079
0.02054801178 0.04658768082 -0.0620288353 0.9975719143 -0.001901080401 -0.06961796915
0.02028818607 0.05532635117 -0.05736339092 0.9891846472 0.0558140655 0.1356411583
-0.000393640846 0.04787583542 -0.04352292633 0.1470042042 -0.01793367972 -0.9889732793
-0.002897970676 0.05082290649 -0.04375004196 -0.2293907072 0.009698745869 0.9732861027
0.01831473112 0.01082538271 -0.04544441509 0.887907939 0.3977060324 0.2311912707
0.01520403385 0.04062133153 -0.07444872284 0.740926602 0.01094235295 -0.6714968618
0.01530049205 0.04675347042 -0.0743351593 0.739023421 0.001504746457 -0.6736780529
-0.008129086781 0.04977589569 -0.04561723938 -0.4434467894 0.001194465582 0.8962999042
0.02047097874 -0.002023193657 -0.03297757721 0.9937276457 -0.1109930462 -0.01363487812
0.02059393311 0.0001518236697 -0.03316871262 0.9999896844 0.003088752325 -0.003330284463
0.02038291868 0.03772398249 -0.06340535863 0.9952577662 0.002842289394 -0.09723116929
-0.005337640285 0.04768975258 -0.08045617294 0.253354395 0.001720351453 0.9673720024
0.01996872648 0.004918248494 -0.03604887899 0.9687964525 0.2477119977 -0.008497043074
0.01820910263 0.009616359711 -0.03626462555 0.8836263229 0.4681927379 -0.0002859344576
0.007636161208 0.01911149979 -0.03659052372 -0.3718557023 -0.9271904075 -0.04518058089
0.004916107655 0.01996678289 -0.03604711151 -0.3040675792 -0.9523905437 -0.02225218251
0.01826936849 0.04124480565 -0.05120391846 0.8929985823 -0.007221663815 0.4500015328
-0.009099894524 0.03102806282 -0.07907894135 -0.3397069741 -0.001252119505 -0.9405304907
0.02057487392 0.05845283699 -0.06025675201 0.9767308293 0.208139956 -0.05171697708
0.02059026337 0.000243700631 -0.03563295555 0.9998635973 0.01206655767 -0.01127763055
0.0196129694 0.03788380814 -0.05442046928 0.950334987 -0.000873020871 0.3112276503
0.0194743247 0.06060000229 -0.06004420185 0.936714324 0.3500300969 -0.006723579252
-0.01704701296 0.05324829737 -0.06056298955 0.9995760496 0.01579832899 -0.02445677432
-0.002114759445 0.046441185 -0.04365793228 0.1698975834 0.005562294997 -0.9854460269
-0.009744091034 0.05006552887 -0.04659150696 -0.551677082 -0.005196531165 0.8340416017
-0.002925956011 0.04745053864 -0.04375568771 -0.2528556355 0.01066692908 0.9674452151
-0.00808280735 0.05314250641 -0.04559513702 -0.4424458558 -0.01774973267 0.8966195468
0.0121918443 0.04359791311 -0.07717257182 -0.5816502972 -0.009947844538 0.8133781237
-0.01343258953 0.06060000229 -0.0450915947 0.542373833 0.4802476177 -0.6893423322
-0.009799713135 0.04665914917 -0.04662191391 -0.5398174949 0.01602168963 0.8416295965
0.005880046844 -0.008408177376 -0.06797586823 0 0 1
0.02009468079 -0.004466691494 -0.03338682938 0.9824040769 -0.1867337433 0.003569142991
0.01110317039 -0.003832307577 -0.0689765625 0.5747356494 -0.4983853058 -0.6490693493
0.01819600487 0.009641685486 -0.03864883423 0.8880854168 0.4593760369 0.01667180813
0.01711204576 0.01141964793 -0.03894725418 0.828436078 0.5597891028 0.0181610897
0.006672847748 0.03158668645 -0.08007369741 -0.3074682214 -0.0001144243079 0.9515583428
0.01962544886 0.0316605835 -0.0544406395 0.9566214589 0.008763816925 0.2912019572
0.01408136272 0.01502848148 -0.03919590187 -0.6894763067 -0.7155430483 -0.1123413041
-0.013625741 0.06060000229 -0.07422176361 0.4860565951 0.5643587866 0.6672691708
0.01023749876 0.01783700609 -0.03875060654 -0.5113432992 -0.859119166 -0.0210306666
-0.01415010738 0.05604389509 -0.05115922928 0.809571933 0.1637543891 -0.5637178241
0.002139788151 0.02048653412 -0.03560377502 0.1310852708 0.9912069262 -0.01804109611
0.01649629021 0.03521370316 -0.04827765274 0.8193381457 0.01562178627 0.5730976904
0.01961368179 0.04397012838 -0.0544218305 0.9481036176 0.001173645598 0.3179593573
-0.005262159646 0.04420154667 -0.04438917923 0.3683915729 0.02068604703 -0.9294405503
-0.005292082469 0.04658029429 -0.04439565023 0.3150141508 -0.005130064736 -0.9490731095
0.01668294271 0.01387941329 -0.04526619212 0.8128895 0.4640139478 0.3519967571
-0.009640412331 0.05676460648 -0.04653543854 -0.4797002511 -0.1807125766 0.8586213565
-0.01701750183 0.06060000229 -0.04968305588 0.7389448669 0.5360178727 -0.4082221501
0.006956811905 0.05003352547 -0.07995386124 -0.3472346723 0.003823165725 0.9377704761
0.01968617884 0.01075161044 -0.05081498082 0.9543705492 0.204230614 0.2178685638
0.01024971237 0.01677039833 -0.0782046524 -0.490984035 0.07794786756 0.8676743671
-0.01404621816 0.06060000229 -0.04788410759 0.6753028189 0.4306794562 -0.5987330864
0.01645244598 0.03171022415 -0.04821910477 0.8538990587 -0.0001704471831 0.5204386308
0.02029545403 0.04740809631 -0.05738989258 0.9915798726 -0.008685208911 0.1292049667
0.02057468541 0.05253189087 -0.05996397018 0.9971839183 0.00389934651 0.07489344564
0.01870762253 0.0171851387 -0.05151590602 0.9131679959 0.1196102566 0.3896377777
0.02055230713 0.05907283401 -0.06188808823 0.9557239398 0.2767102963 -0.100115747
-0.009691047668 0.05343359375 -0.04656271744 -0.5412374033 0.003733459697 0.840861543
-0.01108158646 0.0558551506 -0.04765065384 -0.6674198146 -0.1571618124 0.7279086178
0.02013397408 -0.004267333269 -0.03673890495 0.9833678173 -0.1814649872 0.007628521367
0.02014942598 0.005052280426 -0.04537195683 0.984794047 0.1623391491 0.06186021023
-0.01419904556 0.05007586594 -0.05117320938 0.8264186901 0.001350912431 -0.5630544589
0.02058541298 0.0003650551587 -0.0388878212 0.9998384386 0.01414538948 -0.01109074854
0.01708116659 0.01173736095 -0.04194603348 0.8344710765 0.5357490891 0.1289609864
-0.004232140541 0.01829248619 -0.08064476013 -0.1937136317 -0.05497831056 -0.9795164186
0.0142033062 0.01514562511 -0.04165148544 0.7059001455 0.6500067439 0.2814182252
0.01044946623 0.0180075531 -0.04127436447 0.5622973839 0.792459908 0.2362814978
-0.002403208196 0.06060000229 -0.08071683502 -0.1276279758 0.422138549 -0.89750217
0.008542617798 0.01896155167 -0.04087073898 0.4465348626 0.8500045122 0.279461886
0.01641314697 0.02816293144 -0.04816662598 0.8549708226 -0.0034758398 0.5186644493
0.02029910898 0.04417383766 -0.05740597534 0.9915774377 0.002777073357 0.1294854161
0.02057447116 0.05040401459 -0.06042871221 0.9998829805 -0.006960741997 -0.01362252954
0.02035756493 0.05878967667 -0.06338237381 0.9431986025 0.2739328959 -0.1879818204
-0.008207206726 0.04430971756 -0.04565551071 -0.5216683495 -0.008298848296 0.8531080015
-0.01134025002 0.05033899689 -0.04788097687 -0.6696791858 -0.01157257445 0.7425603434
-0.01156696682 0.05312735291 -0.04808018036 -0.6733866089 -0.008269862594 0.7392442657
0.001398229122 0.009566425323 -0.07960353088 0.170192428 -0.2612040719 -0.9501615496
0.02049873257 -0.001711053848 -0.03957313919 0.9940161514 -0.1092312257 -0.0006558357044
0.0200363121 0.004837135553 -0.04211598587 0.9738950119 0.2253676555 0.02716478532
0.02016315651 -0.004119275093 -0.039228405 0.9861639026 -0.1657397053 -0.003332750508
0.01465543365 0.0155927 -0.04358879471 0.7115407342 0.5964201125 0.3714738658
0.0191234506 0.01075977643 -0.04856539154 0.9381356225 0.266117855 0.221546476
0.01525765196 0.03799895986 -0.07439543152 0.7412950147 -0.0001349865865 -0.6711793225
0.01637882614 0.02457103348 -0.0481207962 0.8518786648 0.005365848039 0.5237117032
0.01979296722 0.04664620743 -0.06614501495 0.9630633315 0.01470234829 -0.2688733167
0.01823359362 0.02866624959 -0.05113214111 0.8894411967 0.01041183773 0.4569310136
0.01666519318 0.02581928711 -0.07264881439 0.8043883559 -0.001717824056 -0.5941013566
-0.01686230278 0.05334362221 -0.06311768532 0.9951270767 0.01521804381 0.09741926118
0.0196208547 0.03507496389 -0.05443059667 0.9530526468 -0.01744994524 0.3023014255
0.0121139218 0.05328664144 -0.07722390493 -0.5774063648 0.0149492617 0.8163200411
0.02030363131 0.04089963341 -0.05742561245 0.9917201968 0.003506046336 0.1283696182
0.0205518322 0.05290561295 -0.0619535675 0.998161364 -0.002309291117 -0.06056862651
0.01964202627 0.0235185922 -0.05448161697 0.9628031048 -0.02853006705 0.2686935366
0.01608594847 -0.009933973789 -0.05346987724 0.7966339077 -0.5462162888 -0.2588864285
0.02035385466 0.05341119671 -0.06345642757 0.9909909141 -0.003568481735 -0.1338815675
0.02031135686 0.05618349584 -0.06371289571 0.9675270438 0.1588888798 -0.1965852063
0.01976504294 0.0588293012 -0.06619159826 0.8961140823 0.3764998026 -0.2350052131
0.02046980095 0.002375611186 -0.04284257317 0.9933782711 0.1134091147 0.01838431795
0.01554611206 0.01739958 -0.04626397133 0.7819220959 0.3338284572 0.5264564531
0.0163499279 0.02093374825 -0.04808220673 0.8008648966 0.0507313619 0.5966923381
0.02050866318 0.02492450905 -0.05879161453 0.9952232089 0.006317942865 0.09742098392
0.01823332659 0.02275905927 -0.05112690862 0.8896908569 0.01166633878 0.4564143684
0.02030874395 0.03758404922 -0.05744879913 0.9941371425 0.0193210777 0.1063862669
0.01629682446 -0.007493065834 -0.0575177021 0.8076868248 -0.497630945 -0.3162363605
0.02057532024 0.044282794 -0.06037570381 0.9997200138 -0.006672116032 -0.02270191274
0.01973974705 0.05268923378 -0.06630021667 0.9577411046 -8.271315506e-05 -0.2876316563
0.02055000305 0.04976577377 -0.06198960876 0.9982568155 0.0003815425308 -0.05901851212
0.02035130024 0.05028643036 -0.06350209904 0.9904752924 -0.005687211798 -0.1375730745
0.01734647083 0.06060000229 -0.06595107651 0.8779642586 0.4082873452 -0.2499604057
0.0080427351 0.02873864555 -0.07954916 -0.4012509328 -0.0046459411 0.9159563877
-0.00985808754 0.04321313858 -0.04665404892 -0.5683713706 -0.004037585776 0.8227622275
-0.01137338185 0.04399520779 -0.04790759659 -0.6789623625 -0.0005854155588 0.7341728459
-0.0128436718 0.05232883453 -0.04933778 0.7569066866 -0.003264702587 -0.653514812
-0.01405166181 0.05313595454 -0.05096302859 0.826197389 0.005604266376 -0.5633528792
-0.01672157097 0.06060000229 -0.05131914902 0.7544961249 0.5376333197 -0.376412023
0.01733522224 0.01455225658 -0.04735133362 0.8468044302 0.3378415171 0.4108349623
-0.005299983263 0.03169896984 -0.08047214508 0.2430190349 -0.002458494885 0.9700184042
0.00800638485 0.03281544113 -0.07956571198 -0.4022508767 0.01259352481 0.9154428629
0.01703799057 0.01703573036 -0.04825736237 0.8142967265 0.2433535045 0.5269724026
-0.001960869749 0.03856399282 -0.08107307434 0.04441423188 0.0002655209649 0.9990131658
-0.01600812292 0.04087498474 -0.05473324013 0.9199804852 -0.01153798695 -0.3917943105
0.0179423008 0.01976673126 -0.05051449776 0.8925755875 0.03723646034 0.4493576155
-0.01607902718 0.0559363308 -0.06623984146 0.937518082 0.09467840419 0.3348071769
0.01949027729 0.0266149826 -0.05398397827 0.9582178246 -0.01298848838 0.2857444658
-0.008901137352 0.03937191772 -0.07917601776 -0.319582575 -0.004538144959 -0.9475475624
0.007950770855 0.05165309143 -0.07956125641 -0.3950982905 -0.01414997926 0.9185298683
0.01978942013 0.02863717079 -0.0549443779 0.9660429355 0.01246127475 0.2580809243
0.02027970982 0.02294951153 -0.0571853199 0.9926621723 -0.004481600044 0.1208376053
-0.01672280426 0.0526982933 -0.05729640732 0.9821618395 -0.0178529992 -0.1871881178
0.02034831142 0.04712364101 -0.06355100155 0.9829614556 0.005343541254 -0.1837341104
-0.01108682108 0.04126322079 -0.04763624287 -0.6834412952 -0.02384192557 0.7296160351
0.01862336222 0.05611145846 -0.06928467051 0.9163987578 0.1210991006 -0.3815079612
-0.01274095917 0.04657792282 -0.04921469688 0.7702916797 -0.002661494004 -0.6376861647
0.02057460928 0.03438827991 -0.06049175549 0.9996674306 0.003591415138 -0.02553683531
-0.01289462662 0.04895618439 -0.04939707947 0.7645586316 -0.003886211782 -0.6445424704
0.01721190071 -0.001368741632 -0.06304175377 0.8260348343 -0.3960724415 -0.4009901166
-0.01529793262 0.0598086319 -0.05306032181 0.8418767076 0.377426548 -0.3857367109
0.02058068466 0.0006091237962 -0.04529480171 0.9998509279 -0.01695625761 0.003256871344
0.01969019318 0.008165953 -0.04774035009 0.9687392017 0.2160596294 0.1219122459
0.02026856995 0.02934827995 -0.0571213239 0.9912259797 -0.002092121106 0.1321615688
0.02054584885 0.04337017822 -0.06207145309 0.9974959964 0.00428888508 -0.07059279514
-0.008689004898 0.01778313446 -0.07914241028 -0.2755456404 -0.2911402647 -0.916139698
0.02034379673 0.04392072868 -0.06360253334 0.9836952611 0.00588837352 -0.1797469343
0.01980797272 0.04980888519 -0.06608499298 0.9628500817 -0.01067195147 -0.2698255541
0.006813315233 0.05269969177 -0.08000244395 -0.3130360333 -0.001600671378 0.9497399011
0.01974903831 0.03823434448 -0.06631838531 0.9607864483 -0.006117748635 -0.2772218858
0.01864919249 0.05915375773 -0.06921867879 0.8475490435 0.3867171066 -0.3634700791
-0.003881464243 0.05113332367 -0.08079437256 0.1387163791 -0.0006995386905 0.9903319023
-0.01414842558 0.046949845 -0.05109714826 0.8234299604 -0.002892589104 -0.5674105509
-0.01534689713 0.05652729416 -0.05314185333 0.8722262759 0.2188438978 -0.4374113304
0.006476518472 0.04731238302 -0.08013413747 -0.2946336667 0.003324530976 0.9556044945
-0.0159028616 0.05837352657 -0.05445235634 0.869321318 0.3206422256 -0.3761236622
-0.01850453186 0.06060000229 -0.05361399078 0.8070007703 0.4831115035 -0.3396366174
0.01281997538 -0.007026967764 -0.06402060699 0.7047798024 -0.5274315073 -0.4744485592
0.0203384428 0.04067707253 -0.06365745449 0.982323765 0.01227443883 -0.1867869345
-0.01282175493 0.04140888023 -0.04930914307 0.7547725301 0.03020222389 -0.6552909685
-0.01409999809 0.04379099579 -0.0510203537 0.8209610262 0.01274267675 -0.5708420252
0.0134522624 0.01696800804 -0.07597177505 -0.6676520434 0.07530735895 0.740654812
0.01922031307 -0.006917627335 -0.04486819267 0.9614981735 -0.2655739364 -0.07065229373
0.01975987053 0.01428273439 -0.05351167107 0.9676041538 0.09239643885 0.2349576552
0.008297701836 0.04735809326 -0.07943173981 -0.4053935822 0.01845045254 0.9139560298
0.0198598938 0.0165348266 -0.05469735591 0.9727010851 0.08862926281 0.2144701677
0.02006287257 0.002445990324 -0.05727376302 0.9792997397 -0.1532266154 -0.1322634645
0.01859518878 0.05303211912 -0.06935328166 0.9056684985 -0.000767548339 -0.4239858272
0.01785754776 0.06060000229 -0.07082923126 0.7971556186 0.4232159367 -0.4306172205
-0.01427278957 0.04090044098 -0.05128969116 0.8406114798 0.03693774475 -0.5403775931
-0.01606247807 0.05305140813 -0.05490419388 0.950830883 -0.00141278047 -0.3097073393
0.01990216446 -0.004001806378 -0.04786195374 0.9734384466 -0.2172539357 -0.07223792671
0.02023371935 0.01106001925 -0.05391389275 0.9893726163 0.06870704226 0.1281451069
0.02029493713 0.01999515343 -0.05722797521 0.9932036251 0.007169844206 0.1161686382
0.02057180357 0.02584006739 -0.06061595631 0.9997740164 0.00562371244 -0.02050097732
0.01047514788 0.01372829946 -0.07765393066 -0.514251626 0.1562773021 0.8432808963
0.02053411865 0.03346528244 -0.06221879578 0.9985357888 -0.001455411128 -0.05407550447
0.009497665882 0.01039177895 -0.07743006706 -0.4485851232 0.2327476785 0.8629020254
0.01972336483 0.0412148447 -0.06639069176 0.9552513239 -0.0008820208731 -0.2957940674
0.01875948524 0.0469877936 -0.06900383759 0.9195845842 0.01032077636 -0.3927565073
0.01856480567 0.04991471799 -0.06942485555 0.9050631644 0.006226910492 -0.4252315769
0.003885632594 0.03232585144 -0.08079642995 -0.1998183212 0.01120382576 0.9797689078
0.01769871235 0.05820433235 -0.07110836792 0.8599128566 0.2039802026 -0.4679123379
0.01669244003 0.05888778076 -0.07258418884 0.78592918 0.2493357508 -0.5658153474
0.01373797639 0.06060000229 -0.07187683614 0.6780509817 0.4495354557 -0.5815193378
-0.01582300496 0.04697127151 -0.05424450207 0.9088661762 0.003946475664 -0.4170691778
-0.01997746849 0.06060000229 -0.05752560043 0.8119630253 0.5767742633 -0.08970782985
0.01623861408 -0.01227767754 -0.04475772285 0.7421956668 -0.6691883659 -0.03650374217
0.01883468056 -0.00719617486 -0.04775629807 0.9416496739 -0.3105070638 -0.1299278836
0.02011129824 -0.00163504084 -0.05118683243 0.9790520333 -0.176876162 -0.1008560336
0.02039200115 0.0140455575 -0.05663380241 0.9922948565 0.01892323312 0.1224452086
0.01230883789 0.04081306076 -0.07708759308 -0.587442218 -0.008378078876 0.8092227433
0.02051818657 0.02140747452 -0.05884447479 0.9965856537 0.001605815318 0.08254971965
0.02052824783 0.03007499313 -0.06227505493 0.997343022 -0.01413221638 -0.07146451563
-0.01531337261 0.04990245438 -0.06813816071 0.9460167155 -0.01136957824 0.3239183641
0.02037097613 0.0321552194 -0.06350694656 0.9930607234 -0.01002761845 -0.117174428
0.01884751129 0.04407281113 -0.0688276825 0.9178660423 -0.001406868331 -0.3968878293
0.01779259491 0.05452011108 -0.07097904968 0.8739867511 -0.00040648958 -0.4859495794
0.01678509712 0.05582598495 -0.07244621658 0.8081845601 0.1052365542 -0.5794505884
-0.01529889011 0.04161346054 -0.05301798248 0.8896603757 0.01129004412 -0.4564832427
0.01183416271 -0.006044636726 -0.06625880432 0.588947353 -0.581844941 -0.5608899001
-0.01672251034 0.04966896248 -0.05725680256 0.974738322 -0.02044982777 -0.2224117988
0.013705299 0.03780893631 -0.07594199371 -0.6636348313 -0.006804046388 0.7480257453
-0.01703473234 0.05842302322 -0.05996657467 0.9711685423 0.2337957737 -0.04659612325
-0.01717698193 0.06059282303 -0.06080250359 0.9156755763 0.3880850053 0.1045383545
-0.01951912308 0.06060000229 -0.05992191887 0.9148334617 0.3905061215 0.102882003
0.01952307415 -0.004283437252 -0.05070897102 0.9471360327 -0.2956599052 -0.1245734962
0.020321208 0.001639825545 -0.05405626869 0.9857606157 -0.1315324274 -0.1047627272
0.02052118301 0.004786624432 -0.05533673859 0.9980990954 -0.046722761 -0.04018929408
0.02058946228 0.004813296795 -0.05386847687 0.9987565712 -0.04625878239 -0.01858592315
0.02055556615 0.01114521058 -0.05729428991 0.9996578708 0.02425845586 0.009781031831
0.01211412477 0.01738691711 -0.07706368256 -0.5801915644 0.06758941707 0.8116707579
0.02049802399 0.01231352901 -0.05674015808 0.9953545748 0.03554150481 0.08947665581
0.02057266045 0.01968309593 -0.06035968781 0.9998565348 -0.01364595426 0.01003482306
-0.01488727029 0.05279784902 -0.06891421509 0.8985143018 -0.01191075851 0.4387826151
0.02039580154 0.02563901186 -0.06331738186 0.9898776443 0.0112760858 -0.1414747301
0.01972942467 0.03492222977 -0.0663918045 0.9643091935 -0.01487671953 -0.2643604784
-0.004510353208 0.04363467979 -0.08065655518 0.1645933001 -0.009019253397 0.986320282
0.01870297623 0.04110143407 -0.06914607112 0.9160160745 -0.01644056014 -0.4008045151
0.01774772835 0.05141737747 -0.07105225372 0.8751725536 -0.0004248225951 -0.4838107284
0.01673017931 0.05273756282 -0.0725242157 0.7978506914 0.005633753783 -0.6028287775
-0.01663934755 0.04687369156 -0.05690664864 0.9723864516 -0.002801324804 -0.2333596824
-0.01704058647 0.0554765269 -0.059989254 0.9900212376 0.1313073528 -0.05115005472
0.01816527271 -0.007800019741 -0.05039115334 0.8949037303 -0.4189888121 -0.1536088825
0.003530568202 0.02030301285 -0.0808498408 -0.1914195242 0.03319028012 0.9809469767
0.02056930478 0.01365634028 -0.05973410924 0.9999139685 0.01224746258 0.004696307444
0.02056173897 0.02144569016 -0.06175839615 0.9985181161 0.0007928229845 -0.05441455043
-0.002611168146 0.02232275677 -0.08101383972 -0.1078979571 -0.007928920594 -0.9941303552
0.02043352795 0.02307052135 -0.06304966354 0.9970819717 0.001523263365 -0.07632313779
0.01586950111 -0.003771606207 -0.06321437263 0.7647783741 -0.4684508436 -0.4423435832
0.01869216576 0.03812667084 -0.06916946716 0.8988901822 -0.005872585022 -0.4381346289
0.01676507206 0.04985453415 -0.07246808624 0.8004064962 -0.0002720223248 -0.5994575605
0.01516056538 0.05580640221 -0.07447163391 0.7433732815 0.1021171003 -0.6610357495
0.004571025054 0.02297972997 -0.08065492757 -0.2227721976 0.01598235257 0.97473951
0.01286485195 0.06060000229 -0.07484906769 0.5263748103 0.4686036626 -0.7094647042
-0.0165620966 0.04195371056 -0.05647208214 0.9536236031 0.02610387275 -0.2998676564
-0.01704874897 0.05028887558 -0.06036242867 0.9995665164 0.0294387082 0.0003765269362
-0.01673602009 0.06050177002 -0.06384418106 0.9213345102 0.349648244 0.1699671315
0.0186602389 -0.005076621691 -0.05392745972 0.8978897058 -0.3917138995 -0.2008837902
0.01955140305 -0.002096004188 -0.05462037849 0.9468122822 -0.2665165652 -0.1803203335
0.02034387016 0.0046647892 -0.05746705437 0.9906023781 -0.09061609256 -0.1024482908
0.01854577001 0.002294442654 -0.06309709549 0.8904976893 -0.2741272581 -0.3631364919
0.02049383354 0.006722183704 -0.05755781174 0.9945915907 -0.06158692229 -0.08363383733
0.006459568024 0.0378698349 -0.08013456726 -0.3023266669 -0.009757754394 0.9531544328
0.01742237854 -0.008528305054 -0.05216572189 0.8319626475 -0.5165893568 -0.2024193408
0.02056144333 0.0105697546 -0.05904389572 0.9979075964 -0.0368850108 -0.05310296617
0.02052541161 0.01785437393 -0.0618033371 0.9979603906 -0.01392677794 -0.06229850449
0.02037560844 0.02037362528 -0.06342288208 0.9933099725 -0.01110119167 -0.1149437344
0.006622209072 0.06060000229 -0.07824445496 0.3323337858 0.4276413453 -0.840640907
0.01863544591 0.03506965892 -0.06929992294 0.9153167075 0.006938999385 -0.4026750245
0.01678156548 0.04707406464 -0.07246021729 0.8056987366 -0.01003620005 -0.592240509
0.01527673817 0.05314193598 -0.07435148366 0.7362169782 -0.00881957292 -0.6766880937
0.01049035613 0.06060000229 -0.0755083135 0.4641382385 0.5043484099 -0.7281540887
-0.01704031181 0.04686300201 -0.06019157028 0.9998394549 0.000292928826 0.01791587341
0.01965850544 6.98739998e-05 -0.05698570633 0.9653692122 -0.2031201765 -0.1637207316
