# .PCD v0.7 - Point Cloud Data file format
VERSION 0.7
FIELDS x y z normal_x normal_y normal_z
SIZE 4 4 4 4 4 4
TYPE F F F F F F
COUNT 1 1 1 1 1 1
WIDTH 366
HEIGHT 1
VIEWPOINT 0 0 0 1 0 0 0
POINTS 366
DATA ascii
0.01924674964 0.007011253774 -0.001648140911 0.9480574515 0.3105724415 0.06878827856
0.0002830052257 0.0205564724 -0.01615609646 0.07360409032 -0.9972873057 -0.0006840138138
0.01435721779 -0.007444580317 -0.06139794922 0.7370794493 -0.5421281955 -0.4034983333
0.0192242101 0.007086085121 -0.006144790947 0.9466543649 0.321596924 0.02051662612
0.01764180946 0.01053309393 -0.001769026428 0.8892662744 0.4549037956 0.04762383882
0.004523293972 0.009043186188 -0.07897666931 -0.2963738487 0.2671875319 0.9169369469
0.004964573264 0.01991312194 -0.006511808276 -0.2456265479 -0.9685413954 -0.03993950907
0.01916822 0.007231196404 -0.01122523386 0.9456960605 0.3244761716 -0.01934361016
0.02046080812 -0.001912326723 -0.01103392347 0.997324853 -0.06696819675 -0.0292984325
0.005269818147 0.0124330163 -0.07957416916 -0.3247607592 0.1836944261 0.9277859705
0.009840029001 0.01797653246 -0.001577381952 0.5261387502 0.8492690272 0.04381934431
0.01819357681 0.0317485575 -0.07020769501 0.894431297 0.02065456892 -0.4467281542
0.01954048872 0.06054256821 -0.06141369534 0.9597152778 0.2797624257 -0.02606857871
0.01596637376 0.01292499971 -0.002152123312 0.7560507884 0.6522067013 0.05489648532
0.01572975699 0.03740113322 -0.0474202741 0.8449318667 0.01052474192 0.5347703904
0.02044589106 0.002112458766 -0.005982187231 0.9932355001 0.1017626789 0.05592493711
0.01348691177 0.01551342845 -0.002210414201 -0.6889479694 -0.7237771921 -0.0386945954
-0.01608808489 0.05721129265 -0.06608879852 0.9379715713 0.07619181206 0.3382368093
0.02045438433 0.001970445842 -0.001425315589 0.9876428891 0.1113706328 0.1102638008
0.004401429858 0.02002969033 -0.001966651101 0.179238879 0.9794609381 0.09235634759
0.01762573497 0.01057309055 -0.006241478443 0.8667972651 0.4986546445 0.002458993187
-0.01157163334 0.0169731369 -0.001784647226 0.3883091211 -0.9210094414 -0.03094568215
-3.43708545e-05 0.02054561281 -0.002231900975 0.00272556956 -0.9994526206 -0.03297014375
0.005558371782 0.006466910243 -0.07777611542 -0.3204173512 0.3596011381 0.8763673559
0.01595732011 0.01293980164 -0.006606115447 0.7557702188 0.654291173 0.02672895975
-0.003951607784 0.05108523814 -0.08075480906 0.09026136611 -0.0146119566 0.995810914
0.01349868965 0.01550931613 -0.006664026976 -0.6315368611 -0.7749287342 -0.0254293127
-0.009929503918 0.01803055954 -0.01122823477 -0.3583642772 0.9334111051 0.01785367508
0.009884193738 0.01795643632 -0.006054429372 0.474947315 0.8800141547 -0.0003681992125
0.01411626037 0.01537513065 -0.04170825005 0.7260223744 0.6170997342 0.303445926
0.01391845632 0.06060000229 -0.04692482376 -0.6606416521 -0.4230872385 -0.6201207916
0.02038057089 -0.002376896709 -0.001831249233 0.9785420531 -0.1688600187 0.1180751639
-0.004649535894 0.01996676254 -0.001352585778 -0.2162155214 0.9717187045 0.09494002091
0.0197427899 -0.003025095264 -0.05127973366 0.9622093605 -0.2324408392 -0.1418605047
0.0003361086369 0.02055134277 -0.006373415565 -0.08915885918 -0.9955614023 -0.03013622438
0.01003792834 0.01788699913 -0.02160406828 -0.4833801489 -0.8748470481 -0.03140500206
0.01947513771 -0.006612648487 -0.001910287142 0.9694731832 -0.2425219494 0.03612272318
0.01912609625 -0.007333919764 -0.006349022746 0.9641876828 -0.2642677831 0.02246444319
0.0203995182 -0.002400226164 -0.005972831011 0.9899734706 -0.1410293 0.007953863279
0.01760677528 0.01062026564 -0.01151667849 0.8666232903 0.4988898534 -0.008543236887
0.01594638697 0.01295700222 -0.01185983086 0.757949649 0.6522319442 0.01028690919
0.01943150033 0.006628216638 -0.02127316793 0.9302156358 0.3665219789 0.01898709929
-0.004303016583 0.01823251152 -0.08060472616 0.09150816934 0.07187171122 0.9932072856
0.00497173757 0.01991419877 -0.01617866739 -0.2592111934 -0.9654016027 0.0284482471
0.01351134809 0.01550325012 -0.01191625341 -0.6289462246 -0.7774464231 -0.001925049164
0.01735265732 -0.01103818703 -0.004068400383 0.9408580285 -0.337711011 0.02715590808
0.009936283906 0.01793273338 -0.01133504073 -0.4775133119 -0.8781883299 0.02768201923
-0.009388415337 0.01830232302 -0.01600868193 -0.2664123535 0.963561268 0.02396123199
0.01970376763 0.04190888566 -0.06634279016 0.9669613386 0.01866424277 -0.2542388949
-0.004888301452 0.01990253417 -0.005716201703 -0.205998468 0.9783714027 0.01881567358
0.02043129031 0.002274871012 -0.01135003217 0.9955702076 0.09384353376 -0.00577519307
0.008646517575 0.02680641389 -0.07926619911 -0.3981897668 0.002964359447 0.9172982733
0.005036114454 0.06024885686 -0.08001713308 -0.1806364019 -0.2156764356 0.9596114659
0.01792971675 0.01008557113 -0.02164732234 0.8874410457 0.4607322002 0.01319962351
0.004655797899 0.01998938918 -0.0112315973 -0.2519591976 -0.9672351602 0.03118825965
0.01869859934 -0.008427650571 -0.01578229022 0.9628074574 -0.2701756926 0.002625865294
0.017180233 -0.01133223915 -0.002008928776 0.9328943952 -0.3578856243 0.04032278798
0.0003075574835 0.02055327129 -0.01130343628 -0.09670028143 -0.9952877267 -0.007169149167
0.01925150646 0.007054738131 -0.01604563843 0.9290718706 0.3695503127 -0.01606317983
0.02024392732 -0.003322789172 -0.01662937148 0.98600521 -0.1658090146 0.01735213136
0.02044929423 0.001719575047 -0.01640950298 0.9882764723 0.1525602679 0.005914300508
0.01776818037 0.01035575771 -0.01705497336 0.888546345 0.4586285224 0.0120528492
0.01570612288 0.05208198547 -0.04741632652 0.8164027804 0.09091708934 0.5702811439
0.01606197848 0.01281615176 -0.01651461029 0.7623284671 0.6471724758 0.004805711815
0.01352172184 0.01549827909 -0.01622034073 -0.638499326 -0.7696068744 0.004885649642
0.009987526655 0.01790960264 -0.01651677036 -0.5281258979 -0.8490152839 -0.01600261521
-0.004542593161 0.0199918534 -0.01126585039 0.1858242026 -0.9825400496 0.009187853805
-0.0106919651 0.0175712134 -0.006154973348 -0.3754474623 0.9266309152 0.01985825122
0.01752362061 -0.01074662781 -0.006110414505 0.9408580285 -0.337711011 0.02715590808
0.004812137604 0.01998980942 -0.03622257919 0.351905614 0.9359430044 0.01315793745
0.01901945534 -0.007543353939 -0.01127220135 0.9700759017 -0.2425949137 0.01002261358
0.01827439475 0.02219260406 -0.07003689289 0.8929752454 -0.03260664115 -0.4489231762
0.01936894417 -0.006953036149 -0.04093284225 0.9464023979 -0.3225849854 -0.01616874973
0.01592659039 0.01298793369 -0.02096029006 0.7643322121 0.6442032003 -0.02825785453
0.01058725185 0.06060000229 -0.04566233749 -0.5267785407 0.1328738721 -0.8395527995
0.01353192711 0.01549338833 -0.02045468744 -0.6428879255 -0.7654708363 0.02737725479
0.005087958548 0.01989044995 -0.02131926876 0.2668927012 0.9637258754 0.0008503341035
-0.004204045296 0.02007922554 -0.01670308701 0.1632773732 -0.9863420562 -0.02167596953
0.0002884841859 0.003064232826 -0.07723652649 0.204999664 -0.3948698703 -0.8955740747
0.01825136587 0.04198255327 -0.07007544539 0.8942107137 -0.01883195283 -0.447249994
0.009124653816 0.06060000229 -0.04319825363 -0.2827033203 0.1939352561 -0.9393976523
0.02046612273 0.00160387596 -0.02106633441 0.987595838 0.1563055808 -0.01493405845
0.0006647377014 0.02055225849 -0.02094492849 -0.0354769445 -0.9993282169 0.009192456888
0.0159162159 0.01300425943 -0.02595293617 0.7659716503 0.6424737485 -0.02269170207
0.01302901268 0.007626626492 -0.07412866974 -0.6144402121 0.2723939021 0.7404490448
0.0135439806 0.01548761193 -0.02545567703 -0.64678778 -0.7623328118 0.02267711768
0.01823539816 0.05190108218 -0.07009709167 0.8969645954 0.05720586356 -0.4383856793
0.00461709547 0.06060000229 -0.04227815247 -0.1732237392 0.1451129848 -0.9741333368
0.02021595078 -0.003624295902 -0.02166309929 0.9850373348 -0.171757704 0.01416827927
0.019405152 0.006719981458 -0.02630428314 0.9286148441 0.3705179619 0.01977147744
0.01790449683 0.01013182799 -0.0266401666 0.8835400512 0.4683307541 -0.004825202294
-0.007999609947 0.05876185608 -0.07953108978 -0.3583427204 0.2850246287 -0.8890171291
0.0003134765114 0.06050403159 -0.08026301902 0.02723451522 0.2808057149 -0.9593781484
0.01629534539 0.01248474741 -0.03667867184 0.7654655081 0.6407906234 0.05873612991
0.01008654221 0.01786394739 -0.02660027472 -0.5356449902 -0.8443001205 -0.01554834461
0.005201132748 0.01986625248 -0.02636660406 -0.3148671299 -0.9486950326 -0.02892102481
0.01865831121 0.05190055466 -0.05204478455 0.9243831958 0.08969035235 0.3707712881
-0.003642220831 0.02020008545 -0.02164732399 0.1378295149 -0.9900257529 -0.02918961053
0.01583011913 0.0569871664 -0.04757149124 0.7699533836 0.2159894551 0.600433462
0.01900661278 -0.007874022802 -0.03061409314 0.9586330336 -0.2813245682 -0.04334967349
0.006503501892 0.06050168101 -0.04440844854 -0.277312906 0.1866338774 -0.9424783011
0.01818019803 0.01729468981 -0.06999874242 0.9034595945 -0.05638700885 -0.4249485455
-0.0003150652349 0.06039082336 -0.0424585584 -0.03760521887 0.1583957396 -0.9866593319
0.005396341432 0.05196768743 -0.08038099046 -0.2253952981 -0.0447092608 0.9732409987
0.02045766216 0.001773845063 -0.026167696 0.9882329725 0.1525293464 0.01141886894
0.01673808527 0.04675660276 -0.0725238018 0.804566238 0.001207096037 -0.593861694
5.194034195e-05 0.02052215338 -0.02610322428 0.042635389 -0.9990558593 0.008343480251
0.01816802864 0.06032832565 -0.05193108444 0.8514944189 0.2803441326 0.4431302539
0.01540853729 0.06060000229 -0.05107953186 0.803589176 0.2922009292 0.5185200605
-0.0046158156 0.06060000229 -0.04211221568 0.1731849944 0.2014491694 -0.9640670049
0.01847645251 0.02209350491 -0.05169355838 0.929172165 -0.01883549544 0.3691670514
0.01865312258 -0.008716078758 -0.0216631724 0.9567212786 -0.2908556281 0.009348724235
0.01596790028 0.01292499757 -0.03151762025 0.7656939765 0.6429393145 0.01848708403
0.01355777323 0.01548100185 -0.03117840433 -0.6428232698 -0.765780804 0.01892099518
-0.01518597031 0.06034128104 -0.05099648158 0.8214931978 0.1514798568 -0.5497297326
0.01850986608 0.05656071917 -0.05172316551 0.9043496235 0.1671593741 0.392695177
-0.008764859835 0.01861074702 -0.02162130864 0.2314304234 -0.9723799926 -0.03028381032
-0.01850453186 0.06060000229 -0.05361399078 0.9288785538 0.1718519557 -0.3281029376
0.004244566719 0.05683410199 -0.04414752706 -0.1139185434 0.1285019979 -0.9851445589
0.01842166297 0.03687841606 -0.05154745738 0.9033969002 0.02433619734 0.4281142256
-0.0001529852562 0.05694989729 -0.04358819199 0.03722750392 -0.1030197612 0.9939824152
0.02016206741 -0.003911755848 -0.02588884163 0.987322794 -0.1587053091 0.002515014409
0.01937880982 0.006809673415 -0.0312474166 0.9277269227 0.3732021689 0.006549652387
0.01795213051 0.01005200558 -0.03120001831 0.8801926983 0.473793874 -0.02793167982
0.01013393108 0.01784092935 -0.03150997448 -0.5142866484 -0.8576017522 0.005336474258
0.005310480542 0.01984074953 -0.03132412593 -0.3293168914 -0.9429461908 -0.04901904059
-0.004950765133 0.01998122342 -0.02567030907 0.1916230805 -0.9814672503 0.001622223372
0.01558499002 0.04707535362 -0.0472660799 0.8398964987 -0.0007438581412 0.5427460899
0.02047810854 0.001573669425 -0.05148033524 0.9883190395 -0.1336426302 -0.07324700392
0.00394337523 0.0530644989 -0.04402433968 0.01151995518 0.05775223695 -0.9982644789
-0.007525483608 0.06060000229 -0.04155902863 0.3865964523 0.2938318648 -0.8741887773
0.0204464052 0.001937517785 -0.03117577638 0.9945580332 0.1033313832 0.01330202679
-1.743449302e-05 0.02052441576 -0.03088704279 0.02745630116 0.9995192128 -0.01440467667
0.01011974592 0.01189845104 -0.07741451797 -0.4880259569 0.2066750178 0.8480071358
-0.01651986647 0.0600714283 -0.05641371536 0.9662510054 0.1262224824 -0.2245593008
0.02012590703 0.05700507528 -0.0566466765 0.9577626463 0.2166284017 0.1891106789
0.01964140965 0.03198564133 -0.06656201817 0.9483618404 -0.01667157189 -0.316752077
0.01910886002 0.06059211095 -0.05641876856 0.9371315834 0.3182396486 0.1432058711
0.008904093552 0.03233830566 -0.07915368347 -0.4230474288 0.02106661215 0.9058626114
-0.0004229374698 0.05189479174 -0.04359015165 -0.02200623463 -0.06875552461 0.9973907978
-0.005114641619 0.05707817841 -0.04438903732 0.2857399459 0.278437373 -0.9169652734
-0.00562238574 0.06009146786 -0.04447253513 0.379325611 0.225662083 -0.8973230774
0.01883145809 -0.008291263103 -0.0261788969 0.9589580198 -0.2834507923 0.007427288679
0.02025919946 -0.003383976022 -0.03065001647 0.989777751 -0.1421605176 -0.01141887936
-0.00835614872 0.01881290436 -0.02530012131 -0.2407527417 0.9705059558 0.01250228482
0.01544213533 0.04196361732 -0.04710037231 0.836502523 0.002278713203 0.5479583346
0.01845996825 0.04689904277 -0.05162237358 0.9260968605 -0.02479226735 0.3764703819
0.01621375847 0.06060000229 -0.05513949585 0.9034872497 0.2650914908 0.3368045296
-0.005028051138 0.05196020699 -0.04435369428 -0.2956387634 -0.1076626308 0.9492136111
-0.01017172682 0.06029526043 -0.04598437643 -0.6010555689 -0.186152473 0.7772254885
0.01935191981 0.006896813711 -0.03610603375 0.9302109561 0.3670010687 -0.004218139756
-0.01604919577 0.05176984978 -0.06624967957 0.9784533018 0.1139898111 0.1721495256
0.01820911916 0.009616328875 -0.03626171239 0.8977049504 0.4400988784 0.02094753775
0.017024333 0.005221645117 -0.06821276855 0.8224418354 -0.2818350374 -0.4941239107
0.006928329945 0.01939197159 -0.03560400899 -0.3729638189 -0.9276514524 -0.01899401768
0.01357083209 0.01547403924 -0.03679435285 -0.6222952007 -0.7755794216 -0.1059492522
0.01915119525 0.06033536639 -0.06648071289 0.9093541627 0.2132303138 -0.3572223958
0.0101808269 0.01781859128 -0.03633764108 -0.5158547379 -0.856661254 0.005038378697
-0.004717720509 0.02004620743 -0.02914237404 -0.1763300359 0.9842732862 -0.01066848351
0.02011373435 0.05182246992 -0.05651126311 0.9850288682 0.08984911649 0.1471232992
-0.009979195731 0.05681662614 -0.04685174697 -0.61600345 -0.1179092903 0.7788691475
-0.001249759346 0.04772186152 -0.04358977381 0.210289683 -0.01923326849 -0.9774499121
0.02043043772 0.002092944577 -0.03609311846 0.993474095 0.1124503149 -0.01908269404
0.01831838264 0.04701195755 -0.06992476425 0.9066980432 0.02187853112 -0.4212125216
0.00211435616 0.02048949242 -0.03478790665 0.1764750176 0.9841782138 0.01580543199
0.00127580297 0.005858044147 -0.0784092865 -0.2395532261 0.3684016163 0.8982730659
0.0186259559 0.04208718363 -0.05197071012 0.9271767234 -0.02151053374 0.3740061772
0.0002352501008 0.02187067304 -0.08114027623 -0.1005895644 0.008616553085 0.9948906948
-0.01481316675 0.06047396469 -0.07115885598 0.8670061602 0.1240106763 0.4826195918
0.0142763655 0.04210356316 -0.07536128704 -0.6915148635 0.01293309247 0.722246446
0.01819080601 0.057034972 -0.07016098099 0.8973268693 0.1441686024 -0.4171569293
0.02009175529 0.0467910408 -0.05647017593 0.9910739531 0.002369865994 0.1332921722
0.008811748743 0.05163495382 -0.07919060898 -0.4140695626 -0.0567957977 0.9084715927
-0.01707268461 0.06056605148 -0.06156053797 0.9786393215 0.1779643838 0.1029259763
-0.01244918728 0.05268009186 -0.04889294052 0.723620863 0.1179525121 -0.6800441541
0.02052196516 0.0571188845 -0.06131289782 0.969589706 0.2447290589 -0.001868076451
0.01441181513 0.04681762754 -0.07522086099 -0.6928128032 -0.01599083357 0.7209401591
-0.004963275088 0.04685525046 -0.04431924693 0.3595037286 -0.01905243662 -0.9329491271
-0.01367011666 0.06060000229 -0.04689985275 0.7049742487 0.1055799963 -0.7013302881
0.02030295308 -0.003111073832 -0.03568477694 0.9919176585 -0.1265835409 -0.008715841498
0.01466299343 -0.002243201566 -0.06643894958 0.7357947182 -0.4398090534 -0.5149506086
-0.009912813409 0.05190518926 -0.04682000656 0.5739671438 0.04793319216 -0.8174742362
0.01935686684 0.007022456646 -0.0411758358 0.943039564 0.3292328549 0.04777141484
0.008148636818 0.01436505222 -0.07898484802 -0.3810959593 0.167625008 0.909212696
0.01807286024 0.01003967953 -0.04151537418 0.9046958028 0.402729858 0.1390473511
0.0001292207837 0.06060000229 -0.07824215698 -0.01882140373 0.3894357854 -0.9208612946
0.01636802692 0.01259088812 -0.04117033691 0.8146895455 0.5547991662 0.1687567172
9.312651157e-05 0.0167452713 -0.08090138397 -0.04313979143 0.08258059581 0.9956502416
0.01031057405 0.01788791347 -0.04037865496 0.6091326197 0.7458205973 0.269646228
0.0151906745 0.006886401081 -0.07146634293 0.7347306395 -0.2606068138 -0.6263026233
0.006983386517 0.01937207794 -0.03880459595 0.4154620314 0.9095990765 -0.004562956805
0.01645244598 0.03171022415 -0.04821910477 0.9037419353 0.005177054007 0.4280463905
0.02009525935 0.0415729866 -0.05644049539 0.991437553 0.02289248531 0.1285593739
0.02052660068 0.0516116724 -0.06138735421 0.9981501216 0.01639307342 -0.05854572556
-0.006205585003 0.04353654734 -0.04472305044 -0.39058921 -0.001235915828 0.9205642517
-0.01105856037 0.06027642059 -0.07358335114 0.7040061085 0.2178229379 0.6759649154
-0.009959890207 0.04684433772 -0.04684462891 -0.5479931116 -0.02532630821 0.8360993528
0.0197394344 0.02192454576 -0.06625475883 0.9677007414 0.001041871833 -0.2520995627
0.01921314367 -0.007382041136 -0.03584377925 0.9530819675 -0.3004027755 -0.03732205451
0.02042375412 0.00226533958 -0.04120249748 0.9951387231 0.09340004657 0.0312306437
-0.00974082756 0.06060000229 -0.07668550491 -0.5559222906 0.2924920247 -0.7780737898
0.01639598656 0.02636698246 -0.04814371109 0.8888962753 -0.007764761469 0.4580427057
0.0197221872 0.02708901135 -0.06631897863 0.9494678876 -0.0166029468 -0.313424748
0.01860537815 0.03190108967 -0.05192571131 0.9370751861 0.02660346694 0.3481125553
-0.01236787319 0.05767805862 -0.0488208046 0.728768606 0.1207073891 -0.6740371244
-0.01418347079 0.05705223274 -0.05125597927 0.8186691861 0.1679265993 -0.5491642932
0.02035445431 -0.002671665141 -0.04104509299 0.9907283085 -0.1351982221 -0.01337383255
0.01570590544 0.0166401093 -0.0461988225 0.8548028527 0.2724858463 0.4416599899
0.01472992277 0.02028041172 -0.04636344719 0.7900149885 0.22755028 0.5692953433
0.01857896652 0.02699491348 -0.05185170975 0.9284030993 -0.0451930677 0.3688160407
0.02016089206 0.03663085895 -0.05674815326 0.9915370351 0.02171712918 0.1279948213
0.02053636284 0.04661042137 -0.06133994141 0.9993862623 0.03138648018 -0.01555594909
-0.01620831331 0.06056367874 -0.06622402445 0.9559595967 0.08512279711 0.2808831765
0.01966215668 0.05694882431 -0.06647456818 0.9552615613 0.1274490286 -0.2668934143
0.01690884066 0.06060000229 -0.06610608196 0.9229667218 0.2635040048 -0.2805317626
0.01422495944 0.05687746375 -0.07539270891 0.64130687 0.1490868815 -0.7526610129
-0.0104061121 0.04237732849 -0.04715545616 -0.6103266784 -0.03181202666 0.7915107962
0.01963576603 0.007431446373 -0.04613440037 0.958759947 0.2616600477 0.1109656864
0.01838847896 0.01132033539 -0.04644749832 0.91072051 0.3287305064 0.2500488088
0.01698033714 0.01324104118 -0.04512373924 0.8588912506 0.4586861248 0.2278439347
0.02012434387 0.03176018933 -0.05647798593 0.9647736814 0.002960882062 0.2630645869
-0.007648796558 0.06060000229 -0.07897504425 -0.3512166211 0.3566797974 -0.8656941765
-0.01758278656 0.06060000229 -0.07004545593 0.9138094435 0.1361087702 0.3826574234
0.02052661896 0.04175594469 -0.06139276331 0.9996787723 0.002711045983 -0.02519925314
0.01967956865 0.05205028844 -0.06634812331 0.9683869038 0.04204136451 -0.2458847866
0.005271485209 0.03194761295 -0.08043306808 -0.2217527233 0.02196097055 0.9748556024
-0.01635160476 0.05678796856 -0.05596373543 0.9310089674 0.1192461168 -0.3449676307
-0.01425117792 0.05195728384 -0.05132096945 0.8274596975 0.08076847369 -0.5556859749
0.02048221503 0.002505231731 -0.04628125 0.9973539197 0.05984594217 0.04127495711
0.02005091313 0.02700293214 -0.05614174053 0.9570788761 0.01098002826 0.2896195156
-0.01410765028 0.04697695378 -0.05112540109 0.846480453 0.02642512541 -0.5317636274
0.02040245586 0.01220173412 -0.05616413201 0.9929378018 0.03095636913 0.1145260886
0.01588661194 -0.01309145355 -0.03699643707 0.8693099445 -0.4941322876 -0.01155433725
0.01950738487 0.01175684328 -0.05104497032 0.9522374385 0.2061683409 0.2252520276
0.018284343 0.02691669035 -0.07002573013 0.8959218485 0.01301806311 -0.4440209133
0.01869478861 0.01686403147 -0.05138015238 0.9304915013 0.1677759144 0.3256329352
0.001401120901 -0.001405998468 -0.07472389221 0.2483215314 -0.468731171 -0.847719002
0.02053155575 0.03682310066 -0.0614663002 0.9946405382 -0.02040764661 -0.1013593992
0.01892535146 -0.003402505974 -0.05541640027 0.910229792 -0.3505475836 -0.220449807
0.01982800916 0.04689766769 -0.06589707642 0.9672329375 0.02153344387 -0.2529758
-0.01408976037 0.04216229112 -0.05109436226 0.8501794218 0.07039335545 -0.5217659688
0.01672104963 -0.01194450823 -0.04105649821 0.9069073974 -0.4208805706 -0.01945553376
0.02018311773 -0.002901366523 -0.04651202011 0.9750788153 -0.2089511901 -0.07457012906
0.02035835203 0.006391880141 -0.05085970179 0.9909348259 0.08966784551 0.1000392339
0.02011816897 0.02202984238 -0.05644075939 0.9929117661 0.01276040688 0.1181668177
0.02051775265 0.03178063647 -0.06129927158 0.9990573731 -0.031516492 -0.02985089648
0.005078523368 0.0170476594 -0.08028774738 -0.2117686339 0.09219455786 0.9729615662
0.01803776614 0.0603320783 -0.06990611013 0.9021891034 0.1805466699 -0.3917368015
-0.01842319202 0.06060000229 -0.05700834656 0.9828773834 0.1623772852 -0.08709573145
0.005208793614 0.02693259197 -0.08047679816 -0.2160458836 -0.01799423637 0.9762173854
0.01902749681 -0.007056901097 -0.04631224537 0.9480594876 -0.3111268242 -0.06620655042
0.020079602 0.01714296281 -0.05588689375 0.9869838232 0.02126402927 0.1594075711
0.02051945225 0.02664687824 -0.06114994621 0.9991735254 0.03213089823 -0.02489722023
0.01534504869 0.06041673703 -0.07197965664 0.7689826954 0.22482331 -0.5984313606
-0.01644634614 0.05191574801 -0.05632252679 0.9747793948 0.08358921151 -0.206925047
0.01974984973 0.03699356106 -0.06620275116 0.9655169059 -0.001757024061 -0.2603344336
-0.01635299492 0.04694553346 -0.05594657722 0.9632118235 -0.01809956822 -0.2681331548
0.001456215262 0.00783630085 -0.07908109283 -0.236831334 0.2581875603 0.9366163051
0.01623861408 -0.01227767754 -0.04475772285 0.8177465617 -0.5644210269 -0.1127806068
0.02050510632 0.006687381181 -0.05605729398 0.9969146509 -0.07605949356 -0.01939412789
0.01134225833 0.02728553534 -0.0777426939 -0.5701055583 0.01824575695 0.8213688239
0.0205229265 0.02156389791 -0.06126504482 0.9985700973 0.00796977696 -0.05286060457
0.01668651878 0.05664935515 -0.07259159173 0.8009863737 0.1289287076 -0.5846351148
-0.01700691605 0.0572309175 -0.06089249385 0.9831405814 0.1482295563 0.1070635135
-0.01936768786 0.06060000229 -0.06071365102 0.9794095639 0.1973134974 0.04271170757
0.02051770646 0.01707159192 -0.06108639635 0.9990087842 -0.01839436134 -0.04053512689
0.01673913898 0.05167233696 -0.07250764771 0.8021489732 0.02260105583 -0.5966960844
0.01401041181 0.06024433899 -0.07504325104 0.6778491931 0.2994168052 -0.6714685757
-0.01633471715 0.04241170502 -0.05579427576 0.950522798 0.01458358249 -0.3103123097
0.01816527271 -0.007800019741 -0.05039115334 0.8976303457 -0.4105216298 -0.1604112027
0.02000328146 0.001525122922 -0.05647730909 0.9651591622 -0.1966217515 -0.1726490037
0.02041299716 0.01229147452 -0.06110229666 0.9871275088 -0.04929894712 -0.1521476096
-0.01698925989 0.05220232322 -0.06141454385 0.9935072217 0.07351496868 0.0868271261
-0.01391767597 0.05670498047 -0.07037436371 0.8529255759 0.1778807198 0.4907916172
0.01824249458 0.03694822184 -0.07010053507 0.8923331725 0.001853244958 -0.4513735424
0.01910122914 0.002183364968 -0.06112594944 0.926496812 -0.2578761954 -0.2740502239
0.01416991438 0.05197221511 -0.07544979204 -0.6891752334 -0.0407794603 0.7234462892
0.008533198754 0.04679125023 -0.0793080012 -0.3953324923 -0.00761600719 0.9185065144
0.01021288575 0.06040124257 -0.07693775686 -0.5451742767 -0.1983449085 0.8145209054
-0.01701185747 0.04687551602 -0.06104324237 0.9997798425 -0.02018924215 -0.005714983729
0.01428827264 0.02184779255 -0.07535033769 -0.6910289025 0.01598859485 0.7226502755
-0.01831905794 0.06060000229 -0.06619608402 0.968379944 0.1293058914 0.2133547995
0.006820652485 0.009520640373 -0.07842459106 -0.3546196394 0.2743728752 0.893848106
0.005183092038 0.002422518293 -0.07614186859 -0.3288913293 0.4083169116 0.8515326143
0.01702132893 -0.008946208 -0.05263466644 0.8604104766 -0.4676574587 -0.2024606456
0.02002316952 0.007262066066 -0.06127443409 0.9625507781 -0.1335537099 -0.2359224581
0.01672771018 0.04193187932 -0.0725408347 0.8050457357 0.001825673039 -0.5932099379
-0.01701526642 0.04301876831 -0.05898429108 0.9773722237 -0.002345056061 -0.2115136806
0.01967044544 0.01700854707 -0.06618144894 0.9434592876 -0.05215534287 -0.3273597302
0.01106602144 0.05661883583 -0.07790400772 -0.5556965613 -0.1278210929 0.8215005173
0.01154242134 0.001450953033 -0.07232559967 -0.5956450454 0.3860223501 0.7044101966
0.005727327704 0.06060000229 -0.07720419312 0.3134227705 0.2564328096 -0.9143349392
0.0156249299 -0.008766840935 -0.05680784988 0.8268401048 -0.4814818836 -0.2907071324
0.0176044445 -0.006124670506 -0.0562050705 0.8782034571 -0.3996904357 -0.262690395
0.01930382191 0.01205504365 -0.06612815406 0.926855268 -0.1154831604 -0.3572155537
0.01664800082 0.03682580778 -0.07265152571 0.8013968561 0.001568265973 -0.5981309385
-0.01657166417 0.04825609843 -0.06464311727 0.9940986527 -0.001849496014 0.1084640403
0.01352982998 -0.01273038673 -0.05383201218 0.7674103146 -0.5894168574 -0.2523275199
0.01818498421 -0.00205599765 -0.05991580963 0.9051923784 -0.315424193 -0.2848408969
0.01675185721 0.03198383004 -0.07252031708 0.8026308664 -0.01381268182 -0.5963161092
0.01123134625 0.05186794233 -0.07780622387 -0.5669195207 -0.01042455133 0.8237072209
0.008487367221 0.05705469458 -0.07931850978 0.333398388 0.1571717209 -0.9295926877
0.008417998552 0.06031363487 -0.07903151703 0.378380952 0.2832049007 -0.8812620719
0.01652692719 -0.003903152943 -0.06175412827 0.7988683166 -0.4345204963 -0.415934311
0.01860475794 0.007230593099 -0.06601352904 0.8822752983 -0.1826399093 -0.4338582276
0.01672696948 0.02685121202 -0.07256013298 0.8003609284 -0.009488993328 -0.5994433611
0.01426077255 0.03704677741 -0.07538761838 -0.6918594147 0.01274490537 0.7219197446
0.01124182405 0.04704315681 -0.07780185318 -0.570095964 0.0154782421 0.8214322954
-0.01459573603 0.05268822479 -0.06945151138 0.9019866861 0.1358097358 0.4098484278
0.01792389043 0.002958771388 -0.06506915538 0.8419810307 -0.3124423003 -0.439826958
0.01423122692 0.03200250083 -0.07540987279 -0.6914568519 0.0006040994933 0.7224175088
0.005083976746 0.05676891812 -0.08048558044 -0.2070656159 -0.1452359243 0.9674866185
-0.005219823917 0.06060000229 -0.0775317688 -0.3512166211 0.3566797974 -0.8656941765
-0.013625741 0.06060000229 -0.07422176361 0.7387534856 0.1927141437 0.6458363155
0.01643694878 0.001427821904 -0.06669378535 0.7873446686 -0.3638551289 -0.4976924934
0.01372246402 0.01206496007 -0.07482127925 -0.632248342 0.1531668736 0.7594747809
0.01784644814 0.0119552454 -0.06955355988 0.8727452555 -0.1543902498 -0.4631191746
0.01674974755 0.02159871047 -0.07252291761 0.8016085293 -0.01281725578 -0.5977118735
0.01442635423 0.0270279593 -0.07523400185 -0.6923363963 0.003872261335 0.7215644946
0.005156293207 0.02183537568 -0.08046844398 -0.2168345242 0.01305019577 0.9761211408
0.009557710012 -0.00253246812 -0.07110099792 -0.4776701866 0.5220221182 0.7066286867
0.0112073524 0.04157720947 -0.07782687283 -0.5677436179 -0.02454607057 0.8228393979
0.005119008231 0.03699432983 -0.08047917328 -0.2224494588 0.01118149031 0.9748801016
-0.004208867232 0.06060000229 -0.07966971334 0.2636449224 -0.2695175144 0.9262028203
0.01667955807 0.0165485893 -0.07232567923 0.7882294655 -0.08537904012 -0.6094298395
0.01120807817 0.03685903252 -0.0778348075 -0.5703173365 -0.01628711577 0.8212629698
0.008790705136 0.04199974006 -0.07919460624 -0.4010258075 0.009738269708 0.9160149932
0.0004325727735 0.05709011786 -0.08112090084 -0.005630721351 0.1997173943 -0.9798373627
0.01389958096 -0.005862595081 -0.06404106903 0.6720718535 -0.5390439805 -0.5076918464
0.01610980332 0.01187575495 -0.07215494537 0.7736854995 -0.1617605483 -0.6125718513
0.0112660171 0.03188401685 -0.07779899706 -0.5684080593 0.01742800589 0.8225621817
0.004798947378 0.04699796226 -0.08055954673 -0.1954182547 0.006599716901 0.980697787
0.000190235029 0.05204656076 -0.08110451794 -0.03004978668 -0.07183525086 0.9969637441
-0.004458783547 0.05678840129 -0.08064106878 0.1598828929 -0.1755710726 0.9713970656
-0.004711352189 0.02300680033 -0.08059741465 0.1217836336 0.01038999718 0.9925022894
0.01036827707 -0.007629840851 -0.06573234558 0.5705497374 -0.5993053384 -0.561521245
0.0143288969 0.002442611217 -0.07025190582 0.6706440277 -0.3672098148 -0.6445103102
0.01407767038 0.01688790054 -0.07531847534 -0.6855066566 0.07892112484 0.7237762636
0.008603071976 0.03692245178 -0.07929341736 -0.3781209638 0.02028315538 0.9255339704
0.005432286596 0.0418832283 -0.08039889908 -0.2874275932 -0.01568542127 0.9576739248
-0.004898949146 0.04227242406 -0.08051898575 -0.2031027718 -0.009041038539 -0.9791156845
1.106298263e-05 0.0469538547 -0.08113928114 0.01506128321 -0.03467701172 0.9992850757
-0.007594161034 0.05141642761 -0.07970157623 -0.2677509958 0.08378203286 -0.9598385152
0.01147997379 -0.0044185853 -0.06816996002 -0.5776462737 0.5320801763 0.6190439956
0.01266116428 -0.001209046602 -0.0696343689 0.6488704843 -0.4407442288 -0.620251255
0.01113833272 0.02181024671 -0.07788007736 -0.5690893526 0.02201614142 0.821980899
0.0006854084773 0.04192358889 -0.08113112313 -0.100963893 -0.01618809369 0.9947583817
-0.004589330276 0.04749590683 -0.08062625376 0.1302526733 0.02820491585 0.9910795749
-0.009088272095 0.04719216537 -0.07908475494 -0.231507768 -0.01274512603 -0.9727495645
0.0002210375369 0.03213774133 -0.08112496567 -0.02781386687 0.01791184889 0.9994526274
0.01104231946 0.01691159693 -0.07771912893 -0.5626519225 0.0950130257 0.8212157689
0.0003200638915 0.03729293823 -0.08113086573 -0.02885988325 -0.007734033861 0.9995535463
0.005880046844 -0.008408177376 -0.06797586823 0.4680089422 -0.6018562552 -0.6470986618
0.01043559701 0.006949954442 -0.07570865522 -0.4684030997 0.3086379483 0.8278533403
0.008692682838 0.02145369606 -0.07924773865 -0.3781007923 0.01841733073 0.9255812189
-0.004354803228 0.03625145874 -0.08063761139 0.123057926 -0.006974799323 0.992374979
-0.008901137352 0.03937191772 -0.07917601776 -0.2409683495 -0.003872941216 -0.9705252469
0.008838492274 0.002424700528 -0.07465535164 -0.4101068927 0.41156298 0.813896953
0.008605547269 0.01713147163 -0.07909716543 -0.3736164135 0.08858353922 0.9233437779
0.006423256397 -0.001951631427 -0.07320565033 -0.363852222 0.4973705504 0.7875494246
0.0005532627565 0.02685391331 -0.08113881175 -0.07781513355 0.02617916233 0.9966240296
-0.00455435125 0.03150848134 -0.08063831329 0.1147749664 -0.02913711654 0.9929641159
-0.009099894524 0.03102806282 -0.07907894135 -0.222791466 0.02101425835 -0.974639607
-0.004762758315 0.02718520594 -0.08053875542 0.09045201706 -0.01172450617 0.9958317973
0.0009219137952 0.01175991416 -0.08014535522 -0.136904565 0.1843107595 0.9732865375
-0.008689004898 0.01778313446 -0.07914241028 0.2080396686 0.09907764735 0.9730894697
