# .PCD v0.7 - Point Cloud Data file format
VERSION 0.7
FIELDS x y z normal_x normal_y normal_z
SIZE 4 4 4 4 4 4
TYPE F F F F F F
COUNT 1 1 1 1 1 1
WIDTH 526
HEIGHT 1
VIEWPOINT 0 0 0 1 0 0 0
POINTS 526
DATA ascii
0.02030447483 0.002871087213 -0.001520272752 0.985698383 0.1474181901 0.08164909694
0.003820188189 0.02018927269 -0.009026715946 -0.1942610503 -0.9808293659 0.01537528116
0.02051441002 -0.001160478354 -0.001628400564 0.9989494396 -0.04522251585 -0.007412238198
0.01920229594 0.007305468877 -0.001179411838 0.9217413332 0.3856262856 0.04105219175
0.0002884841859 0.003064232826 -0.07723652649 0.172482412 -0.4151021949 -0.8932748655
-0.01645416573 0.05875067684 -0.06500151008 0.9554265612 0.1772265974 0.2361161139
0.01712330208 0.0113961483 -0.01716477184 0.8189728781 0.573579558 -0.0170269089
-0.01157163334 0.0169731369 -0.001784647226 0.4368914514 -0.8991577392 -0.02532231567
0.02047992452 0.0151029137 -0.0614620622 0.9884852844 -0.03516988694 -0.1471731007
0.01487198448 0.05547208405 -0.04641724396 0.7813502012 0.1899332223 0.594489053
0.01839004898 0.009236308098 -0.001475618213 0.9120480253 0.4095201299 0.02148633854
0.008072229004 0.01887210846 -0.001292131767 0.3662029969 0.9289561734 0.05418295828
0.01055747557 0.01766527653 -0.001794541925 0.4986439565 0.8651803266 0.05307736912
0.007812039512 0.01899372319 -0.01720078605 -0.3658883816 -0.9306584866 0.0006881435947
0.009443500042 0.04292599869 -0.07888447952 -0.4691807878 -0.0114148294 0.8830283631
0.01551058173 0.01349662971 -0.005781373382 0.7600552774 0.6496397472 0.01685746536
0.0007268313527 0.02055113983 -0.01705550957 -0.05033723999 -0.9986356525 0.01389229722
0.0186189234 0.05500918706 -0.06927662913 0.8961050667 0.1216971678 -0.4268319445
0.01619431273 0.04289535904 -0.07319325638 0.778889658 -0.0003120979012 -0.627160907
0.01725519991 0.01116547132 -0.001900415137 0.807735324 0.5887136193 0.03130368724
0.0193377224 0.006973391247 -0.0049007267 0.9257566385 0.3780996446 -0.003912155888
0.01697571468 0.02780108738 -0.04899680328 0.8852760158 -0.00108736577 0.4650647197
0.01551526546 0.01348857522 -0.002212283045 0.7483663467 0.6595390986 0.07039878197
0.01911047554 -0.007626609087 -0.03324406052 0.9469671472 -0.321177692 -0.009905164526
0.004275284338 0.02010613365 -0.0134034277 -0.2520669959 -0.9675394703 -0.01815497274
-0.01701613998 0.05103282801 -0.06116315248 0.9951070153 -0.01226104368 0.0980392515
-0.003461992264 0.02025459766 -0.004821148276 -0.1766372545 0.9842751941 0.001273793374
0.01313380098 0.0187309103 -0.04427493477 0.7735113191 0.3759659718 0.5102252711
0.01719279671 0.01533911657 -0.04761828613 0.8794001553 0.2768730521 0.3872940483
0.01291403977 0.0159555637 -0.002140515407 0.641043907 0.7659357235 0.04904260175
0.01296222623 0.06060000229 -0.04842207718 -0.6329626299 -0.4686128771 -0.6162469315
0.02052663962 0.01874676863 -0.06142360433 0.9952292885 0.005609057893 -0.09740226793
0.003805099189 0.02019215059 -0.001350214128 0.1832622301 0.9780931425 0.09873580702
0.01900517731 0.04699419632 -0.05281599121 0.9290149183 0.002534826734 0.3700335881
0.0002685880065 0.05862630386 -0.04356991272 0.1128298723 -0.1400437073 0.9836956745
-0.01596720695 0.05998201752 -0.06894398785 0.8988744794 0.2474061725 0.3616833645
-0.01090289116 0.0174290781 -0.005079400539 0.3853623128 -0.92251025 -0.02169623213
0.001401120901 -0.001405998468 -0.07472389221 -0.2056378002 0.4792353894 0.8532564308
0.01780926228 0.01780758286 -0.07075306702 0.8505765573 -0.05979907202 -0.5224400359
0.01837240314 0.009276637554 -0.005068736792 0.9086665006 0.4174492893 0.007828250161
0.01432854414 0.03791702652 -0.07538863373 -0.6816436108 -0.01229248367 0.7315810842
0.0172426157 0.01119131637 -0.005480573893 0.8155439404 0.5782979261 0.0214380506
0.02023939323 0.03501141793 -0.05705726406 0.9894573082 -0.0001802970748 0.144824731
0.01292707427 0.01594946464 -0.005712823073 -0.6408410838 -0.7672034739 -0.02686140233
-0.007348443031 0.04377656555 -0.07980982971 -0.23221223 0.002093706611 -0.9726628895
0.01058492804 0.01764795303 -0.005375069141 -0.5314735658 -0.8467144838 -0.02470691971
0.01947191779 0.006487450441 -0.01355552276 0.9409430841 0.3384318613 0.009486190376
0.007620132787 0.01905129623 -0.004937286275 0.360882359 0.9326106836 -0.001111698157
0.0003047346473 0.02054499944 -0.00180584087 0.004722429782 0.9967622257 0.08026683071
0.012296521 0.01647147427 -0.01317588539 -0.6170940188 -0.7868880181 0.001489629156
-0.003654917836 0.02022398758 -0.001086258151 -0.09843316577 0.9947873691 0.02662709486
0.0094231294 0.03085281245 -0.07890375264 -0.4609432369 0.00500417839 0.8874155118
0.02038971329 0.002687245846 -0.0251719842 0.9918936681 0.1241342044 0.02715972126
0.02052716473 0.02266598048 -0.06160210419 0.9960796943 0.01236939664 -0.0875913276
-0.006430916071 0.01952041912 -0.004744271874 -0.2946771637 0.9549876723 0.03411619688
0.01998700651 -0.004626514435 -0.00137489374 0.9614129756 -0.2547513837 0.1038596308
0.02045495911 -0.002040426302 -0.01324348698 0.9983034442 -0.0575512593 -0.008836618803
-0.0037253111 0.05468776655 -0.04399295568 -0.2033136514 -0.1691552579 0.9643910296
0.02029450067 0.002974422753 -0.005163242936 0.9875599324 0.1547354048 0.02797023997
0.02001812782 0.05067230911 -0.06516543579 0.963873682 0.01674410544 -0.2658329551
0.01239567947 0.01640073824 -0.009194362879 -0.6146577231 -0.7887423273 0.009023553457
0.02038123817 0.002756978822 -0.02134605904 0.9812644241 0.1924131849 0.009863885822
0.01697295888 0.04736956278 -0.04900085704 0.8377458573 -0.01351780208 0.5458929818
-0.01408599567 0.04279422379 -0.05091828537 0.8217048409 -0.02973968766 -0.5691368073
0.003894823611 0.02017614222 -0.004982757032 0.1883147603 0.9821019669 0.003643844981
0.0205295035 -0.001000675639 -0.005319222212 0.9991588949 -0.03822544057 0.01484312792
0.01820472908 0.009624816895 -0.03706079674 0.9019993348 0.4315842621 0.01149890289
0.0205021286 -0.001485224789 -0.02547396927 0.9918592998 -0.1272635333 0.00437292932
0.01919997749 0.007337643337 -0.009261010838 0.913613184 0.4064805553 0.009192834659
0.017229877 0.01121650147 -0.00901418066 0.815026624 0.5791800921 -0.01679354484
0.01305877018 0.01037865925 -0.07504795074 -0.6430049278 0.2185697351 0.7340108539
0.01613067141 0.03913493763 -0.0732860045 0.7785895824 -0.01097995234 -0.6274374095
0.01595179987 0.01892621841 -0.07344185944 0.7757166465 -0.04284489646 -0.6296252848
0.01835498619 0.009316444397 -0.008615284443 0.9054169963 0.4236416273 -0.02734656227
0.02001260757 -0.004640285671 -0.008577319741 0.972090212 -0.2344134153 -0.009537839867
0.01862392426 -0.0009284753799 -0.05998654938 0.9014769719 -0.3200590836 -0.2913785375
0.01400213146 0.01311499405 -0.07486118317 -0.6817748941 0.1411339762 0.7178190542
0.01501277049 0.01401199468 -0.009311904112 0.748889374 0.6626902423 -0.002519591894
0.01627421951 0.02287412415 -0.07312613907 0.77669653 -0.002917081008 -0.629868233
-0.004439978043 0.06060000229 -0.07824645487 -0.218277581 0.3670542879 -0.9042267677
0.0118522201 0.050799409 -0.07735390264 -0.5982051067 -0.009561678788 0.8012859818
0.01061202621 0.01763085175 -0.008909428596 -0.5233678221 -0.852044396 0.01031843301
0.01244781399 0.01636718512 -0.02119481468 -0.6424376497 -0.766330602 -0.003357785441
0.01501198181 0.0140174125 -0.01279115709 0.7315886581 0.6816233111 -0.01294979365
0.007899842739 0.01895556068 -0.009073365756 -0.3611319086 -0.9323984749 0.01472509939
0.004168224607 0.05515885653 -0.08071031843 -0.1714866708 -0.1628711215 0.9716302381
-0.0001247715235 0.0205502079 -0.005422837448 0.008606387723 -0.9994715645 -0.0313452047
0.0199367466 -0.004890400052 -0.004836024702 0.9674114348 -0.2531201624 0.00673046564
0.005880046844 -0.008408177376 -0.06797586823 -0.4581907809 0.6219772249 0.6349846769
0.02054811764 -0.0008036046326 -0.009870797634 0.9988509081 -0.04689506703 0.009885141377
0.01700420666 0.03133714962 -0.04903689957 0.88744087 0.004272616082 0.4609017759
0.02051906745 0.007680203676 -0.05718758265 0.9984111382 -0.04408045315 -0.03510146522
0.02029145922 0.003093668614 -0.009062954903 0.9875392904 0.1562487499 -0.01877439987
0.01882898402 0.05114874983 -0.06884894276 0.9271523599 -0.003862089263 -0.3746646311
0.01481409931 0.007917599678 -0.07244517008 0.7339563985 -0.2407698942 -0.6350888624
0.007268015862 0.01871487761 -0.07976750565 -0.3504782357 0.06513264295 0.9343033475
-0.006638772011 0.01945231247 -0.001885241032 -0.2877927166 0.9564411707 0.04894526842
0.01976983833 -0.005763979117 -0.01319409752 0.9592612304 -0.2818169963 0.0199266765
0.004577021599 0.0467138888 -0.08062594986 -0.1897842944 -0.007167502241 0.9817996478
-0.004279074574 0.05935843887 -0.08043682251 -0.218277581 0.3670542879 -0.9042267677
0.01729270401 0.01112334404 -0.01299876041 0.8244810212 0.5657743201 -0.01142210068
0.01833353615 0.009365466754 -0.01298289013 0.8970392105 0.4419434676 0.002574131778
0.01501101028 0.01402408695 -0.0170775262 0.7311227233 0.6821551497 -0.01113172176
0.008153129986 0.01884270859 -0.01312570231 -0.3592735056 -0.9332321152 -0.0006061407259
0.01064540037 0.0176097908 -0.01326236375 -0.5269303358 -0.8499084527 0.0002079157335
0.01840987492 0.00377229929 -0.06455506516 0.8923406692 -0.2624704587 -0.3672021085
0.000244412452 0.02055431128 -0.009519372463 -0.03082008992 -0.9995249149 0.0002578921638
0.01716965421 0.01133000469 -0.02520621045 0.8159831532 0.5778837509 0.01489510798
0.01743813896 -0.01089240742 -0.005089407444 0.924528439 -0.3808765294 0.013425156
-0.006119343281 0.04786238861 -0.08026824951 -0.1989529116 -0.00105130623 -0.9800084865
0.0001658165529 0.02700412979 -0.08116078949 0.01549094291 0.01191008785 0.999809072
0.017180233 -0.01133223915 -0.002008928776 0.9221444079 -0.3862759886 0.02098932295
0.02033126106 0.002838369131 -0.01280324593 0.9823632357 0.1867767674 -0.00876996449
-0.01665725708 0.04325997053 -0.05706375722 0.9560102544 -0.004576137854 -0.2932975492
-0.003271700501 0.02028479099 -0.008505047798 0.1322821475 -0.9911030403 0.01470363788
0.01254612141 0.01629484081 -0.017322826 -0.631550057 -0.7752303613 0.01274411537
0.02019732253 0.0510820961 -0.0568449529 0.9829023716 0.004483564364 0.1840728809
0.02042705688 0.003195768261 -0.04519259415 0.9877406085 0.1508086715 0.04031420292
-0.003950773319 0.05077952576 -0.04403572528 -0.2814508504 0.04630306932 0.9584578471
0.0003767056763 0.02055464077 -0.01308727098 -0.06419018291 -0.9977029381 0.02164411615
0.00430522577 0.06060000229 -0.041929245 -0.1818941655 0.2951975431 -0.9379621118
-0.006157063961 0.01961015034 -0.008511069536 0.2701154457 -0.9626813071 0.01680318253
0.01945778847 0.006561828409 -0.01730394772 0.9403305886 0.3400690782 0.01146325815
-0.007525483608 0.06060000229 -0.04155902863 0.2980271911 0.3673721848 -0.8810320489
0.018312397 0.009413777828 -0.01728716564 0.8904631035 0.4547364496 0.0170359238
0.01067829323 0.01758903313 -0.01755251122 -0.4994157017 -0.8663536014 -0.003923564013
-0.0044289337 0.02002121671 -0.013090518 0.2346274572 -0.9720171577 0.01151526725
0.01777720261 -0.01031416845 -0.009139263153 0.9252181755 -0.3787794849 0.02230313042
0.02043389511 0.00225947268 -0.01705379562 0.9935489171 0.1125634082 -0.01378507989
0.007658818642 0.0467977829 -0.0796800766 -0.3569901857 0.004580860801 0.9340969024
0.004197741926 0.02011980247 -0.01732901955 -0.269540668 -0.9629157532 0.01187773138
-0.01568412368 0.06060000229 -0.07258511861 0.8184415555 0.2615268343 0.5116220628
-0.01015628433 0.01791399288 -0.00928266573 -0.3623169243 0.9318809437 0.01800980609
0.02049078083 -0.001625216126 -0.01727170181 0.9917237272 -0.1281389784 -0.008028149424
0.01500141144 0.05875944138 -0.04656263351 0.6726542909 0.2854855903 0.6826669633
0.01935764721 0.006837568215 -0.02125895854 0.9397340371 0.3418107163 -0.008085399986
0.001149920409 0.02053777008 -0.02900657082 -0.09176887336 -0.9957736814 0.00363997092
0.0182947216 0.009450823784 -0.0206806612 0.8872227036 0.4609793303 -0.01827378552
0.01718653011 0.01130219674 -0.02103796101 0.8187984149 0.5739416621 0.01265401968
0.02054408155 0.04293831199 -0.06129331316 0.9963376236 0.01613752883 -0.08396975681
0.01199577093 0.03098157616 -0.07726275024 -0.5964228614 0.01132042974 0.802590567
0.0150100522 0.01403066699 -0.02130333614 0.7306366599 0.6827603693 0.002889510799
0.01070423555 0.01757266235 -0.0209361124 -0.4880015941 -0.8726899906 0.01632863873
0.01500910939 0.01403714339 -0.02546254052 0.7299570977 0.6832614961 0.01778660633
0.008253420949 0.01881833792 -0.02140664577 -0.3645932203 -0.9309974071 -0.01776546097
0.01845755259 0.01065854899 -0.04569148509 0.90795936 0.3540244522 0.2242241912
-0.01525009336 0.05087092667 -0.05305864792 0.8653472688 -0.005318606876 -0.5011445069
0.0181095295 -0.009746791363 -0.01312105179 0.9291462657 -0.3692612908 0.01825694444
0.01353387833 -0.008331701279 -0.06155293274 0.7266496357 -0.5435776496 -0.4201233698
0.0117403698 -0.008191340446 -0.06400014496 0.5644814705 -0.6374243735 -0.5244528936
0.004126079655 0.02013615875 -0.02120416985 -0.2776676962 -0.960643971 -0.007988207609
-0.0167010231 0.04679619271 -0.05717483412 0.977814848 0.01535914321 -0.2089072036
0.01221877956 0.03495308113 -0.07710946884 -0.5930839443 0.009372868042 0.8050860726
-0.004148172915 0.02009361553 -0.01760116291 0.221411762 -0.9748712792 -0.02455240605
-0.009707688808 0.01814343357 -0.0131560173 -0.3378143414 0.9412127539 0.0001506769032
0.01984784412 -0.005467540741 -0.01771973801 0.9774728944 -0.2093504109 0.0268168997
0.02052376251 -0.001220680681 -0.02123148041 0.9929155229 -0.1187881509 0.00285301006
0.01827174632 0.00949524498 -0.02486259715 0.899161249 0.4375596279 -0.007114801119
-0.01636056314 0.05104041726 -0.06531113761 0.9521412468 0.0002319946491 0.3056582934
0.01246685839 0.01635648425 -0.02535799662 -0.6328409081 -0.7741310387 0.01528135966
0.01073621591 0.01755248006 -0.02510725403 -0.5100633897 -0.8596480751 0.02899181512
-0.009088272095 0.04719216537 -0.07908475494 -0.2949242268 0.002115830651 -0.9555183011
0.0004765762806 0.02055543213 -0.02136590424 -0.06959418251 -0.9973255111 -0.02232654844
0.01231002259 0.06060000229 -0.04543908215 -0.5336415262 -0.4287767038 -0.7289562811
0.003938865344 0.05470143127 -0.044019502 -0.09941677351 0.1203485506 -0.9877411258
0.008072649479 0.06060000229 -0.04270117378 -0.4827358941 0.4650499548 -0.7420879975
0.0183999052 -0.009230739117 -0.01700144386 0.9544520898 -0.2971226573 0.02719071049
0.004483870745 0.02006224966 -0.02914822721 -0.2229130435 -0.9747827909 0.01040603508
0.02054475136 -0.000387900728 -0.04125576401 0.9998607154 -0.004954489063 -0.01593746644
-0.01846693484 0.06060000229 -0.06542295456 0.9081946552 0.3006824744 0.2911572045
0.0194793317 0.006484324115 -0.02520566968 0.9387349923 0.3444473317 -0.01151737678
0.01943572508 0.006638230528 -0.03343213436 0.9529372189 0.3031673216 0.0004816434761
0.008134303729 0.01887032255 -0.02533622169 -0.369693648 -0.9290257554 -0.01541922484
0.004559187031 0.02004636879 -0.02538016663 -0.2895371207 -0.9570296533 -0.01620180561
-0.003932720959 0.02014565516 -0.02114944744 0.2058095468 -0.9782427406 -0.02614519051
0.01703669167 0.03482918167 -0.04908272552 0.8510173183 0.00941333734 0.5250532477
0.00373267417 0.02253727303 -0.08080514984 -0.1922741735 0.00221201836 0.9813387535
0.01425688457 0.04184115219 -0.07546138763 0.7074396155 0.02216029684 -0.706426296
-0.009283210278 0.01835435963 -0.01695563412 -0.3212381838 0.9469114113 0.01283777134
0.0199616003 -0.005013039351 -0.02479541683 0.9846193394 -0.174624871 -0.005559751093
0.01647730748 0.0597513504 -0.04940733147 0.7821874124 0.3330777741 0.5265377937
0.008032099819 0.05986103134 -0.04501617966 -0.3315873763 0.3770149239 -0.8648176449
-0.0001270498186 0.06060000229 -0.04188402271 -0.04753505629 0.3174148513 -0.947094626
0.01990509129 -0.005238819599 -0.02128047085 0.9682496689 -0.2494720257 0.01600896741
-0.004358504057 0.06060000229 -0.04146398258 -0.1505941807 -0.3987529556 0.9046090167
0.01423299789 0.02291478634 -0.07548470306 0.7218940793 -0.01501780109 -0.6918405914
0.006979198694 0.01497266054 -0.07951410294 -0.3303267812 0.1417699307 0.9331588849
0.0008194421288 0.02054915619 -0.0252179985 -0.07558573701 -0.9969602441 -0.01889624557
0.01536802428 0.01116173036 -0.07284888676 0.7493263785 -0.1774421216 -0.637984539
0.02050687065 0.003802576351 -0.04917750015 0.9968309163 0.0651472766 0.04565037332
0.004041368961 0.05900190964 -0.04396352997 0.04922124646 -0.1395678214 0.9889884186
0.01861721134 -0.008801623821 -0.02075384426 0.961747724 -0.2728802901 0.02403461504
0.01932888079 0.006959277809 -0.02932400441 0.9377873393 0.3472017947 0.002412474171
0.01937016344 0.03129071999 -0.05369533253 0.9505073573 -0.01070295156 0.3105176494
0.01824908257 0.009539063454 -0.02898779774 0.8974914583 0.4407985295 -0.01434359076
0.01715241718 0.01135682654 -0.02931757498 0.8093196028 0.5873682946 0.0005167121785
0.02037144508 0.002866782856 -0.03714822311 0.9897820917 0.1424367152 0.006572140426
0.01908835754 0.04279300385 -0.05301059952 0.9288068532 0.01373813952 0.3703094556
0.01223113017 0.04680567343 -0.07708040619 -0.5992607883 -0.01368061531 0.8004369734
0.01500810782 0.01404346021 -0.02956558832 0.7298971214 0.6833376595 0.01731575388
0.01248564553 0.01634592819 -0.0294649744 -0.6338710247 -0.7733587602 0.01112439375
0.01076776457 0.01753257084 -0.02922200871 -0.5105561115 -0.8596854054 -0.01653664683
0.008023731172 0.01892599368 -0.02921643186 -0.3737685459 -0.927345292 0.018104791
-0.003436660862 0.02024671822 -0.02513758545 -0.188385457 0.9820769795 0.005977126026
0.01779259491 0.05452011108 -0.07097904968 0.871386771 0.05962334009 -0.486960114
-0.008867527008 0.01855996609 -0.02069719982 -0.3055272812 0.9521274595 0.01031413537
0.01972457981 -0.00412896347 -0.04929792595 0.9603420357 -0.2421532241 -0.1382208037
-0.003779721856 0.03134003448 -0.0808205986 0.1355411528 0.005430573544 0.9907568343
0.01977382723 0.05918176683 -0.06499765428 0.9408484015 0.255016257 -0.2230941372
0.007540881348 0.03531119537 -0.07973421173 -0.3816342155 0.02808113457 0.9238867763
0.01474575138 0.05214538956 -0.04627522278 0.7798525457 -0.0004330572675 0.6259631135
0.01723220062 0.05485472488 -0.04939775085 0.8269270876 0.145516418 0.5431542727
0.02003198942 0.00727224048 -0.06128398959 0.9664964706 -0.1285813659 -0.2221517605
0.01910755196 0.05884463501 -0.05309308624 0.8640244329 0.2223273997 0.4516993544
-0.01702726555 0.05523076401 -0.06117133636 0.9743051891 0.1949352326 0.1128257669
0.01882267816 0.0270932372 -0.0688973672 0.9277893079 -0.00240751873 -0.3730967757
0.01696062263 0.06060000229 -0.05335407003 0.8464918691 0.3101625712 0.4327247335
0.02040286217 0.002625481391 -0.02895323143 0.9914217408 0.1294030144 -0.01837911291
-0.009099894524 0.03102806282 -0.07907894135 -0.2924636807 -0.001369699798 -0.9562756503
0.0145557003 0.04706808853 -0.04606349373 0.7763961544 -0.002662029938 0.6302395775
0.01336812782 0.00145237422 -0.07075701141 -0.6416756903 0.3981959921 0.6555091611
-0.01249238745 0.04293241331 -0.04905503421 0.7512987819 0.02562069202 -0.6594647227
0.02007929272 0.04298998133 -0.06495391252 0.9635991141 0.001743506973 -0.2673456705
0.01719547749 0.05161774635 -0.04933808708 0.8391156125 0.0002682540728 0.5439530466
0.0189080246 0.05494247437 -0.05263422546 0.9077878596 0.09697901834 0.4080640537
0.01829187965 0.03335401154 -0.05119367218 0.9231119845 0.006851999745 0.3844701734
0.0001650642827 0.05496115112 -0.04357098579 0.02291744803 -0.1316790216 0.9910274597
-0.003905837417 0.05903844357 -0.04399869776 0.05258092207 0.3945501471 -0.9173687525
0.01879595375 -0.00837583828 -0.02527987417 0.9647605489 -0.2630832562 0.004927838416
0.0205278368 -0.001093339789 -0.02931563234 0.9934814028 -0.1139774669 0.00195942857
0.01546801567 0.01824531555 -0.04658575439 0.806413649 0.2681312526 0.5270698797
0.01902898216 0.03908141518 -0.05288312054 0.9290289528 -0.0006733252172 0.3700064209
0.0182267615 0.009582219442 -0.03305058352 0.8821439856 0.4707022117 0.01616838316
-0.01661290359 0.05068026188 -0.05685513796 0.9651055501 -0.008482537637 -0.2617237546
0.009672250748 -0.002408764124 -0.07117942047 0.5035498074 -0.54424799 -0.6709930825
0.01713544083 0.01138324388 -0.03336700853 0.8050879061 0.5930971286 0.008322229143
0.01513587039 0.0139048684 -0.03314165769 0.730137485 0.6832885927 0.003994006549
-0.0124501289 0.05476316313 -0.04903458855 0.7257780048 0.09880243972 -0.6807968607
0.0125041496 0.01633553123 -0.03351011944 -0.6441535472 -0.7645808448 -0.02196222467
0.01079901791 0.01751313782 -0.03327489026 -0.4864943792 -0.8730727352 -0.03266830435
0.02020165284 0.05933951823 -0.06117103895 0.9655849526 0.2451589773 -0.08684915174
0.01197282827 0.02283763266 -0.07729200554 -0.5953089677 0.007017892422 0.8034662297
0.008436431544 0.0187385104 -0.03322985431 -0.4101118203 -0.9120319017 -0.002470856885
-0.008457837105 0.01876260662 -0.0243848238 -0.2956970799 0.9552580479 0.006730445816
0.0197669735 -0.005497156898 -0.04089484596 0.9567969187 -0.2887535615 -0.0340739931
0.01964713166 0.05952074155 -0.05706041093 0.9553363157 0.2453021099 0.1648010888
0.002635805368 0.05201966095 -0.04370792389 0.01110055962 -0.01523420351 -0.9998223325
0.0001469163597 0.05165118408 -0.04356768036 0.02929581983 0.007764898857 -0.9995406251
0.017939991 -0.008017250061 -0.05100087357 0.8460198249 -0.5005060472 -0.1836958154
-0.00804758332 0.05948333324 -0.04512803511 0.4869317323 0.3558849231 -0.7976486756
0.02003120232 -0.004734955788 -0.02912462171 0.9866355306 -0.1628801649 0.004514598561
-0.006044167995 0.04001922607 -0.08029286957 0.2189859368 -0.002892008217 0.9757237292
0.02033889694 0.003095505619 -0.03305030327 0.9848935935 0.1718499834 -0.02126482228
0.02054523315 0.01126378307 -0.0575333847 0.9997739312 0.007145299985 -0.02002576074
-0.01183507538 0.06007566071 -0.04585162506 -0.6494892627 -0.2915134615 0.702270318
0.003952784568 0.02015515161 -0.03322578645 -0.2221770529 -0.974735666 0.02297256358
0.01828683472 0.02637063599 -0.0511742363 0.9286715601 0.003500244438 0.3708866158
-0.003467976928 0.02025312138 -0.02895904541 -0.08858879636 0.995743054 0.02545183029
0.007388780594 0.0314266421 -0.07979805247 -0.3417484431 0.02089443706 0.9395591648
-0.00375750196 0.03947534943 -0.08082184601 0.1349714195 0.01761463219 0.9906929094
0.0143174715 0.04185995102 -0.04581409454 0.7718261995 -0.00297776799 0.6358265885
0.02013851929 0.01114119568 -0.05345802383 0.9745660989 0.1538867699 0.1629103461
0.01233702459 0.0268199728 -0.07702412949 -0.5982727301 -0.01066808 0.8012215252
0.0191541851 0.05097716217 -0.05322961578 0.9294542326 -0.01535681519 0.3686176851
0.007525776577 0.0546153244 -0.0797234726 -0.3363248549 -0.1107323069 0.9352133169
0.01232961614 0.05913402585 -0.07679870769 0.5756760373 0.2103428135 -0.7901601109
0.02054475441 -0.0007182540014 -0.03309036102 0.9984935617 -0.04316026439 -0.03387917836
0.01489248502 0.01417973721 -0.03700496721 0.7194057146 0.6923752764 0.05542467323
0.0001140502878 0.02058896255 -0.03233518696 0.03714498715 0.9991887985 -0.0155561878
0.01572902145 0.003131546736 -0.06893138123 0.7614782804 -0.3165002357 -0.5656663586
0.01415417767 0.0383203392 -0.04564596939 0.770943688 0.004238558441 0.636889209
0.01728451983 0.0426581955 -0.04945666885 0.8627107138 0.0125653838 0.5055416258
0.02023094241 0.05477362124 -0.05709227816 0.9714793699 0.09404764975 0.2176760747
-0.0008172592968 0.04836219978 -0.04355569458 0.165317745 -0.03101884832 -0.9857524406
-0.008032840014 0.05483041992 -0.04560585518 -0.5296675077 -0.1221675575 0.8393613162
0.0189718914 -0.007956733942 -0.02973488712 0.9718279254 -0.2355664967 0.007675222235
-0.007276780605 0.03579896545 -0.07985029602 0.2167712819 0.0009600434828 0.9762219469
0.01928291297 0.007099674463 -0.0374261446 0.9343360393 0.3552306713 0.02876344554
0.01711868238 0.01140932083 -0.03736427402 0.8082185384 0.5871498176 0.04514295022
0.0125224154 0.01632526851 -0.03750318241 -0.6599637895 -0.7403929362 -0.1275386078
0.01083187485 0.01749588966 -0.03727723503 -0.5167324023 -0.8451804818 -0.1365927434
0.008139632106 0.01887833977 -0.03730345488 -0.4158754534 -0.9091141583 -0.02364433108
0.01427013493 0.05573706055 -0.07543141937 -0.7016682341 -0.1221572125 0.7019539192
-0.00202835083 0.02049795723 -0.03217206192 0.02546121626 0.9996648528 -0.004680647895
0.01707008553 0.03827565193 -0.04913152122 0.8353927507 0.02484430395 0.5490917161
-0.004174134463 0.04681826925 -0.04408771753 0.3276072589 0.0005309037629 -0.9448138452
0.02009468079 -0.004466691494 -0.03338682938 0.9893849485 -0.1450147172 0.009389111756
0.004239073277 0.02009196758 -0.03673952103 0.2439550365 0.9697840442 0.002201784657
-0.01507474184 0.05083359337 -0.06857657242 0.9467499781 -0.0454499045 0.3187456433
0.0202556403 0.04680655616 -0.0572134285 0.9844701271 0.0005312668363 0.1755513786
0.02054313935 0.05486098438 -0.06095909415 0.987359086 0.1338780647 -0.08484514739
-0.008091992787 0.05075927462 -0.04562854004 -0.4489557874 0.01603515629 0.8934100821
0.007297160705 0.03941731071 -0.07982745488 -0.3194896178 0.002440598113 0.9475866333
-0.01229769341 0.05895336151 -0.04878118229 0.7004576877 0.2188083103 -0.6793246287
0.02052844963 -0.000974279356 -0.03717558365 0.9946515098 -0.1026009346 -0.01189210915
0.00901701498 0.001986400565 -0.07433230591 0.4506706811 -0.4122955012 -0.791775446
0.0182200915 0.00970560805 -0.04104529572 0.8961172052 0.4409402569 0.05045437942
0.01718202305 0.01151726198 -0.04137282117 0.8255350864 0.5384711886 0.1689396349
0.01504893414 0.01410437727 -0.04078487968 0.735928554 0.6437687522 0.2096925301
0.02053977737 0.003579389286 -0.05306786346 0.9984247756 -0.03979134894 -0.03955522853
0.01276110331 0.01622760359 -0.04045353063 0.6954991798 0.6871275576 0.2100871499
0.0113672994 0.0173529822 -0.04086216482 0.600051887 0.7732205015 0.2051043367
0.009341585477 0.01849800936 -0.04048843002 0.5124771822 0.8485248528 0.1318055835
-0.008901137352 0.03937191772 -0.07917601776 -0.2950444361 0.006962618023 -0.9554581638
0.01902852583 0.03570386887 -0.0528775816 0.9280757102 -0.00118539508 0.3723896762
0.01389797783 0.01670709419 -0.04374029922 0.7489419364 0.5393910659 0.3848938215
0.0201703949 0.04272717476 -0.05673120499 0.9708898204 0.01716828092 0.2389104575
-0.005131937027 0.04389065933 -0.04430485535 0.3613088698 -0.001038182885 -0.9324456138
-0.008213180436 0.04690064197 -0.04568657981 -0.4885670211 -0.01543264655 0.8723898781
-0.01474370956 0.04045347786 -0.05199583244 0.8469809314 0.01938114564 -0.5312698683
-0.01019039822 0.05465872192 -0.04689109421 -0.5380738136 -0.08976718803 0.8381040646
-0.01499097843 0.05485393829 -0.06871699677 0.9050289169 0.1468752737 0.3991870658
0.01875477355 0.019127982 -0.06894870649 0.9073161488 -0.03980605959 -0.4185604898
-0.01520415726 0.06001053391 -0.04956743546 0.8126063414 0.2732666388 -0.514777892
0.02013397408 -0.004267333269 -0.03673890495 0.9908692076 -0.1345762153 -0.008213146767
0.0203135498 0.003333283043 -0.0411307869 0.9791605697 0.1997869775 0.03646563244
-0.01246016216 0.04030399068 -0.04899335225 0.7617921646 0.06757769487 -0.6442871667
0.007404728413 0.0584893777 -0.07967020961 -0.3972513338 -0.2579980126 0.8806976799
0.01941937774 0.006815752574 -0.0414534656 0.9534782373 0.2913192457 0.07753933189
0.004225320768 0.01544944077 -0.080350177 -0.213458044 0.1204180869 0.9695025259
0.0205358963 0.0511636219 -0.06137049818 0.9964426505 0.006896541021 -0.08399096413
-0.01928405253 0.06060000229 -0.05729484304 0.9052600988 0.38863842 -0.1716517754
-0.008291668812 0.0431543719 -0.04573899206 0.5529452803 0.03929721601 -0.8322903615
-0.01024538898 0.05130254364 -0.0469211731 0.6067441466 -0.03017545544 -0.79432423
-0.01229630566 0.05069395759 -0.04886210979 0.7239057033 -0.01816068093 -0.6896598599
0.01972558479 -0.005126171446 -0.04531050186 0.9483143185 -0.3159449648 -0.02964342246
0.01924726772 -0.007300752878 -0.03670786095 0.9391051573 -0.3420115231 -0.03331098304
0.01894818878 -0.007106850624 -0.04705123138 0.9323235226 -0.3508744514 -0.08752124646
0.01607035923 0.01460292421 -0.04486883545 0.8010496799 0.4770116489 0.3616342037
0.0167510306 0.02312465858 -0.04866937637 0.8391801205 0.03300244865 0.5428513274
0.01828819847 0.02988482857 -0.05118159866 0.9233001509 0.0006899907273 0.3840785796
0.02022807465 0.03902509613 -0.05702519836 0.9835002241 -0.01284988643 0.1804499641
0.02056097317 0.0468530879 -0.06093239737 0.9997145221 0.01340610748 -0.01977752498
0.01727240054 0.06060000229 -0.0652440834 0.9315911478 0.2611019825 -0.252910435
-0.01029638863 0.04791326904 -0.04695767593 -0.5600591922 -0.02537812917 0.8280637969
0.004259165287 0.01144977188 -0.07965362167 -0.2680523585 0.1957709933 0.9433035838
0.01956526756 0.0073382567 -0.0452945246 0.9485868904 0.3010221576 0.09781907815
0.01877694321 0.0428680492 -0.06896001434 0.9115896312 0.009147300691 -0.4109996
0.01758153915 0.01196263123 -0.04484145355 0.8660447551 0.4230994631 0.2663706561
0.0191837492 0.02676609087 -0.05318730164 0.929566305 0.00626191357 0.3686017812
0.01989245733 0.05482950974 -0.06567688073 0.954780202 0.1104181326 -0.2760481877
-0.01037813663 0.04275108337 -0.04701623154 0.6230321558 0.0302355917 -0.781611631
-0.0122081639 0.04676780701 -0.04874561734 0.7282006948 -0.01806294635 -0.6851258849
-0.007594161034 0.05141642761 -0.07970157623 -0.2281849853 -0.001498849922 -0.9736166422
-0.01554894257 0.05919398672 -0.05296842783 0.8351684786 0.2982436363 -0.4621085865
0.01727512074 0.01910423756 -0.04921374512 0.8459590381 0.08896316762 0.525774534
0.01828797531 0.02281029892 -0.05117196274 0.921875136 -0.004984914827 0.3874550094
0.02024206696 0.03092984428 -0.05708623581 0.9752065767 0.009715265443 0.2210831211
0.00950102965 0.02256919098 -0.07886583201 -0.4598826694 0.004731122093 0.8879670866
0.02055330195 0.03899230903 -0.06086004366 0.9997468847 -0.01164515374 -0.01924985428
0.007714263558 0.006807402015 -0.07713344193 -0.3962653028 0.3179466347 0.8613267367
0.01883774397 0.058930837 -0.06875753869 0.8987446164 0.2175535487 -0.3806948487
-0.01383089066 0.05861574554 -0.07057990265 0.8177758528 0.2706893577 0.5079073993
0.01268879681 0.006729550838 -0.07400669403 -0.6148029626 0.2953042774 0.7313088957
-0.01424456978 0.05433846283 -0.05114549255 0.8077492614 0.149677423 -0.5702085582
-0.01533997202 0.05489360428 -0.05320536041 0.8652752053 0.1635195821 -0.4738777958
0.01588661194 -0.01309145355 -0.03699643707 0.8672275112 -0.497833825 -0.008827598894
0.01886377811 0.03890995598 -0.0687518425 0.9062006464 0.001652182104 -0.4228447217
0.02051121712 -0.000661379683 -0.04522105255 0.9936848517 -0.1110632418 -0.01598035697
0.01931463514 0.01069613021 -0.04919554411 0.9352622702 0.2306353106 0.2684992355
0.01849788539 0.01450545724 -0.04983561325 0.8940849486 0.2608136105 0.3641268533
0.0159676584 0.01508153915 -0.0730294857 0.767425754 -0.09997353256 -0.6332953536
0.01812776947 0.01721151161 -0.05029036713 0.8915761947 0.1534552261 0.4260790802
0.01744455338 -0.005588916143 -0.05735634104 0.8559400965 -0.4285536342 -0.2893239254
0.01911520243 0.01911564636 -0.05296334171 0.926586695 0.02705484464 0.3751068275
0.01929399935 0.02258870506 -0.05346869914 0.9319844972 0.02661213267 0.3615199737
-0.0002035030037 0.03876467438 -0.08115270844 0.009445678485 0.006632678635 0.9999333911
0.02029280154 0.02705542024 -0.05739788246 0.9765582205 -0.01999471831 0.2143227783
0.0200060277 0.04692455626 -0.06521520138 0.9628379635 0.001423957556 -0.2700759677
0.006451581955 0.01270563889 -0.07932273865 -0.3114950345 0.200636215 0.9288250388
0.01671122047 0.06016927665 -0.06982142748 0.816853791 0.3392631829 -0.4665301457
-0.01850453186 0.06060000229 -0.05361399078 0.9111727547 0.3475832817 -0.2212466345
0.01672104963 -0.01194450823 -0.04105649821 0.8858270902 -0.4632742712 -0.02621670972
0.02014210844 0.007080705404 -0.04927051353 0.9795705908 0.1662442616 0.1131561008
0.02038853931 -0.0004219469726 -0.0494604702 0.990382972 -0.1259733653 -0.05720384606
-0.003369435549 0.05458511861 -0.08086032613 0.1152870478 -0.1162929251 0.9865013189
0.01434590912 0.05879548645 -0.07534395599 0.6904477474 0.2158353799 -0.690432471
0.01960320187 0.0150393184 -0.05325322851 0.9519479792 0.1048689764 0.2877456214
0.01067340088 0.000554839015 -0.07247312164 -0.5254686869 0.4221667164 0.7386866201
0.02026681169 0.02293537458 -0.05717624982 0.9876793961 -0.01052748411 0.1561364231
0.01593570412 0.05916549279 -0.07307365597 0.7566867791 0.2221256503 -0.6148864235
0.01786741066 0.05076388359 -0.07083772278 0.8694290863 0.01308511243 -0.4938844436
0.02055440807 0.03497449541 -0.06125115061 0.9994773508 -0.01421815697 -0.02903221205
-0.01402686596 0.04623298645 -0.05084443283 0.8274529758 -0.03918478905 -0.5601661584
-0.01529696867 0.04685169601 -0.05313705232 0.9102023149 -0.005451493704 -0.4141280322
-0.01684521503 0.05910291824 -0.05706954079 0.9252092112 0.3553238821 -0.1331647636
0.02024022802 0.01874216715 -0.05695239321 0.9800343606 0.04057287671 0.1946445315
0.01188336401 0.01906568718 -0.07727378235 -0.590137808 0.0567480028 0.8053055518
0.0205479126 0.03096405252 -0.06121991094 0.9993544111 0.001274892671 -0.03590453418
0.01999671006 0.03907263613 -0.06529711866 0.9655818411 -0.005425299053 -0.2600428316
-0.01531182528 0.04286270094 -0.05314179564 0.8904376062 -0.01914041107 -0.4547026656
-0.01671611404 0.0547910152 -0.0573631596 0.9735137827 0.1598946497 -0.1634154701
0.01316915226 -0.005293573459 -0.06547799937 0.6473437879 -0.5347464752 -0.5431318694
0.02045877991 0.007319181728 -0.05298189926 0.9970507964 0.04091483545 0.06492831078
0.02055110741 0.02689293861 -0.06120154858 0.9961089868 0.008125213758 -0.08775458561
0.02007253075 0.03499010213 -0.06497613059 0.9766837973 -0.02096447869 -0.2136568528
0.0188358078 0.04697728729 -0.06880235714 0.8896333753 -0.01880193746 -0.4562882254
0.01623861408 -0.01227767754 -0.04475772285 0.8911522596 -0.4525584535 -0.03222570995
0.02043197327 0.01482695255 -0.05739579849 0.9841015795 0.06056634871 0.1669604704
0.0126079251 -0.001271240557 -0.06959298452 0.6361102392 -0.4518851092 -0.6254307409
0.01446015787 -0.000296880722 -0.06835112381 0.7199726025 -0.4091337862 -0.5605791618
0.01606307364 0.05489375846 -0.07334784508 0.7726289462 0.09171351663 -0.6281983305
0.003961329261 0.03483312543 -0.0807658488 -0.1795743002 0.0163809571 0.983608019
-0.0170463922 0.05924294281 -0.06121436596 0.9498441967 0.2942998023 0.1057526755
0.01855586338 -0.007434144258 -0.04912139893 0.9183168953 -0.380227553 -0.1100958116
0.0200768055 -0.0004000173986 -0.05348542175 0.9766400157 -0.1656146921 -0.136916228
0.01992979452 0.03074737125 -0.06558572812 0.9626266082 0.01197300496 -0.2705672935
0.01947365411 0.01078369411 -0.06527275658 0.9532704678 -0.1171859544 -0.2784651996
0.01612780646 0.05085328538 -0.07326981626 0.7749064582 0.01070459031 -0.6319852789
0.01214245701 0.06060000229 -0.07392079671 0.6272510345 0.3122090806 -0.7134995653
-0.01921591854 0.06060000229 -0.06150712967 0.9422590823 0.3325672273 0.03933015593
0.007348884344 -0.001947120905 -0.07277302933 0.3930767378 -0.4992392839 -0.7721727887
0.01884897709 -0.004899666548 -0.05329744244 0.9081019361 -0.3645986356 -0.2059580262
0.02023292351 0.003575695634 -0.05701535606 0.9799823524 -0.1373374193 -0.1441284923
0.01997338595 0.02679997935 -0.0654177148 0.9625371561 0.009802257611 -0.2709725796
0.01782242489 0.04761506844 -0.07091489792 0.8766462839 -0.01178445014 -0.4809910806
-0.01705344486 0.04451926231 -0.06030641556 0.9914970097 0.004512406355 -0.1300512128
0.0002748508553 0.02295590019 -0.08117016347 -0.01892968979 0.01098318432 0.9997604896
-0.01621550179 0.04065019608 -0.05532469177 0.9195793164 0.01559345125 -0.3925948612
0.01790167618 0.04375988388 -0.07078407288 0.8770270554 -0.01379951617 -0.4802427693
0.02035111014 0.01131895955 -0.06144316864 0.9869391638 -0.08141970328 -0.1390033056
0.007434126377 0.04317362289 -0.07977089386 -0.3281706071 -0.008503638611 0.9445801929
0.02006231826 0.02318676949 -0.06508301762 0.9781942721 -0.01569991496 -0.2070977518
0.01874551095 0.03490517849 -0.06904982842 0.8829331396 0.002251961912 -0.4694933436
0.0162643808 0.0466081165 -0.07311238514 0.7778654644 0.01499145066 -0.6282520001
0.004354555845 0.006174036503 -0.07802222443 -0.2585051525 0.3420113979 0.9034396991
-0.01701343377 0.04692964172 -0.06126629512 0.9997312592 -0.01979778624 0.01206055466
0.01653142516 -0.009465417544 -0.05303515879 0.8362477201 -0.506067777 -0.2111519731
0.01922769642 -0.001370022129 -0.05704296621 0.9421620195 -0.2722926644 -0.1954160535
-0.006333353043 0.02327783012 -0.08019351959 0.186922117 0.02307003128 0.9821038111
0.01998330552 0.01909621184 -0.06534097617 0.9583522907 -0.0373413355 -0.2831369132
0.01881575553 0.03082472515 -0.06890555318 0.9110733189 0.02334596022 -0.4115827665
0.01783020878 0.03888187981 -0.0709147644 0.873018514 -0.004692527079 -0.4876644895
0.008844473468 0.06004487822 -0.0777663091 0.4294885974 0.3284551818 -0.8412233581
0.01532108688 -0.004349027157 -0.06356534195 0.7470544731 -0.4729730029 -0.4671254144
-0.01642604599 0.05487322464 -0.06504431686 0.953486689 0.1034531418 0.2831264405
0.01507519293 -0.008799962044 -0.05813348389 0.7687260537 -0.5458250591 -0.3333695536
0.01927871977 0.002830972535 -0.06116793714 0.9378369236 -0.2167448899 -0.2710785077
0.01976951354 0.01480405617 -0.06551148496 0.9533691962 -0.06961253243 -0.2936686415
0.01414648724 0.0510706749 -0.07556759262 -0.6889479248 0.01341394583 0.7246867068
0.01201440517 0.05483684476 -0.07723177401 -0.5912659972 -0.09798920438 0.8005014906
-0.003220351378 0.04701463572 -0.08089282735 0.1260233953 -0.004138256083 0.9920186383
0.01880164742 0.02293831921 -0.06892407131 0.9075017572 -0.0100000014 -0.4199292329
0.01736702394 0.002710666627 -0.06600555038 0.8368999805 -0.3152899545 -0.4474267172
0.01787518056 0.03071707408 -0.07082305908 0.868591645 0.007026230367 -0.4954787446
0.01774941063 0.03391248703 -0.07105086517 0.8625082087 0.001435654266 -0.5060410347
0.01772241974 -0.001178516497 -0.06205476634 0.8599451791 -0.3559405714 -0.3657876415
0.01622210676 0.03509930524 -0.07317660522 0.7773748287 -0.01121131125 -0.6289377411
0.004125073147 0.01915282478 -0.08066740265 -0.2247924686 0.06131100024 0.9724758646
0.01439434862 0.04667526436 -0.07531474304 0.710141138 0.01844811944 -0.703817612
0.0005219509047 0.04661785202 -0.08114616394 -0.05641249138 -0.01685747693 0.9982652234
0.004316375017 0.06060000229 -0.07796490479 0.1958315331 0.3206720314 -0.9267251259
-0.003951607784 0.05108523814 -0.08075480906 0.1329432101 0.0009717858459 0.9911231803
0.004018938462 0.03863649877 -0.08073592885 -0.1824997598 -0.004570738352 0.9831952736
-0.01654171371 0.04773072243 -0.06469357681 0.9886651431 0.01494293357 0.1493919126
0.01352982998 -0.01273038673 -0.05383201218 0.7724886232 -0.5810549052 -0.256196261
0.01600176898 0.03099376921 -0.07345814098 0.7796624927 -0.006029868698 -0.6261709337
0.01890862306 0.007120172501 -0.06519710986 0.9158224891 -0.1830603704 -0.3574326081
-0.01241964569 0.05995867538 -0.07299118195 0.7195787155 0.285160381 0.633158771
0.01629914093 -0.004861201525 -0.0611099596 0.7882859908 -0.4759356519 -0.3899877587
0.01865542285 0.01510819753 -0.06868072764 0.8963004038 -0.08765392152 -0.4346980287
0.01788609123 0.02567261505 -0.07081342316 0.8667830101 0.01572278653 -0.4984375662
0.007443756262 0.02314882946 -0.07977703603 -0.3495346449 0.0003673098408 0.9369233678
0.01621328664 0.0268409427 -0.0731802934 0.7763446997 0.005120613756 -0.6302877808
0.01224536202 0.0428405675 -0.07707775255 -0.5987180325 -0.002724244596 0.8009552398
0.009531189919 0.05528244019 -0.07882321167 -0.44912363 -0.1600837589 0.8790114647
-0.01354397583 0.05566469193 -0.0709550705 0.874379686 0.1051534769 0.4737118439
0.01843178304 0.01157761669 -0.06829525503 0.9091639257 -0.129061786 -0.3959343527
0.01251605279 0.01516407517 -0.07645771572 -0.5990416618 0.1187745209 0.791859647
0.01782744598 0.02218354797 -0.07092108917 0.8672624872 -0.000614180034 -0.4978507819
0.01186836319 0.03897412987 -0.07734902267 -0.5972311167 -0.005381471866 0.8020511412
0.009255608559 0.0512608401 -0.07898421987 -0.4690550748 0.003146896113 0.883163311
0.003781398349 0.05936844932 -0.08057299466 0.1958315331 0.3206720314 -0.9267251259
-0.0007825206965 0.06060000229 -0.07859392548 -0.05422406661 0.3778820598 -0.9242645181
0.0001533176303 0.04271697807 -0.08114086151 -0.01792315987 -0.01104126838 0.9997784008
-0.00789744339 0.06060000229 -0.07753390808 -0.343764142 0.629650612 -0.6966823677
-0.0108697497 0.06060000229 -0.07607717641 -0.5565242563 -0.4546752346 -0.695378446
0.01609896922 -0.001034923688 -0.06535909843 0.7801410233 -0.4018796257 -0.4794504668
0.01820962143 0.008293634415 -0.0675344696 0.8947582087 -0.1782397806 -0.4094365989
0.01422409678 0.03457877731 -0.07549339294 -0.6893050214 -0.005561314082 0.7244499011
0.009557177862 0.04692402267 -0.07881721751 -0.467967733 -0.001526059107 0.8837442345
0.007318135977 0.05110754204 -0.07980858485 -0.3457868039 -0.002391351209 0.9383100595
-0.0003634282649 0.05949468885 -0.080796681 -0.01326591343 0.3372796081 -0.941311044
0.01652091639 0.006840944631 -0.06973028019 0.7980675411 -0.2539114964 -0.5464587376
0.009007894993 0.01781155396 -0.07898139572 -0.443520955 0.0888706643 0.8918470539
0.01737983513 0.01051944002 -0.06993282827 0.8271819248 -0.1814286017 -0.5318399438
0.01750817871 0.01395900345 -0.07070312881 0.8375609462 -0.1032535788 -0.5364982385
0.01428994465 0.03053624153 -0.0754291153 0.7135949702 5.529162727e-05 -0.7005585026
0.004023035799 0.05071171297 -0.08074061911 -0.1806292648 -0.02163675135 0.9833132358
1.818728894e-05 0.05083338852 -0.08114542084 -0.0178788352 0.01001743437 -0.9997899771
0.009561256409 0.03506229019 -0.07882493591 -0.4618016528 0.02048320283 0.8867466785
0.01417486286 0.02709029961 -0.07554145813 -0.6723851494 0.01968110435 0.7399397712
-0.007999609947 0.05876185608 -0.07953108978 0.4160961708 -0.3320743524 0.8465167459
0.009319972356 0.03885531489 -0.0789551061 -0.463445973 -0.003275831611 0.8861191224
0.0002745789886 0.05499001389 -0.08113306427 -0.02547394267 -0.1958151934 0.980309894
-0.00635561657 0.05538673019 -0.08018153381 -0.1935105284 0.1557328285 -0.968659363
0.0142306366 0.01861075592 -0.07539437866 -0.7032650259 0.05180712553 0.7090376049
0.003886145949 0.04274062475 -0.08077693303 -0.1825110003 -0.004604521477 0.9831930294
0.01110317039 -0.003832307577 -0.0689765625 -0.5537830803 0.559362034 0.6167968992
0.004073955377 0.03058721606 -0.08072792308 -0.1850375041 -0.003623026614 0.9827247813
0.01256419945 0.003452354908 -0.07259957314 -0.5840612742 0.3711037628 0.7219102612
0.009655018806 0.02692964554 -0.07877787399 -0.4589948447 0.004982800574 0.888424957
0.00753029871 -0.00865354538 -0.06693808746 -0.4784209822 0.6179597223 0.6238903312
0.01127164541 0.01114042514 -0.07653150722 -0.5235577756 0.2012961586 0.8278690187
0.007615516663 0.0271760601 -0.07970708313 -0.3804625606 0.001687953939 0.9247947831
-0.003842492421 0.04338318761 -0.08078012594 0.1506066597 -0.001734643917 0.9885922441
0.0002035829872 0.03476938248 -0.08114711189 0.004123116961 0.000605843461 0.9999913164
0.01027287626 0.006655574322 -0.07576197433 -0.4943787811 0.3033946689 0.8145804415
0.009206778526 0.01481881905 -0.07853605652 -0.4528308487 0.1366007699 0.8810700608
0.003996813416 0.02664857133 -0.0807632103 -0.1833317547 -0.01901257833 0.9828672289
-0.0002540644556 0.03110514355 -0.08114579582 -0.02506925216 0.01170081522 0.9996172385
-0.006103610039 0.03184537506 -0.08027374268 0.1958503444 0.003076385621 0.9806289708
-0.003818612734 0.03539893977 -0.0807883021 0.1514861203 0.01858131779 0.9882847211
0.007305501223 0.003651076794 -0.07599931335 -0.3311083845 0.4043121917 0.8525836553
0.007852562714 0.01089599247 -0.07834134674 -0.3952326287 0.236480941 0.8876192504
0.004620598912 0.001852500856 -0.07602573395 -0.2732962676 0.4290392209 0.8609497645
-0.003885157029 0.02710217412 -0.08077946981 0.1302102139 -0.01793276283 0.9913242236
-0.007395562172 0.02743430138 -0.07981661224 -0.2152793967 0.01239966322 -0.9764737732
-0.003283106645 0.02257375781 -0.08089087168 0.1350473925 0.02946187746 0.9904010297
0.004523293972 0.009043186188 -0.07897666931 -0.2564608901 0.2757636139 0.9263812612
9.542864235e-05 0.01881300974 -0.08106656075 -0.01683093679 0.04454376918 0.9988656427
0.001366009116 0.006847172499 -0.07874518967 0.215051218 -0.3273647304 -0.9201007048
0.001138098975 0.01108609072 -0.07999986013 0.1548030353 -0.1895865509 -0.9695839107
-0.0003703964452 0.01491909186 -0.08074484762 0.08010159396 -0.1322571394 -0.9879735744
-0.004303016583 0.01823251152 -0.08060472616 0.183529182 0.0610459293 0.9811169318
-0.008689004898 0.01778313446 -0.07914241028 -0.2851064402 -0.03622110247 -0.9578112285
