# .PCD v0.7 - Point Cloud Data file format
VERSION 0.7
FIELDS x y z normal_x normal_y normal_z
SIZE 4 4 4 4 4 4
TYPE F F F F F F
COUNT 1 1 1 1 1 1
WIDTH 561
HEIGHT 1
VIEWPOINT 0 0 0 1 0 0 0
POINTS 561
DATA ascii
0.01986210442 0.005328361034 -0.03107185078 0.9647952887 0.2628880224 -0.007741995274
0.02051441002 -0.001160478354 -0.001628400564 0.998262797 -0.05723735043 0.01397404341
0.01635964012 -0.005305115223 -0.06059816742 0.8035017343 -0.4668647598 -0.36935384
0.02024593417 0.04058845647 -0.05703378677 0.9816795026 0.008988699069 0.1903275006
0.01506180954 0.01405051804 -0.003167639494 0.721638347 0.692210781 0.009073631953
0.01401435089 0.01502583981 -0.003129355907 -0.6916326471 -0.7221448842 -0.01229014713
0.01514750957 -0.002521309376 -0.06562277222 0.7409536513 -0.4554994774 -0.4934652091
-0.0054251647 0.01984893799 -0.01860235405 0.277921909 -0.9606026824 0.001378064708
0.01056438351 0.01766091728 -0.002695558071 -0.500018328 -0.865994441 -0.005941363898
0.00632695961 0.01955039215 -0.003245507002 -0.3025902858 -0.9530721879 -0.009618921822
0.01241397381 0.01638800859 -0.01354067564 -0.6016447009 -0.7987595603 -0.002611279277
-0.001977813482 0.04252560806 -0.08107154846 -0.1215575803 0.006592333441 -0.9925624896
0.01994756317 -0.005069123745 -0.02392229271 0.9634101771 -0.2678911097 0.008670866854
0.009232926846 0.01835871506 -0.003253734708 -0.4415595297 -0.8972314035 0.0009951616442
0.02052199173 -0.001080213666 -0.003482202291 0.9986305124 -0.05201106576 0.005652317152
0.007835851669 0.01902965164 -0.001971896529 -0.3834250519 -0.9235257258 -0.009244640264
0.006292455673 0.0195585041 -0.001432122707 -0.3010455162 -0.9531412796 -0.02988809509
-0.01569045401 0.04972005653 -0.06721316528 0.9409637012 -0.01141085714 0.3383150977
0.01599338722 -0.0125163517 -0.04536831284 0 0 1
0.01316576958 0.0227232666 -0.07644061279 -0.6364759055 0.01299374815 0.7711871266
0.01063213444 0.01761816216 -0.01153211975 -0.504888088 -0.863104354 -0.01178527989
0.0205878315 0.0003045481443 -0.03726495552 0.9996537497 0.023779552 0.01126559832
0.02027970982 0.02294951153 -0.0571853199 0.9854312648 0.007915733142 0.1698898573
0.0009865420461 0.02054377365 -0.0009547998309 0.07558685858 0.997137263 -0.001976251501
0.003501736879 0.04082929802 -0.0808788147 -0.1670846563 -0.0002453618318 0.9859425224
0.0177244606 0.05121691132 -0.0501187439 0.8789666527 -0.007767467074 0.4768199763
0.02039150047 0.04478296661 -0.06328597832 0.994430013 0.009915949713 -0.104931517
0.007861674786 0.0190198307 -0.003774723053 -0.3780790474 -0.9257693541 -0.00270866236
0.01608815384 0.01515615749 -0.04555109787 0.7804840802 0.4396287779 0.4444897505
0.004696421146 0.02004999542 -0.000844352603 0.2229914153 0.9742757154 0.03258311112
0.008251784325 0.01886916161 -0.03112838745 -0.4100699758 -0.9120519584 0.001959608829
0.01494930744 0.00497269392 -0.07102227783 0.7155139011 -0.3145755166 -0.6237644601
0.02052867317 0.0009697954655 -0.0009380505681 0.9977237262 0.06490058378 0.01831066124
0.02038033867 0.002967855692 -0.001912563562 0.9847831235 0.1737188657 0.004894414533
0.02000022888 0.004692722321 -0.002621300697 0.9717553415 0.2359665853 0.003365536492
0.01750118891 0.05474615224 -0.07140212758 0.8453825385 0.008037832778 -0.5341008864
-0.002031759381 0.05483434105 -0.04366868401 -0.1279256144 0.01529786696 0.9916657766
0.01957769966 0.006356267452 -0.003275281191 0.9557752901 0.2939078275 0.01057278452
0.01853556824 0.046760952 -0.06950170517 0.9026259258 0.006321637828 -0.4303794546
0.02028954124 0.003530661345 -0.02301427078 0.9844482816 0.1756692879 -0.001371917908
0.01752362061 -0.01074662781 -0.006110414505 -0.4678756927 -0.868597306 -0.1631902452
0.01763212204 0.01055719662 -0.004464189529 0.8603560582 0.5096928393 0.0008140972055
0.003395839453 0.01500276852 -0.08051139069 -0.1367076344 0.126907106 0.9824487819
0.02034584808 0.003212189674 -0.01090598297 0.9897115831 0.1425124484 -0.01269583691
-0.01237716913 0.06060000229 -0.0753376503 0.01657118248 0.9997081527 0.01757854772
0.01836802101 0.009286653519 -0.005961126804 0.8942279418 0.447595305 0.003851096727
0.006356146812 0.03617114258 -0.0801855545 -0.3044883256 -0.008558841875 0.9524776143
0.01555161762 -0.01050383663 -0.05383614349 0.7398695012 -0.671891245 -0.03398935328
0.01685951996 0.01181276226 -0.004718739033 0.8183017546 0.5747455691 -0.007054732848
0.01303962231 0.01593771839 -0.02871763992 -0.6326460398 -0.7744363771 0.002699302322
-0.008265774727 0.04289925003 -0.04563698578 0.5010579861 -0.01717559815 -0.8652432568
0.01237710476 0.01641366339 -0.004781237602 -0.6090678504 -0.7930188658 0.01254719044
0.01137718296 0.06060000229 -0.04573853302 1.538985008e-13 1 2.57808189e-13
0.01596327019 0.01293715477 -0.004839092255 0.7793758564 0.6265404111 -0.004515278201
0.0205518074 -0.0007645410895 -0.01077301407 0.9999098199 -0.0113469699 -0.007183201944
0.02005881119 -0.004624647141 -0.03084190559 0.9719922185 -0.2339730459 -0.02208485765
0.02023009682 0.05452111816 -0.05698088455 0.9809356829 0.004035657539 0.19429076
0.02046052265 0.002309431076 -0.04123773193 0.9951850609 0.09733495746 0.0115152307
0.01506021976 0.014052104 -0.004950715542 0.723395628 0.6904324224 -0.001354831729
0.006720236778 0.02331079483 -0.08005841827 -0.3375329783 0.005379465101 0.9412983321
0.009884096146 0.01431688213 -0.07812171173 -0.4707335767 0.1467201697 0.8699902824
0.01073624039 0.01755246544 -0.02511047554 -0.5197215138 -0.8543153655 0.00589952064
0.01401782131 0.01502612305 -0.004914754868 -0.6908529359 -0.7229933334 -0.001691402287
-0.01343258953 0.06060000229 -0.0450915947 -0.02252493359 -0.9996004312 0.01707645444
0.01057810974 0.01765225601 -0.004485775948 -0.5023809863 -0.8646376322 -0.003887106628
0.004736174583 0.02004027557 -0.002665213823 -0.2343494113 -0.9720996971 0.01012582157
0.02042886925 0.006485447407 -0.05143321991 0.9914593638 0.1004078861 0.08322611516
0.01863580132 0.008737913132 -0.03500126012 0.9157959498 0.401616371 -0.00469775267
0.01594215775 0.01298129272 -0.01702596474 0.7766094199 0.6299199664 -0.008868195785
0.02022887039 -0.003689220905 -0.000160029158 0.9811410143 -0.1928537756 0.01302809692
0.02037571335 0.003019961119 -0.003737654448 0.9852227155 0.1712775188 0.0004610056583
0.01406893253 0.0150302949 -0.0312103138 -0.6798644461 -0.7333333011 -0.002569900835
-0.0001920588017 0.02057806206 -0.02476605034 -0.002997556046 -0.9999942105 -0.001610446526
0.01558674812 0.06060000229 -0.04915476608 0.4776027973 0.7648761647 0.4322730857
0.0095094347 0.01824647617 -0.02733462811 -0.4626573685 -0.8865235251 -0.004919239622
0.01956758118 0.006388325214 -0.005074175835 0.9526994416 0.3038863004 0.004109793999
0.02059888077 2.802224644e-05 -0.02984821892 0.9999694001 0.007629652485 0.001728356901
0.0199914341 0.004733156681 -0.004431427002 0.9715598651 0.236745062 -0.004817080038
0.01685309982 0.0118221817 -0.006494051933 0.8174175011 0.5760210149 -0.005330976285
0.02001999187 0.004796147108 -0.04130767441 0.9749410284 0.2203118453 0.03086554632
0.01830565071 0.06060000229 -0.05746268082 0.3401851645 0.9331485364 0.1162233316
0.0153051405 0.02651228523 -0.07435183716 0.7479643834 0.003148420002 -0.6637313979
0.005756718159 0.05582555389 -0.08035874939 -0.2780818537 -0.001918293207 0.9605554658
0.02056293106 0.01425049019 -0.0589847641 0.9989594381 0.01540623874 0.04292655088
0.01769031715 0.04794345093 -0.05006523895 0.8782849865 -0.007548466791 0.4780779258
0.02045289707 0.01038056421 -0.05522672653 0.9920321702 0.07589046428 0.1005624714
0.008610999107 0.005890414238 -0.07641046143 -0.4384186462 0.335367422 0.8338571718
0.01898877907 0.00786472702 -0.00554285574 0.9260563348 0.3773844484 -0.0008017775957
0.008135111809 0.01891581917 -0.02286452103 -0.3932272846 -0.9193853849 0.0101398501
0.01762254143 0.01058103752 -0.0071301229 0.8570192675 0.5152766526 0.002818929043
0.006142532825 0.05162192154 -0.08026015472 -0.2776805327 -0.0007936114357 0.9606731452
0.01947513771 -0.006612648487 -0.001910287142 0.9693496378 -0.2455998836 0.006478955908
0.01834256172 0.01053290494 -0.04507784526 0.8940162645 0.4010263851 0.1997817742
0.004378531933 0.01068210983 -0.07944820404 -0.2037525639 0.2445106971 0.94799758
0.01983343887 -0.00552509594 -0.01682371902 0.9610559513 -0.275013893 -0.02718119047
0.01505864048 0.01405367947 -0.00672225666 0.7310605466 0.6822846553 -0.00617465314
0.01907547379 0.04334706879 -0.06835523987 0.9300946012 -0.002381028643 -0.3673123514
0.01931475067 0.04098913956 -0.05347457123 0.9354901443 0.0009088046332 0.3533516153
0.01059852076 0.01763937473 -0.007147930145 -0.5015900615 -0.865099719 -0.003144271962
0.02043815994 -0.001470324039 -0.04674095535 0.9901172268 -0.1329277438 -0.04470002411
0.02023169136 0.05136951065 -0.05698747253 0.98185594 -0.003337958599 0.1895989745
0.01994818242 0.04479893875 -0.06563729604 0.9635901248 0.005932984122 -0.2673179214
0.007887328625 0.0190100708 -0.005565730095 -0.3887774884 -0.9213267875 -0.003002522348
0.01546808529 0.0145301857 -0.04348309708 0.7510975438 0.557619595 0.3534301445
0.01180472279 0.00911429882 -0.07563655853 -0.5659800178 0.2552727779 0.7839020527
0.01511359882 0.01417111683 -0.04162405014 0.7250855551 0.6672751605 0.1702785896
-0.008901137352 0.03937191772 -0.07917601776 -0.3658970864 0.009275824256 -0.9306090915
-0.002852680445 0.0203512764 -0.0166169548 0.1514158004 -0.9884288384 0.009038078246
0.004775189877 0.02003018188 -0.004473525524 -0.2355296581 -0.9718309819 0.008385863827
0.01887095451 0.03214466095 -0.05238737869 0.9165063647 -0.001334270501 0.4000178786
0.0133478384 0.05187238312 -0.07624520874 -0.6434412323 -0.002526557649 0.7654913436
0.0093689394 0.01830980492 -0.01469976425 -0.4679711967 -0.8837367457 0.003510447632
0.01517046738 0.03467454529 -0.07450105286 0.7110776446 0.00631310185 -0.7030851499
0.002012143314 0.0204383831 -0.003244407654 -0.08687785753 -0.9962133813 -0.003337193367
0.02000353622 -0.00484549284 -0.02740377998 0.9671780293 -0.2540905532 -0.002156456805
0.02057003975 -0.0005715151131 -0.0152311635 0.9999794919 -0.006316217805 0.001058820509
-0.00112642777 0.02054479218 -0.00166197896 0.05192955781 -0.9984968209 -0.01753338954
0.0176044445 -0.006124670506 -0.0562050705 0.8609787809 -0.4273317061 -0.275867997
-0.003703485012 0.02021628189 -0.0001460346729 -0.1985094715 0.9800836604 0.005477993209
0.0193842659 -0.006935326099 -0.04094940948 0.9632362186 -0.2684593521 -0.01027440449
0.01931781006 0.04429701233 -0.05348340225 0.9410437632 0.005634005569 0.3382379246
0.01940863037 0.006830224514 -0.03073085022 0.9381273478 0.3462563418 -0.004860556875
0.02025701141 -0.003577673912 -0.00205436492 0.982096028 -0.1881417106 0.00949150213
0.0124097681 0.002354875565 -0.07218546295 -0.6075796842 0.3775863162 0.6987671294
0.02057025909 0.04342285538 -0.0614073391 0.9982014415 -0.002144839822 -0.05991061542
-0.01698000145 0.0589389534 -0.06239577866 0.939615834 0.3348152419 0.07085787427
-0.0009037145972 0.02055272293 -0.007168991566 0.0471985476 -0.9988719386 -0.005210306257
0.01933348942 0.02882291031 -0.06764678192 0.9318168756 -0.0008056375901 -0.3629279011
0.0205246315 0.001094093561 -0.004607558727 0.9980336856 0.06266632483 -0.001301565727
0.01769314575 -0.01045751858 -0.008135269165 -3.145605005e-06 -0.9899601384 -0.141346823
0.01024060917 0.01901157856 -0.07838274002 -0.4800144194 0.0442186465 0.8761454608
0.02036989594 0.003070381165 -0.005549259663 0.9838414432 0.1789953237 0.004085175048
0.01832480049 0.04680133438 -0.05128066254 0.8890026102 -0.001267670326 0.4579003735
0.01465543365 0.0155927 -0.04358879471 0.7407608096 0.5497934162 0.3860059876
0.01014079952 0.04667497826 -0.07848052979 -0.5060937754 -0.006418369262 0.8624545756
0.02054892921 0.05927560043 -0.05923509598 0.9438459631 0.3099744519 0.1143268874
0.01997835636 0.004793277502 -0.007122883797 0.9707169934 0.2401288731 0.006829575423
0.01976991463 -0.005763702869 -0.0131982317 0.9767070423 -0.2145670388 0.002083121152
0.02038468552 -0.002966478348 -0.01310736275 0.9876374804 -0.1567547986 0.0003747036669
8.048310131e-05 0.02058776665 -0.03150517464 0.04120093447 0.9991448569 0.003469570789
0.02030640411 0.003442189932 -0.0196090374 0.9845346692 0.1748102723 0.01152622572
0.007832038879 0.02097098351 -0.07964164734 -0.3828627097 0.002112228339 0.9238028383
0.001588 0.04703514481 -0.08109896088 -0.06682940152 0.013678332 0.9976706542
0.01955752754 0.006420173645 -0.00686132431 0.9514229727 0.3077527242 -0.009087784437
0.01625213337 0.05707537206 -0.07318287913 0.769916818 0.09129426052 -0.6315801226
0.02059773636 -0.0001701087207 -0.02478526497 0.9999919032 0.004011816711 -0.000314471773
0.01898058701 0.007891813278 -0.007324037075 0.9220304367 0.387045127 -0.007479529642
-0.003350357294 0.06060000229 -0.04115914726 -0.05263897137 -0.9583444207 0.2807224786
0.01835931206 0.009306556702 -0.007734355927 0.893391202 0.4492775021 0.001373443287
0.01991104698 0.04145390701 -0.05536414337 0.9637048518 0.0001998270704 0.2669698834
0.01588661194 -0.01309145355 -0.03699643707 0 0 1
0.01684355259 0.0118361907 -0.009134288788 0.8237069933 0.5669928789 0.005085722263
-0.01346750736 0.05831092834 -0.05015254974 0.808018213 0.2556765743 -0.5307881469
0.01299037647 0.006673787117 -0.07380130005 -0.6350672072 0.2958573968 0.7135531116
0.01239567947 0.01640073824 -0.009194362879 -0.5924266255 -0.8055425569 -0.01148400553
0.008047312895 0.04662390137 -0.07952547709 -0.394498969 -0.01554162346 0.9187649435
-0.01111898327 0.05385217285 -0.04766904068 -0.6399945752 0.001722214997 0.7683774969
0.01595562458 0.01295313787 -0.00925220871 0.7772959173 0.6291349521 0.0005187000682
0.01679183197 0.001157192826 -0.06599362183 0.8242608822 -0.3353753233 -0.4561988498
0.006708192348 0.01946077156 -0.02328142548 -0.3174703723 -0.948245444 -0.006568153944
0.01505707073 0.0140552454 -0.008482440948 0.7277342196 0.6858513467 -0.003291793421
0.01270173264 0.06060000229 -0.07346869659 0.3188601369 0.8685564333 -0.3793915329
0.01402469444 0.01502668381 -0.008450974464 0.6871946481 0.7264612488 -0.004191616495
0.01986224937 -0.005409985542 -0.01861575699 0.9620868829 -0.2722866375 -0.01577392991
0.00928592205 0.01833965683 -0.007713551521 -0.4645477189 -0.8855363904 -0.004551708623
0.004091140151 0.02013963032 -0.01298410845 -0.1983054536 -0.9801380967 0.00206361835
0.02053699875 -0.0009213171005 -0.007152096272 0.9990100493 -0.04444194907 0.001958188052
0.006486120701 0.04732103348 -0.08014016724 -0.2919179469 -0.001497160618 0.9564421942
0.01756213379 0.01072518921 -0.02345018959 0.8518456071 0.5237137096 0.009111101448
-0.003680622339 0.04512302017 -0.04393002319 0.2552130542 0.004610147249 -0.9668738509
0.01402978945 0.01502710009 -0.0110722084 -0.6918593245 -0.7220226946 0.003728755586
0.007912816048 0.01900037575 -0.007345101357 -0.3762587548 -0.9264930629 0.006320899427
0.02048564434 0.008629027843 -0.05901588058 0.9953458175 -0.05316746054 -0.08037365639
0.006395287037 0.01953433037 -0.006836493969 -0.3251817637 -0.9455540061 0.01358094816
-0.01610666943 0.04915979004 -0.05503291893 0.94819017 0.001607612343 -0.3176992559
0.01487198448 0.05547208405 -0.04641724396 0.7688365477 -0.001931861872 0.6394424375
0.02055913925 -0.0006869276762 -0.01256558132 0.9999060703 -0.01369813583 -0.0004600807395
0.004245049 0.02011575127 -0.007207654317 -0.212536355 -0.977118548 0.008224415686
0.01760676193 0.01062029839 -0.01152033997 0.8493969235 0.5276370941 0.01113388022
0.002070894241 0.02043678474 -0.005067140341 -0.08747194201 -0.9961641057 0.00239453201
0.02013541126 0.01468546677 -0.05530771065 0.9829605869 0.06749444554 0.1709765609
0.006388403257 0.019557422 -0.0332995669 -0.3219413773 -0.9467332932 -0.007058411125
-0.00105168736 0.02054745293 -0.003510081291 0.04093701909 -0.9991500545 -0.004830022694
0.0186292696 0.04448822403 -0.06931465149 0.9147651048 0.01316975065 -0.4037714213
0.008025495052 0.01895751572 -0.01521169519 -0.4026295544 -0.9153395096 0.006559282748
-0.00360635066 0.02023169327 -0.002026481628 0.1951363622 -0.9807723516 -0.002719265772
0.02028495598 -0.0034669168 -0.00393528533 0.9829241703 -0.1838577279 0.007510753435
0.02052952003 -0.001000496149 -0.005323368073 0.9987315693 -0.05023995067 0.003346629694
0.01954675674 0.006450975895 -0.008636077881 0.9521912466 0.3054652884 -0.004773621942
-0.009308753967 0.06060000229 -0.04383042526 0.2685207785 0.8492573893 -0.4545970505
0.01634068632 0.01249206781 -0.03108966446 0.7858908199 0.6183638063 -0.001349903627
0.01866155434 0.008622528553 -0.009294967175 0.8997103155 0.436483443 -0.001884749903
0.02052919197 0.03855556297 -0.05936322403 0.9975233833 0.0008517757629 0.0703304651
0.01761304092 0.01060467434 -0.00977321434 0.8587089615 0.5124570921 0.002578402443
0.01755596733 0.03096407509 -0.04985469437 0.8651768807 -0.005939752104 0.5014316349
0.01786125946 -0.01017081833 -0.01014325714 0.7408028743 0.6535161929 0.1553308953
0.02007241058 0.04280093956 -0.0651036911 0.9762509221 0.01892721208 -0.2158144985
0.01505473566 0.01405757427 -0.01110043907 0.7307864621 0.6825942443 -0.004030440611
0.008341241837 0.01883134079 -0.03757115173 -0.4134928933 -0.9099260957 -0.03252887287
0.01874681854 0.0569937458 -0.06902916336 0.9117581797 0.02351493738 -0.4100537397
0.01061875725 0.01762660408 -0.009787359238 -0.5026318639 -0.8644335088 -0.01076653079
-0.01107221699 0.05717499161 -0.04762779999 -0.6394089501 -0.02754651188 0.7683732063
0.01928124619 -0.007219811916 -0.03756824875 0.9610549351 -0.2763370981 0.00334962557
0.0143174715 0.04185995102 -0.04581409454 0.7529998524 -0.003581980141 0.6580109359
0.02012485695 0.02449358368 -0.0648962059 0.9785074068 0.0146434065 -0.2056910925
0.009306874275 0.0183321228 -0.009476773262 -0.4524248502 -0.8918016227 -0.001273083965
0.008042943001 0.05848629951 -0.07951451111 -0.3997135717 -0.30821026 0.8632702336
0.02023998737 0.04657521439 -0.05700522995 0.9822266124 0.00749412348 0.1875492469
0.01429088847 0.03922001902 -0.07540343221 -0.6995607378 0.008969712472 0.7145168426
0.007938138962 0.01899074364 -0.009113016129 -0.416381962 -0.9091897565 0.0002198926575
0.004467422485 0.007192680359 -0.0783772049 -0.20719729 0.3168639486 0.9255628132
-0.002296476603 0.02045134163 -0.02708471298 0.1203605119 -0.9926996517 0.007794142069
-0.01677142048 0.04837073517 -0.05746168709 0.9834275581 0.001074420757 -0.1812983278
0.006429117203 0.01952637672 -0.008614466667 -0.3181463223 -0.9479900138 0.009891986341
0.0130582037 0.01592176914 -0.035176651 -0.6301424983 -0.7764334539 -0.008457162786
0.001187817454 0.02055169487 -0.006455261707 -0.06529218506 -0.9978627869 -0.002605573847
-0.005591088772 0.05896601105 -0.08039620972 0.2729591443 -0.53653043 0.7985163763
-0.01393417692 0.05132574081 -0.05074578667 0.813586001 0.01296944064 -0.5812999334
-0.0009774522185 0.02055009651 -0.005345686913 0.03818980604 -0.9992570233 -0.005190390063
0.0203769474 0.0349559269 -0.06345426178 0.9866223305 -0.0008537478591 -0.1630203919
0.01879442406 0.01254883575 -0.0678158493 0.9070681335 -0.1243541727 -0.4021982608
-0.003509890556 0.02024699783 -0.00389387536 0.1921532404 -0.9813637573 -0.001519228405
0.01859501266 0.008802809715 -0.02302884388 0.9146667762 0.4040656212 -0.01075463681
0.009943412463 0.03079725583 -0.07860063934 -0.4873677639 -0.001174368716 0.8731960167
0.01316965103 0.03438944244 -0.07641742706 -0.6305479739 -0.005795662469 0.7761286381
0.01954165268 -0.006449728489 -0.003843480587 0.9705022397 -0.2409359278 0.008676488388
0.01697291946 0.05826033783 -0.07217311096 0.8096689026 0.2746332199 -0.5186644991
0.007988303185 0.01897166252 -0.01261518288 -0.4196106451 -0.9076650374 0.008431279734
0.02031270218 -0.00335693717 -0.005803003311 0.9842842461 -0.1764593835 0.006827071788
0.01996539307 0.004852879047 -0.009791067123 0.9783413238 0.206872972 0.007199138668
0.02051965904 0.001247098029 -0.009124528885 0.997111086 0.07584459043 -0.004132836484
0.0205735302 0.03519764709 -0.06152604675 0.9972712835 -0.0002753926938 -0.07382351443
0.02033341408 -0.0032554636 -0.007650402069 0.985417699 -0.1700611808 0.005581505509
0.01865321159 0.008645723104 -0.01104947948 0.8989258492 0.4380777623 -0.004493535277
0.01683408546 0.01185008049 -0.01175222969 0.8303335772 0.5572572636 0.00323925485
0.02051671219 0.001337781787 -0.01180167961 0.9956694174 0.092963436 -0.0004592044393
0.01595109177 0.01296261406 -0.01186870003 0.7811897093 0.6242796782 0.004185868948
0.01869715118 0.006915989876 -0.06577497864 0.9118285234 -0.2051878017 -0.3556215826
0.009327692986 0.01832463646 -0.0112287674 -0.4645953085 -0.8855223795 0.001146626097
0.007963300705 0.01898117256 -0.01086965275 -0.4166695207 -0.9090269066 0.007522870829
0.006479429245 0.01951455021 -0.01125863314 -0.3220973735 -0.9467060548 0.0009632260841
0.01503179359 0.01408045864 -0.03682666779 0.7261788264 0.6875012933 -0.002506733006
0.02059862709 -0.0001031028479 -0.02648351288 0.9999717826 0.006819535685 -0.003150854102
0.004004609227 0.02015572453 -0.009457305908 -0.198197388 -0.9801473813 -0.005376456323
0.02053842545 0.006645500183 -0.05305272675 0.9975778226 0.03943851001 0.05729826965
0.01905182648 0.01814288902 -0.05254504776 0.9266900458 0.06825031815 0.3695773979
0.01303017235 0.01594583035 -0.025432827 -0.6290147697 -0.7773158718 -0.01097519448
0.001282908738 0.02055199718 -0.009158921242 -0.08522601041 -0.9963614139 0.0006783134128
-0.003414093971 0.02026219749 -0.005748421192 0.1867228414 -0.9824111656 -0.001697719987
0.0002637065053 0.05587934113 -0.08118649292 -0.02468179162 -0.001736952482 0.9996938492
0.003921718955 0.05506324768 -0.08077764511 -0.1846863437 -0.004208965142 0.9827885017
0.01850595665 0.009005770683 -0.03929948044 0.9000243089 0.4350299776 0.02655488723
0.008405729294 0.01286055946 -0.07858153534 -0.4148577544 0.1842727845 0.8910311916
0.01855829048 0.01679154301 -0.06924753952 0.903712525 -0.0600104141 -0.423913225
-0.006499868393 0.01949782562 -0.003795840502 0.2422207561 -0.9702173534 -0.002718924215
0.017180233 -0.01133223915 -0.002008928776 0 0 1
0.001716875494 0.03120395947 -0.08110340118 -0.08469259699 0.01633866676 0.9962731613
-0.002944707632 0.02033667564 -0.0148353796 0.1569824259 -0.9875543595 0.009638719622
0.009348381042 0.0183171978 -0.01296970749 -0.466059054 -0.8847456168 0.003761881889
0.01422409678 0.03457877731 -0.07549339294 -0.6945307283 -0.005108813605 0.7194449023
0.009535633087 0.01823301125 -0.02979566383 -0.4639482592 -0.8857621021 -0.01332333356
0.01960767555 -0.00628801775 -0.005762329578 0.9718347022 -0.2355004812 0.008765550523
-0.0004008459747 0.02057062912 -0.01960338593 0.007599676304 -0.9999108256 -0.01098115726
0.02054442787 -0.0008426681757 -0.0089685812 0.999231793 -0.03918946058 0.0001004395961
-0.007882877827 0.0491529007 -0.04544581795 -0.4668204939 -0.01230531863 0.8842664788
0.01995682335 0.004892272949 -0.01155463982 0.9780995742 0.2081354422 -0.0009277247322
0.02044248581 0.02132448196 -0.06309704208 0.993813505 -0.01251402922 -0.1103545033
0.01864492226 0.00866877079 -0.01279290771 0.9044806463 0.4264135841 -0.00928524552
0.01760052299 0.0106358242 -0.01325648117 0.8502051107 0.5264400861 0.00347929314
-0.008070173264 0.0548058548 -0.04557698631 -0.4977660805 0.001339809686 0.867310287
0.008542617798 0.01896155167 -0.04087073898 0.44535519 0.8917287813 0.0804893493
0.01189316463 0.01677155685 -0.02362891769 -0.5771224076 -0.8165431239 -0.0136767489
0.01915857887 0.008845032692 -0.04574875641 0.9257025976 0.3328303523 0.1797182721
0.01749356079 0.06060000229 -0.06735503006 0.522741428 0.8384948332 -0.1538434729
0.01682782745 0.01185926342 -0.0134829464 0.8179090487 0.5752880986 0.008269922214
0.001930644512 0.02050683784 -0.02901716042 -0.09270024729 -0.9956619902 0.007991584184
0.01594809532 0.01296887875 -0.01359845448 0.7767307378 0.6297219336 0.01181724266
0.0106454277 0.01760977364 -0.01326595116 -0.5032844093 -0.8641208179 -0.000124388308
0.004048012972 0.02014765167 -0.01122634172 -0.197354198 -0.9803045855 -0.007364795273
-0.01487928581 0.05042301941 -0.0522611351 0.8848264163 4.824807306e-05 -0.4659208201
0.02057582951 0.05914252472 -0.06124535751 0.9085630195 0.4120567763 -0.06872010344
-0.0008304667473 0.02055533028 -0.008980186462 0.05892926724 -0.9982588604 0.002566922258
0.02058068466 0.0006091237962 -0.04529480171 0.999911672 -0.01312894519 0.002068562171
-0.002992351294 0.06060000229 -0.0436091423 0.01697840321 0.6708690296 -0.7413814666
-0.003318950653 0.02027729416 -0.007590321541 0.1811906438 -0.9834461906 -0.001881682765
-0.006361963749 0.01954301262 -0.005692703247 -0.237035922 0.9714914888 0.004273031558
-0.01414033079 0.05931230354 -0.05106458855 0.7090317778 0.44441788 -0.5475095305
0.02050426674 0.00172064811 -0.02310459518 0.9933003259 0.1155136062 -0.003327055683
0.009651996613 0.03676073837 -0.07877342224 -0.4670493312 0.000899080774 0.8842308035
-0.01157163334 0.0169731369 -0.001784647226 0 0 1
0.01083187485 0.01749588966 -0.03727723503 -0.5248633821 -0.8511742515 0.004563296644
0.001877268195 0.02051169014 -0.02734623718 -0.08807844965 -0.9960904782 -0.006778349127
-0.0106814537 0.01758005142 -0.006170375824 -0.6718898214 0.7398708246 -0.03398868631
0.01931225014 0.03424751282 -0.05346735382 0.9402892647 0.004597213553 0.3403453605
0.02051090431 0.001516449928 -0.01707629204 0.9939581848 0.1097584931 -0.0004472795592
0.01735265732 -0.01103818703 -0.004068400383 0.8815393686 0.4514123998 0.1382576828
0.02053600756 0.0413086942 -0.05934327189 0.9972125042 -0.007208307766 0.07426480875
0.0002448089421 0.06060000229 -0.07894491577 0.0810400938 0.9026186437 -0.4227435243
0.01966191101 -0.006140414238 -0.007655011654 0.9732983431 -0.2294569282 0.006312953732
0.02035307503 -0.003155709505 -0.009484238625 0.9871270466 -0.1599330352 -0.001272025466
-0.002436769009 0.05696596527 -0.04370145035 -0.1708448239 -0.0539961094 0.9838172932
-0.01122702694 0.06060000229 -0.0452810936 0.3165428067 0.8467868697 -0.4274957881
-0.01704271317 0.05908250427 -0.06096833038 0.8694420581 0.4836717907 0.1006583654
0.006674012661 0.03158910179 -0.08007455444 -0.3385858773 -0.005182836413 0.9409212198
-0.01276796007 0.04486457825 -0.04924423027 0.7412559365 -0.002456239435 -0.6712179999
0.0205662384 0.00270252347 -0.0492250061 0.9998843201 0.01461259731 0.004221176849
-0.001002429962 0.06060000229 -0.04299863434 -0.06435252065 -0.6159280281 0.7851696742
0.003149154902 0.06060000229 -0.04339893341 -0.08996687968 0.6920265498 -0.7162438237
0.01994830894 0.004931417465 -0.01330702019 0.9722126308 0.2339825891 0.007399220417
0.0140545826 0.01502912331 -0.0238273983 -0.6936361835 -0.7202794391 -0.008147060099
0.01933608437 -0.00686697197 -0.04334944344 0.9582373372 -0.2818539862 -0.04836875168
0.01951390076 0.006541189671 -0.01389186954 0.9539660603 0.2996989908 0.01136972991
0.0183481369 0.05328079224 -0.05134122849 0.8909018923 -0.002397027023 0.4541894677
-0.0182034626 0.06060000229 -0.05523223495 0.458135038 0.8671957211 -0.1951508861
-0.00506802845 0.01994852448 -0.02392323494 0.2652012993 -0.9641930588 0.0001271674832
0.0175943222 0.0106512537 -0.01498180485 0.8500027275 0.5267705579 -0.002853525602
0.0150493679 0.0140629282 -0.01711903381 0.7171083058 0.6969040295 -0.008969471686
0.0172768116 0.01259937859 -0.044979702 0.8513679343 0.4441626841 0.2790916525
0.02046012306 -0.002142393112 -0.03046539879 0.9932430354 -0.1158847518 -0.006244747321
0.02055254618 0.01727842077 -0.06111254501 0.9983548264 -0.01377211927 -0.05565940509
0.01682160759 0.01186839008 -0.01520293903 0.8211905677 0.5706526175 -0.001281280425
0.01727270317 0.06060000229 -0.06524697113 0.4736039058 0.8745410922 -0.1042939046
0.02047158813 0.004540720463 -0.04915258408 0.9959433375 0.07434341479 0.05069443032
0.01594511795 0.01297510529 -0.01531748772 0.7757439332 0.6310360418 0.00385540441
0.0193775959 0.01104346657 -0.04979820633 0.9367942585 0.2392183968 0.2553254313
0.01335797119 -0.002428770542 -0.06799293518 0.6521017534 -0.4823349363 -0.5849070973
0.01505088997 0.0140614109 -0.01541306591 0.7162567017 0.6977349524 0.01192784126
0.01546801567 0.01824531555 -0.04658575439 0.7385984469 0.2483150773 0.6267471233
0.00820629406 0.0188883934 -0.02785222816 -0.4081478604 -0.9128460332 -0.01128910045
0.01403818226 0.0150277853 -0.01539000702 -0.6880840878 -0.7255941936 -0.007304403981
0.01242120934 0.01638297462 -0.01525975227 -0.6142530689 -0.7891041304 -0.002799767792
0.006595070362 0.01948736572 -0.01733621597 -0.3068887438 -0.9516984345 0.009454560242
0.006529315472 0.01950282288 -0.01388044643 -0.316277733 -0.9486331499 -0.007971355374
0.001373102784 0.02054862213 -0.01183514023 -0.084545324 -0.9963690703 -0.01003812308
0.017238451 -0.004388046265 -0.05973530197 0.8400588604 -0.4298672448 -0.3309309036
0.01900676537 -0.007873658657 -0.03061796379 0.9504864535 -0.3106766254 0.007452255984
-0.00322445035 0.02029228783 -0.009419774055 0.1755542383 -0.9844675808 -0.002071658209
0.01632634354 0.03470508067 -0.07310825348 0.7808174954 -0.002693470786 -0.6247533786
0.003364475727 0.02028468704 -0.01786015892 -0.1739772537 -0.9846671885 -0.01274531243
-0.01112432861 0.01727810478 -0.003988425255 -0.02672984006 0.9909287417 0.131703244
-0.01323480892 0.05031017685 -0.04983583832 0.7775956075 -0.004101356458 -0.6287513421
0.02057081922 0.04070849228 -0.06144390361 0.9979989925 0.007919867377 -0.06273186259
0.01889352417 0.05208057404 -0.05247149277 0.9221619332 0.004930702144 0.3867726169
0.01155322075 0.06060000229 -0.04728730774 0.1715499922 0.9770897379 0.1259612808
0.01495944214 0.0140743618 -0.07409912872 0.7325336582 -0.1356317648 -0.6670820519
0.009483034134 0.01826004601 -0.02485457993 -0.4564324415 -0.8897176087 0.008485467808
0.01970203018 -0.00600955534 -0.009519626617 0.9745951044 -0.2239372099 0.004063061203
-0.01790443039 0.06060000229 -0.05683952332 0.4355413499 0.8963344681 -0.08299550503
0.02037171364 -0.003057635546 -0.01130476284 0.9869464961 -0.1610151122 0.003278327072
0.01599348307 0.01687315273 -0.07330355453 0.773375515 -0.07171868386 -0.6298783559
0.01991065216 0.005104545593 -0.02105749607 0.9686969322 0.2482083422 -0.004344230768
0.02051476288 0.001397718072 -0.01357110786 0.9949563458 0.100167017 0.005332790627
-0.01558185959 0.06060000229 -0.06932332611 0.4358052459 0.8522646157 0.2893420337
0.0203261652 0.003328258514 -0.01529041243 0.9856690996 0.1686834802 0.001519726395
0.01947652149 0.04851291084 -0.06718757629 0.9524750204 0.0002944652844 -0.3046165602
-0.01547033882 0.05301709747 -0.0678396225 0.9180207653 0.002481458062 0.3965245476
0.01993984795 0.004970315456 -0.01504838085 0.9727548871 0.2317436989 0.006541224364
0.008826351166 0.02698118782 -0.07920858765 0.4389474728 0.01753113233 -0.8983416808
-0.001232209563 0.06060000229 -0.04137307739 -0.02518907854 -0.9726067016 0.2310881094
0.004887212753 0.06060000229 -0.04119618607 0.2771153448 -0.7910964534 0.5453196192
0.01950308418 0.006570884705 -0.01562189484 0.9523176869 0.3050695686 0.004856079128
0.01582370567 0.06060000229 -0.05141649437 0.4170670469 0.8967100984 0.1482095743
0.018519104 0.008959436417 -0.017450044 0.8940005599 0.4479992224 0.007726292322
0.02055301857 0.0169667635 -0.0593009491 0.998614297 0.005707042027 0.05231553808
0.01989831924 0.005161243916 -0.02359571457 0.9652864996 0.2611805575 -0.002586530217
0.001491948485 0.0205441761 -0.01536150742 -0.1016998246 -0.9948116893 -0.002616963983
0.01758815956 0.01066658783 -0.01669647789 0.8481373001 0.5297154387 -0.008042028631
0.01681542587 0.01187746048 -0.01691237259 0.8154243613 0.5787968237 -0.00879476146
0.01757439232 0.06032795715 -0.07126728439 0.7232079533 0.5330317243 -0.4391439823
0.005073330402 0.01994704628 -0.01852286911 -0.23838221 -0.9711668336 -0.002983830266
0.02038350773 0.03827490616 -0.06339516449 0.9871637501 -0.003434296581 -0.1596744694
0.01938584137 0.02287705898 -0.06753678513 0.9380793966 -0.002517904448 -0.3464111802
0.01856160259 0.008888362885 -0.0296506834 0.913068105 0.4075786953 0.01364707787
0.01960676384 0.05257332993 -0.05443154526 0.9545638304 0.01354132559 0.2976987171
-0.01701526642 0.04301876831 -0.05898429108 0.990133585 0.02376190596 -0.138097269
0.01593921661 0.01298744297 -0.01872404671 0.7729319947 0.6344803155 -0.003295573199
0.014041502 0.01502805614 -0.01709795952 -0.6913952759 -0.7224294217 0.008264569864
0.0188876667 0.02159768486 -0.05240363693 0.9166922879 0.007211622619 0.3995287746
0.003534848213 0.03687268829 -0.08087273407 -0.1722124868 0.02267262182 0.9847988686
0.01242847967 0.01637804794 -0.01696835995 -0.6137156777 -0.7894365914 0.01195554448
-0.01689801216 0.04928427505 -0.06297169113 0.9914602083 0.00753421808 0.1301917467
0.006562295437 0.0194950695 -0.01561370659 -0.3119121916 -0.9500966735 -0.00520536219
0.01067176819 0.01759315109 -0.01670149231 -0.5141952757 -0.8576726525 -0.0009162940676
0.003861424367 0.02018452899 -0.01519649887 -0.2002644356 -0.9797416067 -0.0007348348468
0.009399522781 0.01829880714 -0.01727349663 -0.4641390593 -0.885749258 0.004815135476
0.02003203074 0.05887992859 -0.06520050557 0.8969745264 0.3522585599 -0.2671153422
0.0137692976 0.003758233547 -0.07165892792 -0.6650598959 0.3374058482 0.6662226569
0.0150296793 0.01408256674 -0.03919694328 0.7269538333 0.6863468085 0.02159126671
0.02025741386 0.01489628077 -0.06346868324 0.9809263488 -0.04588035696 -0.1888875093
0.001432715535 0.02054639244 -0.01360396004 -0.08962590085 -0.9958018804 -0.01859604522
0.009672250748 -0.002408764124 -0.07117942047 0.4748233344 -0.50047731 -0.7239235203
-0.0006854097843 0.02056049538 -0.01256699944 0.04874108022 -0.9987944826 0.00582139346
-0.006089086533 0.0196324234 -0.009446090698 -0.2246160772 0.9744334867 0.005195941935
0.006688848019 0.05056673813 -0.08005820465 -0.3195681718 0.0008220959259 0.9475629307
0.008218352556 0.05112261009 -0.07945705795 -0.3967582853 0.001653056391 0.9179216363
0.005127566099 0.01993192291 -0.02107863712 -0.2489710247 -0.9685071853 0.002694598716
0.0197360878 -0.005886208057 -0.01136522961 0.975679648 -0.219184456 0.002720049799
0.003797270775 0.01364258385 -0.08020402527 -0.173385752 0.1695765186 0.9701449301
0.02051282692 0.001457272172 -0.01532925415 0.9944664455 0.1050539514 0.0003950068559
0.00975349474 0.02868902397 -0.07872297668 -0.4637287395 -0.007650453915 0.8859442007
0.01534616756 0.04128801346 -0.07429914856 0.7624902885 0.001303334242 -0.6469983471
0.01993144035 0.005008971214 -0.01677889061 0.9786301073 0.2055666712 0.005045459811
0.01404480171 0.01502832508 -0.01879551888 -0.6915004518 -0.7223489904 0.006249894959
0.01949233627 0.006600396633 -0.01734124565 0.9539568579 0.2999236064 -0.003484780183
-0.01816992188 0.06060000229 -0.06697579956 0.4363662843 0.8771755218 0.2003685851
0.009587341309 0.01820643234 -0.03465311432 -0.4558237773 -0.8900433676 0.006891133456
0.01835712433 0.06042889595 -0.06896774292 0.729534954 0.6256780597 -0.2762348936
0.01503896904 0.01407330036 -0.02877966499 0.7230513991 0.6907688077 -0.005926939846
0.01757899094 0.0106894021 -0.01924759007 0.8458953877 0.5333444952 -0.00215463341
-0.009095478058 0.0588537178 -0.04618305206 -0.5268329423 -0.2688043414 0.8063443911
0.02014212513 -0.003953851938 -0.04326673126 0.974919642 -0.2212039601 -0.0245050962
0.0168092823 0.01188647461 -0.01861140823 0.8235491558 0.5672095391 -0.006334573595
0.01808546257 0.06060000229 -0.05526916504 0.5581531621 0.8132615971 0.1645315236
0.01504785633 0.01406443596 -0.01881465149 0.7223359141 0.6915414638 -0.001109493053
-0.002071667194 0.02049121284 -0.03133022499 -0.1062025969 0.9943146694 -0.007703670177
0.01306960773 0.01591198015 -0.03914074326 -0.6361560935 -0.7710751899 -0.02735829202
-0.00399543035 0.04907298088 -0.04401548958 -0.2092142517 -0.002406746673 0.9778668644
0.01864137268 0.02471804619 -0.06934506989 0.9024917685 0.0171801712 -0.4303643218
-0.01418607187 0.04692306519 -0.05106999588 0.8299341972 0.003972926274 -0.5578471512
0.01243625069 0.01637368155 -0.01866710377 -0.6016476628 -0.7987613803 -0.0005892077052
0.01857334232 0.02889978695 -0.06947875595 0.8989189773 0.002988605943 -0.4381047141
-0.0162612009 0.04482133675 -0.05546927834 0.9567144731 -0.01082425053 -0.2908268428
0.01069130373 0.01758082294 -0.01924941063 -0.5083749287 -0.8611331949 -0.002133674783
0.02022818279 0.05917981339 -0.05697407722 0.9332053078 0.3418982019 0.1106050318
0.008062380791 0.01894348526 -0.01778683853 -0.3880164396 -0.9216353673 -0.005611799887
0.01658467102 0.01282653093 -0.04323579025 0.8008437469 0.538511737 0.2620198505
0.01845118523 0.06060000229 -0.05891250992 0.781683395 0.6207639551 0.06019287426
0.001921152592 0.05038972092 -0.08106954956 -0.07950241524 -0.003468727552 0.9968286382
-0.009178524971 0.01840613937 -0.01789790535 -0.6034719502 0.7970453168 -0.02324582211
0.001624167323 0.05612660217 -0.04362911606 0.09586210215 0.01025148026 0.995341833
0.005036877632 0.01995721054 -0.01680511284 -0.2365544956 -0.9716078955 -0.004479740288
0.01632477903 0.0125162611 -0.03670816422 0.7949391487 0.606678295 -0.003632662919
0.01936820412 0.006941226006 -0.03719773483 0.9405697645 0.3395648552 0.004922106004
-0.0005779038966 0.02056432343 -0.01522528887 0.04635296905 -0.998919221 -0.003433973736
-0.003037338734 0.02032197762 -0.01304211426 0.1634824642 -0.9865460252 -0.0006511640715
0.01932458305 0.05079039383 -0.05350808716 0.942110676 0.002174236467 0.3352950148
0.01807980442 0.05705615044 -0.05080457497 0.8804163698 0.03879679994 0.4726117054
-0.01027011299 0.01785548401 -0.008306118965 -0.6718888785 0.7398716944 -0.03398839246
0.01888014221 0.02515972137 -0.05239340591 0.9121194116 -0.0009733129022 0.409923446
0.02039283562 -0.002881269932 -0.01489325905 0.9881931909 -0.1527135397 -0.0123609148
-0.003608888388 0.05189600372 -0.04392171097 -0.2074697193 -0.00680722295 0.9782177556
0.02031449318 0.003397087097 -0.01789036751 0.9850158225 0.1722204598 0.009162018811
0.01992308426 0.005047388077 -0.01849871826 0.9775609858 0.2106455387 0.001725154996
0.01948165321 0.006629728317 -0.01905008698 0.9523021057 0.3048680045 -0.01327401283
-0.001552544355 0.04988391495 -0.08109784698 -0.05687367113 -0.005176320049 -0.9983679639
0.01962005043 0.04288059235 -0.05442760086 0.9537816074 -0.002476803098 0.3004904505
0.01861201572 0.008759270191 -0.01965888405 0.8935435983 0.4489012196 0.00821784657
0.0194424146 0.06040216955 -0.06515908813 0.8348011674 0.5329947474 -0.1379261042
0.01680013943 0.01189988899 -0.02113955975 0.8253880107 0.5645635703 0.001614562606
0.01980351257 -0.005642026424 -0.01501883125 0.9778154238 -0.2094602925 0.001839244176
0.01593483925 0.01299659443 -0.02125077534 0.7761303849 0.6305592334 -0.004083975585
-0.007268526077 0.06060000229 -0.04320822144 0.178292353 0.9120355017 -0.3693278766
0.02048865318 -0.001549920321 -0.04359752274 0.9972847496 -0.07335260846 -0.006520972602
-0.002572958231 0.02040087891 -0.02189964867 0.1323511535 -0.9911934606 -0.00432386591
0.01504560614 0.01406668043 -0.02133777142 0.7256511221 0.6880612597 0.001466960284
0.01933258438 0.05301992035 -0.06762334061 0.9361832419 0.005352375077 -0.3514716059
0.001983709574 0.02050201416 -0.030678339 -0.1242128807 -0.9922524463 0.002498600546
0.01404971123 0.0150287261 -0.02132146168 -0.6817178922 -0.7315866498 -0.00645672147
0.002140997112 0.05896805954 -0.04367541313 0.1580076165 -0.2621678043 0.9519987581
-0.01493051529 0.04704072571 -0.05234657669 0.8796053069 -0.009423527278 -0.4756108717
0.01244781399 0.01636718512 -0.02119481468 -0.5953373553 -0.8034031727 -0.01080627194
0.009429503441 0.01828756142 -0.01982594872 -0.466182503 -0.8846154464 -0.01137478759
0.003526633859 0.05921792412 -0.08086627197 -0.2151878776 -0.4840132608 0.8481894486
-0.006570033312 0.05687180328 -0.04486933136 -0.3885235613 -0.01065862775 0.921377141
-0.01137741089 0.0511397171 -0.04790546608 -0.6782459528 -0.003692434728 0.7348256892
0.01774523544 0.05295315933 -0.07099768448 0.8662428688 0.002134721862 -0.4996185897
0.008086771011 0.01893420792 -0.01948962784 -0.388556079 -0.9214241071 0.001337263685
0.006627643585 0.01947970772 -0.01904813766 -0.3132512425 -0.9495541352 0.01485272541
0.001550196409 0.02054141998 -0.01710739326 -0.1099581767 -0.9939359605 0.0007111557416
-0.01425073719 0.04489229329 -0.0512141393 0.8159802138 -0.009304443571 -0.5780049463
0.01305359745 0.01592572308 -0.03357537842 -0.6297658042 -0.776739926 -0.00837371999
0.0166158123 0.004804105282 -0.06864945984 0.8075796897 -0.289573288 -0.5137726692
-0.005820016861 0.01972058868 -0.01314710712 -0.211569787 0.9773434705 0.006161653579
0.01960225296 0.05884674072 -0.05444734955 0.9063432643 0.3552907413 0.2287146179
0.02044549179 -0.002303069353 -0.02707907867 0.9939198109 -0.1100169214 -0.00443694534
-0.01547532606 0.05721169281 -0.05338113403 0.8985747297 0.08132689263 -0.4312184965
-0.009929503918 0.01803055954 -0.01122823477 -0.6719476308 0.7398178708 -0.03399852056
0.01210037947 0.05901402092 -0.07722771835 -0.5067526898 -0.323408201 0.7991300563
0.02057813263 0.0006984456778 -0.04766232681 0.9998697371 -0.01290681827 -0.009691384849
0.01802798462 -0.0098864851 -0.01213466167 0.7398538669 -0.6719082857 -0.03399281138
0.007994745255 0.04914701207 -0.07953998057 -0.4087187564 0.003978577155 0.9126517129
0.01988205338 0.005236019611 -0.02694321632 0.9677547425 0.2518830931 0.002380299507
0.02040050125 -0.002797098875 -0.016667202 0.9885546467 -0.1503028927 -0.01299041553
0.01859667873 0.05303335381 -0.06935404205 0.9063383769 0.0006971022233 -0.4225520803
0.003412364244 0.02027913857 -0.01958166504 -0.1758456203 -0.9843810907 -0.008496233726
0.009531189919 0.05528244019 -0.07882321167 -0.4648758065 0.007739716178 0.8853420702
0.01990509129 -0.005238819599 -0.02128047085 0.964743085 -0.2629942794 -0.01023664888
0.02058084679 -0.0004570906758 -0.01787392426 0.9999275447 -5.055930326e-05 0.01203755774
0.01119992161 0.06060000229 -0.04417898941 -1.090669632e-13 1 -6.075681215e-14
0.02050899315 0.001575257301 -0.01881239319 0.9949618148 0.1000697009 -0.006086224332
0.006055973053 0.06060000229 -0.0425016613 -0.294071074 0.6536895422 -0.6972891694
0.019471035 0.006658882618 -0.02074858093 0.9526123648 0.3040215101 -0.01003014984
0.009310626984 0.06060000229 -0.04477201843 -0.0220508336 0.9994686792 -0.02400249953
-0.004971874237 0.05736478806 -0.04427481842 -0.2998680732 -0.08982047695 0.9497428181
0.01860348892 0.008781105518 -0.02134891033 0.9076655665 0.4196853797 0.002720577466
0.02039815521 0.05269281006 -0.06316910934 0.9939507565 0.004350926477 -0.1097404354
-0.01689094162 0.05955158234 -0.05827589035 0.8611500696 0.4916376528 -0.1292786757
0.01638329601 0.02757129669 -0.07304120636 0.7891758829 -0.009339510399 -0.6140962461
0.009843938828 0.0183521862 -0.04116388702 0.5044420044 0.8577458938 0.09904668559
0.02000457573 0.006564041615 -0.04721773911 0.973354168 0.2035994917 0.1054936524
0.01756989479 0.01071203327 -0.02177820587 0.8527994831 0.5222307282 0.002847485145
0.01071068192 0.01756859398 -0.02177693367 -0.5148936772 -0.8572234897 -0.007238086893
0.009447453499 0.01827833557 -0.02151213646 -0.4614573363 -0.8871196844 -0.008705882133
0.01755421066 0.01073805237 -0.02511215019 0.8532628903 0.5214407805 -0.006477073071
0.008111014366 0.01892498589 -0.02118213654 -0.3952685303 -0.918506721 0.01040156163
0.006660018921 0.0194720974 -0.02074963379 -0.3146166503 -0.9491345027 0.01265144654
0.01979733944 0.01339212942 -0.05316938591 0.9721624761 0.1056496446 0.2091369713
-0.007395562172 0.02743430138 -0.07981661224 -0.2785602586 -0.2988285633 -0.9127462255
0.001605544806 0.0205363903 -0.01884004974 -0.1003060591 -0.9948951843 0.01105742607
-0.0004713109732 0.02056811905 -0.01786100388 0.01115368203 -0.9998680066 -0.01181375436
0.02028752899 0.06060000229 -0.0590224247 0.8292020357 0.5589467324 -0.00159195665
0.02050709343 0.001633699894 -0.02053772545 0.9951893338 0.09793265515 -0.002717507479
-0.005686872482 0.01976421547 -0.01497849083 -0.2048755723 0.9787661502 0.006543940319
0.01532530117 0.05520691299 -0.07429522705 0.752107536 0.002433274017 -0.6590359121
0.02050146294 0.001806894302 -0.02565073967 0.9918298349 0.1274188727 0.006165180407
0.01453228664 0.04315593592 -0.07515430959 -0.7034462948 -0.009594623484 0.7106836523
-0.004387778282 0.04621892548 -0.04411069489 -0.3113467154 0.01094770902 0.9502333242
0.01819107437 -0.009607097626 -0.0141074419 0.7398861795 -0.6718730848 -0.03398528202
0.01411094141 0.03118930721 -0.07559991837 -0.6914063213 0.006822281288 0.7224339107
-0.01435536098 0.05361171722 -0.06988803864 0.8784500809 -0.008705302622 0.4777548253
0.02041190147 -0.002671912313 -0.0193055582 0.9895384309 -0.1442681644 0.0006249572536
0.02058799171 -0.0003814537227 -0.01962084389 0.9999287117 0.0008172772448 0.01191232916
-0.01317403698 0.04279031944 -0.04974518204 0.780257056 -0.007688659788 -0.6254117133
0.0195777607 0.02479957581 -0.06692031097 0.9562777622 -7.403308443e-05 -0.2924599734
-0.002205452919 0.02046795654 -0.02879174614 0.1141957908 -0.9934388389 0.006212470788
0.02029794693 0.003486559629 -0.0213168087 0.9836275224 0.1802075959 0.001455868432
-0.0003308200836 0.02057312202 -0.02133491135 0.0008786112247 -0.9999995772 0.0002711966321
0.01945523548 0.006702264786 -0.02327601242 0.9523704745 0.3048486682 0.007600576175
0.01636078405 0.01245943499 -0.02370259857 0.7818393425 0.6234376112 -0.007265498737
0.01504337406 0.01406890774 -0.02384096909 0.7324453291 0.6808198252 0.00286452312
0.02057551193 0.04504203415 -0.06139185715 0.9992094323 0.008608989043 -0.03881231378
0.017713974 0.06060000229 -0.05156838989 0.6274224743 0.7312812289 0.2675234625
0.00800638485 0.03281544113 -0.07956571198 -0.3832914144 0.02030135796 0.9234043245
0.003459567547 0.04472195435 -0.08088698578 -0.1691461202 0.00584220767 0.9855736698
0.01503321266 0.01407904243 -0.03523503876 0.7227565276 0.6910278615 0.01017332129
0.02056947041 0.02496488571 -0.06098414803 0.9997254333 -0.004848889459 -0.02292479524
0.01302540588 0.01594992065 -0.02377609444 -0.6283175252 -0.7778685258 -0.01173217857
-0.002546564817 0.02659730721 -0.08102321625 0.1202378697 0.000321019383 0.9927450587
0.01894818878 -0.007106850624 -0.04705123138 0.9441610044 -0.3168390659 -0.0904046679
0.01965850544 6.98739998e-05 -0.05698570633 0.9555225947 -0.2275278831 -0.1876369726
0.0107234993 0.01756050491 -0.02344861221 -0.5182978091 -0.8551951889 -0.002927463706
5.240088701e-05 0.03300868416 -0.08118801117 -0.02692083786 0.001186502394 0.9996368644
0.009465295792 0.01826916504 -0.02318829727 0.4578400043 0.8890271058 -0.003651793032
0.003685162306 0.02023872948 -0.02968735313 -0.1711745047 -0.9851880492 -0.01018806725
-0.01876458549 0.06060000229 -0.06386677933 0.7139360606 0.6939652868 0.09331389011
0.003458515167 0.02027230263 -0.02129130936 -0.1787886381 -0.983887292 -0.0006477442506
0.009552966118 0.01822410202 -0.03142391777 -0.4718651789 -0.8816706585 -0.0003207978518
0.0140610075 0.01502964783 -0.02713284683 -0.6949778704 -0.7189547448 0.01048019534
0.006238870144 0.01960086155 -0.03858373642 0.3528259376 0.9346986746 0.04303772142
0.009790841103 0.03446731186 -0.07869252014 -0.4798446698 -0.007108181992 0.8773246643
0.01324710751 0.06060000229 -0.04514661026 0.1715499922 0.9770897379 0.1259612808
0.001660551667 0.02053138924 -0.02056201744 -0.09665383042 -0.9953063476 0.004828194231
-0.002713248491 0.02037527466 -0.01926868153 0.1445307552 -0.9894981086 -0.002086568944
0.008274335861 0.01885962677 -0.03275256348 -0.4116758789 -0.9112790648 0.009666268569
0.003504386663 0.02026550674 -0.02299060059 -0.1769403019 -0.9842108566 0.004595569696
-0.003824323773 0.04731266594 -0.08080525589 -0.1817077302 0.002179539706 -0.9833501667
-0.005554635048 0.01980754471 -0.01679739189 -0.19783409 0.9802188234 0.00572110847
0.01775758998 0.03501623535 -0.0710127004 0.8486108675 -0.0114619803 -0.5288933905
0.003924224854 0.05793581772 -0.04401034927 0.2007332322 -0.3364130207 0.9200719803
-0.01483611107 0.05176473236 -0.06901498413 0.8955779482 0.001826726387 0.4449008898
-0.009598825455 0.01819824982 -0.01411477757 -0.6718801117 0.7398797067 -0.03398727985
