# .PCD v0.7 - Point Cloud Data file format
VERSION 0.7
FIELDS x y z normal_x normal_y normal_z
SIZE 4 4 4 4 4 4
TYPE F F F F F F
COUNT 1 1 1 1 1 1
WIDTH 560
HEIGHT 1
VIEWPOINT 0 0 0 1 0 0 0
POINTS 560
DATA ascii
0.002226024628 -0.02046151161 -0.038828022 0.1053635475 -0.9944168181 -0.005806444273
0.0205946064 0.0474679985 -0.0606556778 0.9998183222 0.004786707077 0.01845020495
-0.001711202383 -0.02034500694 -0.04347236633 -0.07242112489 -0.9936555436 -0.08604557716
0.004261547089 0.006949240208 -0.07833916473 -0.2215872706 0.3398964925 0.913985479
0.001603804708 -0.02053481483 -0.01883846092 0.09581403873 -0.9953510141 -0.009799426761
0.02052832508 0.01467930651 -0.06112470818 0.9987298431 -0.00347369473 -0.05026563318
0.008100113869 -0.01891469955 -0.021171978 0.383524108 -0.9234819389 -0.009506159723
0.01008483076 -0.01792901516 -0.02164996052 0.4848845857 -0.8743758267 0.01881096183
-0.001905511141 -0.01024511051 -0.06709825897 -0.08458457725 -0.7535812858 -0.6518900943
0.01756606483 -0.01070805931 -0.02177446556 0.8651929271 -0.5014135347 0.005066184948
0.02029834747 -0.003433376074 -0.01960094833 0.9825513877 -0.1859708866 0.002756784525
0.01090864563 -0.008150806427 -0.06488110352 0.5222843381 -0.6379328786 -0.5659158176
0.02040152931 0.002795937061 -0.01666825294 0.9871249456 0.1597079627 -0.008815238659
0.01560224215 -0.002397949735 -0.0650207723 0.7609472349 -0.4337717235 -0.4824949715
0.02058531189 0.05697648239 -0.06102456284 0.9999258129 0.01001876288 -0.0069277024
-0.00960307312 -0.01819456482 -0.01411101055 0.8386023567 0.5410489078 0.06334166574
0.01197591114 -0.01673786545 -0.03665258026 0.583030036 -0.8124204926 -0.006994301982
0.01827016258 -0.009466342926 -0.02318926811 0.8907940401 -0.4543719532 -0.005666240336
-0.002689074039 -0.02039669514 -0.01929023647 -0.1411902736 -0.9899726879 0.004402698831
0.01675603294 0.03522543716 -0.04864732361 0 0 1
0.003469116926 -0.02028199577 -0.0213009491 0.1779672104 -0.9840355131 0.001334520041
0.01990952682 0.005112445831 -0.0238850956 0.9641939278 0.2651310701 0.005965336496
0.0201706543 0.03034361649 -0.05643436813 0.9797520872 -0.007750207233 0.2000644442
0.02059065819 0.03598500061 -0.06106707382 0.9999446062 0.008493389777 -0.006216662184
0.006697631359 -0.01945090675 -0.02327177525 0.3245326475 -0.9458630151 0.004660200813
0.006388124466 0.04673463821 -0.0801743927 -0.313162976 -0.006409381426 0.9496777718
0.009767846107 0.0472645092 -0.07869469833 -0.460998025 -0.005132121356 0.8873863207
-0.002105360031 -0.0044433074 -0.07251687622 0.0964778675 0.615003369 0.7826000749
0.01403503132 -0.01310633278 -0.05150477219 0.6838275031 -0.6892994967 -0.2392616765
0.008122901917 -0.01890429688 -0.0228532486 0.3829455991 -0.92372248 -0.009457701549
0.009516976833 -0.01825367355 -0.02734146023 0.4564641548 -0.8897374605 0.002779708265
0.01190668297 -0.01678472519 -0.02364159203 0.5843946878 -0.8114250979 0.008494670188
0.02050345612 0.009018779755 -0.05470997238 0.9956319498 0.04462287522 0.08201109343
0.01858446312 0.008883730888 -0.01984363174 0.9379006058 0.3467193221 0.01132101346
0.01404341125 -0.01501801205 -0.02381681442 0.6906721181 -0.7231397334 0.006399323438
0.007866337299 -0.005103925228 -0.07011460114 -0.3718718072 0.6022546938 0.7063997754
0.01942237663 -0.006844926357 -0.03074373436 0.9432981931 -0.3317635071 -0.01102244292
0.01504489899 -0.01407044029 -0.02384242249 0.7248130936 -0.6889324394 0.004251271087
0.01755975533 -0.01072272205 -0.02344788742 0.8629757981 -0.5052415216 0.001943381244
0.001816104293 -0.02050980377 -0.02565884018 0.1189897861 -0.9928547016 0.00899846384
0.01890279961 -0.008121317863 -0.02285178566 0.9199201086 -0.3920108102 -0.008632410522
0.00375832955 -0.01912270101 -0.04931827037 0.1825213498 -0.9569046871 -0.2258746922
0.01503849649 -0.01407717657 -0.03121780205 0.7219620785 -0.6919317223 0.001117531898
0.01635763073 -0.01247999001 -0.02701538658 0.7752518306 -0.6315661259 -0.01043205438
0.01946452808 -0.006712214231 -0.02328510666 0.934444233 -0.3561026514 0.002208424653
0.01875827408 -0.002964601994 -0.05697047424 0.9180505544 -0.3288415189 -0.2214642973
0.02039274788 -0.00254937911 -0.02091752052 0.9923440067 -0.1227858199 -0.01330469154
0.02041640854 0.002666826129 -0.0193100872 0.991061144 0.1333384383 0.004320849305
0.01980667305 0.005555628777 -0.01679650688 0.9610779514 0.2750070645 -0.02646291199
0.01814197731 0.04952287674 -0.0509063797 0.8866813374 -0.009923848437 0.4622745106
-0.009392709732 -0.01829840279 -0.01600913239 0.9939146618 1.864378152e-06 0.110152826
-0.005429256439 -0.01984535027 -0.01859874153 -0.2786741019 -0.9603120126 -0.01189888269
0.01782530022 0.0191159296 -0.07082750702 0.8684586721 -0.01931728868 -0.4953850797
0.01405360603 -0.01501504755 -0.0311964035 0.6811147453 -0.7321744979 0.001791189775
0.0003800611794 -0.02057057953 -0.03968481064 0.0472564889 -0.9988081185 -0.01221337746
-0.002115071774 -0.01983327484 -0.04701844978 -0.09306138898 -0.9803025285 -0.174202556
0.001737053573 -0.02051911736 -0.02311924076 0.09785699173 -0.9951928538 -0.003897796505
0.001489235878 -0.0154776926 -0.05969574356 0.0623837363 -0.8798145185 -0.4712055629
0.01168054771 0.007817514658 -0.07527050018 -0.5691173461 0.2748926547 0.7749448205
0.003517156363 -0.02027718735 -0.02300210381 0.1717259443 -0.9851436449 0.001482909664
0.01136698914 0.00624083662 -0.07492389679 -0.5568244956 0.3188807499 0.7669821044
0.008156816959 -0.01888881207 -0.02535535145 0.3888818602 -0.9212860414 0.001711349421
0.01412962723 0.04338297081 -0.07558165741 -0.695348318 -0.006887969837 0.7186398768
0.009487674713 -0.01826447296 -0.02485884666 0.4561463 -0.8898825789 -0.006288779257
0.01191718197 -0.01678037834 -0.02530222893 0.5813999214 -0.8135710849 0.008730469748
0.01404581356 -0.01501745892 -0.0254736824 0.6959271729 -0.7179491298 0.01531068693
0.01049593735 0.007141175747 -0.07583045959 -0.5018979692 0.3060932155 0.8089532569
0.0150434618 -0.01407195282 -0.02549821663 0.7247343594 -0.6890089664 0.005172291768
0.01807569122 0.04489040756 -0.05076405716 0.8833734503 -0.01023094956 0.4685580807
0.02027037525 -0.002322373748 -0.04741208458 0.9874558928 -0.1493715106 -0.05117627974
0.01755348396 -0.01073729801 -0.0251114521 0.8616856597 -0.5074017324 -0.006426966965
0.01889303398 -0.008144581795 -0.02452368927 0.9151739072 -0.4030485769 -0.002926465373
0.0199206028 -0.005185351849 -0.02361754036 0.9671733071 -0.253870753 0.01119976805
0.004410204411 0.01545611763 -0.08034185791 -0.2271308902 0.1305379471 0.9650758535
0.009761506081 0.02163305092 -0.07872401428 -0.5033712305 0.01678450644 0.86390722
0.02042112287 -0.002311239878 -0.02306309064 0.9927117156 -0.120068331 -0.01034628556
0.01304454517 -0.01594256592 -0.0287221489 0.636474719 -0.7712922947 -0.002850990591
0.02058741951 0.0003148565888 -0.0213491478 0.9999999643 0.0002232922285 0.0001470218929
0.02007482719 0.02530640888 -0.06508591843 0.9765856354 0.01022868721 -0.2148857154
-0.009183900833 -0.01840147209 -0.01789322662 0.7801535076 0.6233931351 0.05235937072
0.005475503922 -0.01985315323 -0.03677352524 0.2478226286 -0.9687726848 -0.007964291572
-0.005234847069 -0.01990857697 -0.02128389931 -0.2667904671 -0.9637324786 -0.006523531785
-0.0002800235152 -0.02055875778 -0.02303913689 0.006911537563 -0.9999350197 -0.009065711558
0.020599617 -2.884228528e-05 -0.02984891701 0.9999795335 -0.001675733481 0.006174505951
0.01925043805 -0.002786655267 -0.05508456548 0.9287695506 -0.3128918087 -0.1987104373
0.005226663113 -0.01991597748 -0.02529945564 0.2461826076 -0.9691870366 0.008403084937
5.625405908e-05 0.03556449318 -0.0811875 -0.0504711348 0.02847402641 0.9983195352
0.006741882324 -0.01943636131 -0.02578043938 0.3246814135 -0.9458204101 0.002394065614
-0.0002122433037 -0.02055997276 -0.02474838257 0.005150935809 -0.9999866426 0.0004272369518
0.01192584515 -0.01677432823 -0.02695156288 0.579687557 -0.8147836107 -0.009487040853
0.003787892103 -0.0202383194 -0.03298942947 0.1843025788 -0.9828695473 0.000111338683
0.01504203224 -0.01407345676 -0.02714442253 0.7215964421 -0.6922785075 -0.007003053895
0.02047162056 0.04043004227 -0.06279443359 0.9951863306 0.002960415988 -0.09795612945
0.01754724693 -0.01075178814 -0.02676531219 0.8570606619 -0.5152154876 -0.0001520975341
0.02045810318 -0.002222271442 -0.03882496262 0.9946707323 -0.1027207957 -0.00886410718
0.01845568021 -0.009070002556 -0.02750262896 0.9022233396 -0.4312580338 0.003090910147
0.01991403389 -0.005224559784 -0.02529756927 0.9666089787 -0.2559438809 0.01264168272
0.0203791256 -0.002677277446 -0.02516429234 0.9925112108 -0.1212850404 0.0145408163
0.009568305016 -0.01512927532 -0.05507744598 -0.4639631415 0.821259389 0.3320711057
0.02059021378 0.0002449150085 -0.023070158 0.9998840147 -0.01174205143 -0.009699555216
0.01983570099 0.05886653137 -0.05520426941 0.9695479543 0.04222679474 0.2412336257
0.02043116188 0.002538802385 -0.02192967796 0.9904963677 0.1374754211 -0.004177808633
0.0168317318 0.0396841507 -0.04876935577 0 0 1
0.02054335403 0.05249399567 -0.05908611298 0.9968335785 -0.0001139403885 0.07951606022
-0.004499656677 -0.02009990311 -0.03255788422 -0.2203939463 -0.9752115089 -0.01972362476
0.01847891998 0.009094687462 -0.01797089005 0.9355866305 0.3528045843 0.01437296731
0.001863456011 -0.01985311413 -0.04705817413 0.05870825659 -0.9835155348 -0.1710278732
0.01108560658 0.01034985638 -0.07650881195 -0.5397490126 0.2250735173 0.8111799524
-0.008976620674 -0.01850378799 -0.01976351738 0.3570863814 0.9340048239 -0.01114922353
0.01197047043 -0.01669096947 -0.0413592453 0.5811722478 -0.8128705731 -0.0384740145
-0.00246233201 -0.02043367195 -0.02365441132 -0.1282354239 -0.9916341839 0.01474182454
0.003635964513 -0.02026529503 -0.02720928478 0.1847992304 -0.9827624895 -0.005209004512
0.006771152973 -0.01942673874 -0.02743982887 0.3316719 -0.9433871899 0.003789545272
0.01775094318 0.02331418514 -0.07101568604 0.8489125869 0.003922253934 -0.5285187184
0.01193430805 -0.01676816559 -0.02859127426 0.5811590424 -0.8137365204 -0.009329671185
0.01300356388 0.05033104706 -0.07652241516 -0.6334153527 -0.000320889244 0.7738119203
0.01405028629 -0.01501607513 -0.02875847054 0.6906089579 -0.7232250409 -0.002192593794
0.007658080816 -0.01413008451 -0.05921438408 0.3584086758 -0.8133159077 -0.458323527
0.01966978836 0.04013460159 -0.05457552719 0.9614103437 0.0165530936 0.2746200032
0.01504061127 -0.01407495117 -0.02878118515 0.7245118066 -0.6892602111 -0.001733047185
0.01635342264 -0.01248748636 -0.02865491962 0.7780508493 -0.6281904449 -0.003693350942
0.01753796577 -0.01077335787 -0.02922705364 0.8535723175 -0.5209739512 -0.0006640570417
0.002125287533 -0.02047337914 -0.03559172821 0.1335505967 -0.9910124177 0.007656768986
0.01178428841 0.03939459801 -0.07748360443 -0.5846196418 -0.01399839474 0.8111867352
-0.004711658001 -0.02005153656 -0.02914743423 -0.2467336091 -0.9690734923 -0.004369516438
-0.005093947411 -0.01883962822 -0.04935250473 -0.2529040926 -0.9470550362 -0.197803636
-0.0002493193845 -0.01061964417 -0.06679555511 -0.00122092883 -0.7568236898 -0.6536179403
0.01944097137 -0.006786381721 -0.02745343018 0.9437867712 -0.3305489876 0.001974157666
0.02014225705 -0.004174366713 -0.02712512398 0.9777791927 -0.2091836139 -0.01378644397
0.02044091606 0.002454164028 -0.02366152573 0.9897057108 0.1424567513 0.01373608517
-2.502077818e-05 -0.01992683029 -0.04710933685 0.01308102153 -0.9858090694 -0.1673599877
0.01612888972 -0.00659307766 -0.05932023875 0.7781222905 -0.5167744315 -0.3570292536
-0.0001113896817 -0.02056177807 -0.02729165745 0.01249624558 -0.9999075319 0.005363913924
0.01485233021 0.0026875422 -0.06989187622 0.7265638266 -0.3587757393 -0.5859905926
0.001868387341 -0.02050364494 -0.02733849716 0.1211301611 -0.9925932938 0.009275620055
0.008212730408 -0.01886328506 -0.0294804306 0.3989746873 -0.9169321822 0.007387293781
0.01784949875 -0.004878389835 -0.05734122467 0.8745830694 -0.3967112157 -0.2787914382
0.01800148201 0.01832640076 -0.05033860779 0.9157211507 0.02913703208 0.4007565439
0.00086484164 0.05560314178 -0.08114180756 -0.1062953985 0.01877755308 0.9941572772
0.01936533737 0.01455091763 -0.05224427032 0.9480680484 0.1205450418 0.2943397161
0.0205939045 0.05217277527 -0.06083732224 0.999951093 0.007328887177 0.006640708157
0.01194690561 -0.01675899029 -0.03103224182 0.5817162348 -0.813390734 -0.001317570788
0.01503500748 -0.01408084679 -0.03523663712 0.7214444932 -0.6923961907 0.01026441925
0.01939487648 -0.006931506157 -0.03560963058 0.9342301176 -0.3564624943 0.01218923409
-0.008552159309 0.01339156628 -0.07861443329 -0.4040813176 -0.174833975 -0.8978593264
0.01938269997 0.03673768425 -0.06748848724 0.9358749703 0.0006317872906 -0.3523317199
0.01634658837 -0.01249806666 -0.03109508133 0.7838620392 -0.6209341567 -0.001037547589
0.00375953126 -0.01984392357 -0.04549399567 0.1699732752 -0.9749575147 -0.143411751
0.0150336256 -0.01408230019 -0.03682828522 0.7244249758 -0.68935071 -0.002013204425
0.02007255936 -0.00449667716 -0.02916021061 0.9785400146 -0.2058786497 -0.008568630311
0.02048229408 -0.001844820976 -0.02731796074 0.9928619287 -0.1187017132 0.01162298776
0.02059712505 7.197140343e-05 -0.02732567406 0.9999503769 -0.006923979186 0.007162557985
0.006658102036 0.009222131729 -0.07840023804 -0.323569699 0.2713956282 0.9064474959
-0.004933886528 -0.0199958992 -0.02568816376 -0.2646561197 -0.9641893313 0.0172067362
0.003702787638 -0.02025486946 -0.02970264435 0.1868962228 -0.9823544973 0.007031615409
0.01752875328 -0.01079476357 -0.0316701088 0.8541578991 -0.5199658835 0.00705432032
0.01853903008 -0.008894330978 -0.03126906776 0.9014437095 -0.4328949506 0.001095586625
0.01221364164 0.05943084717 -0.07713667679 0.6153965109 0.01803592352 -0.7880113196
0.02000197474 -0.00481335783 -0.03117580032 0.9777488383 -0.2095250229 0.01031862276
0.02047877884 -0.001899681091 -0.02899043274 0.9927741431 -0.1195922874 -0.009858270327
0.02046024323 0.002286448002 -0.02709328651 0.991139983 0.1323109669 -0.01163366316
0.01957489204 0.006634516239 -0.04274626923 0.9594318611 0.2811985025 0.02044275238
0.0155412879 0.01347314405 -0.07330831909 0.7596353013 -0.13764636 -0.6356159915
0.01993482971 0.005003414631 -0.02562902451 0.9655820507 0.2598471567 0.0114349671
0.01713101387 0.05343745804 -0.04924225616 0.7883812321 0.2313169256 0.5700416764
-0.008391109467 -0.01878250313 -0.02527080727 -0.3340152783 -0.9425214112 0.009337203147
-0.004822423935 -0.02002380562 -0.02742321777 -0.2547567247 -0.9670037948 -0.001634663016
-0.002210675478 -0.02046331978 -0.028787323 -0.1111625259 -0.9937520958 -0.009983228902
0.001972036719 -0.0204914341 -0.03066835785 0.1148850921 -0.9933784581 0.0008091097632
0.003745461702 -0.02024657059 -0.03135073853 0.189263086 -0.9818920863 0.008210677528
0.006872261763 -0.01939350319 -0.03317187119 0.3293426179 -0.9442101305 0.0008182152126
-0.01144871426 -0.0147236948 -0.05318006516 -0.5169512841 -0.788951452 -0.3321399951
0.0205958271 -0.0003134475797 -0.03727220345 0.9999153986 -0.01285788601 0.001967334697
0.008256875038 -0.01884313011 -0.03273733521 0.3953356428 -0.9184432653 -0.01310335198
0.009584420204 -0.01822881508 -0.03305548859 0.463491384 -0.886090876 -0.004323934654
0.01909603119 0.02616918755 -0.06830836487 0.9257251929 0.008284316231 -0.3781061192
0.01503639698 -0.0140793848 -0.0336362381 0.7243866551 -0.6893825684 0.003955793023
0.02050755501 0.00187589848 -0.03549384308 0.9969320554 0.07785092701 0.008106170612
0.01841570854 0.04669039917 -0.0697508316 0.904653662 0.01031116169 -0.4260228066
0.0175226593 -0.01080892754 -0.03328659058 0.856478219 -0.5161713594 0.003491141968
0.01940857506 -0.00688837862 -0.03318579292 0.9368819236 -0.3495875107 -0.006390120905
0.02047528267 -0.001954220295 -0.03065312195 0.9926575277 -0.1209406455 -0.002095930451
0.01781552124 -0.01024943686 -0.04110687256 0.8652390684 -0.5007126693 -0.02545932515
-0.001083841801 0.002021511316 -0.07671563721 0.04949990751 0.450124398 0.8915928362
-0.002086613059 -0.02047793579 -0.03131775951 -0.1054484191 -0.9944212435 0.002649801585
0.02048126411 0.001220272779 -0.05149472046 0.9953283208 -0.07912901866 -0.05531846182
5.484042689e-05 -0.02056475449 -0.03148356247 0.02131938146 -0.9997409006 0.007975937294
0.01406983948 0.02932637024 -0.07562278748 -0.6777246604 -0.003363226575 0.7353080806
0.007831435362 -0.01901192983 -0.0353018837 0.3979356449 -0.9174109731 0.00208061356
0.02001385307 0.04186432648 -0.0557527504 0.9723992982 -0.006734596999 0.2332257491
0.009603442192 -0.01822180367 -0.03466709518 0.4677905792 -0.8838137688 -0.006722807382
0.008140757561 -0.007220449448 -0.06799563599 -0.3901004353 0.6485704776 0.6535885448
0.01082269669 -0.01751629257 -0.03489379883 0.5206191006 -0.8537734637 -0.005159930719
0.01928058052 0.0002600367963 -0.0589761734 0.9317533519 -0.2615325956 -0.2518658225
-0.007984640598 0.01672891998 -0.0793527298 -0.3408369659 -0.1474426967 -0.9284884565
-0.006386786461 -0.005897974491 -0.07013566589 0.3012605568 0.6412142054 0.7057523785
0.005349263668 -0.01181655979 -0.06421421814 0.2469185806 -0.7761684663 -0.5801669816
0.01196768284 -0.01674385834 -0.03505816269 0.5839330595 -0.8117917782 0.004036195835
0.02049820518 0.001957039833 -0.03383355331 0.9932839918 0.1153261719 0.009315879596
0.01306359386 -0.01592707634 -0.03518140411 0.633149236 -0.7739813742 0.00865317051
0.01633404875 -0.0125142293 -0.03511852646 0.7827976615 -0.6222403101 0.006694602707
0.01786091995 -0.01020455408 -0.03477305412 0.874432872 -0.4850534647 -0.009502036389
-0.007583339691 -0.01914817429 -0.03327879333 -0.2970428197 -0.9548588754 0.003176691894
-0.00787610817 -0.01605463219 -0.05498324966 -0.3791034032 -0.8604031067 -0.3405687942
0.0188309164 -0.008292552471 -0.03515752983 0.9205705459 -0.3904341867 0.01053640648
0.02004976082 -0.004591396689 -0.03326106262 0.9771095842 -0.2125964755 0.007720037032
0.02030268478 0.027914505 -0.05730450821 0.988137239 -0.01827526594 0.1524821682
0.02059876633 -9.273843467e-05 -0.03151550293 0.9999470762 0.0001059799969 0.01028754853
0.02048406792 0.002079709172 -0.03132352161 0.9924437346 0.122698497 0.0007159321391
0.01999331093 0.004777896404 -0.02909215164 0.9692646601 0.2459914665 -0.003770551251
-0.004601577759 -0.02007909775 -0.03086097717 -0.2357379333 -0.9715898371 -0.02099560316
0.003830082655 -0.02023011398 -0.03461886215 0.1732185855 -0.9848814867 0.001943931582
0.009628466606 -0.01820821476 -0.03706392288 0.4765281436 -0.8791501577 0.003991055035
0.01406447983 -0.01501168442 -0.0391812973 0.6800797161 -0.7330741472 -0.009688886293
0.008030718565 -0.006190148354 -0.06907234573 -0.355424211 0.6341382431 0.6866893903
0.01306828976 -0.01592325783 -0.03677397156 0.6335794269 -0.7736435038 -0.007269031154
0.01632908201 -0.01252063036 -0.03671197891 0.7904400749 -0.6125217691 -0.004644387814
0.01784962034 -0.01022756124 -0.03716837215 0.8768677915 -0.4807307461 0.0009088560644
0.005879755974 -0.004341591199 -0.07163927714 -0.2902372429 0.5974130255 0.747569408
0.02004085541 -0.004629668951 -0.03488570595 0.9713977577 -0.2371599355 -0.01189795548
0.02059791946 -0.0001562637836 -0.0331724205 0.9999602886 -0.005896245274 -0.006682472214
0.004386447906 0.04244276047 -0.08067628479 -0.2223907015 -0.005212844005 0.9749436918
-0.001963530421 -0.02049243546 -0.03382821274 -0.1008605941 -0.9948067969 0.01365933101
-0.007264799595 -0.01888126373 -0.04538570404 -0.2916901325 -0.9465054243 -0.1380012619
-0.01085228634 -0.003524939775 -0.06944532013 -0.4942727372 -0.5546271944 -0.6693901228
0.007632740974 -0.01909173393 -0.03737724304 0.3649080427 -0.93101944 0.006702445745
0.000186044991 -0.02056710434 -0.03479220963 0.03110227826 -0.9995058315 -0.004554232603
0.0119881649 -0.01672894096 -0.039026968 0.5840626309 -0.8116366436 -0.01080749582
0.01887175751 0.05078633499 -0.05242387772 0.9336702071 0.01239657297 0.3579193614
0.01317929554 0.02819693947 -0.07642040253 -0.6229628789 0.007279923365 0.7822175236
0.013075284 -0.01591757011 -0.03914562798 0.6337114698 -0.7734737661 -0.01216988797
0.01632168674 -0.01253016257 -0.03908494091 0.7960044982 -0.6051873617 -0.01118463454
0.02055805206 0.01669398308 -0.06120975113 0.999375274 -0.005740407727 -0.03487275991
0.0098921175 0.01289322027 -0.07782826233 -0.4766557664 0.1744007104 0.8616168943
0.01631773663 0.0116981492 -0.07189917755 0.7951372133 -0.1640327968 -0.5838236495
0.01938581085 -0.006960045815 -0.03721360397 0.938114367 -0.3461141105 0.01210194223
-0.003581622481 -0.014301085 -0.06121346855 -0.169832049 -0.8360165132 -0.5217599686
0.02046491814 -0.002115961313 -0.03558397675 0.9957231628 -0.09170054237 0.01124248779
0.01080897617 -0.01740637016 -0.04273199463 0.5196090065 -0.8515429766 -0.06986443494
0.02059707832 -0.0002194239497 -0.03481980896 0.9999163507 -0.009652136869 -0.00860975698
0.01435557699 -0.01342441034 -0.04948101425 0.6910878913 -0.6960700759 -0.194638064
-0.00435013485 -0.02012898159 -0.03508121681 -0.2297503569 -0.9732362886 -0.005089214987
-0.001882116079 -0.02050202751 -0.03548877716 -0.09772832894 -0.9951412591 0.01196027689
0.01937047958 0.04760928345 -0.0536414566 0.9463269004 0.01807028928 0.3227055347
0.00217579627 -0.02046742821 -0.03721437836 0.1091279607 -0.9940042034 0.006836072939
0.01850389767 0.009518455505 -0.06741529846 0.8959780529 -0.1736651709 -0.4087343112
0.007657574177 -0.01908219528 -0.03896899605 0.3758738326 -0.9265714185 -0.01357455115
0.009653225899 -0.01819464302 -0.0394433403 0.4735397647 -0.8807359148 -0.008021197214
0.01751660156 0.005688865423 -0.06760410309 0.86309077 -0.2408031154 -0.443946148
0.0120666008 -0.01485437679 -0.05141767502 0.6029086226 -0.7546620813 -0.2588171861
0.009314155579 0.01611574364 -0.07867697144 -0.4479309336 0.1021882309 0.8882091219
0.02014140701 0.05455434799 -0.06485541534 0.976188475 -0.003764379684 -0.216891426
0.01085949898 -0.01749349213 -0.03965941238 0.5249966517 -0.8510532051 -0.009325114709
0.01783806515 -0.01025005341 -0.03954606247 0.8714396926 -0.4904896324 -0.003575290521
0.005190700531 -0.007959658623 -0.06870955658 -0.2673458885 0.6805811431 0.682155029
0.01880761147 -0.00834806633 -0.03914702988 0.9184037568 -0.3955326942 -0.009403578401
0.01937679672 -0.006988429546 -0.03880880737 0.9332313465 -0.3591880261 -0.007950839307
0.01623836851 -0.01247332573 -0.042939888 0.7830245037 -0.619564563 -0.05488514286
-0.0001346748024 0.02948476219 -0.08118730927 0.04004541505 -0.03147641849 -0.9987019574
0.01995659955 -0.004997656027 -0.03926156871 0.9663117782 -0.257371887 -0.0011221222
0.02046150017 -0.002169265032 -0.03720900345 0.9951073336 -0.09879973356 8.468440599e-05
0.01392432332 -0.00656551218 -0.06318927288 0.6765746335 -0.5582600148 -0.480200501
0.0177720108 0.02286285782 -0.05019326019 0.8694297355 -0.008842727259 0.4939774703
-0.004514430523 -0.01533275318 -0.05898887634 -0.2076927323 -0.8629879107 -0.4605600882
-0.01136718178 -0.01075721264 -0.06105327606 -0.5497655394 -0.6967994527 -0.4606825093
0.0200826416 0.004441462994 -0.03420963669 0.9739143752 0.2268971842 -0.002908190678
-0.00180117321 -0.02051156235 -0.03713972855 -0.06662355042 -0.997740996 -0.008614378783
0.007435121854 -0.01913562075 -0.04099744415 0.3574932043 -0.9334158005 -0.03055408664
0.01847763252 0.03104751968 -0.06967402649 0.8949185322 0.003290452656 -0.4462174286
0.02043418121 0.005326739788 -0.04989334106 0.9947586551 0.08921023063 0.04996751808
0.01813016129 0.001328256845 -0.06339066315 0.8839352389 -0.2922521717 -0.3650303571
0.01970558929 0.04469904327 -0.05471373367 0.9634952352 0.01586589418 0.2672549441
0.003897152066 0.03544681549 -0.08079057312 0.1877790817 0.01169339273 -0.9821416807
0.01154195595 0.01970069981 -0.07759081268 -0.5728879332 0.02556112051 0.8192350366
0.009644786835 -0.01816194344 -0.04099753952 0.4731225893 -0.880482302 -0.03009869397
0.0130515461 -0.01588170528 -0.04147438812 0.633712714 -0.7730499106 -0.02832016627
0.008168662071 -0.01851869965 -0.04520296097 0.3980237357 -0.9108321569 -0.1093704157
0.02036360168 0.04579802704 -0.05785559464 0.9920801797 -0.007416769496 0.125387035
0.01403755569 -0.0149807148 -0.04151021957 0.6886577089 -0.7240830122 -0.03813595828
0.002094757795 -0.02013873863 -0.04493709564 0.09689864819 -0.9893425708 -0.1086827013
-0.009173398972 -0.001322772384 -0.07228449249 -0.4135722878 -0.5174102231 -0.749162615
-0.007914114952 -0.004427751064 -0.07066791534 0.3762116586 0.5822327455 0.7207425462
0.01499750614 -0.01405443192 -0.0415246048 0.7169988382 -0.6959561328 -0.03946805436
0.01966887347 -0.004336325566 -0.04925728607 0.9583986554 -0.2661148041 -0.1032227129
0.01628942299 -0.01251419592 -0.04141949654 0.7904556238 -0.6113641828 -0.03759977184
-0.007359909534 -0.01923228073 -0.03586471558 -0.2837912078 -0.9588814564 0.002983767155
-0.001665370643 -0.02047775078 -0.04117422867 -0.06687091452 -0.9969458827 -0.0403384142
-0.004201789379 -0.02015782928 -0.03758470154 -0.2255207832 -0.9742001855 0.008624092119
0.005964275599 -0.01812154865 -0.05106492043 0.2669991206 -0.9217922055 -0.2810882415
0.01357568359 0.05901894379 -0.07605119324 0.6539558398 0.03887446686 -0.7555332788
-0.001720694661 -0.02052104378 -0.03878120804 -0.06342461309 -0.9978426226 -0.01695343449
0.002255111098 -0.02041118622 -0.04119423103 0.1151134941 -0.9925511286 -0.03988910453
0.003962227821 -0.02016629219 -0.0410189209 0.1780505566 -0.9833713209 -0.03576093614
0.0055297966 -0.01978118324 -0.04151488876 0.2562137294 -0.9654270574 -0.04801168283
0.007839703401 -0.01886031977 -0.04313745372 0.3973772411 -0.9149561615 -0.07033172028
0.009583821297 -0.01806698513 -0.04327353668 0.4801627349 -0.8742217604 -0.07197264553
0.01193619156 -0.01664382935 -0.04288470459 0.5726348417 -0.8176039696 -0.0601089592
0.01399499035 -0.01493559551 -0.04303144836 0.6958611958 -0.7149931549 -0.06754246532
0.01786819331 -0.01001452351 -0.04311142349 0.8705031594 -0.4890891284 -0.05491879432
0.01873047352 -0.008345548153 -0.04303417206 0.8977289151 -0.4381768185 -0.0456494322
-0.0004104891717 0.00322325778 -0.07729566574 0.03425178548 0.422662057 0.9056398847
0.01832442284 0.02482043266 -0.06998786163 0.9036148193 0.0004225572698 -0.428345748
0.01999178028 -0.004765571117 -0.04128281021 0.9689864256 -0.2469556931 -0.008842665379
-0.00955463028 -0.0165237751 -0.05143811798 -0.4337019243 -0.8521891919 -0.2927050086
0.01658773994 0.03957027817 -0.07274728394 0.8027836517 0.00525683492 -0.5962472425
0.02035360813 0.05690623856 -0.06342593765 0.9871814568 0.009785722705 -0.1593016351
0.02044823837 -0.002295904756 -0.04122688293 0.9940141911 -0.1092076599 0.003078124209
0.02059458542 -0.0004067681134 -0.03970626068 0.9998262938 -0.01695181263 0.007747150226
0.007926090002 -0.01724990654 -0.05149165726 0.3927059751 -0.8773510636 -0.2757483062
0.02052609634 0.001715017676 -0.03878574371 0.9974066278 0.07194288751 0.002059087932
0.02014129639 0.004220561504 -0.03756977081 0.9733924808 0.2290708953 0.00579682886
0.0192038269 0.007392547607 -0.03583888245 0.9587836162 0.2841101446 0.00392466745
-0.007224535465 -0.01927712631 -0.03756454849 -0.2807595743 -0.9597697 -0.004022973359
-0.01294011974 -0.01334598732 -0.05368790436 0.6718915718 0.7398692498 0.03398836446
0.003726730227 -0.01020246506 -0.06677415848 0.1637539524 -0.7460687225 -0.6454193245
0.003782237371 -0.01651420784 -0.05692240143 0.1675941715 -0.8962306662 -0.4107101004
0.01688883018 0.04147774506 -0.07230472565 0.8318305831 0.0007527414863 -0.5550291113
-0.004103662014 -0.02017691231 -0.03924070358 -0.2201235967 -0.9754398394 -0.00791971102
0.0004846734405 0.01181791782 -0.08021032715 -0.02418010457 0.2105139272 0.9772917727
0.0003907552063 -0.02052383995 -0.04125511932 0.03591811713 -0.9985340767 -0.04049180782
0.0039034096 -0.02004394531 -0.04329698372 0.1684907309 -0.9822390645 -0.08256690449
0.01067266369 -0.01724627876 -0.04493525505 0.5129979376 -0.8515887534 -0.1078411381
-0.007046466827 -0.01917931747 -0.04321370697 0.2798373786 0.9578748862 0.06455032142
0.01213521957 -0.01619867611 -0.04536353048 0.5819412988 -0.8042443559 -0.1205626012
0.01990849686 0.02857166862 -0.05535450745 0.9785691005 0.008555127838 0.2057409179
0.01291716766 -0.01573285866 -0.04446505737 0.6267330298 -0.7730916311 -0.09764752624
0.006066431761 -0.0192691021 -0.04542421532 0.3145706141 -0.9402185497 -0.1305159284
0.01433622551 -0.01433628583 -0.04524598122 0.6953514237 -0.709488911 -0.1145071297
0.01610754251 -0.01235659552 -0.04516024113 0.7757958224 -0.6247846111 -0.08823282595
0.02042529106 -0.002354532003 -0.04360002136 0.9924362543 -0.1211125649 -0.0200506315
0.01730430222 -0.0107327733 -0.044984478 0.8450366915 -0.5285777118 -0.08073780098
0.01176432991 0.02558670235 -0.07747461319 -0.5729067137 -0.001207951577 0.8196196912
0.01927655029 -0.006994182587 -0.04347945023 0.9347912773 -0.3525044691 -0.04365623896
0.01609461975 0.02090891457 -0.07345648956 0.7846302086 -0.01190108788 -0.6198498205
0.01950558472 0.02792048836 -0.06713668442 0.9462294009 -0.003071387575 -0.3234818193
0.02000536919 -0.004513546705 -0.0432737414 0.9705982253 -0.2390193619 -0.02843993158
0.01634290187 -0.0110633777 -0.04958679326 0.7959658481 -0.5769681709 -0.1831559403
0.01199968147 0.0492013607 -0.07729878998 -0.5776527359 0.0004640146334 0.8162824888
0.02059311676 -0.0004678031504 -0.04131639481 0.9997363619 -0.02291691288 0.001421926381
0.02017036247 0.004111095905 -0.03923484802 0.9747304347 0.2233064028 0.005901697786
0.01925633621 0.007248374939 -0.03754586029 0.9601015052 0.279605889 0.00506423638
0.0003885230124 -0.02046575356 -0.04280748367 0.03374914883 -0.9964095346 -0.07764685597
0.009450408936 -0.01790302277 -0.04547629929 0.4497084311 -0.8841213098 -0.1268536028
0.01299061012 0.02219037247 -0.07657694244 -0.6137903124 0.01383319738 0.7893478923
0.01829068184 -0.008893613338 -0.04540759277 0.8875615426 -0.4510913925 -0.09354712021
0.01919878387 -0.006948367119 -0.04498239899 0.930396799 -0.361236459 -0.06220946195
-0.01222607994 -0.01655567169 -0.03925717545 0.6691892688 0.7421948383 0.03650403511
0.02020890427 0.003991328001 -0.04089867401 0.9776880782 0.2100453675 -0.002639199425
-0.007017494202 -0.01931254959 -0.04088625336 -0.278058353 -0.9600721072 -0.03074250025
-0.004100975752 -0.02001237392 -0.04315391541 -0.2123789081 -0.9747628745 -0.06879344413
0.01963825226 0.007496927977 -0.0632772007 0.9452444903 -0.1521944305 -0.2887034966
0.006116201719 -0.01896954664 -0.04712454224 0.3114227021 -0.9356384262 -0.1661223528
0.02041725731 0.001225461006 -0.05299834824 0.9911262925 -0.1144010752 -0.06768357455
0.007951773643 -0.01826935005 -0.04732554054 0.3963018838 -0.9027923737 -0.1670650976
0.009296824455 -0.01773206139 -0.04688454819 0.4450186602 -0.881932504 -0.1554138039
0.01046939564 -0.01702170181 -0.04707191467 0.5090891878 -0.8452727653 -0.1623026526
0.01160330868 -0.01627845764 -0.04723051071 0.5792661212 -0.8012339566 -0.1499163354
0.009881325722 -0.01639769936 -0.0511653862 0.476646113 -0.8399011187 -0.2595661646
0.007938818137 0.003485380252 -0.07565615845 -0.3827984226 0.3990941359 0.8331801956
0.01265909958 -0.01546231747 -0.04732770538 0.5999487065 -0.7833814962 -0.1624037595
0.01414440584 -0.01414447451 -0.04739586067 0.677570749 -0.7212531218 -0.143846496
0.01947938728 0.01745611191 -0.05358192825 0.9402156065 0.07044408768 0.3332150114
0.01593211365 -0.01219427347 -0.04733034134 0.7566265935 -0.6391857551 -0.1376872126
-0.002515445232 -0.0153466959 -0.05970899582 -0.1128369964 -0.8730887786 -0.4743245692
0.01713226509 -0.01058391857 -0.0471643219 0.8266137565 -0.5475014251 -0.1301994126
0.01825577672 -0.008574628194 -0.0473175354 0.8765331553 -0.4658303154 -0.121209508
0.01679622269 0.01613567352 -0.07215603638 0.8254983962 -0.07573945151 -0.5592995024
0.02038021469 -0.002360458851 -0.04514527893 0.9901223808 -0.1344475769 -0.03976833124
0.02054815483 0.001483112812 -0.04364936447 0.9990407511 0.03999468247 0.01783263895
-0.01253943062 -0.01166536713 -0.05788792419 -0.5437503698 -0.7264647095 -0.4202196582
0.02026501083 0.003852089882 -0.04256821823 0.982314117 0.1868329722 0.01234568973
0.01134032774 -0.01600179768 -0.04930591774 0.5788537018 -0.7938572437 -0.1863305358
0.01499385262 0.05407712555 -0.04654608154 0 0 1
0.01238863182 -0.01518372154 -0.04939772224 0.6062917009 -0.7689524131 -0.2027869816
0.01340509033 -0.0143363533 -0.04946542931 0.6564747264 -0.7283625686 -0.1962878045
0.01687465477 -0.004869057655 -0.05995513916 0.8216852446 -0.4436201526 -0.3578191149
0.01525436926 -0.01246034718 -0.04945521736 -0.7322286068 0.6586517949 0.1732601526
0.01697400475 -0.01043945503 -0.04857338715 0.8215605995 -0.5489213021 -0.1540246258
0.01830560112 0.05144219208 -0.06996373749 0.8855290637 -0.000386416584 -0.4645838223
0.01783158684 -0.00880568107 -0.04928131739 0.864955667 -0.4780426338 -0.1527315763
0.01398220348 0.03154070091 -0.07572662354 -0.6888476918 -0.008150505859 0.7248602808
0.01975004101 -0.00468887043 -0.04738079453 0.9606648041 -0.2663312105 -0.07868176663
0.02037318134 0.003616934419 -0.04507355881 0.9880744591 0.144241031 0.05388309721
0.01582207465 -0.008430817604 -0.0571579752 0.7611023994 -0.5606676094 -0.3261517583
-0.004290062428 -0.01974628067 -0.04533655167 -0.2158554733 -0.9698661156 -0.1129873108
0.01309227848 -0.01402104759 -0.05149360657 0.6348157363 -0.7340871343 -0.2410913938
0.01907222939 0.006097522736 -0.0643033905 0.92561497 -0.1925865031 -0.3258026489
-0.00524804306 0.03841005325 -0.08049537659 -0.2653870481 0.2366862853 -0.9346386024
0.01884326935 -0.006679515839 -0.0493481636 0.9180116538 -0.375880094 -0.1263675531
0.01420854425 0.04107268715 -0.07545664215 -0.6927564409 -0.003009195112 0.7211653475
0.02048268318 -0.0005924210548 -0.04758128357 0.9971110786 -0.06392933837 -0.04101873515
0.0205749073 0.001316892028 -0.04685767365 0.9997783187 -0.02105283426 0.0003027717333
0.01727419853 0.01130466175 -0.04153955078 0.7421964036 0.6691876077 -0.03650265942
-0.003707218409 -0.01226616478 -0.06420264435 -0.1498672645 -0.7939352684 -0.5892423886
-0.00622704649 0.005275194168 -0.07715058136 0.3031581355 0.348945305 0.8867538097
-0.004641517401 -0.01933739758 -0.04738518524 -0.2245990535 -0.9606565697 -0.1633836597
0.005530910015 -0.01766408157 -0.05299625778 0.2711237717 -0.9117058826 -0.3086815254
-0.0002492041737 -0.01966980934 -0.04846771622 -0.02838509973 -0.9803603936 -0.1951609201
0.001555567265 -0.01949814987 -0.04911110687 0.08312464606 -0.9688851217 -0.2331349698
0.01042492294 -0.009505133629 -0.06371801376 0.5022190228 -0.6787572236 -0.5357841772
0.007437494755 -0.01770958138 -0.05072068024 0.3475206905 -0.9024275182 -0.2546643754
0.01120836163 -0.01213040447 -0.05904362869 0.5629402582 -0.7160402128 -0.4127767913
0.01100948715 -0.01565903091 -0.05131847763 0.5390762127 -0.8015987099 -0.258527262
0.01495304203 -0.01216675091 -0.05149685669 -0.7114064207 0.663920374 0.2304574615
0.01620631552 -0.01062892723 -0.05138588905 0.7817797924 -0.5862856701 -0.2123428107
0.005318849087 0.05713424683 -0.08045798492 -0.2454095433 -0.0003403034265 0.9694194346
0.02052338219 0.003335082293 -0.04759482574 0.9985725445 0.04624684939 0.02672269395
0.01771254826 -0.008397884607 -0.05110263443 0.8493961184 -0.4946817826 -0.1838917289
0.01931030846 -0.004659619967 -0.05128009415 0.9385425216 -0.3142328464 -0.1428133517
0.02048757267 0.007110021591 -0.05310152245 0.9962621134 0.07401135527 0.0445434696
0.02013670158 -0.002257593393 -0.04964490128 0.9799594004 -0.1807789863 -0.0836572271
0.02056614971 0.001225564301 -0.04921593857 0.997179071 -0.07109322729 -0.02407599226
0.02017304516 0.005746157646 -0.04728669357 0.9813985783 0.1693313678 0.09046390702
0.01849648285 0.009802140236 -0.04423233414 0.9121535088 0.3736157066 0.1684852519
0.01642827988 0.05578245163 -0.07297317505 0.8009793222 -0.0007113085452 -0.5986915897
-0.007736471653 -0.01836224365 -0.04735971069 -0.3309462136 -0.9203986641 -0.2081847805
0.01023870754 0.02314819908 -0.0784421463 -0.5228247175 0.00368087253 0.8524322647
-0.002487099409 -0.01941108322 -0.04903601074 -0.1186340453 -0.9716878767 -0.2043248238
-0.000520134449 -0.01937081337 -0.04978742599 0.0335220245 0.9726783121 0.2297241283
0.008267044544 -0.01663985538 -0.05289995956 0.4007394275 -0.8663935133 -0.2979432687
0.004758323669 0.03130226326 -0.08060434723 -0.2206697417 -0.0007113746333 0.975348327
-0.002050893068 -0.006362863779 -0.07094114304 0.08889663886 0.6577529727 0.7479695278
0.02058179283 0.006873109818 -0.05552891541 0.999761366 -0.002585471707 -0.02169162244
0.01059745502 -0.01523714447 -0.05325874138 0.5037448968 -0.808053765 -0.3054344312
0.01206533146 -0.01422876263 -0.05318600718 0.5911782059 -0.7572057625 -0.2777548598
0.01412849617 -0.01227549744 -0.05348026371 0.6772368358 -0.6831726271 -0.2731765543
0.01987892532 0.02428351593 -0.05524272919 0.9645093675 -0.01753921519 0.2634654739
0.0158617084 -0.01029856825 -0.05338746357 0.7640993969 -0.5953835642 -0.2483355053
0.01730453746 -0.008323403676 -0.05293171819 0.837567491 -0.4961448326 -0.2287378479
0.02003424072 -0.00219942832 -0.05111359406 0.9749999121 -0.2004858073 -0.09581551244
0.02029286861 -0.0005337021351 -0.05133189011 0.9892552929 -0.1245204697 -0.07660690633
0.01932234001 0.008759334564 -0.04655775452 0.948493314 0.2689558107 0.1674013299
-0.01282945442 -0.01572228813 -0.0451404953 0 0 1
-0.00283530879 -0.01904040909 -0.05030278778 -0.1440481498 -0.9594664673 -0.2422276382
0.003926805258 -0.01795615959 -0.0532496624 0.1762331254 -0.9295691048 -0.3237949428
0.006853701591 -0.01709889412 -0.05328744888 0.3432901719 -0.8809240998 -0.3257676907
0.01255578709 -0.01348184776 -0.05409004211 0.6057121759 -0.7383141086 -0.2966564292
0.01967061933 -0.002526150187 -0.05312896093 0.9564441572 -0.2505506202 -0.1497963978
0.01986413383 0.008045875549 -0.0486211319 0.9688902335 0.1964623114 0.1505133738
0.02026663589 0.02153598404 -0.05712182617 0.9840715716 0.004209572877 0.1777228783
-0.00839925766 -0.01767624474 -0.0491905899 -0.3545255778 -0.9030036288 -0.2426851067
0.01211012411 0.01708740234 -0.0770431366 -0.5925655896 0.07981740915 0.8015579849
-0.005742627859 -0.01816865635 -0.05117222023 -0.29131537 -0.9213932993 -0.2572348016
0.0003788192496 -0.01825375748 -0.05352976799 0.02148150335 -0.9405025319 -0.3391069632
0.00596410195 -0.01682326444 -0.05485216141 0.3178419581 -0.8798380596 -0.3533574374
0.01873206711 0.04158451843 -0.05211661148 0.9291420047 0.01251858276 0.3695110555
0.005436006546 0.005739751339 -0.07759566879 -0.2862832235 0.35536041 0.8898094711
0.007630649805 -0.01598383617 -0.05541622162 0.3651214518 -0.8583293325 -0.3604956068
0.01123143291 -0.01400753593 -0.05528387451 0.5539989914 -0.7611629015 -0.3372182601
0.0204861412 0.01269513416 -0.06103347015 0.9975850523 -0.0288550644 -0.06317791313
0.012251297 -0.01317618847 -0.0553559227 0.597999331 -0.7260726446 -0.339433815
0.01504947758 -0.01042544746 -0.05537649155 0.7296680244 -0.6164731577 -0.2958807531
0.01626322174 -0.008856948853 -0.05524325752 0.7885641847 -0.5466838105 -0.2816084833
0.01774921227 -0.00630877463 -0.05534300105 0.865629616 -0.4331526367 -0.2511257875
0.01856235409 -0.004621629238 -0.05526439476 0.8965051323 -0.3752272341 -0.2355484464
0.02054438972 0.005120917797 -0.05156298065 0.9993985475 0.0298539639 0.01764324448
-0.00601131916 -0.01584616566 -0.05711768341 -0.2992485562 -0.8676846912 -0.3969553857
0.01920475197 0.01081129265 -0.04887238693 0.9489512685 0.2399510969 0.2047314365
-0.008970030785 -0.01710610199 -0.05031841278 -0.391198726 -0.8826311364 -0.2606258503
-0.003904414296 -0.01793667984 -0.05331998253 -0.1959869013 -0.9295163467 -0.3123915745
0.02005987549 0.01563057995 -0.05523470306 0.9809109389 0.0493853381 0.1880819457
0.004108904839 -0.01716789627 -0.05528567505 0.2107682846 -0.9059490197 -0.3671962743
0.01202532768 -0.01233337212 -0.05744083277 0.5795969755 -0.7139399281 -0.3928830934
0.01090175915 -0.01367475224 -0.05652828217 0.5278731652 -0.7661042393 -0.3666527185
0.01291982365 -0.01199633884 -0.05665730667 0.6264367848 -0.693209902 -0.3564224831
0.02058691597 0.0272431736 -0.06076695251 0.9997937518 0.0004080617543 0.02030486142
0.01413433695 -0.01044223189 -0.05727632427 0.6786347792 -0.6435662049 -0.3539454427
0.0182033844 0.02771267223 -0.05102639389 0.8896713468 -0.008657509184 0.4565193777
0.0197913723 0.0132085886 -0.06514421844 0.9575796061 -0.08379153157 -0.2757177491
0.01711393547 -0.006930279255 -0.05633574295 0.8246679198 -0.4844905571 -0.2918762103
0.01994930267 -0.000302880466 -0.05491812515 0.9711486364 -0.1963213097 -0.1353819386
0.02019861889 0.001371155918 -0.05514154625 0.9798060814 -0.156698318 -0.1242001607
0.01840934944 0.00482274127 -0.06524797821 0.8906048886 -0.2418430273 -0.3851426781
0.003422086 -0.01175691891 -0.06499642181 0.1619276947 -0.7813195246 -0.602759672
0.02057312775 0.005008693695 -0.05315584946 0.9998499972 0.006569369162 0.0160258062
0.02033485794 0.059351017 -0.06352786255 0.986900172 0.02203843641 -0.1598197669
0.01827838135 0.0139155798 -0.04891404724 0.9147001366 0.2513276436 0.316477607
-0.006561367989 -0.01734734154 -0.05287003708 -0.3119247931 -0.9054960817 -0.2877147364
0.01942691231 0.005770271778 -0.06305171967 0.9395826822 -0.1806938434 -0.2907475164
0.003993446747 -0.01294810613 -0.06315226618 0.1990596007 -0.8073332829 -0.5555071968
-0.002091596127 -0.01773593903 -0.05468771362 -0.08632568282 -0.926668192 -0.3658332113
-0.0002558043599 -0.01760197258 -0.05532295227 0.000625306455 -0.9314248002 -0.3639333052
0.00141789937 -0.01733555031 -0.05584770966 0.0643403152 -0.9245036262 -0.3757038316
0.007399597168 -0.01201155186 -0.06279601097 0.3592163699 -0.7666420852 -0.5321874791
0.002204171419 -0.003132582426 -0.07347111511 -0.1062542408 0.5730320043 0.8126157507
0.005778094769 -0.01599381256 -0.05697207642 0.281818323 -0.8697745424 -0.4050563888
0.009455180168 0.04316051483 -0.07888015747 -0.4770636766 -0.002357879621 0.8788655693
0.01052110958 -0.01329174805 -0.05773263931 0.5114250542 -0.7637043518 -0.3939544096
0.01681089592 -0.006640541553 -0.05760719299 0.8186197261 -0.4815002419 -0.3130802791
0.01929649734 -0.001604624748 -0.05666704178 0.9339251069 -0.2903889615 -0.2084661741
0.01986618996 0.003497149229 -0.05952125931 0.9580996915 -0.1778921743 -0.2244980077
0.01943439929 -0.0004855207739 -0.05730529149 0.9498574189 -0.2415951305 -0.198501075
0.02021268749 0.01286409473 -0.06314863396 0.9793036523 -0.07214490665 -0.1891017424
-0.002619594097 0.001679148555 -0.07635066223 0.1419298536 0.4711962574 0.8705343208
0.02029574966 0.009353006363 -0.05296421432 0.9885786839 0.1017714185 0.1111519865
0.01762075233 0.01673129463 -0.04919296646 0.7725737973 0.2386225049 0.5883783034
0.02055317497 0.01481579685 -0.05879374695 0.9978527452 0.01533419771 0.0636770075
-0.00715871954 -0.01675414276 -0.05396739197 -0.3527804844 -0.8807801126 -0.315867572
-0.004692110062 -0.01714385605 -0.05502558899 -0.2414650717 -0.9033270339 -0.35453475
-0.002615429163 -0.01720914268 -0.05581754303 -0.1300872333 -0.9160844004 -0.3792976181
0.001734997809 -0.01668708992 -0.05723048401 0.08454729709 -0.8973426667 -0.4331603549
0.01826725324 0.007502090454 -0.06701258087 0.8872120113 -0.2089406085 -0.4113376583
0.00535877037 -0.01556790066 -0.05815343475 0.2452823939 -0.8719637053 -0.4236931012
0.009030563354 -0.01364900398 -0.05879942322 0.4467482673 -0.7772047672 -0.443135121
0.01219249535 -0.01127075577 -0.05909021378 0.5907592754 -0.6891322459 -0.4196429746
0.01669135284 0.03082806015 -0.04854160309 0 0 1
0.01492332935 -0.008469520569 -0.05906882477 -0.7191197394 0.5900495812 0.3670262826
-0.003479460955 -0.01634819412 -0.05746015358 -0.1625957686 -0.8871542072 -0.4318796461
0.01754942067 -0.00428940169 -0.05900129954 0.85757586 -0.4101407624 -0.3104000635
0.01834127998 -0.002582388639 -0.05891769028 0.8886225595 -0.3594877835 -0.284813062
0.02028275776 0.02578051662 -0.05723420525 0.9881525048 0.01468467684 0.1527710297
0.01205457735 0.04350683594 -0.07724386215 0.5824657028 -0.01499701831 -0.8127169215
0.02017376995 0.003256946683 -0.05746197319 0.975095282 -0.1513059086 -0.1621595293
0.02015369034 0.01150852394 -0.05366189194 0.9808878836 0.1236489784 0.150232786
0.0165323391 0.02228675652 -0.04832579041 0 0 1
0.02035255146 0.006925777912 -0.05922436714 0.9884170765 -0.09540293209 -0.1180252658
-0.005312721729 -0.01652991867 -0.05609734344 -0.2625343483 -0.8896528498 -0.3736221658
-0.0012599473 -0.01658899307 -0.05760103226 -0.04925333203 -0.8972554174 -0.4387559974
0.002013213873 -0.01600340271 -0.0585812645 0.08291190396 -0.8853581281 -0.4574566659
0.01879846382 0.04614915466 -0.05226301575 0.9312235549 0.01213389954 0.3642464267
0.02054460335 0.0274518261 -0.0591194725 0.9975134385 0.01295495472 0.06927560278
0.008602572441 -0.01321825027 -0.05996832657 0.4091051756 -0.7843660144 -0.4662648504
0.01594155216 0.02520715714 -0.07363008118 0.7732177718 -0.009219417343 -0.6340735602
0.01206998682 -0.01022883105 -0.0608847723 0.5924027274 -0.6647357084 -0.4551762808
0.004260161996 -0.0005524826348 -0.07477255249 -0.2089385533 0.5059251765 0.836889716
0.01391220617 -0.008388111472 -0.06088875961 0.6629471979 -0.6031636814 -0.4435026339
0.01537592824 -0.006468901634 -0.0609744428 0.7595018102 -0.5209130274 -0.3896236878
0.01875677109 -0.001118793011 -0.05928408051 0.9156277589 -0.3030288902 -0.2641955695
0.01958880043 0.001857047141 -0.05925955009 0.9517571195 -0.2110304756 -0.2227656253
0.0205343647 0.0189774456 -0.05888165283 0.9954559665 0.01165460696 0.09450708363
0.02037252617 0.005001919746 -0.05765641022 0.9882374439 -0.09498144286 -0.1198552456
0.02053197861 0.006845640182 -0.05704533386 0.998617599 -0.04186571821 -0.03178289925
0.02042894936 0.01108596706 -0.05546549606 0.9950279166 0.06270426457 0.07737971518
0.02005197906 0.01362912083 -0.05440027237 0.9810175925 0.08034282704 0.1764922472
0.01850808525 0.01977084541 -0.05159071732 0.9216501167 0.03136361213 0.3867523577
0.01828255558 -0.0006780030131 -0.06118616867 0.8903843877 -0.3196737991 -0.3240745351
-0.00187695682 -0.01597768116 -0.05866107941 -0.07156349459 -0.8839448366 -0.4620824517
-0.0001323811859 -0.01577731991 -0.05921863556 -0.002000859454 -0.888746178 -0.4583952744
0.005714167595 -0.0140444212 -0.06070245361 0.2973175516 -0.82208825 -0.4855648079
0.01034576416 -0.01126673317 -0.06137284088 0.5006696744 -0.7214053993 -0.4784392616
0.01752484258 -0.002424672325 -0.06128875605 0.8586746332 -0.3754928862 -0.3488308569
0.02018910217 0.005133302212 -0.05905200195 0.9848718691 -0.1177096466 -0.1271685517
0.01927622604 0.03847385788 -0.0533633461 0.9412187433 0.01767954243 0.3373347166
0.02055481529 0.01083974552 -0.05713731766 0.9985964894 0.03428698832 0.04036649228
0.01528117561 0.05858692169 -0.0468638382 0 0 1
0.01077011967 0.04164962006 -0.0781206665 -0.5226943927 0.01694410062 0.8523517286
0.02047248459 0.01297203636 -0.05710989571 0.9965864555 0.0423391873 0.07087192646
0.01911665344 0.02108961487 -0.05292822647 0.9220945269 0.01976854806 0.386459426
0.01852316284 0.02402436256 -0.05165719223 0.9210891856 0.003776239016 0.3893333433
-0.009632986069 -0.01436987209 -0.05680707169 -0.4122530366 -0.8166825662 -0.4038279582
0.02016274071 0.01752705002 -0.0561521225 0.9853816459 0.02193126477 0.1689438712
-0.0002122457027 -0.01474154377 -0.06106184387 -0.02013441767 -0.857734705 -0.5136981419
0.020500103 0.02967582703 -0.05914602089 0.9948107205 -0.006807559574 0.1015149618
0.02055481911 0.03621931839 -0.0593925209 0.998225544 -0.0005999353177 0.05954328953
0.001681821465 -0.01472042561 -0.06098423004 0.08377129091 -0.8530585776 -0.5150470211
-0.009919028282 -0.0121131506 -0.06049806976 -0.4783301267 -0.7530370961 -0.4518134812
0.008533276081 -0.01129733849 -0.06294535828 0.4018920138 -0.7468222351 -0.5298484296
0.009632178307 -0.01055266428 -0.06307208633 0.4570843466 -0.7131673959 -0.5314754608
0.01090611839 -0.009986032486 -0.06258926773 0.5360454362 -0.6776696826 -0.5034074808
0.01213173461 -0.00845362556 -0.06321826267 0.5826027637 -0.6389641575 -0.5022935648
