# .PCD v0.7 - Point Cloud Data file format
VERSION 0.7
FIELDS x y z normal_x normal_y normal_z
SIZE 4 4 4 4 4 4
TYPE F F F F F F
COUNT 1 1 1 1 1 1
WIDTH 380
HEIGHT 1
VIEWPOINT 0 0 0 1 0 0 0
POINTS 380
DATA ascii
-0.003624842834 -0.02021545258 -0.02166256752 -0.1274767434 -0.9915439604 0.02429515147
0.005346284337 -0.01430536524 -0.06033421538 0.2516462748 -0.8375100034 -0.4850269545
0.009448141416 -0.01827904447 -0.02150946109 0.3958399234 -0.9180754867 0.0211696884
0.001230806061 -0.02045525496 -0.002071742323 -0.08750037329 0.9931441955 -0.07751316999
0.006282723188 -0.01954451307 -0.001719125248 -0.2986273279 0.9460393953 -0.1258220232
0.009211373329 -0.01836631107 -0.001449666411 -0.4019299108 0.9151747509 -0.03012510795
0.0006544473767 -0.02054302629 -0.02093573825 0.03217467971 -0.9991265686 -0.0266625186
-0.006639379978 -0.01945178032 -0.001884658098 -0.2582959775 -0.9658385973 0.02095213565
0.0185638237 0.01435351372 -0.06883934021 0.9064690828 -0.08498282992 -0.4136323496
0.01704918439 -0.0113950382 -0.00204176087 0.8054884853 -0.592085812 0.02495378485
0.01891264407 -0.008097867648 -0.02116655986 0.9177793272 -0.3946587611 0.04388130519
0.01453894536 -0.01453904454 -0.006700577021 0.7035560149 -0.7096714664 0.03708562487
0.02023906549 0.004722478867 -0.04614865367 0.984182961 0.1619357499 0.07183809759
0.01176297522 -0.01683604225 -0.001995777527 0.6091575491 -0.7920925882 0.03894113751
-0.003784450928 0.03888105392 -0.08079127248 0.0723353662 0.007233127618 0.997354138
0.005905542016 -0.01613534069 -0.05632146716 0.2602655785 -0.877066836 -0.4037518964
0.009388002714 -0.01830120977 -0.01641430982 0.4243078717 -0.9052358547 0.0226025976
0.01453701878 -0.01453712225 -0.002249881089 0.6949828845 -0.7076636397 0.1273222812
0.01714721497 -0.01126614308 -0.02141870228 0.8198972987 -0.572254692 -0.01711686395
0.01187881703 -0.0167764581 -0.02139482498 0.6056699753 -0.795493324 -0.01882159686
0.01839439011 -0.009226054192 -0.0005712928772 0.9159305743 -0.3973347962 -0.05653532269
0.006364970684 -0.01952109104 -0.006219698853 0.3653617658 -0.9307545419 0.01437924668
-0.002248365104 0.02769690704 -0.08105356598 0.06088250586 -0.01330651324 0.9980562395
0.01953282483 -0.006270121018 -0.001706207134 0.9273764463 -0.3723427685 0.03652108308
-0.008180805683 -0.01375765562 -0.05940087318 -0.3678941559 -0.8093349711 -0.4578545561
0.02047567463 -0.0009402108689 -0.001801995484 0.9937611541 -0.07951650026 0.07820418705
0.009264309247 -0.01834679985 -0.005934579213 0.4026759017 -0.9153214587 -0.006224587248
0.01795404053 0.01001778698 -0.01114872503 0.934108122 0.3565770544 0.01717034301
-0.004195058823 -0.02008720557 -0.01671123536 -0.2099232777 -0.9770869329 0.03511898473
0.01727595789 -0.01107157907 -0.01658418733 0.8218038376 -0.569153569 0.02650787312
0.01178977097 -0.01682293712 -0.006457584275 0.6103163065 -0.79214777 0.003989543862
-0.01180351925 0.005034808159 -0.07404758453 0.4197433428 0.3926685609 0.8183073551
-0.004885215958 -0.0199052693 -0.005719154795 -0.242701009 -0.9700982131 -0.002382688082
0.01720259174 -0.01115718285 -0.006325512926 0.8135889835 -0.5812823538 -0.01355695978
-0.01258103132 -0.01597601032 -0.04453591156 -0.5391545209 -0.8316933519 -0.1326596055
0.01959645882 -0.0060308882 -0.006322970128 0.9339757058 -0.3573331533 0.00154870435
0.01454185057 -0.01454193377 -0.01625192356 0.6746454335 -0.7379849168 -0.01522503345
0.01145960726 0.03930168915 -0.07763339233 -0.6090109716 0.004762974616 0.7931474961
-0.003746689015 -0.01675741344 -0.05624661933 -0.1480695377 -0.8948648351 -0.4210609682
-0.003653402686 -0.02022532463 -0.001087732241 0.1637001342 0.9846412445 -0.06069502241
0.01967775997 -0.005742586056 -0.01615554412 0.9731600903 -0.2295724325 -0.01599802569
-0.01226734829 -0.004107611179 -0.06766635132 -0.5095198749 -0.5737141988 -0.6412811514
0.02048253523 -0.001090361655 -0.005859952722 0.9966525642 -0.07179190693 0.03910995118
0.0008354963933 -0.02053549639 -0.0260497001 0.04216228854 -0.9991107654 0.0001408231194
0.02054162407 -0.0006530664265 -0.0209342591 0.9990110213 -0.02164568037 -0.03883869011
0.0005620264824 0.004309210777 -0.07770898361 -0.01160112446 0.427645292 0.9038721802
0.01450126457 0.04517084503 -0.04600332642 0.8291502914 0.0008438934671 0.5590251176
0.01998587863 0.004627791643 -0.001373650327 0.9649642643 0.2565913431 0.05481652448
0.01989857822 -0.005096795638 -0.0213273485 0.9704311841 -0.2412408269 0.008135124489
0.001107536018 -0.02048326084 -0.006378426756 0.09563912913 -0.9947348316 0.03682080633
0.006453064919 -0.01949183464 -0.01123295701 0.3651861228 -0.9308035102 -0.01561797416
0.009326743444 -0.01832378896 -0.01122418594 0.4024808935 -0.9152561638 -0.01775626375
0.01718397609 -0.01119515133 -0.01159384362 0.8167641656 -0.5769403149 0.006014220017
0.01182133081 -0.01680743334 -0.01172049088 0.6142729004 -0.7890365354 0.009494719589
0.01580530866 -0.005557985518 -0.06113012293 0.7697093411 -0.5054760862 -0.3899249369
0.01454054228 -0.01454063225 -0.01195003478 0.6393084256 -0.7689477987 0.002004954105
0.02026152649 -0.0004957793385 -0.05130424919 0.9858390756 -0.1445734588 -0.08496959447
0.01934208393 0.007025146484 -0.040092062 0.9553394956 0.295148229 0.01462774722
0.001418244503 -0.02045472956 -0.0161422075 0.1369315969 -0.9905771493 0.002578575137
0.0201257188 0.01935170037 -0.05638476889 0.9754789502 0.02979339461 0.2180668966
0.01971711506 -0.005560925072 -0.01113474959 0.954058509 -0.2987703398 -0.02255316983
-0.004536594868 -0.01999717617 -0.01127144257 -0.2203439183 -0.9753739453 -0.009706935141
0.008783212662 0.001377354383 -0.07415218353 -0.4044338079 0.4411770908 0.8011217571
0.01995437654 0.004829285979 -0.005772022883 0.9671147611 0.2535148743 0.02047553157
0.0057412092 0.02459553528 -0.08032915497 -0.2293770858 0.01862453635 0.9731594315
0.01376792336 0.01044803762 -0.07439981079 -0.6729050055 0.1952301598 0.7135012532
0.02054848137 -0.0002742593825 -0.01614791851 0.9999920121 0.003986005698 0.0002958053112
0.0170060215 0.05850166702 -0.0721111908 0.8120217585 0.03696858535 -0.5824551376
0.001260681709 -0.02047044563 -0.01115526782 0.1232518712 -0.9923658446 0.004359669535
-0.01155500793 -0.01698752022 -0.001800223351 0.3832247442 0.9233111305 -0.02520618549
0.006544430203 -0.01946724637 -0.01615943209 0.3620329457 -0.9319749736 -0.0188359988
0.00950720946 -0.01825727336 -0.02651392237 0.4111561304 -0.9114875951 0.0118743572
0.02053451157 -0.0002867972056 -0.01128374974 0.9993310787 -0.03612690992 0.005678170544
0.01718194008 0.01133026695 -0.002010776281 0.9231247282 0.3839383912 0.02078576479
-0.01065946166 -0.01759935315 -0.006184971968 0.3713543372 0.9283622823 -0.01547349637
0.01712903746 -0.01130153529 -0.0264114747 0.8227277759 -0.568243857 -0.01476230374
0.01170617867 -0.01689470243 -0.01665110207 0.6086484326 -0.7931817676 0.02024275377
0.02004863421 0.004478104591 -0.01132546028 0.9703557632 0.2416805626 -0.0004455154558
-0.009393227895 -0.01829814657 -0.01600445652 0.3280036809 0.9446033967 -0.01174769535
0.005843917231 -0.01964918407 -0.02128424756 0.2563020412 -0.9664982867 0.01379584681
0.01752831459 0.01074147129 -0.006110179583 0.9273950731 0.3737166064 0.01656129661
0.01454313787 -0.01454321416 -0.02048417536 0.7222200064 -0.6912207428 -0.02474160651
-0.01002856731 -0.01798453712 -0.01027175808 0.3682967293 0.929694959 -0.004980205428
0.01722069401 0.01951866362 -0.07175418006 0.8020786703 -0.0474995535 -0.5953264643
0.0201040624 0.004175998847 -0.01672851149 0.9880129316 0.1504828672 0.03442896692
-0.003366132339 -0.0202749548 -0.03066485627 -0.08643919029 -0.9962085696 -0.009836271195
0.01454461241 -0.01454468091 -0.02548272769 0.7333360361 -0.6796728034 -0.01622154571
0.0184336853 0.05845085526 -0.06967456818 0.9165418054 0.05568407986 -0.3960434347
-0.009815016747 -0.01808994675 -0.01219863129 -0.3453616492 -0.9384108581 0.01050678964
0.01190682718 -0.0167599339 -0.02638396602 0.5984898471 -0.8010151548 -0.01358766526
0.017773283 0.05858617973 -0.05033451271 0.8861113188 0.0198380867 0.4630477092
0.01828447819 0.009454103947 -0.01509859657 0.9445703522 0.3279120838 0.01614047579
0.01971674565 0.0247085871 -0.06635839517 0.9569981109 -0.01027155752 -0.2899122469
0.0200547924 0.004647257507 -0.04136200237 0.9640857738 0.2621472738 0.04263129899
0.005946223915 -0.01962365039 -0.02632360601 0.2568833941 -0.9662150431 0.02096216641
0.01888334401 -0.008167665482 -0.02618257141 0.915222257 -0.4021130206 0.02594877681
0.01987361081 -0.005209131453 -0.02637370004 0.9768040996 -0.2140400367 0.006372892355
0.01906056499 0.04457554436 -0.05288022041 0.9239941827 0.0147219324 0.3821230365
0.02020718384 0.003634342766 -0.02165439034 0.9882617249 0.1508875583 0.02391041372
0.01094827468 0.009349138896 -0.07618467 -0.5571901695 0.234843914 0.7964844324
0.02054079278 -0.0008415383715 -0.02605476093 0.99886484 -0.0249499009 -0.04057750487
0.01847891998 0.009094687462 -0.01797089005 0.9648271926 0.2622460249 0.01831695308
0.01292490768 -0.002809725761 -0.06813920593 0.6152971552 -0.4983852653 -0.610754892
0.01454743735 -0.01454749107 -0.03681617292 0.7016129177 -0.7124305539 0.01349146608
-0.008773939451 -0.01860285695 -0.02161357371 0.2416746543 0.9701262575 -0.02117560111
-0.003758302605 -0.01051795616 -0.06627584534 -0.1516234826 -0.7556299499 -0.6372077356
0.01881236935 0.02043023014 -0.05225947189 0.9652531433 0.04414473588 0.2575608892
0.01204535055 -0.01666099396 -0.03151514874 0.600314471 -0.7995336059 0.01919762804
0.01454605007 -0.01454611099 -0.03120255303 0.7018099223 -0.7123456126 0.005153749255
0.001629375895 0.0593086942 -0.08101556396 0.07883389831 0.06228103797 -0.9949403443
0.007592357159 -0.007592778444 -0.06793520737 0.3603099188 -0.6630254905 -0.6561813479
0.01701952964 -0.01146795405 -0.0314913801 0.8212502624 -0.5702954684 0.01763760586
0.01866775322 0.008699244181 -0.02167748706 0.97174651 0.2354774621 0.01609612507
0.01758028698 0.0491560688 -0.0499861393 0.8771585299 -0.01154935782 0.4800620021
-0.003894869566 -0.0201769268 -0.02590322838 -0.1015507613 -0.9948054073 0.007045888601
0.006044835627 -0.01959681304 -0.03127345641 0.309804014 -0.9507963546 0.002786559604
-0.007984640598 0.01672891998 -0.0793527298 -0.1993852502 -0.1298124179 -0.9712848491
0.001013324667 -0.02052809874 -0.03107274437 -0.05586162811 0.9984341635 -0.002949511777
0.009565255165 -0.01823587863 -0.03143176397 0.417268075 -0.9087423718 -0.008640332394
0.01885455004 -0.008236254056 -0.03111167463 0.9164857096 -0.4000647841 -0.001453486523
0.01984661971 -0.005316846662 -0.03132961633 0.9765936441 -0.2149784799 0.007007679079
0.02014367447 0.003932758999 -0.02587102966 0.9915059648 0.1291421916 0.01543425449
0.02053702863 -0.001023364914 -0.0310810957 0.9992101469 -0.03459997834 -0.01954287039
-0.008300118923 -0.01882375717 -0.02617147923 0.2147661151 0.9766107789 -0.01033935771
0.02025126457 0.003393108209 -0.03064258067 0.9971662291 0.07520198826 0.002042674981
0.01886464977 0.008253100872 -0.02621075249 0.9758748019 0.2178297735 0.01478380318
0.006140705526 -0.0195694499 -0.03613859081 0.3141473202 -0.9492679146 -0.01420871281
0.02051775984 -0.000378404471 -0.04124514458 0.9984224909 -0.05385614749 0.0158759287
0.009620125135 -0.01821274439 -0.03626498032 0.4237739963 -0.9051097583 -0.0345242748
0.01195972888 -0.01672326883 -0.03663629235 0.60078981 -0.7994069437 0.0003776807501
0.01709123905 -0.01137025547 -0.03653951581 0.8197278229 -0.5727291697 0.00525305557
0.02052985255 0.03491269112 -0.06138676453 0.999339306 -0.01973560984 -0.03051978403
0.01882624181 -0.008303687731 -0.0359577535 0.9181438291 -0.395299302 -0.02739290023
0.01981964238 -0.005422256364 -0.03620110321 0.9701121665 -0.2416092258 -0.02252479821
-0.007849273841 -0.01902816455 -0.03063419088 -0.2675077029 -0.9631065912 -0.02941636979
0.001188076725 -0.02052082856 -0.03600895119 0.07296081142 -0.9968792112 -0.03014230098
0.02011454344 0.04983646202 -0.05648286152 0.9829685797 -0.02409903738 0.1821867388
0.02052598882 -0.0004403469898 -0.03609316492 0.9986562894 -0.04632373313 -0.02323203453
0.01903005219 0.007847101529 -0.03063605372 0.9556891762 0.2935310172 -0.02231009688
-0.003091479798 -0.02032030296 -0.03570064227 -0.07157131644 -0.9973751227 -0.01097321055
-0.004143152237 0.05140117645 -0.08073291779 -0.1261445861 0.0002671459835 -0.9920118306
0.005963440132 0.05497315826 -0.080216008 -0.3230235577 0.01773563196 0.9462247241
0.006255506809 -0.01948683915 -0.04108951686 0.3153542118 -0.9466634644 -0.06618161572
0.02020855045 0.003737436175 -0.03537692738 0.9982229848 0.05951348625 0.003002931205
0.00964011097 -0.01815751775 -0.04099104818 0.4516034589 -0.890238308 -0.05941439894
0.01194975842 -0.01667191198 -0.0413398713 0.5960416922 -0.8004463392 -0.06340314872
0.01719782102 0.02441682529 -0.07182160854 0.8071709684 0.001861458381 -0.5903147997
0.01451245022 -0.01451249154 -0.04151053937 0.7036931617 -0.7099278158 -0.02860822521
0.01704618581 -0.01137531694 -0.04125512632 0.8108646393 -0.5830190618 -0.05086561125
0.01700699449 0.01460699813 -0.07146453667 0.7932824146 -0.1139618238 -0.5980933986
0.01878597132 -0.008356877963 -0.04071367009 0.9164983012 -0.3974673181 -0.04528349487
0.01972684135 -0.005656979775 -0.04122827415 0.9529485539 -0.3016615825 -0.0298218595
0.02050766563 0.04384458324 -0.06128638785 0.9980899949 0.04070101026 -0.0464735385
-0.007360188484 -0.01923218791 -0.03586121496 -0.2858525585 -0.9579450229 -0.02509278717
0.008820382118 0.05992495346 -0.07920716858 0.4036467704 -0.03190285466 -0.9143585143
0.001443127117 -0.02044781031 -0.04120666068 -0.09786305272 0.9948252697 0.02730394846
0.01980634117 0.04874533898 -0.06597956303 0.9733441379 0.002070781475 -0.2293401427
0.02011272685 0.03974547386 -0.05648167674 0.9803094946 -0.00842360037 0.1972874493
0.01920371755 0.007392848969 -0.03583531698 0.9548595826 0.2959781181 -0.02530081509
-0.00271073481 -0.02031976809 -0.04101488222 -0.1526118921 -0.9868939284 -0.05244029491
0.005919739417 -0.01911862441 -0.04607518523 0.3036097367 -0.9423624688 -0.1406204294
0.01097199752 -0.01678316981 -0.04625402476 0.572555965 -0.8066089093 -0.1468391446
0.01427228562 -0.01427234872 -0.0459626077 0.6746720342 -0.7244289747 -0.1414931339
0.01689865535 -0.01100813062 -0.04614084979 0.798487884 -0.5903959479 -0.1176848499
0.01856611443 0.04426011403 -0.06944655101 0.9198538365 0.008543351077 -0.3921682428
-0.007459150076 -0.01867586184 -0.0460149765 -0.3259401605 -0.9365660805 -0.1288681058
0.01856003952 -0.008227859974 -0.04601363468 0.9074770342 -0.4126094168 -0.07898671772
-0.0070338521 -0.01929839643 -0.04087097295 -0.2915775417 -0.9554610845 -0.04557030982
-0.01411257648 -0.008238874435 -0.0607796936 -0.5313473961 -0.6961631871 -0.4827284553
0.01961299953 -0.005288074231 -0.04632956772 0.9412037445 -0.3291595012 -0.0760889874
-0.01280543709 -0.01613373375 -0.03721522522 0.4883006167 0.8724413709 0.02021291904
0.0008580158757 -0.01998849269 -0.04637592643 -0.006429907258 -0.9861953447 -0.1654611686
0.02046749772 -0.000530382759 -0.04651487266 0.9974589183 -0.06980609355 -0.01424133477
0.01574064922 0.01326038933 -0.03686721039 0.8696927771 0.4935313279 0.007829551336
-0.01201261679 -0.01666215706 -0.04100532913 -0.4164942966 -0.9081744933 -0.0418520075
-0.003398607816 -0.0197422202 -0.04613711548 -0.09788895184 -0.9755985772 -0.1965328709
0.01102999735 -0.01556883252 -0.05110016203 0.5536262325 -0.7995147691 -0.2329680852
0.001005501372 0.039403936 -0.08109733582 -0.06182349786 -0.01818707492 0.9979213824
0.01406121206 -0.01359649158 -0.04981154442 0.7121283123 -0.6732829688 -0.1989052808
0.0159655702 -0.0109426897 -0.05110924861 0.7750134733 -0.5983332356 -0.2033505728
0.02054195913 0.02943864716 -0.06107049688 0.9994685965 0.004870078712 -0.03223052802
0.02051611492 0.02390728624 -0.06140062169 0.9998172246 -0.01100463532 -0.01563379251
0.01653738594 0.01224723339 -0.03924115372 0.8875093611 0.4598428041 0.02952506578
0.005088798841 -0.01852403673 -0.05037111918 0.215403138 -0.9473921431 -0.2367479996
0.01175980401 0.04468740797 -0.07742928123 -0.6051984426 0.007149436377 0.7960425432
0.006946790627 -0.01747701699 -0.05195483889 0.3793679889 -0.8856284163 -0.2678474142
0.01873988724 0.03845546532 -0.06910217667 0.9204277101 0.02730112715 -0.3899583041
0.01810614586 -0.007393356681 -0.05162049198 0.8699839976 -0.4522667139 -0.1964247018
0.01914404449 -0.005120489931 -0.05113964005 0.9219215277 -0.3583382622 -0.1471542952
0.004794955015 0.01040144615 -0.07925149536 -0.2350038132 0.2440543793 0.9408563481
0.01727419853 0.01130466175 -0.04153955078 0.9273024526 0.3479931818 0.1378800451
0.01786894798 0.02927764225 -0.05035109138 0.9186940737 0.0106837344 0.3948253497
0.001155746346 -0.01889347371 -0.05122910135 0.04005694975 -0.9565178331 -0.2889101516
0.01922765223 0.008869116783 -0.04647040685 0.9654317757 0.208766412 0.1560707267
-0.01251251507 0.007652911186 -0.07456846619 -0.4509803019 -0.3352272879 -0.8271876647
-0.003485839622 -0.01867972374 -0.05101267024 -0.1410918526 -0.9473080269 -0.2875771051
0.02054160849 0.004145881494 -0.05116135724 0.9985235555 -0.05428077546 -0.002075234048
0.01044871051 -0.01436705355 -0.0554673996 0.476188409 -0.8102116601 -0.3417625857
0.01100759868 -0.0005829686009 -0.0713682504 -0.5548032579 0.4635208877 0.6908992197
0.01503282057 -0.01016102028 -0.05566718191 0.734887446 -0.6115866696 -0.2930907491
0.01734845959 -0.006315977855 -0.05646494432 0.8282966387 -0.4720978459 -0.301742112
-0.009772223091 -0.01633305435 -0.05128838043 -0.4249543694 -0.8647727397 -0.2675479257
0.005858201936 -0.00551409851 -0.07058956003 -0.2873853698 0.6325865831 0.7191966797
0.01244888477 -0.01226410789 -0.05687836075 0.6051865158 -0.7095545755 -0.360945405
0.01883985043 -0.003952616274 -0.05511707497 0.9238607405 -0.3282452096 -0.1968156866
0.009229320208 0.02019598579 -0.07896871694 -0.4215137961 0.04466474523 0.9057213591
0.01954463357 -0.0005188289041 -0.05647096898 0.9589166398 -0.2209741582 -0.1779024996
0.02003818512 0.009386417389 -0.05155836741 0.9878689769 0.1221305293 0.09591151268
0.01952162495 0.01446452446 -0.06613585625 0.9483608284 -0.07455029606 -0.3083082751
-0.006268845081 -0.01763845444 -0.0523180275 -0.253983226 -0.9155684276 -0.311812404
0.0009146844921 -0.0170124673 -0.05649957761 0.05871108803 -0.9106518428 -0.4089819426
0.02042370415 0.004815510678 -0.05637843819 0.9875618827 -0.09818043171 -0.1228093262
0.01794956684 0.01532343721 -0.04905350685 0.9631479705 0.124007083 0.2386801843
-0.003404606422 0.05850708008 -0.08084636943 -0.03410685569 0.02779508521 -0.9990316089
0.0205281477 0.00925951155 -0.05591109085 0.9998210573 0.01668285132 0.008918289139
0.01944610341 0.01445917161 -0.05231296921 0.9742035906 0.1267823169 0.1866912106
0.01588419482 -0.0004158157211 -0.06610871147 0.7679036162 -0.3895780799 -0.508481028
-0.008519566536 -0.01510999171 -0.05619987233 -0.3695023975 -0.8324441696 -0.4129221268
0.008816567898 -0.01343362713 -0.05938387489 0.4028494653 -0.8040296012 -0.4373199158
0.01869675001 0.02445662944 -0.06921501923 0.9203365092 -0.01945163151 -0.3906434998
0.01116181359 -0.01072707518 -0.06108517295 0.5338536017 -0.6998858903 -0.4745103502
0.01430156684 -0.008772955179 -0.05969186592 0.707535517 -0.585023277 -0.3964104661
0.01800148201 0.01832640076 -0.05033860779 0.9333074501 0.08786882122 0.3481612756
0.01657062244 0.02440633965 -0.04837691307 0.9141994031 0.03841036181 0.4034403246
0.01756609578 -0.001431525144 -0.06210237461 0.8443460865 -0.3765970626 -0.3811224719
0.01883019791 -7.129449248e-05 -0.06012585297 0.8997042325 -0.3188850245 -0.298068172
0.0174239378 0.04000728798 -0.04970251656 0.8867270645 0.003667217064 0.4622787737
0.02029160843 0.0140626215 -0.05619010315 0.9918863006 0.07279865391 0.1042205484
0.01014746141 -0.008921673298 -0.06463915253 0.4511958332 -0.6928601105 -0.5624652767
0.0177720108 0.02286285782 -0.05019326019 0.9250804054 0.04241229126 0.3773956029
-0.01294011974 -0.01334598732 -0.05368790436 -0.5643565953 -0.7636859205 -0.3135051006
0.01463298021 0.02932229805 -0.07504456002 0.715107737 0.01519449315 -0.6988490909
0.0009923287096 -0.01451587113 -0.06128635057 0.02367483774 -0.8522425714 -0.522610851
0.01720242988 0.02927333514 -0.07182713064 0.8081723537 0.007516593564 -0.588898079
0.006889024258 -0.01229822091 -0.06261141695 0.3415603669 -0.7770913811 -0.528644967
0.01950714493 0.003990011887 -0.06125797445 0.9481994755 -0.1917193723 -0.2533010798
0.01883973885 0.02467537975 -0.0523414135 0.9530500458 0.01445740096 0.3024675085
0.005577553931 -0.01019746253 -0.06598246541 0.225909187 -0.7348951576 -0.6394483143
0.01669135284 0.03082806015 -0.04854160309 0.9162617417 -0.0002145418091 0.4005800478
-0.003922064172 -0.01419269074 -0.06113769913 -0.1826651749 -0.8449301101 -0.5027191492
0.02021435998 0.009148164272 -0.06120314893 0.9851252633 -0.08863041546 -0.1472170678
0.01968041202 0.05836710848 -0.0663955198 0.9536867247 0.04232148611 -0.2978095415
0.01997470951 0.02483401521 -0.05587350337 0.9657139875 -0.0194453952 0.2588790661
0.01888159084 0.02897403717 -0.05244220734 0.9445443652 0.01285862123 0.3281319825
0.01675603294 0.03522543716 -0.04864732361 0.8948900817 0.02622715243 0.4455152951
0.0008594732789 -0.0004384076602 -0.07526740404 0.00258504733 0.5170071885 0.8559771519
0.02048710213 0.01473354053 -0.06109138832 0.9937026112 -0.04464532211 -0.102771181
0.01422363186 0.04086730194 -0.04571747971 0.8236491553 0.01040083592 0.5670043136
0.01140023624 -0.006155484999 -0.06643165903 0.5695673481 -0.5827720138 -0.579629033
0.01416500616 -0.004352892121 -0.06519322713 0.6736670751 -0.5181555529 -0.5269606199
0.01153164332 0.02912331036 -0.07759664372 -0.6004042505 -0.01787993366 0.7994967442
0.01889350764 0.0390496877 -0.05248797353 0.9323203175 0.01394981891 0.3613643979
0.01892609406 0.03334268761 -0.05255256081 0.9566796997 0.01296258464 0.2908537837
0.0122986095 0.003404021323 -0.07283095741 -0.6012949355 0.3628859408 0.7118695067
0.01796299553 0.03584119415 -0.05052055359 0.898624756 0.007357459641 0.4386563755
0.005989191498 0.03413420595 -0.08022148786 -0.308120241 -0.009782195675 0.951297128
-0.01253943062 -0.01166536713 -0.05788792419 -0.4892629064 -0.7492599276 -0.446353413
0.002666447878 -0.01287350082 -0.06364619064 0.1401645846 -0.803715458 -0.5782692728
0.02008489513 0.04518328285 -0.05632485104 0.9676178939 -0.02260465032 0.2514053324
0.01872070122 0.005005235851 -0.06455554295 0.9200365182 -0.2093625014 -0.331210127
0.02051607077 0.01970580265 -0.06126535525 0.9977442638 -0.02223461378 -0.06334039787
0.0200841095 0.02958124504 -0.05634090881 0.9802759183 0.0009806182209 0.19763138
-0.004118504405 0.02010280943 -0.08067163277 -0.1904590713 -0.05182265849 -0.9803263509
0.01749736977 0.04454776382 -0.04983631706 0.8806410314 0.0093513224 0.4736918055
0.0147399931 0.0495970192 -0.04626444244 0.8304287896 -0.008257113968 0.557063592
-0.009502563953 -0.01120982011 -0.0621077493 -0.4339391182 -0.7380297572 -0.5167290577
-0.008646320224 -0.001362426315 -0.07246059418 0.3391395375 0.5295577233 0.7775300585
0.0007115482688 -0.01094746575 -0.06628658031 0.05590954944 -0.7614395501 -0.6458203573
-0.005746982574 -0.01220325756 -0.06348246384 -0.3035700256 -0.7660936945 -0.5665206887
0.01735531998 0.004306101842 -0.06700509713 0.8234445956 -0.3070716708 -0.477122612
0.0197250764 0.03996639143 -0.0662955246 0.95980744 -0.01285130679 -0.28036498
0.01923794789 0.009799225913 -0.06559276072 0.937449538 -0.148007073 -0.3150908917
0.02014303271 0.03442041842 -0.05664707692 0.9776939913 0.02566969876 0.2084598907
0.01729437447 0.03946325738 -0.07167415292 0.8064260232 -0.01159436845 -0.591221312
0.01499385262 0.05407712555 -0.04654608154 0.8350476865 -0.007840528877 0.5501217023
0.01767163181 0.05383570099 -0.05015154648 0.8850957581 0.01097216029 0.4652796048
0.01596836085 0.009270725992 -0.0714045851 0.7730911865 -0.2112124077 -0.5980964272
0.01528117561 0.05858692169 -0.0468638382 0.8345405183 -0.005215098186 0.5509218874
-0.007768985152 -0.00979409194 -0.06535923004 -0.3582555857 -0.7114395297 -0.6045715267
0.01912111855 0.04919780922 -0.05303266716 0.9348859787 -0.01607375368 0.3545840397
0.009819075743 -0.004300444802 -0.06953088252 -0.4349137461 0.5776688749 0.6907595127
0.01426375262 0.0007904761781 -0.06934280141 0.6842743706 -0.3937525979 -0.6137812944
0.01487401603 0.004409182457 -0.07069188455 0.7335434992 -0.3026925624 -0.6085155277
0.0181140639 0.008934879144 -0.06796983337 0.8693613276 -0.1960394468 -0.4536291629
0.0196304141 0.01961146632 -0.06655609824 0.9359352618 -0.02989964431 -0.3509005514
0.01999688339 0.0541233963 -0.05607810974 0.9698864761 0.008502459305 0.2434089802
0.01895230103 0.05549782944 -0.05259992981 0.9308491271 0.004562291151 0.3653752702
-0.01387076378 -0.00649435091 -0.06334770584 -0.5110835013 -0.6649355614 -0.5446598515
0.001097325981 -0.008529160023 -0.06900006485 0.06257841415 -0.7190079553 -0.692178808
0.001058554145 -0.00570949111 -0.07149163767 -0.05045454909 0.6433552452 0.7639033754
0.01983600559 0.02937245312 -0.06587128639 0.9749745727 0.008791732481 -0.222142495
0.02052087307 0.03939113172 -0.06154508018 0.9986937467 0.01197075344 -0.04967395153
0.02000202036 0.05848901939 -0.05621569252 0.9713991062 0.02364907935 0.2362720835
0.01904045677 0.06028544617 -0.05279193115 0.9267449512 0.006894223473 0.375627828
-0.009768898964 -0.007102116903 -0.06693509674 0.4529628934 0.6291347976 0.6316755684
-0.0030164814 -0.008226816654 -0.06901887894 -0.1305172334 -0.7115164905 -0.6904415511
-0.008398207188 -0.004727183867 -0.07001371155 0.3672322917 0.5949720134 0.7149466744
0.02053162607 0.04866636785 -0.06107308706 0.9993932486 -0.02331747102 -0.02587334751
-0.004157335353 -0.005245129704 -0.07138331757 0.2390951889 0.6283440965 0.7402818294
0.006154834843 -0.00227800827 -0.0730093338 -0.3212579388 0.5370509071 0.779980551
-0.00677077198 0.05800693893 -0.08001454163 0.1320677631 -0.02176217706 0.9910017728
-0.008557909966 0.02740824699 -0.07932550812 0.1993826593 -0.01485177898 0.9798091548
0.01854852104 0.01941258049 -0.06947688293 0.917197828 -0.02865440975 -0.3974003889
0.01962883129 0.03477434196 -0.06660862122 0.9597521554 -0.02803289033 -0.2794458037
0.02051731518 0.05389439719 -0.06145780945 0.9992105105 0.008793666047 -0.0387430905
0.02052137871 0.05849713364 -0.06120861893 0.9956548294 0.08843686175 -0.02916131196
0.005523315644 3.123447895e-05 -0.07470118027 -0.2291837968 0.4890536681 0.8416063789
0.0105194592 0.004714666367 -0.07472906772 -0.5100710064 0.3444998914 0.788129046
0.01863690186 0.02981774712 -0.06933306122 0.9131614707 -0.002623234435 -0.4075895571
0.0196679148 0.04455684335 -0.06648511614 0.9369528213 0.002740826602 -0.3494451296
0.01451666419 0.05440485001 -0.07513330968 0.6885378366 0.002139103726 -0.7251972641
-0.001700220942 -0.002976555347 -0.07365318298 0.06824648388 0.5611503705 0.8248955565
0.005935671146 0.004286593364 -0.0767329084 -0.308342587 0.392092767 0.8667110886
0.01441953818 0.01431830661 -0.07465824763 0.7077162854 -0.1184328235 -0.6964993365
0.01871575356 0.03297649765 -0.069173172 0.9144670203 0.01442483442 -0.4044032554
0.01974598939 0.05350787735 -0.06618262318 0.9551222551 0.0191557965 -0.2955918358
-0.01282158232 0.001212194353 -0.07111487961 -0.472982192 -0.4806316761 -0.7384314714
-0.004299140781 5.310060084e-05 -0.07504247475 0.2231929506 0.4966575932 0.8387586911
0.01466200352 0.01938596845 -0.07494578266 0.73307025 -0.04727278556 -0.6785081372
0.0172313705 0.03474741321 -0.0717619417 0.8079372271 -0.01771076353 -0.589002348
0.01109283855 0.01440869669 -0.07731234048 -0.5799952437 0.1426096468 0.802039903
0.01449737151 0.02433815765 -0.07518133418 0.7130117145 0.005158240168 -0.7011331454
-0.01187396812 0.003183828354 -0.07307350159 -0.4337955225 -0.437564297 -0.7876286756
-0.00847829628 0.001797444701 -0.07453059387 0.3323148297 0.4666091283 0.8196601584
0.00680742836 0.008797599316 -0.07815475573 -0.3424044497 0.296812352 0.891437951
0.01153392899 0.01921240258 -0.07754470921 -0.6007405374 0.05655812143 0.7974408979
0.01715919113 0.04409084593 -0.07187983377 0.809744415 0.01859935509 -0.5864878911
-0.004005216916 0.03276385117 -0.0807525355 -0.1673641534 -0.0003453063386 -0.9858950862
0.01877986431 0.04980652618 -0.06898433304 0.9199239822 -0.02444579784 -0.3913339621
-0.008443182468 0.004617213726 -0.0759379921 0.3506758696 0.3762829126 0.8575765879
-0.00436657846 0.00436274902 -0.07723648961 0.2689127942 0.3977022052 0.8772222438
0.01173413767 0.0244467065 -0.0774676481 -0.5999772004 0.0172989767 0.7998300472
0.008651823044 0.01485674191 -0.07883734894 -0.3945179027 0.1402143952 0.9081274954
0.0148014253 0.03458359591 -0.07487534459 0.7354750219 -0.0132597774 -0.677422077
0.01717601049 0.04914327717 -0.07182748985 0.810027257 -0.001091174525 -0.586391211
0.0186708889 0.05462522697 -0.06919467163 0.909729214 0.0310794517 -0.4140372265
0.0008884317279 0.009479765574 -0.07952743276 -0.01611210866 0.2504238098 0.968002229
0.005917684635 0.01450855011 -0.07975214216 -0.3525177716 0.1526850587 0.9232651263
0.0147212019 0.03976855723 -0.07494374975 0.7381413242 -0.01551866235 -0.6744676097
0.0172070416 0.05427765165 -0.07179710497 0.8116442924 -0.006523590949 -0.5841155582
-0.008792502244 0.00975473245 -0.07757722982 -0.3358273495 -0.2964700955 -0.8940500399
-0.005622263908 0.007526022434 -0.07815903473 0.2834599389 0.3048789073 0.9092300671
-0.003439037979 0.00961831212 -0.07931505013 0.1479799056 0.2528313719 0.9561266887
0.006104798436 0.01932684875 -0.08013416958 -0.3054674275 0.05690949107 0.9505003738
0.01169954169 0.03435212278 -0.07748321724 -0.6030038166 -0.01483739483 0.7976003065
0.0147580349 0.04425714645 -0.074917276 0.7389015257 0.01925741132 -0.6735381855
0.0008558269093 0.01433721399 -0.08059729258 0.002576337746 0.1592806663 0.9872299792
0.00894062074 0.0245758508 -0.07914611053 -0.4028572467 -0.001043130132 0.9152622305
0.01474574025 0.04950354258 -0.07491344706 0.7179134126 -0.001211126928 -0.6961313562
-0.008552159309 0.01339156628 -0.07861443329 -0.3024714405 -0.2139237595 -0.9288421033
-0.004608150339 0.01440305424 -0.08007828064 0.1759047683 0.1675559172 0.9700425388
0.0009903974881 0.01911559582 -0.08104362233 -0.07001408624 0.06726662705 0.9952754536
0.005686888729 0.02936853654 -0.08031395176 -0.2709939123 0.01179399787 0.9625088057
0.0009536814138 0.05458274002 -0.0810958847 -0.0545465497 -0.04827860646 0.9973433963
0.008868076801 0.02983502102 -0.07918399429 -0.4022315913 0.001196944797 0.9155371725
-0.007444282532 0.03877113342 -0.07977996063 -0.1643121754 -0.009239292729 -0.9863651172
0.009241169612 0.03471140544 -0.07899634298 -0.4220122637 -0.01547363564 0.9064580607
0.001073998129 0.02425179253 -0.08111763153 -0.1252318523 0.009459468201 0.9920824067
0.01164790154 0.04999667931 -0.07751187642 -0.604190887 0.01434600982 0.7967104644
0.01169897861 0.05886053772 -0.07744695892 0.605929615 0.02662539537 -0.795072569
0.01438249143 0.05888695526 -0.07526353963 0.6852178854 0.06975118957 -0.7249904972
-0.00398797516 0.02517301814 -0.08072598521 0.1092782057 0.01633928167 0.9938769047
0.0008941397294 0.02937773991 -0.08113428307 0.02289230803 -0.009292882235 -0.9996947457
0.0007003949761 0.03420009995 -0.08111411743 -0.04677412485 -0.03522163126 0.9982843372
0.006061950479 0.03926317651 -0.08021689715 -0.2462232868 -0.01609934279 0.9690794107
0.008675956249 0.04075803947 -0.07927365112 -0.42778177 0.0140277064 0.903773191
0.009005128384 0.04479607201 -0.07910344696 -0.411751193 0.02069144767 0.9110613695
0.0116478817 0.05468774261 -0.0775233017 -0.6039662076 0.00835581088 0.7969661226
0.006168394963 0.0444070549 -0.0801808459 -0.2516515931 -0.009055572775 0.9677755278
0.009346018314 0.04888636398 -0.07893649292 -0.426498567 -0.006661739293 0.904463705
-0.007861646175 0.03287438965 -0.07962527466 0.1864790238 0.002217171866 0.9824564407
0.006011999437 0.04976042393 -0.08020504107 -0.2749778469 -0.004857050644 0.9614382938
0.009212040901 0.05477831014 -0.07899390411 -0.4067778531 -0.012372045 0.9134433265
0.001301279879 0.04473185349 -0.08108315277 -0.09039864141 0.01703521936 0.9957599545
0.006542203665 0.05857337952 -0.08006857681 0.294614202 0.1051569353 -0.9498128715
-0.007120262623 0.04491102982 -0.07989762878 -0.1411895854 -0.01140394817 -0.9899168909
-0.00360787789 0.04519909286 -0.08082090505 0.06227277295 0.01713545932 0.9979120591
0.001191417096 0.0495334034 -0.08111852074 -0.07636302745 0.03702342113 0.99639247
-0.006894072056 0.05131519699 -0.07997650146 -0.1464745766 -0.003081708143 -0.9892096348
-0.002161046505 0.05241250992 -0.08104889679 0.03337213259 0.002048947985 0.999440895
