# .PCD v0.7 - Point Cloud Data file format
VERSION 0.7
FIELDS x y z normal_x normal_y normal_z
SIZE 4 4 4 4 4 4
TYPE F F F F F F
COUNT 1 1 1 1 1 1
WIDTH 561
HEIGHT 1
VIEWPOINT 0 0 0 1 0 0 0
POINTS 561
DATA ascii
0.02044576263 0.002412106276 -0.02452209949 0.9978657705 0.0651969934 0.003640901687
0.01808995676 -0.002342779636 -0.05985570812 0.8817802248 -0.3593267741 -0.3055288931
0.01862620544 0.008791271687 -0.0207627039 0.940886029 0.3386678163 0.006131117717
0.001622584581 0.05014025116 -0.08109225464 -0.09923895295 -0.004298490076 0.9950543469
0.003639959812 0.05149909592 -0.08081520335 -0.181880189 -0.01096902751 0.9832595168
0.01951762009 0.02480495644 -0.05413418198 0.9495712273 -0.01547428691 0.3131693323
0.0005485359927 -0.02054240036 -0.02730727069 0.001984479563 -0.9999706935 -0.007394185827
0.02041654205 0.00353042531 -0.04591165543 0.9891199029 0.1400027792 0.04517786619
0.006814720869 -0.01941241741 -0.02990977859 0.3331869403 -0.9427638704 -0.01351841196
0.0201668148 -0.003987675786 -0.04181567001 0.9766801486 -0.2115354808 -0.03672366766
0.008223797798 -0.0188582325 -0.03029695892 0.403836645 -0.914829117 -0.001910740353
0.01753181839 -0.010787642 -0.03085730267 0.860002888 -0.5102098266 0.008998083251
0.02047457886 0.002162057519 -0.02963853168 0.9952653197 0.09613030299 -0.01434950676
0.01854372072 -0.008884396553 -0.03045368195 0.90456896 -0.4262483877 0.008204176889
0.01958083852 -0.006331640879 -0.03004000155 0.9482529592 -0.3173057809 -0.01154845203
0.01554114761 -0.008705579948 -0.05730418015 0.7641705779 -0.5585418697 -0.3226054984
0.02048229408 -0.001844820976 -0.02731796074 0.9954826626 -0.09494089507 0.000703554512
0.02010914866 0.0002007111013 -0.05428377406 0.9738999455 -0.18570176 -0.1305134186
0.01491772699 0.01314071178 -0.07394551468 0.7352968162 -0.1390926377 -0.6633187998
0.01885241737 0.003650839901 -0.06328467331 0.9230394463 -0.2338503309 -0.3054704621
0.02059712505 7.197140343e-05 -0.02732567406 0.999434936 0.03326763284 0.004803468009
0.0127271622 -0.01180432367 -0.05725790024 0.6247536922 -0.6902753303 -0.3649695774
0.01992217827 0.005057930231 -0.02475706005 0.9747887631 0.2227951963 0.01221342561
-0.002294049263 -0.02045349693 -0.02708678818 -0.08907699814 -0.9959808271 0.009353093582
0.01195524883 -0.01675291348 -0.03264889431 0.5769173536 -0.8167271213 -0.01109848536
0.01247843027 0.03643645287 -0.07695833588 -0.6136238202 -0.005061101425 0.7895822899
0.01355615091 -0.01547360706 -0.0327930069 0.6568066136 -0.7539605661 -0.01218758273
0.01179886723 -0.01648948097 -0.04508753967 0.5714031452 -0.8143877949 -0.1013457704
0.004174194038 -0.01250811601 -0.06367677307 0.2073105612 -0.8020360971 -0.5601432229
0.01503709555 -0.01407865 -0.03283159637 0.7294305335 -0.6839437381 -0.01233125634
0.009338389587 -0.01660227509 -0.05133496323 0.4369527555 -0.8621060063 -0.2566038258
0.02032352638 0.03671217728 -0.0575538826 0.9941067137 -0.005900902506 0.1082451896
0.02046024323 0.002286448002 -0.02709328651 0.9984715913 0.05416755568 0.010970747
0.009876073837 0.03292606544 -0.07864818573 -0.4935897935 0.001417683449 0.8696936851
0.02050345612 0.009018779755 -0.05470997238 0.9974845959 0.03955046273 0.05882382005
0.004329349041 -0.02011606789 -0.03317345111 0.2322939726 -0.9726454853 0.0005198056869
0.01650646242 -0.01181532145 -0.04510165342 0.7880388154 -0.6074801932 -0.09981302715
0.006383312384 -0.01955261803 -0.03329512914 0.2973563637 -0.9547369649 -0.007518038238
0.008267818928 -0.01883813477 -0.03354472351 0.3987520821 -0.9170007178 0.01031797584
0.01356305408 -0.01546909285 -0.03599563408 0.6576449538 -0.7533270077 0.001238611469
0.01838986015 0.03917473729 -0.06981484985 0.8902404118 0.00542098689 -0.4554586942
0.009999385516 -0.01799153201 -0.03367012533 0.4945495463 -0.8690702131 0.01173502864
0.01930852127 0.007105091572 -0.03924230576 0.9180429623 0.3964802662 0.0007196404348
-0.0008355782032 0.02309085846 -0.08117774963 0.03368620405 -0.003598772079 0.9994259795
0.009766845465 0.0298827095 -0.07868576431 -0.4751120318 -0.01141977981 0.8798512066
0.0175226593 -0.01080892754 -0.03328659058 0.8642251329 -0.503037062 0.008284555049
0.01857654762 0.03023722204 -0.06943907674 0.9008390258 -0.02453424012 -0.4334594799
0.01852506304 -0.008923912525 -0.03369692993 0.909977282 -0.4145454996 0.00966307358
0.01996316338 0.004891438007 -0.02736506844 0.9771573299 0.2125114582 -0.001559751615
0.0194036212 -0.006209630609 -0.04553770351 0.9490792854 -0.309280682 -0.05994972659
0.01305139287 0.01542788219 -0.07610373942 -0.6553335557 0.1031372308 0.7482650883
0.0007837186098 -0.008405211353 -0.06915052948 0.009236967047 -0.7102949673 -0.7038435464
-0.00820912838 -0.01886501122 -0.02707215118 -0.3237631366 -0.9461340035 0.002806935739
-0.00465661788 -0.02006531715 -0.0300042057 -0.186478818 -0.9824457751 -0.005094062502
-0.004217813492 -0.01984307194 -0.04461697006 -0.1691675738 -0.979138173 -0.1125645159
0.001406179714 -0.0205102253 -0.03314048894 0.06312973825 -0.9977655679 -0.02187481875
0.01042597071 -0.01774589984 -0.03588423284 0.5126114243 -0.8585868135 -0.007629633453
0.01503431654 -0.01408157349 -0.03603246117 0.7138209756 -0.7003247718 0.002197438716
0.008343705177 -0.01880348969 -0.03914337158 0.3949171067 -0.9185086794 -0.01955210152
0.01633156538 -0.01251742983 -0.03591525269 0.7957311444 -0.6056244052 -0.005570063908
0.01751358414 -0.01083001566 -0.03569338799 0.8593437138 -0.5113832379 -0.003945314585
0.01660890579 0.02652592278 -0.04842803574 0.8534079293 -0.003840855319 0.5212294639
0.01980093447 0.03053403664 -0.0661650238 0.9639374691 -0.01327229227 -0.2657976712
0.006593115568 -0.004749462843 -0.0710340538 -0.2963266792 0.5970128494 0.7454972547
0.02022606659 -0.003800092816 -0.03379661179 0.9829939814 -0.1835850561 -0.004399963815
0.01697161484 -0.009226337115 -0.05214555995 0.8248685208 -0.5230212532 -0.2145709489
0.02047008038 -0.002035399675 -0.03312796593 0.9938514454 -0.1106371096 0.00432833048
0.02000829124 0.004721478462 -0.02995032406 0.978491265 0.2058931045 -0.01276220637
0.01889802361 0.008171179771 -0.02710367012 0.9511823261 0.3086132714 0.003167223092
0.004174592376 0.04823245811 -0.08072247696 -0.2225458581 -0.008677857452 0.9748836012
0.02041981316 0.02553396988 -0.05815382004 0.9959284414 -0.007829104685 0.08980670803
-0.002004476964 -0.02048761177 -0.03299304771 -0.12407843 -0.992198433 -0.01211663202
0.0003135954837 0.03002412224 -0.08117433167 -0.00497223641 -0.02152342689 0.9997559797
0.01861309814 -0.008744169235 -0.03659062449 0.9134476894 -0.4067489837 0.01298394813
0.01962270308 -0.006200552464 -0.03618857479 0.9463127731 -0.3232421967 0.002572499069
0.02059791946 -0.0001562637836 -0.0331724205 0.9996294358 0.02132291664 -0.01692111829
0.002027621031 0.03227799606 -0.08107603455 -0.1202360107 0.001727004737 0.9927438336
0.01632880402 0.05827591133 -0.07308377075 0.7713096488 0.03314743989 -0.6355963129
0.01972115898 0.05727729225 -0.06636850739 0.9561233284 0.01087731401 -0.2927624717
0.01896432877 0.008008428574 -0.02887762642 0.9524676289 0.304630685 0.002358313768
0.02044003487 0.04502767181 -0.06296171951 0.9922568418 0.003770375927 -0.124145657
-0.004449717283 -0.02010961533 -0.03340066147 -0.1816768579 -0.9833471383 0.004682398221
0.01024919319 -0.01784821558 -0.03876053905 0.4908489387 -0.8709424654 -0.02294648898
0.003872037172 -0.02022195625 -0.03623917007 0.1926987109 -0.9812400718 -0.005926921056
-0.00677077198 0.05800693893 -0.08001454163 -0.2647754937 0.2203517733 -0.9387965882
0.004023867488 0.009097094536 -0.07910285187 -0.2354020016 0.2825719677 0.9299134265
-0.01215801716 0.006343859673 -0.07430802536 -0.5143635489 -0.3268381088 -0.792847394
0.01503156805 -0.01408446503 -0.03919858551 0.7447604115 -0.6672972453 -0.006805574669
0.0175012579 -0.01085752869 -0.03887296104 0.8580439516 -0.5133753066 -0.01436564272
-0.00187695682 -0.01597768116 -0.05866107941 -0.05494903163 -0.8863931957 -0.4596604252
0.01839098676 -0.009201173464 -0.03880701192 0.8901756529 -0.4553499084 -0.01561306942
0.02021366882 -0.003862996578 -0.03623162079 0.979586435 -0.201003664 0.002818422948
-0.001596580267 0.003162679593 -0.07719871012 0.06055043441 0.4250571124 0.9031390237
0.01448284817 -0.00436357975 -0.06481887817 0.7124684998 -0.4966804714 -0.4956784705
0.02055443192 0.0007923692241 -0.03597899914 0.9997585771 0.01370496913 -0.01717444135
0.0005804507434 0.02458733463 -0.0811832428 -1.543841448e-05 -0.010491451 0.9999449631
0.01211755276 0.02416896725 -0.07723419952 -0.5983048656 -0.008389148392 0.8012246314
0.003646777391 -0.006422037125 -0.07061193848 -0.1507030921 0.6429181877 0.7509625703
0.02006784534 0.004497191191 -0.03336195374 0.9794999832 0.2005884339 0.01854893671
0.01903019524 0.007846749306 -0.03063989067 0.9635959552 0.2672291288 0.00845149571
0.01751634407 -0.007309722185 -0.05438206673 0.85622285 -0.4555467242 -0.2436382834
-0.007583339691 -0.01914817429 -0.03327879333 0.2574177955 0.9662871626 -0.005019761067
-0.001841644645 -0.02050679493 -0.03631425285 -0.07743299676 -0.9969954273 0.002061295644
0.006253169298 -0.01959505558 -0.03937769699 0.2984663281 -0.9542358323 -0.01875706338
0.006794045687 0.05419867325 -0.08001129913 -0.3147817003 -0.01184566507 0.9490901756
-0.005332069397 0.0006022014841 -0.07511125565 0.2541289777 0.4824916042 0.8382245013
0.0202748661 0.05212403107 -0.06399232101 0.9795525929 -0.005290857372 -0.2011186826
0.0202013855 -0.00392531991 -0.03864417267 0.979362514 -0.201990927 -0.006980803263
0.01314744473 0.05714938736 -0.07639592743 -0.6495943325 -0.01061212577 0.7602069363
0.01696300888 0.03917128372 -0.07220549393 0.8071308872 0.007162440889 -0.5903290865
0.008336336136 -0.0187515583 -0.04147639465 0.396187064 -0.9167357795 -0.05129640248
0.019541605 -0.006277102113 -0.04251001358 0.9481327557 -0.317086541 -0.02236969307
0.02021461487 0.04511534882 -0.06445648956 0.9814999182 -0.0003922271989 -0.1914621549
0.01022980428 -0.01778568745 -0.04186719704 0.4880126088 -0.8710129209 -0.05639313252
0.01195333099 -0.01666739941 -0.04212197495 0.5699895711 -0.8195685608 -0.05847446464
0.01352306461 -0.01540718246 -0.04225230694 0.6598949035 -0.7493776613 -0.05451455866
0.01337433322 -0.009077636162 -0.06069618924 0.6596199228 -0.6167936848 -0.4294963421
0.01497285891 -0.01403105116 -0.0422833786 0.7224147777 -0.6899357365 -0.0458864736
0.01626389575 -0.01249376082 -0.04217969227 0.7919151531 -0.6086556208 -0.04907876965
0.02009233093 0.01197553062 -0.06340779781 0.9704771894 -0.07963068033 -0.227668574
0.01003204174 -0.01503854084 -0.05461922379 0.477370629 -0.8103675131 -0.3397378051
0.01845658064 -0.008996923923 -0.04163052368 0.899422059 -0.4350862457 -0.04171233067
0.02056276178 0.0006498040631 -0.03924898529 0.9999759232 0.005613945865 0.004078799853
0.003336738586 0.05954743958 -0.08090949249 0.1572856216 0.03423052077 -0.986959728
0.001308790371 -0.02041521978 -0.04237834263 0.06394810043 -0.995410314 -0.07119653885
0.01008526468 -0.01760339594 -0.04484040451 0.487412853 -0.8659989247 -0.1116896288
0.003673534354 -0.01481961377 -0.06024644788 0.1726401831 -0.852472755 -0.4934425692
0.01245016117 -0.008219865036 -0.06310199356 0.6260396379 -0.6153783643 -0.4789403309
0.01481676817 -0.01387970781 -0.04525596237 0.7107703927 -0.6954022179 -0.1059301854
0.01833348274 -0.008924443007 -0.04466334629 0.8982668758 -0.434933909 -0.06284198175
0.003465285242 -0.01651263762 -0.05705473232 0.1420838489 -0.9029039831 -0.4056803879
0.02037173462 0.05448505402 -0.06332792664 0.9938648444 0.004182366637 -0.1105223006
0.02043421745 -0.002336445451 -0.0428115139 0.9884134337 -0.1504983311 -0.01972654313
0.02056496286 0.0005155692026 -0.04247712231 0.9998823989 -0.003090885041 0.01502114368
0.003732489681 -0.01855168381 -0.05142909241 0.1848749833 -0.939874212 -0.2871544988
-0.007984640598 0.01672891998 -0.0793527298 -0.3059605495 -0.1014184287 -0.9466268771
-0.001891525984 -0.005276341756 -0.07186980693 0.06246415125 0.6383300193 0.7672242282
0.02017036247 0.004111095905 -0.03923484802 0.9826346558 0.1854021218 0.00742876429
-0.007089985847 -0.01932170105 -0.03925403214 -0.3525866873 -0.9354600752 -0.0244351316
-0.005185873985 0.009960641861 -0.07907424927 0.2760944242 0.2506841299 0.9278627786
0.01675603294 0.03522543716 -0.04864732361 0.8590001788 -0.001875659608 0.5119718496
-0.001690289497 -0.02039422607 -0.04271191978 -0.08948293887 -0.9927264221 -0.08054225285
0.01843707752 0.04551978111 -0.05151353645 0.9188051322 0.00548470578 0.3946733421
0.006120328426 -0.01933906651 -0.04469923401 0.292576699 -0.9503882843 -0.1056455598
0.01395959854 0.03695207214 -0.07573931503 -0.6618557139 -0.005616829898 0.7496102088
0.02021512032 -0.00317356354 -0.04540815258 0.9839246139 -0.1728652825 -0.04483244585
0.007126678944 0.04255016708 -0.07989876556 -0.3135218693 -0.009146038248 0.9495369332
0.01506935628 -0.008001056353 -0.05944494756 0.7450838581 -0.5526569692 -0.3733903035
0.02023695755 0.003921708941 -0.04173344612 0.9879337665 0.153744911 0.01869158694
-0.01280543709 -0.01613373375 -0.03721522522 0.6691886791 0.7421953837 0.03650375508
-0.007005785227 -0.01928674412 -0.04167944336 -0.3209999361 -0.9460865356 -0.04335098758
-0.01294011974 -0.01334598732 -0.05368790436 -0.5120770541 -0.7889286153 -0.3396597277
0.001129922494 -0.0201470561 -0.04532768631 0.0677552925 -0.990339277 -0.1209848617
0.009624067688 -0.01729389763 -0.04806601639 0.4699819028 -0.8633345627 -0.1837673634
-0.002058703423 0.01060243416 -0.07980808258 0.1050961946 0.2500033709 0.9625243396
0.01152525568 -0.01619560051 -0.04793078232 0.54717327 -0.8210190568 -0.1628776256
0.0009085724428 -0.01113758302 -0.06613294601 0.029356274 -0.7689429393 -0.6386430657
0.01453753376 -0.01360455418 -0.04810104942 0.6869930977 -0.7080310357 -0.1635008753
0.01625237608 -0.01158260171 -0.04797759056 0.7800184157 -0.6083125692 -0.1467211276
0.02053840446 0.003281138659 -0.04839898491 0.9993535331 0.03344177126 0.01319711201
0.0181411747 -0.008595561123 -0.04799483261 0.8890452433 -0.4404769211 -0.1248144117
0.02054542859 9.261105458e-05 -0.0452576739 0.9996229981 -0.02554647267 0.01006178098
0.01574064922 0.01326038933 -0.03686721039 0.7422095823 0.6691735361 -0.0364926637
-0.001864467442 -0.01796795082 -0.05409812546 -0.1293776992 -0.934572905 -0.3314134822
-0.002312804133 -0.008443014979 -0.06895339012 0.1005740446 0.6961226804 0.7108432143
-0.01222607994 -0.01655567169 -0.03925717545 0.4904640256 0.8705486743 0.03987537171
-0.001916166961 -0.0200711298 -0.04563178062 -0.1270969544 -0.9816621515 -0.1420766853
0.003830931604 -0.01937899017 -0.04804053688 0.1925696668 -0.961592229 -0.1955947559
0.007101883411 -0.01834912825 -0.04855073929 0.3686428135 -0.9060989424 -0.207574523
0.01918844938 -0.006058670998 -0.04847226715 0.9269991267 -0.3568600758 -0.1154274898
0.01701856136 -0.0003920623511 -0.06433404541 0.8330505204 -0.368926155 -0.4122139282
0.003714596701 0.006565543747 -0.07828874817 -0.2134220612 0.3315668474 0.9189746729
0.02032982063 0.003703443527 -0.04423546219 0.9873135991 0.1571921043 0.02241649775
0.01653738594 0.01224723339 -0.03924115372 0.8764347211 0.4731019614 0.08964772032
-0.01190588522 -0.01671539974 -0.04187940598 -0.4898446352 -0.8707128775 -0.04371862731
0.004926918983 -0.01902213287 -0.0487196312 0.2417096757 -0.9441236231 -0.2240692234
0.007954241991 0.03296821594 -0.07958317947 -0.3863235547 0.004207468749 0.9223537327
0.01317561309 -0.01410569652 -0.05080193011 0.6350509339 -0.740052165 -0.221434199
0.01589322631 -0.01124195719 -0.05074538294 0.7588963744 -0.6174364448 -0.2069988637
0.007178757509 -0.01521166341 -0.05745075607 0.3255538027 -0.8415778138 -0.4310005857
0.01781976191 -0.008193296274 -0.05106366984 0.8684084965 -0.4616173855 -0.1810416324
0.01238247871 -0.01084670003 -0.05949851227 0.5894595116 -0.692393631 -0.4160871832
0.01950397428 0.02126081721 -0.05406305186 0.952871954 0.0259565916 0.3022603095
0.01993805504 0.006096155405 -0.04548322487 0.9735916316 0.2120545394 0.08457072341
0.004284578562 0.05491679764 -0.08069487762 -0.1903264097 0.0119796008 0.9816477713
0.01727419853 0.01130466175 -0.04153955078 0.8856574492 0.4512784223 0.109355696
0.01368682408 -0.01229902291 -0.05444516277 0.6632088679 -0.6873460669 -0.2961576977
-0.004641517401 -0.01933739758 -0.04738518524 -0.1754709651 -0.9692427684 -0.1725641802
-0.002363179207 -0.01955171299 -0.04836397362 -0.1458742766 -0.9689613153 -0.199586234
0.006634470582 -0.01784543371 -0.05121899796 0.3216137451 -0.9082739191 -0.2675875313
-0.00515482378 -0.003329474926 -0.07267893219 0.2420010479 0.5661652484 0.787967261
0.01981016159 -0.002937568545 -0.05131279755 0.9549589746 -0.2695518767 -0.1240771642
-0.01233260822 -0.01622973251 -0.04393132782 0.4869163855 0.8703521628 0.07348160474
-0.005312721729 -0.01652991867 -0.05609734344 -0.2655981639 -0.873452623 -0.4080908364
-0.007957400322 -0.01813357735 -0.04797000376 0.3309728737 0.9187967249 0.2151035453
0.0150259697 -0.0111355999 -0.0538381485 0.7444445359 -0.613680176 -0.2630569796
0.02045859432 0.003079039335 -0.05460079002 0.99270446 -0.08713830394 -0.08333529259
0.02051046276 0.001220972002 -0.05073708534 0.9967664454 -0.07338892208 -0.0327218496
-0.007861646175 0.03287438965 -0.07962527466 -0.3073822569 -0.007877383975 -0.9515535166
0.0177720108 0.02286285782 -0.05019326019 0.8910595056 0.009008228988 0.4537971014
0.02028853798 0.005573611259 -0.0481835289 0.989881326 0.1228202691 0.07106435117
0.007256446362 0.04908645248 -0.07983772659 -0.35220035 -0.00658233025 0.9359014833
-0.005093947411 -0.01883962822 -0.04935250473 -0.2300186377 -0.9455453807 -0.2302940716
0.007436314225 0.01225343204 -0.07885344887 -0.3862633193 0.1949537522 0.90155071
-0.002012277812 -0.0188488965 -0.05131572437 -0.07361738749 -0.959057572 -0.2734758744
0.005761434078 -0.001137610435 -0.07397553253 -0.2712747445 0.5078702416 0.8176049356
0.006969899082 -0.01683712959 -0.05383464737 0.3482373947 -0.8821072324 -0.3172026916
0.01639985943 -0.008988140345 -0.05459506702 0.7954423789 -0.5429330743 -0.2692491386
0.01847944736 -0.005456111789 -0.05404341888 0.9068627423 -0.365852325 -0.2091698903
-0.004727100492 -0.01223471117 -0.06384255409 -0.2228812362 -0.7982865745 -0.5595198831
0.01937685852 -0.002771099257 -0.05442156601 0.9446289308 -0.2749220797 -0.179148076
0.02057226276 0.003095871329 -0.05157641411 0.9998783201 -0.003373512857 -0.0152303784
0.0195344429 0.009428584099 -0.04874675941 0.9617864298 0.220253786 0.1626503403
0.01475274181 -0.0101348114 -0.05664870071 0.7072599821 -0.6180936958 -0.3431377286
0.0169624157 -0.006785410404 -0.05697146797 0.8230349229 -0.4781285151 -0.3066050207
-0.008180805683 -0.01375765562 -0.05940087318 -0.391777463 -0.795637954 -0.462028858
-0.005742627859 -0.01816865635 -0.05117222023 -0.287647405 -0.9171888379 -0.2757237859
0.0009132566661 -0.01800857048 -0.05409549408 0.03546914172 -0.9324349431 -0.3595928488
0.01358253702 0.01817976761 -0.07595031484 -0.6593640912 0.05300875181 0.7499527101
0.0113945446 0.004325043201 -0.07406919098 -0.544265824 0.3497226413 0.7625410068
0.004292417049 -0.01735742807 -0.05467272186 0.1942636684 -0.9147820878 -0.354168546
0.02041725731 0.001225461006 -0.05299834824 0.9929592793 -0.1014225007 -0.06119923121
0.02056266594 0.009485158285 -0.0571177597 0.9998159206 -0.001189033121 -0.01914970094
-0.009262330532 -0.01681493855 -0.05087826538 0.426326816 0.8600702837 0.2802223278
-0.002758880854 0.05199868774 -0.08097983551 -0.1315724927 -0.02427176506 -0.9910093645
-0.004765576661 -0.01759113932 -0.05363389778 -0.2179531318 -0.9182998765 -0.3304871695
0.01798486471 -0.005004038095 -0.05669042397 0.8554499296 -0.4377181403 -0.2767819496
0.004245990872 -0.01351193428 -0.06220960045 0.2141914022 -0.8169644151 -0.5354355121
0.02056716681 0.005954339504 -0.05433327484 0.9998705636 -0.009555720755 -0.01294388947
0.01990306854 0.009903513908 -0.05105366516 0.9727144269 0.1619041301 0.1661736932
0.02048424339 0.006223132769 -0.05725433095 0.9960305862 -0.05345419661 -0.07117387352
0.01827838135 0.0139155798 -0.04891404724 0.9439729014 0.2086553118 0.2556914592
0.01869227066 -0.002530701661 -0.05768341446 0.9134181087 -0.3222025615 -0.2487023685
0.01980966873 0.0009290718712 -0.05712479706 0.967292957 -0.186590988 -0.1718375355
0.02029574966 0.009353006363 -0.05296421432 0.9904021364 0.08920296862 0.1055766951
0.02057989311 0.05470692444 -0.06006264114 0.9994463333 -0.01016256982 0.0316819979
0.01959789085 0.01226198006 -0.05161452866 0.9558955499 0.1893519515 0.2245206811
0.001837010503 0.02626828194 -0.08109542847 -0.1237220037 -0.0106921519 0.9922593127
0.003762831052 0.02756246758 -0.08080797831 -0.2017774075 -0.006839605645 0.9794075238
-0.00715871954 -0.01675414276 -0.05396739197 -0.3289226628 -0.8810880175 -0.3398437691
0.02033485794 0.059351017 -0.06352786255 0.9908531942 0.03410971989 -0.1305621483
0.01642045727 -0.002584854388 -0.06341259384 0.7877044582 -0.4328447332 -0.4383687071
-0.001947474003 -0.01689007902 -0.0567041378 -0.09535104346 -0.912034702 -0.3988745178
0.01562405262 0.009503451347 -0.07206639557 0.7592324514 -0.2133941485 -0.6148406478
0.00535877037 -0.01556790066 -0.05815343475 0.2745378654 -0.8614761617 -0.4271858885
0.01248625742 -0.002367957643 -0.06888548715 0.6210287487 -0.4859925281 -0.6149264638
0.008816567898 -0.01343362713 -0.05938387489 0.414278495 -0.7902424909 -0.4515419517
0.0201028347 0.01256882238 -0.05403108215 0.9815752332 0.07708354123 0.1748376082
0.01502030532 0.05188266881 -0.07463024139 0.7256419383 -0.007225363825 -0.6880345714
0.01936533737 0.01455091763 -0.05224427032 0.9529147932 0.1323729448 0.2728200881
-0.01144871426 -0.0147236948 -0.05318006516 -0.49374973 -0.7968882132 -0.3481097238
0.006576473117 -0.01397689652 -0.0602485323 0.2929545976 -0.8278466158 -0.4783801672
0.01884855461 0.0001905801371 -0.06033629608 0.9215108985 -0.2659339143 -0.2830138111
-0.007772586107 -0.01515116692 -0.05698925781 -0.4123441701 -0.8235491372 -0.389537038
-0.004902823329 -0.01594155741 -0.05755360794 -0.234641434 -0.8744199855 -0.4246564334
0.01970558929 0.04469904327 -0.05471373367 0.9729947887 0.003925813052 0.2307936938
0.0007645079345 -0.01539345932 -0.0599020106 0.04875704403 -0.8638753309 -0.5013403668
0.008136698723 -0.01275052547 -0.0611097641 0.3819589222 -0.7807873091 -0.4944477321
0.01952748728 0.002851187587 -0.06037819195 0.9413840732 -0.2299738789 -0.2467955465
0.02056472301 0.01574565959 -0.06000800419 0.9997239172 -0.008332216021 0.02196960299
0.0201272316 0.006132966638 -0.06017965794 0.9821679188 -0.1158726823 -0.1480530335
0.02047248459 0.01297203636 -0.05710989571 0.9957799198 0.03790804914 0.08357829343
0.01035374451 -0.002993931532 -0.07024880219 -0.5114393794 0.539193503 0.6691039737
0.003740198195 -0.01114484787 -0.06563148689 0.1482286725 -0.7623715428 -0.6299348311
0.0182033844 0.02771267223 -0.05102639389 0.8971920308 -0.0005660131036 0.4416402828
0.02050295162 0.02186330605 -0.062517519 0.9978057489 -0.005094429475 -0.06601313674
0.01669135284 0.03082806015 -0.04854160309 0.8789384909 -0.0009077819684 0.4769342776
-0.01026869965 -0.01377442074 -0.05713503838 -0.4523853028 -0.8053215167 -0.3831511354
-0.001942741558 -0.01494869828 -0.06052210426 -0.07309057404 -0.8663387141 -0.4940799536
0.007108288016 -0.0117221756 -0.06332673318 0.3419715715 -0.7638996174 -0.5472776432
0.01802684784 0.0004956061989 -0.06290508366 0.8556577048 -0.3331103947 -0.3960900871
-0.004708826661 0.03250330734 -0.08061981201 0.1847688268 -0.01669817978 0.9826401434
0.02051433754 0.01007111041 -0.05943001556 0.9985088636 -0.02551165036 -0.04826183887
0.01996571541 0.00914430666 -0.0628266468 0.9657528676 -0.1266839029 -0.2264345102
0.02040121841 0.01510933399 -0.0570957489 0.9929879828 0.03844235698 0.1117902109
0.02022699165 0.0184635582 -0.05662417603 0.9896297893 0.01447358223 0.1429104458
0.01974089527 0.02773408699 -0.0547877655 0.9634783828 -0.008476950076 0.2676519142
0.009948661566 0.01251068211 -0.0777136898 -0.4746778254 0.1812133355 0.8613029021
-0.007872913122 -0.01161736536 -0.06293043709 -0.3469134469 -0.7601705002 -0.5493558692
0.01789901543 0.03144250298 -0.05040412903 0.8890651149 -0.003186733645 0.4577696649
0.0201706543 0.03034361649 -0.05643436813 0.9789289175 0.0152964688 0.2036275827
0.01422363186 0.04086730194 -0.04571747971 0.7641108483 -0.0004295836107 0.6450848215
0.0007422174811 -0.01378857136 -0.06255245399 0.002885520938 -0.8311496013 -0.556041378
0.01634396148 0.0002694181595 -0.06607841873 0.7854022554 -0.3704599643 -0.4958857853
0.01369973278 -0.006342761993 -0.06376574516 0.6732771289 -0.5593491696 -0.4835560093
0.020538908 0.01268451118 -0.06029542351 0.9988436611 -0.01751933967 -0.04477067677
0.009892742395 0.05397027588 -0.078605299 -0.496350108 -0.00352008373 0.868115303
0.02045032883 0.01706022072 -0.05797153473 0.9956309929 0.02761106832 0.08919952263
0.02012274551 0.02178016663 -0.05620438385 0.978278546 0.01026859987 0.2070401948
0.01940187168 0.03043254566 -0.05373158073 0.9357122594 0.01147498484 0.3525774984
0.01571107826 0.003330953598 -0.06909197845 0.7654294196 -0.3219702848 -0.5571830393
0.01861835289 0.03266632462 -0.05186416245 0.919427369 0.007999629896 0.3931784825
0.0168317318 0.0396841507 -0.04876935577 0.8452642978 0.01008626968 0.534253249
0.01858847141 0.04537548923 -0.06939336395 0.9104037599 -0.003784562153 -0.4137036029
0.01450126457 0.04517084503 -0.04600332642 0.7703879195 -0.003257702361 0.6375671266
0.006076621771 0.04598660851 -0.08027206802 -0.3202512914 0.01578786912 0.9472010629
0.01845990658 0.01545810723 -0.06919761658 0.9029989204 -0.07768630576 -0.4225609869
-0.01253943062 -0.01166536713 -0.05788792419 -0.5512159279 -0.7303033895 -0.4035070757
-0.003263097048 0.05832917023 -0.0809282074 -0.126501913 -0.002364821173 -0.9919635445
0.01021972958 0.0002288775568 -0.07255724208 -0.4853453294 0.4694478898 0.7376032741
0.01187156582 -0.007276132584 -0.06491430664 0.5523591451 -0.6117873669 -0.5662292755
0.006952930093 -0.006032385945 -0.06975337791 -0.3392338518 0.6300291881 0.6985582409
0.02055605125 0.01888841438 -0.05969056892 0.999206253 -0.008005176343 0.03902282721
0.02041052628 0.02129180145 -0.05803926849 0.9944577802 -0.003707209358 0.1050713095
0.02029400826 0.02362519073 -0.05719402313 0.9884698137 0.01073059401 0.1510373525
0.02022419357 0.02697078419 -0.05680954933 0.9901667689 0.01498734963 0.1390868404
0.005978455067 -0.01059182739 -0.06547764587 0.2880960004 -0.7512069351 -0.593876111
0.01958729172 0.03347443008 -0.05435868835 0.9624998883 0.002472521953 0.2712708089
0.02045060158 0.03422135162 -0.05841815186 0.9976259888 -0.002401831776 0.06882308988
0.0180161438 0.04033042526 -0.05063567734 0.886185572 -0.00405604513 0.4633127244
0.01869603729 0.03300175985 -0.06915966543 0.9114225722 0.002645131904 -0.4114631189
0.0147399931 0.0495970192 -0.04626444244 0.7976526539 -0.01020026189 0.6030308437
-0.01064310503 -0.01143518162 -0.06077567291 -0.5331099381 -0.7075358807 -0.4638822819
0.01828960609 0.05902177811 -0.05123041153 0.8807091993 0.007624285331 0.4735960057
-0.004654526552 -0.01071856117 -0.06584044902 -0.1922771859 -0.7580581623 -0.6231992509
-0.004805686951 -0.01311113453 -0.06262011337 -0.2001105204 -0.8251513038 -0.528281275
0.01989448166 0.02758161354 -0.06583800888 0.9705641007 -0.006024156734 -0.2407675974
-0.001080712914 -0.01293347168 -0.06384737778 -0.02693297291 -0.8200114074 -0.5717131332
0.001252649635 -0.01241180944 -0.06447299957 0.07774000435 -0.8098703117 -0.5814349233
0.007417761087 -0.009260443687 -0.06624954605 0.3718884103 -0.6960553834 -0.6141709156
0.01065010897 -0.006667394797 -0.06671902466 0.5205897487 -0.6055589327 -0.6019008993
0.01391433239 -0.003183096329 -0.06665693156 0.6645727906 -0.4919785408 -0.5624056556
0.01753299713 0.001901526213 -0.06519943237 0.8618060859 -0.3049602414 -0.4053264382
0.02045689106 0.01570431852 -0.06227380371 0.9946004219 -0.03336751936 -0.0982680484
0.02056463051 0.02410439253 -0.06024784756 0.9998958444 0.005174399023 0.01347315921
0.01980664253 0.03650273514 -0.05502897644 0.9696548514 -0.009395805835 0.2442973351
0.01823003531 0.005946791768 -0.06628628731 0.8746156954 -0.2347807014 -0.4241761516
0.0194730072 0.03930422974 -0.05396943665 0.9403751152 -0.007464466936 0.340057237
0.01701859665 0.04878926086 -0.0490658989 0.8453561759 -0.01067979344 0.5340963189
0.0140486989 0.05492601776 -0.07564920807 -0.6867932488 0.005501608993 0.7268320065
0.01499385262 0.05407712555 -0.04654608154 0.7824614055 -0.002442368404 0.622694294
-0.001883109182 -0.01120795107 -0.06594980621 -0.06974309956 -0.7695408839 -0.6347776997
0.004469934384 -0.009707141876 -0.06710349528 0.2213893628 -0.7271553554 -0.6497936897
0.01695688693 0.003092974583 -0.06705138143 0.827377923 -0.307999594 -0.4696616044
-0.002248365104 0.02769690704 -0.08105356598 -0.08308921167 0.01587266994 -0.996415697
0.003557554722 0.01834106191 -0.08076554871 -0.1753450785 0.06621096934 0.9822780721
0.02051560211 0.018750597 -0.06202758026 0.9971666214 -0.02193506525 -0.0719554171
0.02056575966 0.02734749985 -0.05994321251 0.9998933584 0.006354611706 0.01314879016
0.02043026161 0.02984685516 -0.05827767944 0.9939033107 0.007699752839 0.1099860122
0.02025292778 0.03350684357 -0.05699252129 0.985244832 -0.01869068268 0.170127245
0.006504420519 0.02114501762 -0.08011741257 -0.3042011125 0.02609876617 0.9522502494
0.01932266617 0.04300193405 -0.05349742508 0.9316600422 0.001257595521 0.3633290303
0.01713101387 0.05343745804 -0.04924225616 0.8441417242 0.001296053759 0.5361185221
0.00986235404 0.01553273344 -0.07827644157 -0.4663379782 0.1200901171 0.876417283
0.01626906776 0.05836875153 -0.04815122604 0.8351976147 0.01473424269 0.5497525321
-0.01411257648 -0.008238874435 -0.0607796936 -0.6144849186 -0.6448923611 -0.4544470568
0.01511270738 0.0005615394115 -0.06812251663 0.7482060789 -0.3893450041 -0.5372133015
0.02037514877 0.01879772949 -0.06348949814 0.995376251 -0.01838394737 -0.09427698229
0.02057009459 0.03055470037 -0.06045301437 0.9998346459 -0.01185371036 -0.01379022871
0.02020373917 0.03922504425 -0.05668612289 0.9857829143 0.02188817621 0.1665921773
0.02018996747 0.04229133606 -0.05675737635 0.9841027754 0.01418093864 0.1770328457
-0.005455562234 0.006406369805 -0.07779313087 0.2468702514 0.3349687055 0.9093135022
0.01887175751 0.05078633499 -0.05242387772 0.9342025258 -0.002779191627 0.3567322763
0.01858227539 0.05486588669 -0.0518303833 0.9134315446 0.005645210986 0.4069532467
0.003878327322 -0.008133482742 -0.06891401672 -0.1631599267 0.6956861858 0.6995709894
-0.01104814339 -0.009102526665 -0.06364554214 -0.5393519433 -0.655737926 -0.5283060228
-0.0081157583 -0.008985927582 -0.06609839058 -0.3835548912 -0.6899447244 -0.6138908068
0.01678498554 0.02746627903 -0.072479002 0.801678679 -0.008204495437 -0.5976989057
-0.0002758058608 -0.009969294548 -0.06755127716 -0.014929711 -0.737922739 -0.6747200419
0.01349705124 0.0003222460262 -0.06984700775 0.6567337837 -0.4300138821 -0.6195068996
0.01780441856 0.007311481953 -0.06790351105 0.8718818878 -0.2120277726 -0.4414365157
0.006622325182 0.02405834579 -0.08009260559 -0.3115376358 -2.1838046e-05 0.9502338139
0.01952487183 0.01543960476 -0.06656970596 0.9461220156 -0.0655223372 -0.3171118964
0.0008057243327 0.01536530844 -0.08078669484 -0.01891345744 0.1424402718 0.9896226807
0.01977134171 0.01846556892 -0.06612206421 0.9530465988 -0.02104044057 -0.3020918411
0.02025080109 0.02096060944 -0.06425810242 0.9850166183 -0.001698473153 -0.1724510855
0.02029360867 0.02408636379 -0.06402118492 0.9847154399 -0.002568577566 -0.1741519591
0.02045350647 0.02505037498 -0.0629914093 0.9974583254 -0.01283151111 -0.07008738452
0.02052312279 0.02716967392 -0.06232418442 0.9982097388 0.007863028436 -0.05929156895
0.02057568169 0.03387882614 -0.06015935898 0.9983940109 -0.009696711059 0.0558155247
-0.007723093033 -0.002093914191 -0.07247984314 0.3268718494 0.5457003972 0.7715995532
0.02047250366 0.03867024612 -0.05856909943 0.9964891551 0.01087172766 0.08301306668
-0.01015530682 0.0111243391 -0.07728343964 -0.4322100326 -0.2676520269 -0.8611369695
0.02020929909 0.0461215229 -0.05688193321 0.9780408326 -0.01590926321 0.2078052575
0.001617549896 0.02043078423 -0.08111143494 -0.1030863635 0.03882665509 0.9939143286
0.01940821838 0.05231456375 -0.05378662109 0.9442034971 0.002122784609 0.3293558104
-0.004700703144 -0.00941020298 -0.06737208557 -0.2004422163 -0.7230707522 -0.6610534057
0.01805138922 0.01239751673 -0.06929451561 0.8633317845 -0.1262839622 -0.4885801785
0.01977980328 0.02134374332 -0.06625596237 0.958895861 -0.01160376649 -0.2835208642
0.0203368721 0.02725172424 -0.0637817421 0.9894566375 -0.00212948246 -0.1448137694
0.02047130585 0.03043217468 -0.06280590248 0.9963542626 0.005375951475 -0.08514271824
0.02048332691 0.0337318058 -0.06253623199 0.9982897951 -0.009012627869 -0.05776034617
0.02054202461 0.04302687073 -0.05960528183 0.9991666362 0.007602691855 0.04010277056
0.01378274107 0.03069952393 -0.0759016037 -0.6696484591 0.005244239581 0.7426597062
0.02022949409 0.0484365654 -0.05696918869 0.9881932133 0.004875267745 0.1531352502
0.02009535408 0.05110999298 -0.05607289505 0.9708613023 0.002115526216 0.2396327531
0.01978835487 0.05406271362 -0.05502747726 0.9735070991 0.003328746844 0.2286325599
-0.01112544346 -0.005821062883 -0.06708095296 -0.5019494242 -0.6114342111 -0.6117147873
0.002346231937 -0.006980564594 -0.07036794281 -0.1190375948 0.6717007525 0.7311963827
0.004028051043 -0.004954243279 -0.07172097473 -0.1514673659 0.6300037733 0.7616776764
0.00697197628 -0.002666798075 -0.07242715963 -0.3188161812 0.5538229422 0.7691790372
0.01389837027 0.04816061974 -0.07579480362 -0.6631208586 -0.01164736031 0.7484217166
0.009301074743 -0.001932465047 -0.07173792267 -0.4457577984 0.5146827762 0.7323944464
0.01222387218 0.0009873616323 -0.07151498159 -0.6078388192 0.4161977751 0.676248018
0.01492868042 0.004490824223 -0.07079424286 0.7337653895 -0.3154331507 -0.6017393793
0.0170068388 0.009064666748 -0.07001453781 0.8285064357 -0.2098054298 -0.5191904926
0.01844422436 0.0179933815 -0.06951043892 0.8847157846 -0.03725880813 -0.4646393888
0.02031193066 0.03936997604 -0.06386191177 0.9902920393 0.004987342209 -0.1389129341
0.02025234509 0.03054784012 -0.06424955368 0.977097319 -0.002760082703 -0.2127750248
0.01864925702 0.04877264277 -0.06923575083 0.9124389412 -0.0147368337 -0.4089474347
0.02049130249 0.03592938995 -0.06262916946 0.9969964535 0.01095208368 -0.07666892116
0.02051201057 0.03930144501 -0.06236840248 0.998316244 -0.000246848735 -0.05800530954
0.02057099628 0.04518046379 -0.06054934883 0.9993234456 0.006508178937 0.03619799302
0.02056104787 0.04833198675 -0.06037743886 0.9998691652 0.01245662668 -0.01031915464
0.02038827515 0.05045829773 -0.05802518463 0.9901920679 -0.003134928437 0.1396776318
0.01502628644 0.02758788554 -0.07465742238 0.735848151 -0.001800346134 -0.6771441925
0.02018654156 0.0545188427 -0.05668477058 0.9801801283 -0.007076951398 0.1979819003
-0.007960756302 -0.005646307627 -0.06955130768 0.3799349349 0.6213350953 0.6852679364
0.01206673813 0.01515367889 -0.07685766602 -0.5776572997 0.1216813819 0.8071590212
0.0006592245121 -0.005310724545 -0.07191663361 -0.0164887331 0.6290425909 0.7771959473
0.007985741615 0.04486683655 -0.07955802155 -0.3713637818 -0.001210720746 0.9284866589
0.015262321 0.006996984005 -0.07156601334 0.7406283923 -0.2553835671 -0.6214891939
0.01717930984 0.01179745579 -0.07067566681 0.8420646694 -0.1449799327 -0.5195266226
0.0187916193 0.02123324537 -0.0689859066 0.9172091377 0.01142974619 -0.3982420854
0.01379774857 0.044879673 -0.07585638428 -0.6826590263 -0.006572044916 0.7307075079
0.02050423622 0.05204989624 -0.06247122192 0.9962843205 -0.006309974232 -0.08589375415
0.0197662735 0.03365643406 -0.06622018433 0.9507348575 -0.003142594558 -0.3099892819
0.02027941132 0.03602230072 -0.06409975433 0.988801803 0.004459209324 -0.1491680592
0.02054373932 0.04270544815 -0.06211302185 0.9971760649 -0.01213531617 -0.07411227754
0.01090393035 0.009261228879 -0.07629226176 -0.5175823857 0.2621354968 0.8144896901
0.02057008553 0.05154205704 -0.05993392563 0.999177846 -0.009304614435 0.03945955184
0.01187277603 0.05163568497 -0.07741847229 -0.5768720659 0.008520984591 0.8167900663
0.02041476059 0.05520201874 -0.05820690918 0.9951734213 -0.007562212518 0.09784004496
-0.006386786461 -0.005897974491 -0.07013566589 0.3153343737 0.6255261308 0.7136394695
-0.004608492772 -0.005114201228 -0.07144323222 0.2317332244 0.614603092 0.754031002
0.00392741847 -0.003001450777 -0.07325071716 -0.2166754022 0.5668495585 0.79481655
0.0113338871 0.002512324572 -0.07316278076 -0.5413016025 0.4035203151 0.7376746779
0.01194238663 0.04587033844 -0.07736561584 -0.5914194128 0.01039112264 0.8062971553
0.01618848953 0.01241964397 -0.07222150574 0.7726251142 -0.1520328613 -0.6163898458
0.01774008369 0.03072084618 -0.07106231308 0.8622636362 -0.02465349414 -0.5058592956
0.01745768547 0.0154565239 -0.07109857941 0.8505122205 -0.09530671242 -0.5172480965
0.01842227745 0.02402899424 -0.06975779215 0.8867206524 0.02034428162 -0.4618577647
0.01874861069 0.02736360092 -0.06904491272 0.9178346961 -0.005334082842 -0.3969269683
0.01272120643 0.009609188557 -0.07505489159 -0.6204663451 0.2307811185 0.7495075649
0.0197961092 0.03637962723 -0.06617469025 0.9566763545 0.01535602087 -0.2907482507
0.01980139971 0.03917109966 -0.06611142159 0.9640342762 0.02206024035 -0.2648608317
0.02034384346 0.04276429367 -0.06362071228 0.986265747 -0.01020892337 -0.1648503996
0.02046680737 0.04852142334 -0.06271393204 0.997479004 0.006691487229 -0.07064602329
0.02044314957 0.06003185272 -0.05840136337 0.9914028284 0.0621668157 0.1151334826
0.01650297403 0.03636017036 -0.07286006165 0.7878935142 0.007755449344 -0.615762668
-0.01085228634 -0.003524939775 -0.06944532013 -0.4937117396 -0.5267361756 -0.6919521077
0.001542318076 -0.003401924729 -0.07334587097 -0.1000151001 0.58661933 0.8036633259
0.006882123828 0.0005157632679 -0.0745430603 -0.3521615689 0.460067844 0.8150581625
0.009708179235 0.003237434626 -0.07459592819 -0.4754748873 0.3989973156 0.7840438595
0.01237210433 0.00647173357 -0.07420262655 -0.6061287456 0.2881862483 0.7413208684
0.01420891857 0.009029492378 -0.07351338196 0.6896798658 -0.2493004447 -0.6798462848
0.01623472452 0.01572144461 -0.07284303474 0.7758224797 -0.09235567268 -0.624155357
0.0101924572 0.005940114212 -0.07551858521 -0.5025524771 0.3228452738 0.8020049482
0.01683598232 0.01810294437 -0.07230873871 0.7994375743 -0.05924475065 -0.5978207292
0.01752374649 0.01942111588 -0.07138207245 0.8592818243 -0.02997894128 -0.5106231581
0.01781627846 0.02117230225 -0.07093965912 0.8731017679 -0.008769950654 -0.487459117
-0.004472586274 0.03859566498 -0.08066825867 -0.1796913461 -0.002356792572 -0.9837202172
0.01243139744 0.04196357727 -0.07699311066 -0.5923684156 -0.01761834169 0.8054745522
0.01978138987 0.04238712819 -0.06618704224 0.954155932 -0.023120445 -0.2984156539
0.02024457932 0.04859533501 -0.06422569275 0.9788002841 0.01116554467 -0.204512431
0.02055852699 0.05447816467 -0.06176247406 0.9981864386 -0.01431316526 -0.05847193476
0.02058724213 0.0595428772 -0.06025902939 0.9992777299 0.03471518527 0.01545556333
0.003784959753 0.0005480621892 -0.07549938965 -0.1741946655 0.4874628542 0.8555911315
0.007221875191 0.002969827831 -0.07571004868 -0.3599332463 0.409124482 0.8384898428
0.01307350922 0.01214142494 -0.07542579041 -0.6381090075 0.1837003809 0.7477105487
0.01661137772 0.02139755678 -0.07272879601 0.798933562 -0.01132377541 -0.601312677
0.01757181168 0.0245412569 -0.07133898544 0.8557541995 0.0172834269 -0.5170938339
0.01877852297 0.03620491123 -0.06900354576 0.9156444749 0.009481864609 -0.4018772073
0.01967721367 0.04551922417 -0.06654322052 0.9506790702 -0.01327088822 -0.3098922217
0.01985266495 0.04768756294 -0.06596288681 0.9637575512 0.0123631424 -0.2664930304
0.02046955681 0.05687397003 -0.06265696716 0.9971561276 0.01738183435 -0.07333163668
-0.01331043816 0.000717220366 -0.07035794067 -0.534554356 -0.4624093966 -0.7074101996
-0.004738729 -0.001858637452 -0.07382968903 0.2508621038 0.5333350503 0.8078501897
0.0007893379787 0.0001431114227 -0.07566385651 -0.06272265357 0.503690641 0.8616040894
0.01464331865 0.01539583874 -0.07464850235 0.7274686675 -0.09892725595 -0.6789718226
0.01518220329 0.01849139659 -0.074385053 0.7473760875 -0.04973182831 -0.6625373417
0.016320889 0.0248073597 -0.07311728287 0.7888459971 -0.002232739909 -0.6145868594
0.01896794701 0.04235152435 -0.06855484772 0.9248149047 -0.009211217947 -0.3803058579
0.01970064116 0.0513282547 -0.06645147705 0.9583797873 0.01076085992 -0.2852935104
0.01974259567 0.05486256282 -0.06625325012 0.9575559825 -0.007257045672 -0.2881559918
0.02023765945 0.05693850708 -0.06419490814 0.9820271979 0.01740037682 -0.1879356526
-0.008758556366 0.0001726273149 -0.0734462738 0.4373569231 0.4805303255 0.7601378349
0.003905001879 0.002605607748 -0.07660733032 -0.1824786363 0.438355214 0.8800830948
0.003869654179 0.003891435464 -0.07718251546 -0.1853362687 0.4002292899 0.897478124
0.006920091867 0.006101003528 -0.07721666336 -0.3599498019 0.3485580792 0.8654151637
0.008757674217 0.007042175293 -0.0767739563 -0.4016315665 0.3102429327 0.8616503975
0.0168004961 0.03278280258 -0.07244903183 0.8076527085 0.006892784662 -0.5896181747
0.01747688293 0.03423362732 -0.07147661591 0.8592809207 -0.008416506215 -0.5114347092
0.01776680183 0.03611499405 -0.07102194977 0.8702347392 0.0004099693739 -0.4926371186
-0.01187396812 0.003183828354 -0.07307350159 0.5245935499 0.3952727227 0.7540298947
-0.00847829628 0.001797444701 -0.07453059387 0.4222485983 0.4354700176 0.7950295498
0.0006902558257 0.003365029176 -0.07734296672 -0.04381015007 0.4162245482 0.9082058116
0.006633764744 0.009248698997 -0.07838744507 -0.3139674519 0.273007701 0.9093356005
0.01534715652 0.03005628967 -0.07429911423 0.7503147214 0.004008894807 -0.6610686406
0.01764686775 0.04066872025 -0.07122009277 0.874612247 0.000397539268 -0.4848229156
0.01750251007 0.04533678055 -0.07141507721 0.8406517544 0.01026171398 -0.5414788316
0.01792095757 0.04263070679 -0.07074775696 0.8668147505 0.001732983006 -0.4986273008
0.0186037302 0.05114715004 -0.06934564209 0.9191096536 0.01098512085 -0.3938486661
-0.008351366997 0.003573707104 -0.07552813721 0.4273074452 0.3811246424 0.8198489826
-0.006084684372 0.003236268282 -0.07631235504 0.2606460762 0.427923206 0.8654162887
-0.00423372221 0.003288432598 -0.07685457611 0.2153638818 0.4271058644 0.8781793547
0.01855455844 0.05753076935 -0.06942661794 0.912372237 0.005150424446 -0.409329176
0.0009536006389 0.006241233031 -0.07852578227 0.06332850231 -0.3445548028 -0.9366277215
0.01368000269 0.02764970779 -0.07597807312 -0.6687023143 -0.007474169816 0.7434926708
0.01543922186 0.03316527176 -0.07419977951 0.7380799037 0.008962744 -0.6746537816
0.01674043846 0.0423843956 -0.07252201589 0.7985134307 -0.01267889714 -0.6018434568
0.01780402946 0.04730394745 -0.0709600296 0.8733689717 -0.0005827347049 -0.4870588258
0.01925543785 0.06007952881 -0.06787002563 0.932575416 0.02253792322 -0.3602709196
-0.00853499794 0.005660720348 -0.07634784698 0.4259212742 0.3425606045 0.837402711
-0.0023132447 0.006406474431 -0.07848126984 0.1194718527 0.3481781466 0.9297840904
0.01766363335 0.05209507751 -0.0711704483 0.8541966493 -0.003270654844 -0.5199397918
0.009689344088 0.01835986074 -0.07864222209 -0.4733413274 0.07348610729 0.8778085098
0.01000151761 0.02069836934 -0.07856647746 -0.4960020503 0.02494517084 0.8679629627
0.01220983171 0.02717286587 -0.07716473007 -0.5935486893 -0.002978588788 0.8047925704
0.01355344168 0.03344255066 -0.07607649485 -0.6591327715 -0.004087900768 0.7520154776
0.01659152317 0.04517644501 -0.0727389679 0.8050005584 -0.0004409468111 -0.5932738883
0.01643084939 0.04801218033 -0.07295482381 0.7992050101 0.0133722147 -0.6009097567
0.01694508044 0.05131305567 -0.07221736908 0.8016015363 -0.005386611488 -0.597834393
-0.005015826225 0.02662803745 -0.08054611206 -0.1969908714 -0.002813989368 -0.9804012842
-0.008111099958 0.009069929123 -0.07772412491 -0.3687064437 -0.2835382304 -0.8852466494
-0.002525624096 0.009164074421 -0.07934470367 0.152382129 0.2791710324 0.9480734262
0.0009487960339 0.009415622075 -0.07956006114 -0.07444535914 0.2787016051 0.9574880176
0.003725182772 0.01229067826 -0.07993136787 -0.1624753926 0.2081673531 0.9645040694
0.00702753973 0.01560836315 -0.07960459518 -0.3788863026 0.1145315758 0.9183287471
0.009578675032 0.02387404442 -0.07878648567 -0.4684176228 -0.004980684297 0.8834931372
0.01020196501 0.02661805662 -0.07846095022 -0.4962440621 -0.009713527792 0.8681287221
0.01230291557 0.03021777439 -0.07709465408 -0.6045129135 -0.01851903693 0.7963800491
0.01514302397 0.04562884712 -0.07450924683 0.7410131128 -0.00241497686 -0.6714862133
0.01250926971 0.05437585449 -0.07690962982 -0.6235683629 0.01378986238 0.7816471944
0.01658454704 0.05482781728 -0.07274444326 0.7883428937 -0.01391498083 -0.6150787391
0.0178214016 0.05905830765 -0.07093013 0.8726457058 0.03749800888 -0.4869120777
-0.001656691472 0.01275980981 -0.08030537923 0.07409290038 0.1858554988 0.9797795546
0.008120051384 0.05146925354 -0.07949510193 -0.418814834 -0.005276596252 0.9080563266
0.001030728191 0.01221352339 -0.08025906754 -0.03918287472 0.184297088 0.9820892453
0.004406945467 0.01546069654 -0.08034005483 -0.2243852076 0.1086454091 0.9684252443
0.007863864422 0.02167952538 -0.07962779236 -0.3923640877 0.02197798027 0.9195473838
0.01161205673 0.03310652351 -0.07760357285 -0.594616722 -0.003822881889 0.8040002111
0.01332121706 0.03985573769 -0.07628713989 -0.6640547976 0.01126355789 0.7475990623
0.01339437437 0.04309593201 -0.07621057129 -0.6514140092 0.004910520079 0.7587065806
0.01522201347 0.04896292496 -0.07441839218 0.7355190324 -0.002636196919 -0.6774989324
-0.002308731556 0.04587922668 -0.08102085876 0.0969950922 0.01085484136 0.9952256651
0.003146816015 0.04609392929 -0.08095786285 -0.1600642914 0.01401964576 0.9870070274
0.01704156494 0.05990330124 -0.07207161713 0.8167531278 0.04480648838 -0.5752449103
-0.008552159309 0.01339156628 -0.07861443329 -0.3507462429 -0.1826339916 -0.9184889211
-0.006151161671 0.0128797617 -0.07945675659 0.2867546899 0.2083460836 0.9350741453
0.003562820435 0.02166574542 -0.08084554799 -0.1745931257 0.01708915827 0.9844923571
0.009944694281 0.03605741978 -0.07858968544 -0.4731591228 -0.008833218811 0.8809326982
0.000436385911 0.05497371483 -0.08117079926 -0.03446122697 -0.00670995363 0.9993835101
0.01178428841 0.03939459801 -0.07748360443 -0.5866887332 0.007054599852 0.8097817996
0.01519060898 0.0548049202 -0.07444115448 0.7326588751 -0.001541658687 -0.6805942962
0.01507992458 0.05729361534 -0.07455572128 0.7348438006 0.02379218185 -0.677818944
-0.004863283634 0.01642766285 -0.08033684158 0.193891365 0.1038217437 0.9755138052
0.0002287625521 0.0189357481 -0.08111798477 -0.00324374462 0.07268913538 0.9973493709
0.009492133141 0.0394604454 -0.07882998912 -0.4790299705 0.01877473481 0.8775977419
0.01199968147 0.0492013607 -0.07729878998 -0.5742085632 0.007837634056 0.8186715443
0.01321610641 0.05123810959 -0.07635135269 -0.6378992291 0.01111214549 0.7700396703
0.01496802902 0.05980782318 -0.07467154694 0.7392218918 0.03069243415 -0.6727621936
-0.005402913809 0.02096711922 -0.08044105148 -0.2196662484 -0.03241512278 -0.9750364091
-0.002503169954 0.02187266541 -0.08102752686 -0.1163577552 -0.02160928517 -0.9929722612
0.004415294647 0.03064229107 -0.08067933273 -0.2503959306 -0.001167032837 0.968142818
0.009644892375 0.04591313553 -0.07874447123 -0.5048304233 0.009300656961 0.8631684317
0.009873340607 0.04864807002 -0.07863247426 -0.4864234705 0.003893978822 0.8737145096
-0.008557909966 0.02740824699 -0.07932550812 -0.3277620767 -0.0100587584 -0.9447067495
0.00319325459 0.03412249374 -0.080931427 -0.1584655743 0.01999573635 0.9871620091
0.004580625772 0.03680330849 -0.08063686752 -0.2700274403 0.005998892377 0.9628339394
0.01008372116 0.05143914032 -0.07850835419 -0.4911368834 0.0008816011276 0.871081962
