# .PCD v0.7 - Point Cloud Data file format
VERSION 0.7
FIELDS x y z normal_x normal_y normal_z
SIZE 4 4 4 4 4 4
TYPE F F F F F F
COUNT 1 1 1 1 1 1
WIDTH 560
HEIGHT 1
VIEWPOINT 0 0 0 1 0 0 0
POINTS 560
DATA ascii
-0.005694716573 -0.007981546044 -0.06843509293 0.2711955118 0.6660867138 0.6948247867
0.02052291552 -0.0002801325123 -0.001781458875 0.9986531131 0.001519739194 0.05186183628
0.01051338259 -0.0176247762 -0.001749356598 -0.554883805 0.8304045748 -0.0503210207
0.01718194008 0.01133026695 -0.002010776281 0.9019445756 0.4316984425 0.01150813685
0.01348585463 -0.01551238298 -0.002209295452 0.6576999013 -0.7531546287 0.0137457331
0.01665397701 -0.01201940956 -0.005783833981 0.8348756187 -0.5502678668 0.013710439
0.0150624795 -0.01404958773 -0.002270100474 0.7349457288 -0.6763736978 0.04871751854
0.007081727886 -0.01812567635 -0.04952435455 0.3430606736 -0.9058912063 -0.2483354515
0.01834692128 -0.00918832771 -0.001426961966 0.8894119698 -0.4560977149 0.03035164765
-0.002075842333 -0.02042357254 -0.01321081352 0.1007461787 0.9948741284 -0.008699204221
0.01696535587 0.03917274094 -0.07220453644 0.829669173 0.001052473933 -0.5582543825
0.01057654238 -0.01759854889 -0.00887454621 0.5247161481 -0.8511579605 -0.01425097181
0.01641902566 -0.01236342669 -0.002093891799 0.7990244213 -0.5957723111 0.08133466325
0.001956551433 -0.02044163418 -0.001411157775 0.09627783839 -0.9945351073 0.04037942697
0.01503990507 -0.01407569456 -0.0295949173 0.7355222459 -0.6774747563 0.005914425117
0.01678498554 0.02746627903 -0.072479002 0.8304961238 0.008575286754 -0.5569583941
0.01958784676 -0.006323956013 -0.001464413166 0.9490385412 -0.3141502006 0.02520910136
0.01967974091 0.006077533245 -0.008584946156 0.96510972 0.2611846444 -0.01859596722
0.01503362815 -0.01408229764 -0.03682541275 0.7421871311 -0.6697420442 -0.02457349585
-0.006834000746 -0.009890743256 -0.06582749939 -0.2980657346 -0.7333739483 -0.6109987477
0.02054014301 -0.0003607174307 -0.01307211494 0.9997219184 -0.0208778741 0.01096358778
0.009187767982 -0.002742738724 -0.0712352066 -0.4510037938 0.5242384687 0.7223362139
0.01907199732 0.02399620183 -0.05293255361 0.9372534558 -0.006332922951 0.3485912415
0.00262201647 0.02745614179 -0.08100589498 -0.1118400732 0.03180836641 0.9932170084
-0.01155500793 -0.01698752022 -0.001800223351 -0.4353939921 -0.8998849831 0.02528020487
0.020193398 -0.003806699276 -0.001351711404 0.9838968322 -0.1648301364 0.06912343854
0.0166830622 -0.01199329841 -0.01711409199 0.8213584542 -0.5703869824 0.005383303002
-0.005809954882 0.05798547935 -0.08029055786 0.1410794563 0.004698262458 0.9899871279
-0.002169239044 -0.02046820164 -0.02963247967 -0.1263295048 -0.9917402113 0.02218579469
0.006345495973 -0.01952919415 -0.005029952765 0.31794157 -0.9479867536 0.01530598347
0.02053458786 -0.0002225580364 -0.009498393774 0.9995697564 -0.028810233 -0.005502048587
0.02024118423 0.003635437608 -0.001105260693 0.9951321919 0.09360897428 0.03081039754
0.01054516808 -0.01761157672 -0.005335149368 0.5260381412 -0.8503226978 0.01533569508
0.02026686287 0.00654629159 -0.04935816383 0.9922877724 0.08743133836 0.08786772937
0.01682220612 0.01933745651 -0.07237616119 0.8339274181 -0.02678342946 -0.5512238286
0.01947526741 0.006612499714 -0.001910429597 0.9582288118 0.281697469 0.04943763993
-0.01014773703 -0.01792140007 -0.009290400028 0.4075033336 0.9130811399 -0.01496212067
0.01814197731 0.04952287674 -0.0509063797 0.8880590443 0.0002369862826 0.4597293526
0.01349426103 -0.01550805712 -0.005778811336 0.6395135467 -0.7687733627 0.003152848014
0.02017972708 0.01997870302 -0.06455631161 0.9880486535 -0.01391835979 -0.1535126627
0.01744245434 0.01088742352 -0.005094009876 0.9229250883 0.3848153131 0.01124527366
0.00799582243 -0.01896231365 -0.01347772074 0.4053795316 -0.9139739794 0.01786057902
0.01506052923 -0.01405399704 -0.005837640047 0.7406891832 -0.6714040594 0.02441562905
0.02043150584 0.00290566055 -0.04459882736 0.9964103124 0.08082622232 0.02517163232
0.0191811765 0.03558507411 -0.05322462972 0.9533627201 -0.001507439229 0.3018232123
0.01847198563 -0.008961944485 -0.004778301287 0.8910738645 -0.4538578421 0.0006535793125
0.01956746991 -0.006388112545 -0.005070116599 0.9501229946 -0.311352266 0.01805717569
-0.002811531305 -0.02033140882 -0.00127870054 -0.1100541035 -0.9934562979 0.03053978486
0.005311451197 -0.01893594742 -0.04845383739 0.2594873328 -0.9438579922 -0.2044466059
0.0167566828 -0.004227929183 -0.06095107433 0.8315054556 -0.4190146541 -0.3647264687
0.002073695838 -0.02043777561 -0.005068190873 0.1146548508 -0.9934017372 -0.00269325755
0.02023582506 0.03575778008 -0.05703543949 0.9825516057 -0.02442272182 0.1843796976
0.02018249321 -0.003901980698 -0.00498976028 0.9880911409 -0.1538678448 -0.000763898965
0.01957044888 0.007516470671 -0.045567173 0.9548947386 0.2548688261 0.1523742749
-0.001971302068 -0.02043192711 -0.005133453035 -0.104369998 -0.9945367398 0.001891193998
0.0106521395 -0.01756561248 -0.01752819888 0.5258258187 -0.8504439271 0.01588506106
0.007936430931 -0.01898920504 -0.009107619445 0.4027968195 -0.9152778197 0.004608139549
0.01015455914 0.0475668335 -0.07847127787 -0.5397568883 -0.005534320547 0.8418027518
0.008042521 -0.01894099331 -0.01692298794 0.4056808964 -0.9139881452 -0.006977165571
0.01350252748 -0.01550375605 -0.009302387714 0.6328500907 -0.7741900341 -0.01142601395
0.01505747318 -0.01405721235 -0.009358160496 0.7448201521 -0.6672639185 -0.001343175357
0.006305310965 0.05944258118 -0.08018928146 0.3383620521 0.02365647581 -0.9407186045
0.005584672832 -0.01979086075 -0.0132052393 0.2564519654 -0.9665564736 -0.0009862971927
-0.001247454143 -0.02049980812 -0.02120762939 0.07041859158 0.9975149567 0.002265623045
0.01680711635 -0.01179740604 -0.009095587413 0.8343672325 -0.5510656778 -0.01256742459
0.0185775898 -0.00880973711 -0.01317314453 0.8885702637 -0.458706416 -0.005595564578
0.01954232883 -0.006467267752 -0.009518744946 0.9526945642 -0.3034493153 0.0170757254
-0.01085573912 -0.01746989822 -0.005122936964 -0.4246618726 -0.9052382087 0.01435547092
0.01872442131 -0.008476672554 -0.008898975658 0.8891414585 -0.4574866654 -0.01155066171
-0.006002584457 -0.01962594833 -0.02938619919 -0.164753411 -0.9862437098 0.01340367584
0.01505445528 -0.01406038666 -0.01283429146 0.7366861238 -0.6761789447 -0.008694235039
0.02052801552 0.0001494856477 -0.005398758602 0.9996882968 -0.00324790852 0.02475399737
0.01939682388 0.05555405299 -0.05385736847 0.95648913 0.01515400349 0.2913741587
0.00624259599 -0.01333211369 -0.06145959303 0.2989618892 -0.7961655026 -0.5260630012
0.02034603405 0.003202430725 -0.00857029295 0.9911422501 0.1327342586 -0.004319330499
0.009990871525 -0.01750278225 -0.04553246078 0.5199346273 -0.8447025546 -0.1270652493
0.006539637756 -0.005250111008 -0.07059803162 -0.331923668 0.6107495318 0.7188961595
-0.006639379978 -0.01945178032 -0.001884658098 0.3410587019 0.9392385214 -0.03885822647
-0.006671179533 0.03259612465 -0.08003686142 -0.2267863683 -0.004142013451 -0.9739357201
0.002386338305 -0.02040947151 -0.009115337563 0.1364677204 -0.9906406929 -0.002752957361
0.01863761473 0.05886005402 -0.06922309685 0.8911395063 0.05319532376 -0.4506003082
0.005658218384 -0.01976333523 -0.009219001293 0.2563221681 -0.9665626459 -0.007456386642
0.01970033169 0.05132771492 -0.06645366287 0.9520215061 0.01430807995 -0.3056964684
0.02020225372 -0.003834530783 -0.009040528584 0.9876156361 -0.1557608017 -0.01881297304
0.02036077156 0.002787476969 -0.03697772675 0.9966385454 0.08141657812 0.009107723955
0.002945419192 0.05885943985 -0.08096065521 0.204535457 0.06976159258 -0.9763700974
0.01701296978 -0.008656861067 -0.05319827538 0.8150242576 -0.527435021 -0.2398911382
0.02029243279 0.003419166803 -0.00486220026 0.9847812096 0.173729964 0.004885570742
0.01914069875 0.03117713865 -0.05310910797 0.9491988567 0.01714953241 0.3142092043
-0.006432444572 -0.01951908302 -0.004742827296 -0.3277876072 -0.9447206391 0.007628808027
0.01862620544 0.008791271687 -0.0207627039 0.9575035013 0.2879703378 0.01612853287
0.02010821724 -0.004277681875 -0.01340558853 0.9854417464 -0.1690045635 0.01849383405
0.01325267639 0.05515062637 -0.07630272064 -0.6452987612 -0.01068466506 0.7638555798
0.01061499543 -0.01758232583 -0.01323327764 0.5248173723 -0.8512119935 0.002206315643
-0.001651641354 -0.0204672575 -0.0172477541 0.1054484128 0.9943142553 0.01482544868
0.0103507158 0.04324329567 -0.07835200119 -0.5356327377 -0.002050457335 0.8444485573
0.01351068974 -0.01549950886 -0.01278146505 0.6240006042 -0.7813154864 -0.01301371253
0.01504707193 -0.01406815434 -0.02133918762 0.7190201127 -0.6949530435 -0.007095412122
0.001995138288 -0.01034388161 -0.06696881104 0.1364488398 -0.7497544024 -0.6474952124
0.001846669514 0.003623846378 -0.0773403898 -0.09124631876 0.4241404823 0.9009877694
0.01691033077 -0.01165112904 -0.01292439025 0.8312857336 -0.5557523987 -0.01016368537
-0.002004476964 -0.02048761177 -0.03299304771 -0.1024096896 -0.9947021112 -0.008942339619
0.005979594994 -0.01967377052 -0.01746571064 0.2623042852 -0.9648167468 0.01803072528
0.01957345104 0.006370260477 -0.004801599979 0.9559607875 0.2920593723 0.02898785737
0.008400302887 0.03998159409 -0.07939414978 -0.3861659426 0.0118372383 0.922353373
-0.002031009257 -0.02042233515 -0.009194189191 -0.04594229061 -0.9989148853 -0.007639236747
0.0205683012 0.05943083763 -0.061111866 0.9995397211 -0.001759005772 -0.03028616705
0.01952251434 -0.006529649973 -0.01302472162 0.9497382072 -0.3122726607 -0.02198006507
-0.006159802437 -0.01960775375 -0.00850852704 -0.3022617645 -0.9532003848 -0.006844867171
-0.01411257648 -0.008238874435 -0.0607796936 -0.5709653254 -0.6757130698 -0.4662729292
0.002327393085 -0.02042696953 -0.0131176722 0.143755956 -0.9896128164 0.0008358769357
0.01352074544 -0.015494277 -0.01706763665 0.6249426905 -0.7805521974 -0.01359781782
0.01920475197 0.01081129265 -0.04887238693 0.9710376852 0.1723214829 0.16550263
-0.002271364212 0.01130337048 -0.07991895866 0.1193766767 0.2015958674 0.9721668146
0.01990306854 0.009903513908 -0.05105366516 0.9779939318 0.1528362936 0.1420173816
0.01505073738 -0.01406429831 -0.01711693414 0.7415345255 -0.6708248246 -0.01098190882
0.01899623244 -0.007814735753 -0.017203325 0.9198277592 -0.391423981 -0.02653602352
0.02038143412 0.002970319351 -0.01310008685 0.9918996788 0.125405731 0.020209646
-0.00582454586 -0.01971678988 -0.01313904985 -0.2845483077 -0.9586562019 0.003247646001
0.002268469024 -0.02044192886 -0.01706200161 0.101923187 -0.9945962839 -0.01974578403
-0.01071859455 0.003338693738 -0.07388389333 0.4497984543 0.4049792263 0.7960359143
0.0008607904787 0.05561042277 -0.08113946788 -0.04232616636 -0.02074379378 0.9988884776
0.02012770748 -0.004206439018 -0.0173370924 0.9871193464 -0.159532344 -0.01203442022
0.02025116076 0.003749298147 -0.05720321492 0.9884802481 -0.1060157234 -0.1080160425
0.02053307648 -0.0007069188654 -0.01703710003 0.9988949907 -0.04692807296 -0.002559977743
0.01975416946 0.005781865756 -0.01317790508 0.9724642153 0.23305131 0.0006609492691
0.02020956707 -0.00388380909 -0.03703727913 0.9884114342 -0.1500702386 -0.0228420693
0.01749736977 0.04454776382 -0.04983631706 0.8669726229 -0.02325546325 0.497812871
0.01778493786 0.01030524206 -0.009147359848 0.927916316 0.3723685042 0.01769202055
0.008100068092 -0.01891472117 -0.02116861343 0.4033105896 -0.9150389019 -0.006661550221
0.02055460091 0.03514652557 -0.0610060112 0.9998679957 0.0162372994 -0.000584240349
0.005502757072 -0.003657030781 -0.07226743698 -0.2693067647 0.5696898401 0.776483968
0.009703057183 -0.01185498248 -0.06102459123 0.456782251 -0.7516797514 -0.4757389269
0.01027664948 -0.01779944611 -0.02111861006 0.4945061555 -0.8691712663 0.0022298207
0.01320375175 -0.01574911499 -0.02142884331 0.6256041659 -0.7801394422 0.001370493584
0.02036128235 0.05899396515 -0.05785690117 0.9934259692 0.05269562602 0.1016268401
0.02055497169 0.03109633636 -0.06066320324 0.9999397107 0.01078367027 0.002070596093
0.01677145052 -0.0118691624 -0.0211109794 0.809097215 -0.5876628768 -0.003746988915
0.0147399931 0.0495970192 -0.04626444244 0.7984088265 0.0004395551414 0.6021155641
0.0188156302 -0.00825056237 -0.02140397406 0.921661629 -0.3872022337 0.02478450933
-0.009709044933 -0.01814225578 -0.01315482092 -0.3129207526 -0.9497614434 0.005814045667
0.0174239378 0.04000728798 -0.04970251656 0.8468813669 0.01314615801 0.5316193459
0.002755003858 -0.02037935143 -0.02134417877 0.1918291131 -0.981358178 0.01173532828
0.00590160203 -0.01969986057 -0.0213367095 0.2651355743 -0.9640581833 0.01717400473
0.02014601707 -0.004136866713 -0.02121397667 0.9888030572 -0.1490970815 0.006210821497
0.02040649986 0.002752808809 -0.01755073261 0.9947430689 0.1014558689 -0.01389004858
0.01812174988 0.009732700348 -0.0131335969 0.9401370671 0.340670364 0.009273519612
-0.005236589432 -0.01462654686 -0.05999107361 -0.1957464676 -0.855285518 -0.4797603601
-0.00549464035 -0.01982408524 -0.01769566536 -0.2169103058 -0.9759287658 0.02264869303
0.01024730377 -0.01784218674 -0.02534563675 0.4939645411 -0.8694771806 0.002909406418
0.01005643434 -0.008430313661 -0.06524480233 0.4942820447 -0.6548598828 -0.57170254
0.01299902513 -0.015915857 -0.02540093337 0.6269048566 -0.7789051502 0.01723565288
0.01504346434 -0.01407194996 -0.02549502055 0.7167371912 -0.6971375674 0.01694139555
0.0167590793 -0.0118940471 -0.02527817599 0.8041011437 -0.5944811925 -0.003669119751
0.02055021095 -0.0004709061503 -0.02136071243 0.9978410988 -0.06471495377 0.01118554334
0.01125757551 -0.005743422031 -0.06709975433 -0.5688043478 0.5753416312 0.5877445205
0.01912048197 0.007352883101 -0.01735714674 0.9549716542 0.2966692903 0.00405855857
-0.009288305283 -0.01834993744 -0.0169511795 0.298072871 0.954372604 -0.01804151599
0.005826819515 -0.01972607765 -0.02515604706 0.2526475282 -0.967413897 -0.01672059512
0.01668190084 -0.0004596803827 -0.06487119021 0.8079483375 -0.3674480644 -0.4606532361
0.01866260665 0.0474453016 -0.06916584669 0.9074880821 -0.01808127343 -0.4196885134
0.002689223111 -0.02039146709 -0.02517371559 0.1454190391 -0.9892979521 0.01195261593
0.018997262 0.00792758894 -0.02975875854 0.9632261415 0.2686122549 0.006546507072
0.008156816959 -0.01888881207 -0.02535535145 0.3921983493 -0.9198723258 -0.003919065541
0.01886642774 -0.008130182743 -0.02533247026 0.9194547679 -0.3925337778 0.02280708181
0.02005568733 -0.004569322729 -0.02538919907 0.9742222351 -0.224995888 0.01636725665
0.02051523514 -0.001426878589 -0.03723246994 0.9960252611 -0.08906821823 -0.0007292305291
0.02042625427 0.002581387043 -0.02105832005 0.9930608538 0.116867516 -0.01311961407
0.01797804565 -0.004440851498 -0.05737491531 0.8771888459 -0.3917420288 -0.2776290898
-0.005234847069 -0.01990857697 -0.02128389931 -0.2561822614 -0.9665744191 0.01022454201
-0.005582676888 -0.001034964241 -0.07405404472 0.2644831619 0.5103130926 0.8183087465
0.02054099131 -0.0008105105795 -0.02520999718 0.9979965969 -0.05847872585 0.02414604035
0.01114657164 -0.01022633696 -0.06202523232 0.5530516945 -0.6796177459 -0.481926906
0.01806694921 0.003270113998 -0.06491784414 0.8725443917 -0.2742344809 -0.4043040118
0.01987124729 0.005277387857 -0.02124689293 0.9813888375 0.1919815589 -0.004362421073
0.02052902489 0.05072422409 -0.06157967987 0.994780322 0.01682591589 -0.1006429311
-0.008976620674 -0.01850378799 -0.01976351738 0.2981857893 0.9544079258 -0.01381109152
-0.001498285979 -0.02049038696 -0.02546254921 -0.06795558881 -0.9974684068 0.02094791987
0.006206781483 -0.01960761757 -0.02923149605 0.3459048126 -0.938164053 -0.01407374692
0.001807392279 -0.01516216914 -0.06019485092 0.07476425876 -0.8769963465 -0.4746448292
0.00821268781 -0.01886330477 -0.029477314 0.3808362489 -0.9246388312 -0.002604499544
0.01976439095 0.03092571163 -0.06629125977 0.9515307435 0.006351146772 -0.3074880602
0.01015767741 -0.01789495182 -0.02910875463 0.530291515 -0.8477630406 -0.009419978418
0.01301228555 -0.01590714884 -0.02950515779 0.6079220719 -0.7938145958 0.0170041743
0.0167468338 -0.01191855224 -0.02938898881 0.801849601 -0.5974348329 0.01043253478
0.01892025542 -0.008017653108 -0.02921102738 0.9165163408 -0.3996676792 -0.01623401795
0.02023922501 0.003445304203 -0.02513032112 0.9818427179 0.188791962 -0.01850601155
-0.008770846367 -0.01860536003 -0.02162022781 -0.2747349482 -0.9614024001 0.01503772782
-0.004989971161 -0.01998185825 -0.02481513214 -0.1819164038 -0.9832513774 0.01109734095
0.001861984041 -0.02044805009 -0.02895903778 0.08739832996 -0.9960769689 -0.01386376194
0.02054247017 0.02423770828 -0.06143469238 0.9974187463 -0.02078481292 -0.06873016795
0.02007225037 -0.004494732559 -0.02915772295 0.9727961237 -0.2316457613 0.002818337839
0.020526894 -0.001137986317 -0.02899620972 0.9972341919 -0.0735599633 -0.01062535814
0.01542526054 0.04418795586 -0.07420780182 0.7469691963 -0.01356528839 -0.664720244
-0.008391529719 -0.01878231239 -0.0252666448 0.2604183481 0.9654603028 -0.008287806581
0.01019732793 -0.01787640953 -0.03316863887 0.5321139954 -0.84667025 -0.002045397609
0.01289579725 -0.01600889874 -0.03333867288 0.6064886692 -0.7949271749 -0.01619508319
0.01503709555 -0.01407865 -0.03283159637 0.7119742812 -0.7020009963 -0.016947686
-0.00607096235 -0.01715119489 -0.05375076675 -0.2925857669 -0.8956154366 -0.3350620224
-0.006002103488 -0.01324602 -0.06175013606 -0.3277049231 -0.7930071145 -0.5135651855
0.01673359119 -0.01194148774 -0.03343675211 0.8238351684 -0.5665828778 0.01671699564
0.0187344186 -0.008432110378 -0.03322609901 0.905071821 -0.4252476122 0.003076885721
0.01913998795 0.05155044937 -0.0531052494 0.9335007889 -0.005830270905 0.3585279417
0.01882671611 0.008340463638 -0.02530951945 0.9605857374 0.2779268118 0.005632795806
0.001977857627 -0.02042219234 -0.03308203363 0.1573501545 -0.98741837 -0.01568092724
0.02021191311 0.03496353626 -0.06440809917 0.9865479025 0.02058226393 -0.1621715344
0.005992113209 -0.0196799202 -0.03339190788 0.3351538779 -0.9421168209 0.009368770913
0.01499385262 0.05407712555 -0.04654608154 0.8014377175 -0.005465182177 0.5980532725
0.008267818928 -0.01883813477 -0.03354472351 0.3887038711 -0.9213540768 0.00399572157
0.02031801478 0.02286241722 -0.05746435165 0.9950036342 0.02292146347 0.0971718814
0.01986932373 -0.005403682232 -0.03353717868 0.9533043668 -0.3013082893 0.02059366531
0.02023023097 -0.003778966665 -0.03297881508 0.9900894979 -0.1395730297 -0.01556134887
0.002337463748 -0.01405368977 -0.06187273788 0.1382818813 -0.8446027648 -0.5172275042
0.001841030249 -0.004627246891 -0.07237021528 -0.08611088384 0.6114057242 0.7866180497
0.01874176121 0.02336626212 -0.06906025696 0.9064281845 0.01289684203 -0.4221630227
0.02018578072 0.003731701994 -0.02930855598 0.9845413282 0.1741710965 0.01851491848
0.01318357086 -0.01576436302 -0.03720622962 0.6318012657 -0.7748327608 -0.02147914195
0.02054678497 -0.0009078451037 -0.03315273285 0.9962204354 -0.0866477611 -0.006083551219
0.02017145681 0.05577065945 -0.06451348114 0.9902773499 -0.0003347409067 -0.1391066434
0.01359607566 -0.008323388186 -0.06135460489 0.6681135541 -0.6033057706 -0.4354841282
0.005954866687 -0.01967029889 -0.03743162346 0.2436201714 -0.9698609459 -0.004354054923
0.008322136561 -0.01881333605 -0.03755210622 0.3907193344 -0.9204434327 0.0110584335
0.01023481584 -0.01785653353 -0.03717457581 0.5138762931 -0.8578602364 0.002640115492
-0.0070338521 -0.01929839643 -0.04087097295 -0.3781237515 -0.9244795367 -0.04857998199
0.01672026602 -0.01196387037 -0.03743214099 0.8214333954 -0.5702967026 -0.002974545284
0.01887394357 -0.008135001361 -0.03729951811 0.909239435 -0.4162724453 0.0009492735079
0.002081697249 -0.01802523095 -0.05376348005 0.1297187229 -0.9261732346 -0.3540850073
0.0202806735 0.00324752003 -0.03318024063 0.9918446612 0.1251066224 0.02434134535
0.02053259964 -0.001196122396 -0.04127658005 0.9941281826 -0.1078209598 -0.009154078601
-0.01226734829 -0.004107611179 -0.06766635132 0.5019788815 0.5661548999 0.6538240068
-0.006016528487 -0.01962889481 -0.0333397274 0.2136712909 0.9768835357 0.006567892241
0.02034379845 0.003030269909 -0.04103106766 0.9944274616 0.1053306469 0.004413447951
0.001827663799 -0.02046032874 -0.03706145922 -0.08876761268 0.9960017939 -0.01003680534
0.01984562874 -0.005489495516 -0.03757198524 0.9461588811 -0.3237006876 -0.001111981501
-0.001801327984 -0.02051154455 -0.03713657125 -0.04738713948 -0.9986990937 -0.01883027737
0.010238657 -0.01780514749 -0.04109525681 0.5344455088 -0.8439083657 -0.04676182736
0.01533613224 -0.01363970203 -0.04180260162 0.7491054114 -0.6605904263 -0.04961220907
0.01301492394 -0.01584628211 -0.04144122993 0.6353509637 -0.7710451023 -0.04264508413
0.01691370869 -0.01165020752 -0.04109202848 0.8398791861 -0.5417723554 -0.03294947076
0.01867172377 -0.008521987438 -0.04118487385 0.9045100713 -0.4254129604 -0.02975473231
0.01912331104 0.007611875534 -0.03325592613 0.9235234929 0.3831538256 -0.01724830176
-0.005771681547 -0.01970146799 -0.03673324013 -0.3078268588 -0.9508554096 -0.03341579019
-0.003108649325 -0.02027446518 -0.04097012024 -0.1131440583 -0.9923599784 -0.04919446525
0.005300761402 -0.01980589056 -0.04123092747 0.2834697373 -0.957576787 -0.05188067977
-0.001852333724 0.002791796833 -0.07698669815 0.07180590946 0.4228112302 0.9033684603
0.008336336136 -0.0187515583 -0.04147639465 0.391065547 -0.9177198559 -0.06969938328
-0.002186839581 -0.01866373158 -0.05194610786 -0.1238641695 -0.9532472466 -0.2756398996
0.01979552587 -0.005545199394 -0.04152484004 0.9478837225 -0.3166475441 -0.03536638742
0.02017697843 -0.00397378993 -0.04102558263 0.9900978314 -0.1390738452 -0.01909842672
0.001133912319 -0.02047650909 -0.04122717514 0.1344241917 -0.9893464732 -0.05589000426
0.01923008156 0.007320461273 -0.03669237137 0.9257931385 0.3779746426 0.006498788565
0.006235957527 -0.01925643387 -0.04502187653 0.2944971079 -0.9497226833 -0.1062933598
0.01616584587 0.008946818352 -0.07124464417 0.789178479 -0.2145160532 -0.5754825725
0.008264982224 -0.01863940811 -0.04374155807 0.387134293 -0.9165653841 -0.1001745267
0.02021841621 0.05938076782 -0.06430012894 0.9831349063 0.04296836941 -0.1777624121
0.01335911441 -0.01523391318 -0.0452131424 0.6372257244 -0.7656045614 -0.08827815013
0.01296349525 0.003667000969 -0.07235750071 -0.6408145189 0.3549769007 0.6806968138
0.01525353551 -0.01337891412 -0.0452295599 0.7281872882 -0.677526936 -0.1034433386
-0.006722998381 -0.01827955055 -0.04928172684 -0.3416204945 -0.9172441063 -0.2048381978
0.01695808678 -0.01114392128 -0.04547358551 0.8394151827 -0.5331676909 -0.1054246861
0.01858803686 -0.008239499463 -0.04525907135 0.8993226194 -0.4285798827 -0.08682229194
0.01650876069 0.0475466404 -0.07284538078 0.8237050537 -0.005905682673 -0.5669877489
0.001992118041 -0.02003235944 -0.04537107213 0.07574661996 -0.9894553326 -0.1234528023
0.01965611076 -0.005503245831 -0.04535246849 0.9370357544 -0.3418156506 -0.07159647959
0.02004948616 -0.003983370066 -0.04566787847 0.9669529517 -0.2480670471 -0.05886195146
0.02047541455 -0.0007800075923 -0.04543406023 0.9951789362 -0.09520939549 -0.02353839132
0.01983570099 0.05886653137 -0.05520426941 0.9626339221 0.02863731587 0.2692876456
0.01941968664 0.006894936403 -0.04097679774 0.9474676259 0.3156905247 0.05142558096
-0.006840707064 0.01652286625 -0.07973993301 -0.2457780428 -0.1126602453 -0.9627568867
0.005634959883 -0.007789782577 -0.06864052412 -0.2567182012 0.6809054642 0.6859034291
0.0205282855 0.02827766323 -0.06196554661 0.9955132801 -0.02412655445 -0.09149436279
-0.01280543709 -0.01613373375 -0.03721522522 0.4634098729 0.8860500629 0.01290642252
-0.001847845435 -0.02016242218 -0.04491197586 0.111370563 0.9850847469 0.131166456
0.01014420181 -0.01667687628 -0.04935119502 0.5301078743 -0.8233083702 -0.202852087
0.01277503824 -0.01510689831 -0.04837695503 0.6092290939 -0.7775994997 -0.1554957528
0.01136698914 0.00624083662 -0.07492389679 -0.5577253488 0.3277735384 0.7625660252
0.01452023447 -0.01335469699 -0.04894685793 0.7131188932 -0.6770093824 -0.181988297
0.01619395002 -0.01153045559 -0.04869623439 0.7847124986 -0.5936985292 -0.1781806692
0.02017493963 0.03945372581 -0.06457872963 0.9840410969 -0.005314777395 -0.1778619486
0.01574064922 0.01326038933 -0.03686721039 0.8587423279 0.5114089053 0.03197727042
-0.002790840507 -0.010323843 -0.06682831955 -0.1312292642 -0.7342770377 -0.6660451276
-0.01222607994 -0.01655567169 -0.03925717545 0.4634098729 0.8860500629 0.01290642252
-0.005806085587 -0.01928869915 -0.04533824857 -0.290534572 -0.9498691845 -0.1154911027
0.01794884936 -0.008500354873 -0.04920571391 0.86861656 -0.4689820386 -0.1598784512
0.01868286476 0.05155152359 -0.06909812469 0.9120354722 -0.005004562164 -0.4100807869
0.01925344086 0.04309516525 -0.05344259008 0.9362106405 0.01294195188 0.3512010001
0.01941294511 -0.005034887195 -0.04943065389 0.9322538383 -0.3429406563 -0.1153017227
0.01690579224 0.01177594757 -0.04039035225 0.8751789019 0.4790528083 0.06760396849
0.01681579351 0.05536958885 -0.07240499878 0.8372578882 0.02246932285 -0.546346372
-0.006346162796 0.03859059334 -0.08013766861 -0.2017724622 -0.006220103209 -0.9794126729
0.01967140865 0.02248692036 -0.06661355972 0.9480208189 0.0006426987499 -0.3182076584
-0.01190588522 -0.01671539974 -0.04187940598 0.4611921317 0.8855121367 0.05630340444
0.002172013987 -0.001617105651 -0.07444861755 -0.1298020315 0.5397513956 0.8317570941
0.002967693965 0.0397329127 -0.08095608521 -0.1803845376 0.01227866701 0.9835195234
0.002345879634 -0.01931762981 -0.04934976705 0.07558949625 -0.9726702731 -0.2195421779
0.01937020969 0.01555776739 -0.05266218948 0.9599663006 0.1262122973 0.2500703054
0.01618166192 0.01216247876 -0.07220187887 0.8091962945 -0.1464978636 -0.5689813116
0.0203504777 -0.0007592976913 -0.04933107948 0.9957271345 -0.08320597685 -0.04005295373
0.01970952988 0.001754568934 -0.0585912323 0.940282477 -0.2415798279 -0.2398083613
0.01320023918 0.02734160118 -0.07637110291 -0.6139468575 -0.01541990875 0.7891967325
0.007985741615 0.04486683655 -0.07955802155 -0.3753181249 0.007094624416 0.9268689073
0.00589546032 0.04332442703 -0.08027296295 -0.3032762842 -0.01229601819 0.9528233327
-0.00152852152 -0.01936869526 -0.0493922952 -0.09432229701 -0.9705438443 -0.2216933704
-0.002194640239 0.05245413717 -0.08102978516 -0.08679537426 0.005188481725 -0.9962126493
0.009863710117 -0.01562219515 -0.05327406311 0.4858920247 -0.8289229391 -0.2771203734
0.02015369034 0.01150852394 -0.05366189194 0.9849583694 0.1337009883 0.1094580113
0.0120666008 -0.01485437679 -0.05141767502 0.5627710819 -0.7911557603 -0.2395021342
0.01422379597 -0.01236883672 -0.05279969406 0.6866800729 -0.678545352 -0.260857591
0.02036614943 0.01565398288 -0.05727393341 0.9943107056 0.02785555748 0.1028119094
0.01531979879 0.03079692332 -0.07433183289 0.7424464377 0.02178750442 -0.6695510375
0.01281787395 -0.007301590919 -0.0637901001 0.624360457 -0.5928466064 -0.5086324027
0.0188631488 -0.004879873461 -0.05321400494 0.9121177303 -0.3637344107 -0.1890463556
0.02052196121 0.003754056752 -0.04937211037 0.9990202055 0.04388786753 0.0056994765
0.02005755234 0.005918704033 -0.04638985825 0.989536535 0.1242683474 0.07331318943
0.01849648285 0.009802140236 -0.04423233414 0.9537647025 0.269690419 0.1326648796
-0.01258103132 -0.01597601032 -0.04453591156 0.4613250146 0.8831704576 0.08478899537
-0.004937816381 -0.01901023197 -0.0487010994 0.190095543 0.9547593332 0.2286882162
0.01939948273 -0.0007656515756 -0.05714554596 0.9353121687 -0.2844162946 -0.2104721324
0.005937876648 -0.01744727325 -0.05306742138 0.3216165713 -0.8910182659 -0.3203891866
0.01319989395 0.03944459534 -0.07636400032 -0.6466865206 0.009628122674 0.7626951182
0.0009622226954 -0.01885895157 -0.05169772339 0.04118106579 -0.9559850512 -0.2905111042
0.0115470829 -0.01432651329 -0.05402676392 0.5739028408 -0.7590254739 -0.307434317
0.01979028034 -0.002012579978 -0.0532308712 0.9564849073 -0.2607765104 -0.1308901594
0.02024339104 0.0004248086959 -0.05323421923 0.9882012443 -0.1285623521 -0.08324675664
0.01986413383 0.008045875549 -0.0486211319 0.9745846912 0.1913010377 0.1165701189
-0.008684644222 -0.01739117336 -0.04975450134 -0.3809100575 -0.893202864 -0.2389480527
0.01042910353 -0.01340675693 -0.05757517539 0.5004902242 -0.7684996786 -0.398644929
-0.01026869965 -0.01377442074 -0.05713503838 -0.4795243729 -0.7724424487 -0.4164000951
0.008069524765 0.01744996262 -0.07939524078 -0.3848473556 0.08779427321 0.9187952321
0.01296081077 -0.01183248138 -0.05677592426 0.6314765028 -0.688054398 -0.3575172329
0.01487988548 -0.009340690422 -0.05759026108 0.7249834132 -0.5973212013 -0.3429379435
0.02054275322 0.04419038696 -0.06133059235 0.9979408195 -0.01146896512 -0.06310771391
0.02054944801 0.004240975094 -0.05312824097 0.999994419 0.0007647943101 -0.003252227451
-0.002458872437 -0.01804387728 -0.05364796702 -0.1565481015 -0.9286108924 -0.3364141828
0.005738702562 -0.01595906957 -0.0569441647 0.2633686998 -0.8836720003 -0.3869893071
-0.001702673753 0.0281242288 -0.0810969518 0.1443648633 0.0139401595 0.9894263278
0.008461091042 -0.01494263554 -0.05683369827 0.3845461662 -0.8376641713 -0.3878698006
0.01659419012 -0.007346875906 -0.05704296589 0.8036322826 -0.5023699966 -0.3190604032
0.01767163181 0.05383570099 -0.05015154648 0.8802401311 0.0119703391 0.4743775107
0.02044358778 0.008147957325 -0.0534693079 0.9984170005 0.0442360289 0.03473711062
0.01725695992 0.05815058136 -0.04943861389 0.8672509272 0.008765845871 0.4977941233
0.01794956684 0.01532343721 -0.04905350685 0.9546788314 0.1754670585 0.2404155574
-0.01049727567 -0.01562764168 -0.05231096649 -0.435032741 -0.8439573872 -0.3138191244
-0.001959569241 -0.01673955985 -0.05697001648 -0.07889648107 -0.8983188988 -0.4322019219
0.00197243157 -0.01651673113 -0.05746895381 0.07213385717 -0.899346941 -0.4312444623
0.02012362671 0.001422163725 -0.05585246277 0.9802212687 -0.1580314342 -0.1191315666
0.01930466461 0.04769981003 -0.05358955002 0.9551988815 -0.007058262159 0.2958805125
0.01959789085 0.01226198006 -0.05161452866 0.9747246436 0.1446053823 0.1702972479
0.01979034996 0.01926297188 -0.06617218781 0.9489845504 -0.03468015909 -0.3134096514
0.007865175724 -0.01433934784 -0.05862413788 0.3598437415 -0.8237382062 -0.4381413578
0.01656639099 0.05881837463 -0.07274638621 0.8153675865 0.05660884745 -0.5761693651
0.02053714027 0.00764060936 -0.05706216431 0.9997803297 -0.01385686262 -0.01572513101
0.01800148201 0.01832640076 -0.05033860779 0.9492410054 0.09323099321 0.3004155382
0.01715217495 0.02257480717 -0.0492595253 0.9125026599 0.04571859141 0.406507941
0.01533273347 0.05153213374 -0.07429418945 0.7411026894 -0.006381676555 -0.6713613617
0.01557631493 0.005727291107 -0.07061116791 0.7432331621 -0.2977126491 -0.5991424249
-0.005661319613 -0.01569611478 -0.05756982231 -0.2613907857 -0.8660720054 -0.4261386378
0.01450126457 0.04517084503 -0.04600332642 0.7915308598 0.0005347081181 0.6111289652
0.004635852575 -0.01484001446 -0.05985777283 0.201208564 -0.8584372308 -0.4718057169
0.01825832195 -0.0006496465325 -0.061167556 0.8836349902 -0.3257761945 -0.3362425838
0.01694508044 0.05131305567 -0.07221736908 0.8419653933 0.002853760244 -0.539523987
0.02050351715 0.01171435719 -0.05710986938 0.9996126721 -0.006109239635 0.02715111363
0.02005197906 0.01362912083 -0.05440027237 0.981304178 0.09671559306 0.166397729
0.01453790147 0.01117370006 -0.07379822867 0.7038379289 -0.1868702844 -0.6853405479
0.01926679659 0.01981576443 -0.05343719673 0.9631991393 0.04945507053 0.2641999511
0.01722389317 0.02681935215 -0.04936304474 0.9019564267 -0.01042566473 0.4317011811
-0.01294011974 -0.01334598732 -0.05368790436 -0.4732559307 -0.8150207761 -0.3343201438
0.01962096024 0.02675350094 -0.06677382278 0.9456453982 0.02551327504 -0.324197245
-0.008738365173 -0.01522671223 -0.05590312958 -0.3780348539 -0.8501117266 -0.3666056486
0.02026714897 0.05554302788 -0.05722086334 0.9843612932 -0.0165925042 0.1753782577
-0.001633567821 -0.01525522828 -0.05999366856 -0.0853076367 -0.8775027745 -0.47192318
0.00457131958 0.01236732483 -0.07979248428 -0.2075610999 0.1862986515 0.9603182818
0.01523741023 -0.005720586618 -0.06213227081 0.7225378923 -0.5250709026 -0.4497105085
0.01937974199 0.00298317953 -0.06102476947 0.925560734 -0.2413423056 -0.2917039924
0.01729518414 0.03113528156 -0.04947286606 0.9215075908 -0.004576170294 0.3883333861
0.0199916954 0.005280857563 -0.06043230057 0.9713051152 -0.1458059504 -0.1879015647
0.02024259987 0.008161650372 -0.06070957794 0.9897056067 -0.08440959559 -0.1155760886
0.0202195886 0.04358743286 -0.06438939921 0.9906167254 -0.02493381738 -0.1343756236
-0.00619833684 0.01002555704 -0.07875899887 0.2887083786 0.2678287036 0.9191927206
0.02034971857 0.01929909086 -0.05754231834 0.9924272255 0.008574457792 0.1225344068
-0.005228637695 0.003333541195 -0.07654427338 0.2157587758 0.4176921232 0.8825992527
0.01907059097 0.02760453415 -0.0529878788 0.9312161169 -0.004438092257 0.3644404574
0.01735951424 0.03553331566 -0.0495839386 0.8885980979 0.04797140343 0.4561712013
0.01781249428 0.01139022859 -0.06937304433 0.870400694 -0.1433531916 -0.4710122018
0.01422363186 0.04086730194 -0.04571747971 0.7830387931 0.002641709844 0.6219672579
-0.007669324875 -0.0142449131 -0.05899287415 -0.3580282593 -0.8324051866 -0.4229862538
-0.001955044791 -0.01398273373 -0.0620466814 -0.1158449396 -0.8347438181 -0.5383146924
0.01503018546 0.01499193048 -0.07415646935 0.7226619955 -0.1068207914 -0.6828974731
0.005632466237 -0.01148354721 -0.06444282786 0.2524941126 -0.7719341687 -0.5834075439
0.008273148537 -0.01103704548 -0.0634966774 0.3800519413 -0.7406758867 -0.5540394866
0.01394681828 -0.004535552355 -0.06525499403 0.6650524839 -0.5187564318 -0.5372122096
0.02039027278 0.01177448432 -0.06131579399 0.9967790726 -0.03963671229 -0.06971665144
0.01643449783 -0.0026009655 -0.06342326355 0.8060622074 -0.4167605846 -0.420207488
0.01964415359 0.006217541536 -0.06247630056 0.9489129126 -0.1638362412 -0.2696701138
0.01987892532 0.02428351593 -0.05524272919 0.9679419551 -0.009700492053 0.2509865972
-0.01253943062 -0.01166536713 -0.05788792419 -0.5155808266 -0.7330968883 -0.4435598761
-0.009516973686 -0.0117137949 -0.06141285324 -0.4403781561 -0.741180941 -0.5066733587
0.001802625939 -0.01202098596 -0.06489821005 0.07741654694 -0.7906431781 -0.6073631888
0.006427275817 -0.009811067263 -0.06609849803 0.3285063249 -0.7132416582 -0.6191687424
0.02052389984 0.01591509571 -0.06115717545 0.9985263118 -0.01291498682 -0.05271060298
0.0202642601 0.02709980659 -0.05724937973 0.9918061213 0.0221161652 0.1258232611
-0.001926406984 -0.01211166259 -0.064758958 -0.08278487965 -0.7830026491 -0.6164848053
0.01515629292 -0.001338236561 -0.06658057022 0.7086121812 -0.4475671423 -0.545483666
0.01008191613 0.01140365464 -0.07734898376 -0.4982447414 0.1965126889 0.8444731735
0.01887062263 0.007255387247 -0.06532440329 0.9028232019 -0.1928140929 -0.384360497
0.02054059639 0.02003308868 -0.06129726715 0.9999879915 -0.004660757299 -0.001514649992
0.02021354198 0.03134909058 -0.05690319252 0.9837983094 0.01006929245 0.1789957984
0.0194730072 0.03930422974 -0.05396943665 0.9542860162 0.005814539163 0.2988384018
0.01657534361 0.01537078977 -0.07232219505 0.8236011378 -0.06941078998 -0.5629061272
0.01965160465 0.03985472298 -0.06664293671 0.9482322395 -0.009084453001 -0.3174477796
-0.00194904083 7.204145193e-05 -0.07557268524 0.1446324246 0.4966474154 0.8558170404
0.01701859665 0.04878926086 -0.0490658989 0.8420226898 -0.01244119173 0.5392986247
-0.005728574753 -0.0115868028 -0.06427710342 -0.2370252814 -0.7783902954 -0.581315374
0.01126047659 -0.002059543788 -0.07024437332 -0.5708785104 0.4860501947 0.6617045674
0.02009620667 0.01295050526 -0.06383290482 0.9745051577 -0.08258429137 -0.2086133563
0.02054989204 0.03962676315 -0.0611639595 0.9997559815 -0.01731851392 -0.01371300464
0.01683287544 0.04333856735 -0.07238840179 0.8384173264 0.004825486946 -0.5450074325
0.01947796504 0.01120031929 -0.06545575968 0.9314322485 -0.1190479261 -0.3438917819
0.02012945509 0.01592784357 -0.06435826206 0.9835951343 -0.04383310938 -0.1749836287
0.01528117561 0.05858692169 -0.0468638382 0.8221484975 0.01153154568 0.5691562804
-0.009832840919 -0.005129040956 -0.06878314972 0.4813953661 0.5697639747 0.6660536875
0.001998359859 -0.008491768599 -0.06892163277 -0.07858623584 0.7038451807 0.7059930348
0.008140757561 -0.007220449448 -0.06799563599 0.3880322129 -0.6540127503 -0.6493830334
0.01979695797 0.0442732296 -0.06615871429 0.9606601807 -0.008950005901 -0.2775822665
0.009766247654 -0.004615618443 -0.06927893753 -0.4922984454 0.571872557 0.6562042512
0.01248721361 -0.003292792201 -0.06815220642 0.6198470772 -0.5076987291 -0.5983574194
0.01363417053 -0.0003715806797 -0.06917416153 0.6759603122 -0.4276941167 -0.6001294851
0.01644878403 0.003597696741 -0.06817972946 0.795407348 -0.338422541 -0.5027895529
0.02033896637 0.03970464325 -0.05765093231 0.9957854439 -0.00600141274 0.09151684388
0.02024176534 0.04295040766 -0.05710186513 0.9839068714 0.03560706849 0.1750982727
0.01684002876 0.03145245934 -0.07239196167 0.8380958181 0.002297003934 -0.5455182156
-0.01057338746 -0.008261517207 -0.06503983688 -0.4761574134 -0.6702833684 -0.5692049926
0.01537334824 0.05577902603 -0.07424235916 0.7434636498 0.004474424803 -0.6687613782
0.01005747954 0.003193994986 -0.07431829495 -0.5213596565 0.38621063 0.7609372233
0.0146505067 0.002895047239 -0.07017498125 0.7125504996 -0.3645091914 -0.599503824
-0.001930441219 -0.008351904154 -0.06904951286 0.08847056993 0.702146058 0.7065153017
0.0172694211 0.00760758394 -0.06891615582 0.850705096 -0.2095494402 -0.4820683268
0.01957824262 0.01539890289 -0.06635330709 0.9374978689 -0.06574480804 -0.341724108
0.02015625763 0.02418683434 -0.06470829487 0.9841432657 -0.02000477828 -0.176243699
0.02029235268 0.04712004662 -0.0574093914 0.9912095157 0.02255448955 0.130364838
0.01866503143 0.05965361214 -0.05201117134 0.913442279 0.03687218499 0.4052945162
-0.01387076378 -0.00649435091 -0.06334770584 -0.552892455 -0.6456885478 -0.5266841866
0.01843214011 0.01549101412 -0.06917841721 0.8868487385 -0.081156135 -0.4548769029
0.01190377712 7.04568699e-05 -0.07121952057 -0.5772732945 0.4535649224 0.6789951433
0.02021014023 0.02733544731 -0.06448306084 0.985663278 0.001055548882 -0.1687210366
0.02032013226 0.05180398369 -0.05757972908 0.9919680633 -0.02190064556 0.1245781806
-0.008197714806 -0.007950773239 -0.06722878265 -0.3826636163 -0.6821913093 -0.623043798
0.001832237099 -0.006477832317 -0.07077032471 -0.1030581229 0.6657014698 0.7390673694
0.01486059856 0.04708086777 -0.07481147385 0.7114513533 0.004357510567 -0.7027218397
0.009737394651 -0.0004166219152 -0.07244553206 -0.4459912421 0.4805718984 0.7550777857
0.01865009635 0.01946569933 -0.06917178018 0.8902530279 -0.03444579538 -0.4541619024
0.02018322945 0.03095509148 -0.06461535645 0.9863910246 0.0177802676 -0.1634521605
0.01373013418 0.007268542116 -0.07324301286 -0.6701235644 0.2753411928 0.6892906759
0.02056072712 0.04739959145 -0.06147207832 0.9988080005 0.02410907404 -0.04244208584
0.001977301538 0.01937740517 -0.08101048533 -0.1042280283 0.03087785526 0.9940739792
-0.006226817608 -0.005428864002 -0.07053448486 0.3178997501 0.6228095746 0.7148762009
-0.001903445309 -0.004179324985 -0.07268262196 0.09101199537 0.604297653 0.7915435322
0.0186270256 0.04306404622 -0.06928491084 0.8920750194 0.02118832789 -0.4513903128
-0.005622263908 0.007526022434 -0.07815903473 -0.2645759552 -0.3317089983 -0.9055212335
0.006341571066 -0.0004859868288 -0.07411975013 -0.3181254319 0.5024069072 0.803979794
0.01852660288 0.02734408161 -0.0695001733 0.9045210173 0.003645502832 -0.4264134607
0.01880216916 0.03145821412 -0.06888981501 0.9038163475 -0.02750080287 -0.4270359655
0.001508543809 0.04360666784 -0.08110897827 -0.09316962268 0.01410783254 0.9955502953
0.01970981789 0.03534883308 -0.06646256638 0.9505858336 -0.002355613441 -0.3104529336
0.02054868202 0.05606640701 -0.06095471649 0.9999768619 0.002743900556 -0.006224689137
-0.006025937398 -0.003737334092 -0.07203999583 0.2666799815 0.6061979172 0.7492702267
0.008327151299 0.02835129166 -0.07942601013 -0.396134987 0.001546256411 0.9181909829
0.01054781818 0.03898155975 -0.07824708303 -0.5279625852 -0.002230505066 0.8492647016
0.002295026776 0.007076205095 -0.07868508148 -0.1184502939 0.3464920195 0.9305443613
0.01863597012 0.03525414467 -0.06923871994 0.8929345047 0.0001761342053 -0.4501865606
0.02018504715 0.04745841599 -0.06454253006 0.9853297761 -0.003642019839 -0.1706222962
0.005881985784 0.02351653163 -0.08027549744 -0.249868603 0.02281514536 0.9680109247
-0.008557909966 0.02740824699 -0.07932550812 -0.2512777671 0.005715237361 -0.9678981454
-0.009913926125 -0.002512646675 -0.07092588806 -0.447034166 -0.5291681399 -0.7212083847
0.01672066479 0.0235571785 -0.07256676483 0.8267382523 -0.01666149279 -0.5623399833
-0.01251251507 0.007652911186 -0.07456846619 -0.4722461422 -0.3152566179 -0.8231627093
0.01863021851 0.03879269333 -0.06927821198 0.894447908 0.01366172393 -0.4469634183
0.02015122986 0.05139235814 -0.06470587285 0.9842034789 0.004612114227 -0.1769809043
-0.01331043816 0.000717220366 -0.07035794067 -0.5139164761 -0.4756237546 -0.7139130897
-0.008965977669 -0.0005750725344 -0.07286538315 0.3759043538 0.514619184 0.7706250789
-0.002191756427 -0.001558477938 -0.07452833557 0.1202159658 0.5477478234 0.8279616196
0.001924792314 0.0004943201825 -0.07576300507 -0.06623465696 0.4775000183 0.8761316698
0.005596722096 0.003459655643 -0.07651054573 -0.2633920833 0.4108325366 0.8728351719
0.008394218922 0.004584005833 -0.0759477272 -0.3838105283 0.3806045586 0.8413261249
0.002317008615 0.01533282661 -0.08064842072 -0.1231068669 0.1500258037 0.9809877459
0.01363271904 0.05114527257 -0.07597738647 -0.6401773831 0.004328886542 0.7682149302
0.009585798144 0.007611319423 -0.07649863625 -0.4445646007 0.2830214926 0.8498594887
0.01197798538 0.009419717789 -0.07560714722 -0.5776577442 0.2458701951 0.7783696922
0.0127745231 0.01180545139 -0.07562781525 -0.6080383867 0.1717853096 0.7750994309
0.01511129045 0.0189031806 -0.07448771095 0.7321753324 -0.04121115692 -0.6798683131
0.01964546776 0.04785861969 -0.06664180756 0.9442382436 -0.02131034043 -0.3285726841
-0.01233272648 0.001707168341 -0.07187181854 -0.4975517703 -0.4470457104 -0.7433655687
0.01305040932 0.01569436321 -0.07612215118 -0.638607154 0.09557358502 0.7635748769
-0.008773199081 0.006855053186 -0.07667617416 -0.3996675393 -0.3291524171 -0.8555258876
0.01519544697 0.02324098206 -0.07447347768 0.738389897 -0.0254962591 -0.6738919059
0.0009912089109 0.009372283936 -0.07958489227 -0.01351102614 0.2562919405 0.9665049888
0.01680006027 0.03549865818 -0.07243244934 0.830767113 -2.49967117e-05 -0.5566201608
0.01299844055 0.02341615906 -0.07652737274 -0.6407677834 -0.006273171843 0.7677091214
0.0197558136 0.05484382629 -0.06626337433 0.9517078593 0.0142078344 -0.306676194
0.006290545225 0.007699836651 -0.078007061 -0.3092200779 0.2917375171 0.9051365447
0.00980387967 0.01475528186 -0.07816943032 -0.4770764099 0.1366923552 0.868166631
0.01307404194 0.01966585808 -0.07644290619 -0.6347552255 0.04519116107 0.771390668
0.01502628644 0.02758788554 -0.07465742238 0.7417957537 -0.01600370833 -0.6704348895
0.01856210098 0.05497620316 -0.06938291016 0.892732689 0.02371642427 -0.4499620842
0.01959642601 0.05859247589 -0.06676898575 0.9451896289 0.0503810474 -0.3226117099
-0.008351366997 0.003573707104 -0.07552813721 0.376114738 0.4121196646 0.8298765486
0.006200341797 0.01085193291 -0.07895844116 -0.3201322108 0.2463874855 0.9147724168
0.01015418514 0.01885967191 -0.0783959109 -0.5304142236 0.04982953025 0.8462728693
0.01513984013 0.0352926801 -0.07452534993 0.7448427379 0.01038539002 -0.6671592309
-0.002120386004 0.0068442173 -0.0786568985 0.1507846479 0.3417365354 0.9276206824
0.01022807922 0.02316283455 -0.07843775024 -0.53263704 0.01066090025 0.8462766267
0.01347694035 0.03167820511 -0.07613980865 -0.6429112875 0.01276952118 0.765834196
0.01515990114 0.04001752949 -0.0744961853 0.7415261579 -0.02541899147 -0.670442266
-0.0002297526598 0.008720359802 -0.07941020966 0.01298374123 0.28740351 0.9577215905
0.001827678844 0.0113825469 -0.07999546623 -0.05863822855 0.2077275286 0.9764275867
0.00591523428 0.0154223793 -0.07991569061 -0.2569667177 0.1422122256 0.9558994659
0.01053820381 0.0273557251 -0.07825821075 -0.5351280593 0.01141567977 0.8446938158
0.01301973534 0.03583137035 -0.07652549171 -0.6155086029 0.01225936411 0.7880348138
-0.009353733063 0.01225795269 -0.07794893646 -0.3868537191 -0.2338844265 -0.8919878223
-0.001912157081 0.03996050644 -0.08105034065 -0.08748797144 0.001626119917 -0.9961642488
0.005863254833 0.01943605499 -0.08025318909 -0.2660177799 0.05009012771 0.9626658402
0.008407312393 0.02311496925 -0.07939109802 -0.383164052 0.007365849912 0.923650937
0.01026636076 0.03142996073 -0.07841378593 -0.5341191489 0.01221143609 0.8453210134
0.01058993587 0.03532942352 -0.0782171051 -0.5372905246 0.001417883907 0.8433960409
-0.005402913809 0.02096711922 -0.08044105148 0.1543736491 0.004001352423 0.988004436
0.01338553429 0.04311030674 -0.07620287895 -0.6324361542 -0.01184313337 0.77452195
-0.005251861334 0.01292421341 -0.07970557022 0.181433644 0.2062467519 0.961532168
-0.00207986749 0.01547241426 -0.08066316605 0.08332244731 0.1397187659 0.9866792976
0.006296007752 0.02750227928 -0.08018533707 -0.3410319551 0.004952596188 0.9400386574
0.01316202755 0.04741450653 -0.07639396057 -0.6304230342 -0.00464526849 0.7762378627
-0.0007908213586 0.01804231453 -0.08106814957 0.01357427329 0.1016260174 0.9947300597
0.001697794065 0.023366117 -0.0810877018 -0.06847292368 0.0164979125 0.9975165551
0.005811540508 0.03137910118 -0.080287146 -0.2693412563 -0.01176218601 0.9629729688
0.00850762701 0.03446821022 -0.07934740829 -0.4118555855 -0.02240789051 0.9109735798
0.01478589535 0.058820961 -0.07486971283 0.7176821563 0.0696905295 -0.6928748463
-0.001947306037 0.02227872976 -0.08107760111 0.03919834527 0.02708795333 0.9988642213
0.006070173144 0.03563866138 -0.08022843361 -0.3072515505 0.01546550812 0.9515026552
0.006155516267 0.03876548767 -0.08020529175 -0.3098449426 -0.007578670588 0.950756896
0.01070893135 0.05116742325 -0.0781354248 -0.5363711039 -0.01017425565 0.8439209225
0.01266765563 0.05929354604 -0.07677484894 0.6140957979 0.04145843282 -0.7881418333
-0.005015826225 0.02662803745 -0.08054611206 0.1353258662 -0.00416512684 0.9907923908
0.001193232844 0.03112383016 -0.08113843536 -0.08981505354 0.01479688387 0.9958485369
0.002070942953 0.03539981747 -0.08104424667 -0.1401028484 -0.02263851679 0.9898781185
0.008555076599 0.04643162918 -0.07932673645 -0.4246066431 -0.007330907771 0.9053482515
0.01039566994 0.05569744682 -0.0783231411 -0.5366266285 0.008162121367 0.8437803277
-0.003267468929 0.03298684692 -0.08090457916 -0.1565004398 -0.006857411621 -0.9876540833
-0.0009403412938 0.0345767746 -0.08115705109 0.01436096812 -0.01313659428 0.9998105783
0.005958221436 0.04799282201 -0.08025669098 -0.2545289207 0.02063148894 0.9668450601
0.006287901998 0.05137085152 -0.0801672821 -0.2963119436 -0.02076850791 0.9548653838
0.008408339024 0.05227153587 -0.07938009644 -0.4376263054 0.00348149099 0.8991502077
0.01046008253 0.05914580345 -0.07828275681 0.4908892142 0.04587143427 -0.8700135579
0.001914500711 0.04755301094 -0.08102828026 -0.1319156261 -0.008570499409 0.9912238971
0.005726024151 0.0557219368 -0.08028247986 -0.3071161303 -0.006294450943 0.9516512294
0.008529862881 0.05909953117 -0.07932246399 0.4614171419 0.04952783232 -0.8857997601
-0.006091874838 0.04480798149 -0.08021436691 -0.1400418324 -0.002472962407 -0.9901424997
-0.003502916336 0.04507506561 -0.08088118744 -0.116517863 -0.005455945427 -0.9931736103
-0.001711639166 0.04628130722 -0.08109069443 0.02486964812 -0.01913847508 0.9995074884
0.002446134011 0.05141657639 -0.08101705424 0.1501663755 -0.004571903108 -0.9886501694
-0.005911830664 0.05126634216 -0.0802657814 -0.2004168301 0.002394028614 -0.9797077946
-0.002122464061 0.05925480779 -0.08103263855 0.07666619218 -0.04154428078 0.9961909293
