# .PCD v0.7 - Point Cloud Data file format
VERSION 0.7
FIELDS x y z normal_x normal_y normal_z
SIZE 4 4 4 4 4 4
TYPE F F F F F F
COUNT 1 1 1 1 1 1
WIDTH 564
HEIGHT 1
VIEWPOINT 0 0 0 1 0 0 0
POINTS 564
DATA ascii
-0.006493460178 0.01615131569 0 -0.5025034518 0.5068793223 -0.7004024797
0.01459473324 -0.01442242241 -0.04264451599 0.704704552 -0.7070424494 -0.05901244898
0.008828418732 -0.01855597878 -0.005383694172 0.4991368112 -0.866522053 0.001405449609
-0.01094962311 0.01556313467 0 0.909087089 -0.1814495544 0.3750156315
0.0200938158 -0.004386171579 -0.02135753441 0.9769771284 -0.2128565014 -0.01441528345
-0.006496356487 -0.01923352432 0 0.7896728163 -0.000742044643 0.6135277439
0.01562147713 0.01335916281 -0.02350649166 0.7538439604 0.6569815183 0.009724608119
0.002068939924 -0.02047423172 -0.008144246101 -0.05502919533 0.9982654505 -0.02092553453
-0.006493460178 -0.01615131569 0 -0.5025034518 -0.5068793223 -0.7004024797
0.02029034424 0.003736556053 -0.0429744606 0.9842371419 0.1759498141 0.01785809061
-0.005701726913 0.02319069862 -0.04081825638 0.2535672663 -8.788972676e-06 -0.9673177562
0.003508336544 0.02024667931 -0.001074031949 -0.1205286552 0.6939810092 0.7098332213
-0.01368246412 -0.01022025633 -0.003521640897 0.8058633176 0.5774794376 0.1307738985
-0.01468594551 -0.008687375069 -0.005585723162 0.845143589 0.5345389173 0.000678137112
0.02056735992 0.05916006088 -0.06148506927 0.9995167662 0.03104517692 -0.001559194932
-0.01234770012 0.01175671291 -0.003857105732 0.7424436248 -0.6697938057 -0.0123984586
0.02001058388 0.03573968887 -0.05574039078 0.9761562356 -0.009257588246 0.2168716227
-0.01064191008 0.01331319809 -0.007400020838 -0.6246269029 0.7808991124 -0.006148853849
0.02051758194 0.001457426608 -0.01953503323 0.9979648129 0.06285941907 0.01072033746
-0.01549698639 0.007106742859 -0.00335883379 0.9130890913 -0.4074645962 0.01552141298
0.00738059783 0.03564999199 -0.04140916252 -0.3526890333 0.0002292626055 -0.9357405587
0.005219405413 0.02956515312 -0.0406919632 0.2501537577 -0.001299766917 0.968205251
-0.01549698639 -0.007106742859 -0.00335883379 0.9174403095 0.3947514448 0.04974510309
0.01640198994 -0.01240145636 -0.009385989189 0.8203071582 -0.5719146231 0.003135300291
-0.01690810585 -0.002378501415 -0.003885366678 0.9923715803 0.122907658 -0.009610109852
0.01759127045 0.02963995361 -0.04991001511 0.8546529801 -0.00744019045 0.5191463447
0.01841745567 0.04341213608 -0.05146673203 0.8958017767 0.001034359934 0.4444525925
-0.01465898895 -0.008737440109 -0.01152450466 0.8828406932 0.4696725246 0.0001734128871
0.01943682861 0.04712054062 -0.06732038879 0.9393458496 0.007341212627 -0.3428928134
-0.005380700111 -0.01617728806 -0.004519686699 0.4090569995 0.9125080464 0.001198506982
0.02037444687 0.003745562315 -0.04551822281 0.9883311934 0.146347817 0.04223468557
0.01950717354 -0.006603235722 -0.02327087021 0.953802972 -0.3002635973 -0.01008279999
0.01421637964 0.03901406288 -0.0457530117 0.673080145 -0.002420101774 0.7395655898
0.0192814579 -0.002277921915 -0.05581472778 0.9401995201 -0.2800276869 -0.1939313205
0.02005677414 0.009812829971 -0.05183692932 0.9787967253 0.1395652549 0.1499283502
-0.01703953743 -0.0007931298018 -0.003934416533 0.9998658722 0.01599949166 -0.003500557262
0.02022219276 -0.000754200995 -0.05171631241 0.981100033 -0.1699819092 -0.09246013074
-0.01697382164 0.001585815609 -0.003909891605 0.9973972999 -0.07128645905 -0.01081050309
0.009624000549 0.05974631882 -0.04243470383 -0.4867014488 -0.005422434145 -0.8735515422
0.01615925407 0.01272467613 -0.03325357437 0.8001785964 0.5997488928 -0.003934382294
-0.006496356487 0.01923352432 0 0.7896728163 0.000742044643 0.6135277439
0.0003925618231 0.05944938278 -0.04002805328 -0.08962428046 -0.002737155543 -0.9959718853
-0.005545851231 0.02799361229 -0.04077744293 0.2537614624 -1.735036735e-05 -0.9672668297
-0.01657661247 0.003960410118 -0.003761681557 0.9679457607 -0.251143383 -0.002829392428
0.01536029434 0.05546442668 -0.0469457283 0.7725674261 -0.009063672973 0.6348680351
0.02025333023 0.003585063219 -0.00380872035 0.9810502204 0.1932994342 0.01325872248
-0.01402017752 0.009702182134 -0.003367699226 0.816479885 -0.5668005321 0.1099897916
0.01829901886 0.02352512741 -0.0511955986 0.8831605963 -0.00709274744 0.4690171149
0.01144822073 0.01759470558 -0.04172725677 0.5467614354 0.7375522124 0.3963188953
-0.002140398502 -0.01901124001 0 0.9343026827 -0.0003019114672 0.3564805828
0.01832333946 -0.009351187706 -0.001499846458 0.9080226989 -0.4069253621 0.09953154297
-0.01073532772 0.01323970604 -0.001582342505 0.6703332622 -0.7119572976 0.2092131067
-0.01019930363 0.01789061737 -0.001381078601 0.611103086 0.2488674415 0.7514106832
0.01927484083 0.01361371827 -0.05142750931 0.9438914818 0.162129313 0.2877202746
-0.01467443371 -0.008708756447 -0.008122003555 0.8427167452 0.538350353 -0.002717490459
-0.005505432606 -0.01612969971 -0.001271666169 -0.2886391131 -0.8501607836 -0.4403567922
0.01746764183 0.01083922482 -0.00341195941 0.8447700482 0.5348999166 0.01567306253
-0.01070821285 -0.01326059723 -0.003237578392 -0.6363634937 -0.7623100364 -0.1180038656
0.0173153038 0.01112586784 -0.0276442585 0.8202092464 0.5719480338 0.01149951087
-0.0169779253 0.001591101676 -0.007307887793 0.9972711192 -0.07277530195 0.01241250183
-0.01637800407 -0.004757225156 -0.005380138636 0.958552897 0.2849143892 -0.0003667126528
0.0201174469 0.04536883926 -0.06499613953 0.9806801112 4.923906355e-05 -0.1956182943
-0.01691004372 -0.002382458687 -0.005581201553 0.9931039853 0.1160620747 -0.0165550346
0.02006233406 -0.004479755282 -0.04138338089 0.9795054382 -0.2006196258 -0.01791262966
0.01328772926 0.01812446404 -0.07624036407 0.5416556304 -0.01139623238 -0.8405232322
0.02053577995 0.01747188377 -0.05874288559 0.9964374089 0.008759248066 0.08387947155
0.007639475107 0.0513041954 -0.04152297211 -0.3698001568 -0.001511048851 -0.9291100908
0.02025297356 0.003615503788 -0.01165805817 0.986961146 0.1609317188 0.002945868336
-0.01704169655 -0.0007944498658 -0.005630956173 0.9990312729 0.04392877803 -0.002603497624
0.02045935917 0.007592597246 -0.05871598053 0.9946031053 -0.06745801227 -0.07882943272
0.01510778618 -0.01400345707 -0.015575387 0.7425738294 -0.669670121 0.01122661429
-0.01697587013 0.001588454276 -0.005606078863 0.9972811331 -0.07150080118 -0.01783191004
0.01474719334 0.01436433792 -0.03910554886 0.7379578756 0.6746025379 0.01815460579
0.0204761982 0.03903632736 -0.06277392578 0.9962486214 0.01038100347 -0.08591227617
-0.01657495499 0.003966957569 -0.005454571247 0.9671605173 -0.2540807777 0.006594853153
0.01334570217 0.0156749897 -0.02293930054 -0.6579427802 -0.7527573614 0.02162528479
-0.01617506218 0.005547422886 -0.005303442478 0.9478418301 -0.3186893796 0.005739728899
-0.01549451447 0.007118476391 -0.005046266079 0.9134966484 -0.4065344281 0.01592583369
-0.01434578705 0.009206654231 -0.005737223466 0.8262423235 -0.5630460933 -0.01739884339
0.01719445992 0.01941924286 -0.07186526489 0.8710231676 -0.02371038987 -0.4906693988
0.01922723675 0.007281834126 -0.0153105731 0.9423687003 0.3344512317 -0.009143646918
-0.01466672421 -0.008723073959 -0.009820376396 0.8547311663 0.5190690488 -0.001398541625
-0.010708745 0.01326061821 -0.003237779379 0.6570192999 -0.7362075031 0.1622471941
-0.005505432606 0.01612969971 -0.001271666169 0.2886391131 -0.8501607836 0.4403567922
0.01888122368 -0.008172715187 -0.03353079605 0.9198778354 -0.3920946856 0.00930190838
-0.009991306305 0.01799879265 -0.007987769604 0 0 1
-0.001598321199 -0.02053546143 -0.001422025442 0.9343026827 -0.0003019114672 0.3564805828
0.006276207924 -0.01858173943 0 -0.2062836772 0.5044904264 -0.838413057
0.002115944624 -0.01879403877 0 0.9090372247 0.4166390851 0.007949646925
0.002115463495 -0.01728790092 -1.421085472e-17 -0.6085922097 -0.0001944119355 -0.7934831344
0.02008549547 -0.004451729655 -0.03542426395 0.9757177543 -0.2190135584 -0.002815158029
-0.005443158627 -0.01615345764 -0.002893268824 -0.4177500256 -0.9060191601 -0.06792788597
-0.008558041573 -0.01475150776 -0.004085486412 0.4816072096 0.8762818415 -0.01358785915
0.01827900696 -0.009447649956 -0.01094894981 0.8841450488 -0.467206315 -0.002406662128
-0.01068127441 -0.01328156471 -0.004898114681 -0.6201340464 -0.7844035689 -0.01203351949
-0.01548454762 0.007165802956 -0.01185241222 0.9133268859 -0.4069510159 -0.0149956699
0.007784598351 0.019066679 -0.02895466805 -0.4666039365 -0.8844562184 0.004238428597
0.002115463495 0.01728790092 -1.421085472e-17 -0.6108957981 0.0001951478061 -0.7917109863
-0.01233342457 -0.01177574825 -0.005530427456 0.7377170423 0.674961637 -0.01415465093
-0.01366838551 -0.01024529171 -0.006041335583 0.8112022922 0.5847035624 -0.00851969525
0.01106841564 0.01732621574 -0.02568831825 -0.52041756 -0.8537674241 -0.01570823537
0.01644900703 0.01232660294 -0.003834354162 0.819970701 0.5724018574 0.002040373077
0.01932051277 0.03955753136 -0.05353868103 0.9304141666 0.001195792169 0.3665079108
0.01354361725 0.015478899 -0.01142723083 -0.6539419813 -0.756398025 0.01489674054
0.01920877266 0.007345078707 -0.02341597843 0.941807314 0.3361482656 0.001823965544
-0.01571780872 -0.006609630903 -0.007392176151 0.9256730502 0.3782694462 0.006452147503
0.01624137497 -0.01264391518 -0.02734641933 0.8055295866 -0.5925545553 0.001088131905
0.02009617996 -0.004348733425 -0.01331701374 0.9773948281 -0.2112418552 -0.008730896186
-0.01658114624 -0.003973618269 -0.007156043053 0.9735634882 0.2283668997 0.004763780239
0.01990884972 0.005111144543 -0.01982439232 0.9740419673 0.2263059432 0.005278818672
-0.01691198921 -0.002386429071 -0.007282655716 0.9944327734 0.105237693 0.005337343387
0.01819103241 -0.006464954376 0 0.9163904766 -0.2019545999 0.345605026
-0.01704386139 -0.000795774281 -0.007333119869 0.9981784325 0.05741403265 0.01853228947
0.0188963604 -0.008136656761 -0.02934433937 0.9223715288 -0.3862926878 0.002953350703
-0.01657328987 0.003973526716 -0.007153035641 0.9695456997 -0.2448205968 0.006634117555
-0.01617184258 0.005556584358 -0.006999411106 0.9476898977 -0.3191706282 0.003737356661
0.02056830978 -0.0007348479629 -0.02767075157 0.9985740951 -0.05236268882 0.01038871651
-0.01233342457 0.01177574825 -0.005530427456 0.7413633756 -0.6710213441 -0.01052145718
0.01826571274 -0.009472183704 -0.01334690142 0.8826916173 -0.4697698295 -0.0131078593
0.0053373878 0.03738622475 -0.04072285652 0.2578378254 0.001520147049 0.9661870134
-0.01068207932 0.01328159618 -0.004898422718 0.6201420118 -0.7843978694 0.01199448541
0.01929981613 0.03572514153 -0.05347377396 0.9295672279 -0.008023515437 0.3685653159
0.0199006443 0.005155684471 -0.02800708199 0.9737554221 0.2274914601 0.006929175785
-0.008558041573 0.01475150776 -0.004085486412 -0.481567939 0.876303129 0.01360684538
0.02045561028 -0.002218935728 -0.03354836082 0.9955139937 -0.09457837775 0.002611296484
-0.005443158627 0.01615345764 -0.002893268824 0.4177500256 -0.9060191601 0.06792788597
0.02049800682 0.001506916314 -0.05155801392 0.9958162077 -0.07721208057 -0.04887100513
0.01161443806 0.01694622421 -0.005837664127 -0.5486509211 -0.8358910036 -0.01638282332
0.003513912916 -0.02024632645 -0.001071869373 -0.1200268429 -0.6935737544 0.7103161298
0.01818922043 -0.004309703588 0 -0.5812463696 0.05403807368 -0.8119313668
0.007875405312 0.01902828789 -0.02721518326 -0.4691210331 -0.8831303561 0.002496107072
0.00627479744 -0.017092659 0 -0.4371179648 -0.0004140461594 -0.8994040879
-0.008520142555 -0.01477438259 -0.005736735821 0.4914776279 0.8708840704 -0.003267592406
0.02052415562 0.001493521422 -0.04284392166 0.9982439119 0.05923036453 0.0009253702718
0.0156743288 0.0159437685 -0.04555518341 0.7545857338 0.3910179155 0.5269775708
0.01822704697 0.009579563141 -0.02389356041 0.8961488055 0.4436863702 0.007728079391
-0.01064069414 -0.01331314993 -0.00739954567 0.6245937731 0.7809255682 0.006154313054
0.01303345966 0.003925005913 -0.07249156189 0.6868266429 -0.3599196218 -0.6314483577
0.01079349136 0.02997434998 -0.04306492615 0.4977272255 -0.002642156337 0.867329596
-0.01616650772 0.005570379496 -0.009554507256 0.9459791586 -0.3242264788 -0.0007885701782
-0.01231910324 -0.01179484558 -0.007209208488 0.7401151386 0.672461022 0.005074985982
-0.01365863991 -0.01026204586 -0.007728358269 0.7946911666 0.6070033419 -0.003590627883
-0.01594002247 -0.006098223368 -0.009750413895 0.9355038773 0.3532748098 -0.005422583564
0.01163993692 0.04152691364 -0.0436593008 0.5675772065 0.0007170875826 0.8233198652
0.01991749573 0.005228496552 -0.0414633255 0.9715757963 0.23661039 0.00748300765
-0.01658135033 -0.003980231285 -0.00886093998 0.9757301893 0.2189345251 -0.004274494457
0.002026374578 0.02047694206 -0.008161616325 0 0 1
0.01498878479 -0.01412947464 -0.02381020164 0.7221022332 -0.6917000989 0.01092419533
0.02055548668 0.05125115204 -0.05941034698 0.9998718311 0.003620812433 0.01559522746
0.0164516468 -0.01232649708 -0.003833263397 0.8203348455 -0.5718793774 0.00217229455
-0.01691394043 -0.002390412807 -0.008989823341 0.9906616379 0.1358044636 0.01211061182
0.01314266682 0.01584926891 -0.03309945679 -0.6382055141 -0.7698658081 -0.0005994266275
0.01092743492 0.01742432976 -0.03081366348 -0.5252156515 -0.8508111849 0.01639655773
-0.01704603386 -0.0007971031666 -0.00904100132 0.9982806816 0.05858012689 0.002012309855
0.01944071579 -0.00673327589 -0.04172557449 0.951437772 -0.3068679096 -0.02445919203
-0.01657162094 0.003980117559 -0.008857167244 0.9695153696 -0.2448992084 0.008020338108
0.0141019578 0.02748772526 -0.04564765072 0.6996414678 0.0005012455637 0.7144939225
0.01635167313 -0.01247741413 -0.01501264954 0.8151725508 -0.579214815 0.001977507527
0.0203201561 0.04500247955 -0.0575663414 0.9932615751 -0.001142970726 0.1158884677
-0.01697998714 0.001593757987 -0.009015412331 0.9973012409 -0.072999828 0.007826872666
0.00834023571 -0.01880590057 -0.01697809792 0.4803905289 -0.8770541485 -0.0009799792831
-0.01416541386 0.009485370636 -0.00792474556 0.8250997947 -0.5647365636 -0.01682089407
0.01935259056 0.05341480255 -0.06757482147 0.934247223 -0.0006781574283 -0.3566253867
0.0181572876 0.009716543198 -0.03729383469 0.8785916171 0.4775113641 -0.007724470467
-0.01231910324 0.01179484558 -0.007209208488 0.7462645627 -0.6656416168 0.003231178396
0.01746666336 -0.0108392601 -0.003412363529 0.8517472534 -0.5238818748 0.008625408126
0.01989961243 0.00516469717 -0.02966446877 0.9738732238 0.227086231 0.001669625947
-0.008520142555 0.01477438259 -0.005736735821 -0.4914128622 0.8709203465 0.003339002761
0.01484153557 -0.01428438759 -0.03393063354 0.7166075567 -0.6973748976 0.01191057599
0.01918573856 0.007422773361 -0.03337228775 0.940062657 0.3409986241 -0.001462643186
0.02045001602 0.04368301773 -0.06290787125 0.9965107094 0.005624812789 -0.08327525115
-0.005380700111 0.01617728806 -0.004519686699 -0.4090569995 0.9125080464 -0.001198506982
0.01737829971 -0.01102797508 -0.01939740372 0.8396623268 -0.5430990522 0.003255227111
0.00627479744 0.017092659 0 -0.4370326141 0.0004139653136 -0.8994455641
0.02009473228 -0.004319348693 -0.006999108791 0.9750174225 -0.222106614 -0.003110906489
0.006276207924 0.01858173943 0 -0.2058655018 -0.5050458758 -0.8381813995
0.01894198799 -0.008017011642 -0.01544135761 0.9099514205 -0.4147086293 0.002272705272
0.01856019211 0.0379414978 -0.06947976685 0.8931859307 -0.02097960956 -0.4491978953
0.003155758858 -0.02030281639 -0.002824843407 -0.6510976064 -0.7425876597 0.1569569193
0.01662752342 0.01477894306 -0.07217237091 0.8395584171 -0.1206797429 -0.5296961997
0.01741406059 -0.01095160294 -0.01292837429 0.8424047821 -0.5388359425 -0.003163875706
0.007304059982 0.02942341709 -0.04137480927 0.3746678748 0.002678503245 0.9271552239
0.008998861313 -0.01846848202 -0.001323284626 -0.3091198871 0.8935536029 -0.325586938
0.007264045715 0.02553960228 -0.04135640335 0.3722426902 -0.0009846604352 0.9281349094
-0.009992507935 -0.0179988575 -0.007988241673 0 0 1
0.01824822998 0.009529543877 -0.01898913956 0.8974645569 0.4410381391 -0.006536738891
0.01005952692 -0.01470679855 -0.0001095537469 -0.01723547663 0.379709969 -0.9249450134
0.02026023102 0.003717055798 -0.0378663559 0.9822880816 0.1871803659 0.008581102053
0.01606360435 0.05579619217 -0.0734916687 0.8360424264 0.01271351416 -0.5485174817
0.01760202789 0.03116752625 -0.04992687607 0.855400123 0.008056756388 0.5179051248
-0.01230473423 -0.01181400585 -0.008893540382 0.75548355 0.6546486745 0.02607141661
0.00876167202 0.01859111595 -0.007018722057 -0.4983321757 -0.8669856245 0.0009846512485
-0.01364886189 -0.01027885532 -0.009421004295 0.7913251186 0.6111165394 0.0184697552
0.02020757103 0.01912075806 -0.06440778351 0.9859881623 -0.004649841971 -0.1667504805
0.01732745552 0.01110614109 -0.02598099518 0.8236048064 0.5671217653 0.006930088835
-0.01658165455 -0.00399019599 -0.01142989588 0.9730662914 0.2276730384 0.03615217955
0.01991369247 0.005084860802 -0.01499563217 0.9717361133 0.2359744578 -0.006706808361
0.01540248299 -0.002323971987 -0.06540842438 0.7487821115 -0.4520947708 -0.4847016275
-0.01691371059 -0.00239639318 -0.01156097984 0.9962207552 0.08523364386 0.01671624631
0.009580021858 0.05738201904 -0.04240543556 0.4857909002 0.01049774519 0.8740120128
0.01033935547 0.01542998314 0 0.2756218716 0.5799083902 0.7666412739
0.02023612022 -0.002254367828 -0.04820086288 0.9836364657 -0.1679624346 -0.06517609925
0.01338880634 -0.01561908722 -0.01962236404 0.6387306107 -0.7694146953 0.004922765022
-0.01704930687 -0.0007991055846 -0.01161449432 0.9985361389 0.05067130007 0.01892085066
-0.01698150873 0.001597749382 -0.01158773708 0.997393092 -0.06968537672 0.01873414955
0.01870530605 0.02935980606 -0.06919928741 0.9018982584 -0.00250718456 -0.4319412524
0.01891133881 -0.008100976944 -0.02520191002 0.9208854359 -0.3895938356 -0.01366225481
-0.0165691061 0.003990048766 -0.011424932 0.9674146301 -0.2530860378 0.00750938854
0.01992320633 0.005033214092 -0.005507361412 0.9720342539 0.2346370999 0.009738611793
-0.01548705196 0.007153911114 -0.01014222717 0.9133468715 -0.4071580898 -0.00444771345
0.02048417854 0.009834738731 -0.0551333847 0.994639143 0.0584125984 0.08532844507
-0.01415658092 0.00950093174 -0.009620213985 0.8256038819 -0.5642131477 0.006461743817
0.01569285266 0.05335902532 -0.04730272293 0.7685873006 0.01645962983 0.6395331437
0.02045089531 -0.002186435938 -0.01956667709 0.9971605272 -0.07523303597 0.003297455683
-0.01230473423 0.01181400585 -0.008893540382 0.7419233901 -0.6699873756 0.02581859267
0.02057673073 -0.0007439221144 -0.03939401627 0.9987214357 -0.05048085982 -0.002678928485
0.008240877151 0.01886001682 -0.01950542164 -0.4819927275 -0.8761751644 0.000303152343
0.009779255867 0.01398363304 -0.0002192816436 0.7626683191 -0.3752164374 0.5268298209
0.008999223232 0.01846846199 -0.001323141098 0.3851660588 0.7860703834 0.4834671234
0.02044205666 -0.002149644136 -0.003729342461 0.9966665883 -0.08147447008 -0.004197903763
0.002844762564 0.03524505234 -0.0402010498 0.1211698506 0.01277187206 0.9925496192
0.003141046047 0.02030374718 -0.002830623388 0.6507561127 -0.7421984069 -0.1601811682
0.02044954205 -0.002177098155 -0.01554951191 0.9956369073 -0.09307597781 -0.006634099204
0.01576283455 0.02512024307 -0.04734570694 0.7716868861 0.01013076885 0.6359219428
0.002614435077 -0.02038819504 -0.005474336386 0.9686677987 0.1437333329 -0.2025424023
0.01343777752 0.01558992577 -0.0179617157 -0.6660294639 -0.7456883838 -0.01880392158
0.01430687714 -0.009442565918 0 -0.2930443522 0.3624002845 -0.8847547917
0.01401891088 -0.01454669142 -0.0001176056787 -0.5247404157 0.5569608108 -0.6437718162
0.0111218214 -0.01732325554 -0.02566289902 0.5263231575 -0.8499040099 0.02543831588
0.01431080723 -0.01235018635 0 -0.5256026128 0.4159629979 -0.7421028754
0.01380788898 0.05144311142 -0.04533558655 0.6747423397 -0.00192905534 0.7380508477
0.01953000832 -0.006490933895 -0.007242673874 0.9429733285 -0.3327639528 -0.008333877423
0.01430871105 -0.01089618015 0 0.4050341035 -0.1464059464 0.9025035589
-0.01616114998 0.005584237099 -0.01212116432 0.9304474339 -0.3663640638 -0.006704134985
-0.01465692806 0.008737386703 -0.0115236845 0.8924684475 -0.4506584052 -0.02017602557
-0.0001910304874 0.0394943161 -0.04001018143 -0.06486811826 0.002567447163 -0.9978905428
0.02015007655 -0.004115433455 -0.01542076683 0.9817021246 -0.1902896881 -0.00712552866
0.02054943466 -0.0007162849903 -0.003684211016 0.99869849 -0.05050315818 0.007124405843
0.01430687714 0.009442565918 0 -0.2176442202 -0.4632406328 -0.8590920262
0.01948775291 -0.006661321163 -0.03154109764 0.9400540284 -0.3406667609 0.01563910979
0.01629328346 -0.01256555557 -0.02154185104 0.8117850066 -0.583917943 0.006703647285
0.01430975914 0.01162318325 0 -0.4164593797 -0.1390947603 -0.8984510185
0.01407201576 -0.01154685497 -0.05529392624 0.6936901393 -0.6459458612 -0.3186658675
0.02000051785 0.03344364166 -0.05570234108 0.9745745283 -0.004046999944 0.2240270309
0.01431316566 0.013804636 0 0.7827355667 0.5488221018 0.2934609568
0.01372489643 0.01528873444 -0.0002351154685 0.625085749 0.6199167398 0.4743111238
0.01174686337 0.01685406685 -0.001023332477 -0.4222141976 -0.6214634777 -0.6599381163
0.007565397263 0.04737686539 -0.04149075699 0.3644433189 0.001401106669 0.9312245187
0.01525998163 -0.01382012939 -0.003540573955 0.7652806671 -0.6358784474 0.1000205015
0.005251746655 0.03190870857 -0.04070043182 0.2525595879 -0.009499424704 0.9675347102
0.019578228 0.009955353737 -0.06471207428 0.9569351786 -0.1141510721 -0.2669168348
0.002585870862 0.02039000988 -0.005485786438 0.9788317728 2.237542979e-06 -0.2046664618
0.008896810532 -0.01852087021 -0.00375440526 0.5005511809 -0.8657056512 -0.001496906616
-0.005078536034 0.03921310043 -0.04065760422 0.549757731 -0.01536361434 -0.8351828522
0.01168792629 -0.01689964294 -0.003421472669 0.5520926736 -0.8337827302 -0.0001964390999
0.01440590525 0.01596668196 -0.04362583542 0.719130825 0.5481713693 0.4270351348
0.01953555298 -0.006463536501 -0.00333232367 0.9434308128 -0.3238041148 0.07133860573
0.01369742966 -0.01531568718 -0.001816756487 0.71851154 -0.673587713 0.173264999
0.0134467001 -0.01556288719 -0.01632607269 0.6409366217 -0.7675936174 0.0005343324214
0.01543949827 0.01358313211 -0.02139935557 0.7551265156 0.6554319526 0.01388887982
0.01914775085 0.007667421341 -0.06496533203 0.9331696637 -0.1514655807 -0.3259640419
0.01528422165 -0.01378432941 -0.001175988078 0.6871941412 -0.6129175288 0.3899952759
0.01318222904 -0.01581962204 -0.03138433075 0.6292636822 -0.7771885775 0.002265674987
0.0164727211 -0.01229468346 -0.001476660728 0.7589865128 -0.5184551372 0.3938829066
0.01949751377 -0.006632127047 -0.02738443089 0.953247028 -0.3021919121 0.0003896229589
0.02049999809 0.001435359448 -0.005261770964 0.997451129 0.07126889556 0.003462634399
0.01508483982 -0.0140284214 -0.01720834351 0.7409977823 -0.6714208142 -0.01078780977
0.01991127777 0.005097967148 -0.0174034977 0.9709823367 0.23912136 -0.00377848953
0.01748393822 -0.01080236626 -0.0002873177826 -0.6255814508 0.5225214672 -0.579326475
0.01819366837 -0.0086207757 0 0.6679630871 -0.4679230249 0.578682432
0.01818806839 -0.002154756784 0 -0.5389773612 0.03176060002 -0.8417212534
0.02034455299 0.05931466293 -0.06346387482 0.9933887582 0.02651642092 -0.1116944697
0.01818773842 -0.0007182437778 0 -0.5150529778 0.002694017929 -0.8571541124
0.02009556818 -0.00433031553 -0.009357636213 0.9772926079 -0.2118942114 -4.131168209e-05
0.01628601837 0.01323626995 -0.07237495422 0.8154495025 -0.1575755507 -0.5569668345
0.0181879034 0.001436500281 0 -0.5303173258 -0.01239167035 -0.8477086649
0.01071897936 0.02149815941 -0.04301764297 0.4819705019 0.04349989173 0.8751069619
0.01818872643 0.003591345787 0 -0.5838890267 -0.03265934518 -0.8111762889
0.01842940903 0.04495186234 -0.05149442673 0.8962419181 0.0009409944248 0.4435645824
0.00707678318 -0.01795248985 -0.05027486801 0.4335855819 -0.8698886016 -0.2351539153
0.01347765493 0.01554809332 -0.01549968004 0.6689377813 0.7433060822 -0.004279358925
0.01818971443 0.00502806139 0 -0.6269024707 -0.05511962969 -0.7771454939
0.01118444014 0.01724547195 -0.02147022629 0.5318269429 0.8468115202 0.008387610674
0.002816406965 0.03367153549 -0.04019739914 0.1180889285 -0.01282930876 0.9929201447
0.01406183124 0.02136328554 -0.04560389805 0.7085986616 0.05302800673 0.7036163495
0.01819185638 0.007183515072 0 0.929116405 0.148742765 0.3385532392
0.01824339104 -0.009513378143 -0.0173732605 0.8867484415 -0.4621217891 0.01098424219
0.01819465637 0.009339475632 0 0.5874791579 0.5241924871 0.6165147812
0.01844826031 0.04726491928 -0.0515378933 0.8939635321 -0.003313273395 0.4481274657
0.02054911804 0.04505178833 -0.0592401619 0.99785167 0.002240186013 0.06547538649
0.01748402023 0.0108023634 -0.0002872846127 0.6434677699 0.5272302997 0.5549571517
0.007824200153 0.05998143387 -0.04160240936 -0.3807305614 0.004031420525 -0.9246772341
0.005807871819 0.05945897102 -0.04085327721 0.2765412936 0.0214276752 0.9607631174
0.017475317 -0.0108207798 -0.001847013354 -0.7497599852 0.5598402337 -0.3527589509
0.0204966259 0.003754157305 -0.04805605316 0.9940590816 0.09715750184 0.0490608006
0.01647170448 0.01229472446 -0.001477074444 0.736671023 0.5994095575 0.3130878252
0.01848184013 0.05112854767 -0.05161484528 0.905323054 0.006117700823 0.4246795753
0.01489464188 0.04746972084 -0.04642729568 0.7511883564 0.0001116376021 0.6600879038
0.01907517815 -0.006777626991 -0.04711812973 0.9265410703 -0.3629845812 -0.09881213929
0.01528340816 0.01378436565 -0.001176315665 0.7384311109 0.6287152621 0.2437962544
0.01369929123 0.01531559563 -0.001816006422 -0.5474199964 -0.813327183 -0.1970539037
0.008094447136 -0.01891723824 -0.02206889153 0.4690331914 -0.8831778467 -0.002180933361
0.02045144081 -0.002190198421 -0.02118536949 0.9955378351 -0.09411223594 -0.006877925978
0.01962482071 0.01765472412 -0.0665898819 0.9501645492 -0.03878455659 -0.3093268298
0.01168081951 0.01690002823 -0.003424358726 -0.5378626621 -0.8262246556 -0.1675009707
0.008897837639 0.01852080917 -0.003753991604 -0.5018673296 -0.8649431484 0.001591670074
0.008346400261 0.01880553246 -0.01697536087 -0.4856589783 -0.874148292 0.0003470563497
0.01832745552 0.02962225342 -0.05126198959 0.8847488616 -0.006537151524 0.4660222287
0.01367010212 -0.01534272766 -0.003404157639 0.6559370646 -0.754414547 0.02460200381
0.01897089386 -0.007895150185 -0.001234646678 0.9195519781 -0.3004757663 0.2532557472
0.02021975708 0.02142056179 -0.06442990875 0.9863062603 -0.004238880528 -0.1648696236
0.008134732246 0.01891482162 -0.02205035973 -0.4778688675 -0.8784291754 0.001878643665
0.01953885841 -0.006447209835 -0.00100208807 0.9307549997 -0.2277302807 0.2860665129
0.02009279823 -0.004294007123 -0.001549030945 0.9279678135 -0.1628009934 0.3352186953
0.0195033226 -0.006614752769 -0.02491065598 0.9525393867 -0.3043986246 -0.003192842883
0.02044049835 -0.002144247532 -0.00140565449 0.8935447817 -0.1749633596 0.4134798012
0.01134484386 0.01713384247 -0.01563875675 -0.5349684752 -0.844714635 -0.01630693189
0.02054760647 -0.0007144874632 -0.001361501604 0.8926169971 0.04524911593 0.4485392002
0.01521278477 -0.01388050461 -0.007511684895 0.7509443511 -0.6602994691 -0.009337694619
0.008552063942 -0.01869784546 -0.01196719837 0.4876928255 -0.8730148995 -0.0008325789603
0.01491565228 -0.01420641327 -0.02883659744 0.7185789261 -0.6953680401 -0.01037380321
0.01636612129 -0.01245560169 -0.01339686775 0.8116742856 -0.5841061063 -0.002216008501
0.02053397751 0.0190471611 -0.06147367287 0.9983199285 0.006168700645 -0.05761308478
0.02049487257 0.001429363564 -0.001383240327 0.8931378301 0.1207736393 0.4332649818
0.009140100479 0.0269806881 -0.04214800262 0.4640034356 2.67244142e-05 0.8858333992
0.02025483418 0.003576026559 -0.001482239366 0.9138021413 0.1218919427 0.3874377379
0.01864238739 0.01590405941 -0.05092314529 0.908491733 0.1432004983 0.3926020739
0.007594227314 0.04894651794 -0.04150332642 0.365962381 0.001730611683 0.9306280356
0.01979770215 0.005490429719 -0.001412243009 0.9085469897 0.1475896128 0.3908448204
0.01722870064 0.01126645088 -0.03949767303 0.837016794 0.5471665177 0.003418834464
0.01832376862 0.009351175308 -0.001499671459 0.9080027336 0.4130347335 0.07023777288
0.01614597559 0.01361928606 -0.04354101562 0.8141661461 0.5326293236 0.2311698298
0.01747584534 0.01082076073 -0.001846797347 0.7432047728 0.5956081332 0.3047911044
0.01525753403 0.01382023954 -0.003541580319 0.759571591 0.6491631101 0.04047535689
0.01367359066 0.01534255505 -0.00340273428 -0.6679777682 -0.7434102754 -0.03386537525
0.008829890251 0.01855589294 -0.005383093357 -0.5006955554 -0.8656230676 -0.0008159082937
0.01638051414 -0.01243387604 -0.01178749084 0.817799771 -0.5754804529 0.005077692364
0.02049794197 0.001432954103 -0.00370585835 0.9981917742 0.06010317846 0.0008887593275
0.01724124336 0.01124608994 -0.03778095245 0.8150314434 0.5792655086 0.01323695335
0.01992477036 0.005024719715 -0.003946804523 0.9768817564 0.2137797175 0.0005161190473
0.01588736439 0.03967835426 -0.04749475479 0.7745531044 -0.003178264846 0.6325008989
0.0174665575 0.06050673866 -0.04976946068 0.8576120193 0.01618225854 0.5140425652
0.01919312859 0.0557616806 -0.05312342834 0.9258909962 -0.008541722807 0.3776941913
0.01139023399 0.01710225487 -0.01398860455 -0.5364897572 -0.8437429869 -0.0166286634
0.001432315588 -0.02054926682 -0.01004967022 0 0 1
0.02009417629 -0.004312074184 -0.005434597015 0.9774694829 -0.211076368 -0.0004206522765
0.01162655449 -0.01694556618 -0.005832657814 0.5487158498 -0.835828 0.0173916809
0.01731649733 0.04731082821 -0.04951100254 0.8323546294 0.001020030676 0.5542424835
0.01924701786 0.007207622528 -0.005795294523 0.9465737675 0.3223827429 0.008213993139
0.01364267254 -0.01536987019 -0.004997508526 0.6498332152 -0.7600363841 -0.007841380709
0.02036285591 0.01592994213 -0.05703532791 0.9849080084 0.03653176097 0.1691793294
0.01831615639 -0.00936711216 -0.003060051441 0.8878323277 -0.4592407017 0.02918451459
0.01594743061 0.04507142258 -0.04756664658 0.7688234478 8.053151259e-05 0.639461101
0.0189661417 -0.007915182829 -0.003570061922 0.926827463 -0.3692016342 0.0684178858
0.01831702995 0.009367085457 -0.003059690237 0.9008568017 0.4308262352 0.05334583366
0.01992079926 -0.002264882326 -0.05189115524 0.970015782 -0.2133602889 -0.1163905919
0.01364779377 0.01536961651 -0.004995392323 -0.6487025199 -0.7609977502 0.008213704216
0.01158543015 -0.01697633934 -0.007448409081 -0.5464424142 0.8374929783 -0.002489823136
0.01329543114 0.01571814108 -0.02545491982 0.6525470368 0.757704472 0.008142344764
0.01888730049 -0.008158240318 -0.03185023117 0.9203416232 -0.3909386514 0.01175871763
0.01360131931 -0.01541078949 -0.007399670362 0.6481434355 -0.7614873778 -0.006860067395
0.01378287888 0.04988871002 -0.04531544876 0.6709507702 -0.006681261696 0.7414717963
0.01951875877 -0.006546524525 -0.01517693806 0.941458915 -0.3370627858 -0.006617379059
0.01523353958 -0.01385620022 -0.005917696476 0.7603431182 -0.6494183031 0.01158491562
0.01643752861 -0.01234780979 -0.005412074566 0.8160075862 -0.5780410138 -0.0004535156564
0.0199721241 0.05949934769 -0.06554830933 0.9706277775 0.01893772222 -0.2398396967
0.0205608139 0.05592342758 -0.05955273819 0.9996089897 -0.003778809412 0.02770538425
0.0174579792 -0.01085780811 -0.004983459473 0.8453126308 -0.5342646495 -0.00280009616
0.01830532742 -0.009391114712 -0.005411826849 0.8849071237 -0.4657674471 -0.000260126925
0.01530275122 0.01373115953 -0.0314412988 0.748013963 0.6634710436 0.01677156713
0.01830687428 0.009391067028 -0.005411175251 0.8770690357 0.4803554512 -0.002923561781
0.02058880615 0.04512960434 -0.0610357933 0.999856674 0.004980920507 -0.01618091382
0.02045309258 -0.002201581001 -0.02608224487 0.995551657 -0.0937790164 0.009077130585
0.01738729477 -0.01100876617 -0.01777032471 0.8391936332 -0.5438323034 -0.0006868426179
0.0002739810124 0.05543812943 -0.04001524544 0.0854818211 0.001668179445 0.9963383338
0.01745940781 0.01085775661 -0.004982861996 0.8282219821 0.5604001526 0.0001317148578
0.0152315321 0.01385629082 -0.005918536663 0.7609355208 0.6487208259 0.01176534183
0.008412154198 -0.01876966858 -0.01530022144 0.4837285832 -0.8752180578 9.559648488e-05
0.01360890341 0.01541041279 -0.007396476746 -0.6463830993 -0.7629808529 0.00700764035
0.007507555008 -0.0191830883 -0.03422463608 -0.4504926155 0.8927518422 0.00710996133
0.003307074785 0.05581445694 -0.04027722931 0.1497911683 -0.004152783864 0.9887089361
0.01223895359 -0.01609290123 -0.04567280579 0.5940906757 -0.7963050283 -0.1138181487
0.01156995392 0.01697718239 -0.007454882622 0.5462671004 0.8376069363 0.002622087193
0.008658788681 0.01864423752 -0.00948547411 -0.4954361087 -0.8686443797 -6.190454758e-05
0.01154414272 -0.01700723457 -0.009070503235 0.5475789583 -0.836734385 -0.005731784747
0.01727805614 0.04345555305 -0.04944783401 0.8300442481 0.006306751472 0.5576618788
0.01744488621 -0.01088576794 -0.007351823807 0.8488204897 -0.5286624866 0.004444273613
0.01896136665 -0.007935313225 -0.005916869164 0.9268993015 -0.3752856461 0.004285885591
0.02029204559 0.02735610199 -0.05721910858 0.9842702714 0.001480232571 0.176663074
0.0112534914 0.01719741631 -0.01895986366 -0.5323947022 -0.8464546773 0.008388108362
0.01953223228 -0.006479942322 -0.005673904419 0.9447279855 -0.3277996241 0.0060365433
0.007945004463 0.01929131317 -0.04095156479 0.5038475252 0.6857224008 0.5252832191
0.02044310188 -0.002153259277 -0.00528598547 0.9970192492 -0.07715316867 7.296990389e-05
0.01582808828 0.03353580475 -0.04742380905 0.7757131083 0.0003727677509 0.6310856002
0.02055065918 -0.0007174891233 -0.005240196228 0.9978815611 -0.06501107219 -0.002439350488
0.01856145573 -0.004562252998 -0.05534889793 0.902071197 -0.3629884133 -0.2334672724
0.02025232124 0.003591116905 -0.005367262363 0.9810679852 0.1936542892 -0.001903869337
0.01189356852 0.05789902306 -0.04385268784 -0.5748241932 -0.005220325579 -0.8182602857
0.02053022957 0.03120948219 -0.0589426384 0.9967009799 0.00312220904 0.08110122325
0.01818859673 0.009656006813 -0.03137309265 0.8926278885 0.4507896007 -0.002046627255
0.02009811687 0.01529601097 -0.06443391037 0.980578584 -0.04598611795 -0.1906591658
0.01744699383 0.01088569307 -0.007350925446 0.8261880259 0.5633904004 -0.002145376561
0.01641853714 0.01236939716 -0.006998847961 0.8185353498 0.5744511588 0.002397338744
0.01521411037 0.01388044548 -0.007511123657 0.7518823976 0.6592395929 -0.008718905223
0.01673313236 0.02737663841 -0.04859538269 0.8143563166 0.0009900854663 0.5803643764
0.01950236988 0.0416443634 -0.06712413788 0.9438402168 -0.001757205089 -0.3303975747
0.0115252943 0.01700826263 -0.009078484535 -0.5471269075 -0.837031601 0.00549963795
0.01990312386 0.00514222765 -0.02553487206 0.9712029504 0.2382536409 0.0001781441558
0.01148188353 -0.01705382347 -0.01151658201 -0.546178856 0.8376185773 -0.009152939817
0.01310828686 0.01587877846 -0.03481984329 -0.6258775156 -0.7798398153 0.01127820592
0.008555339813 0.01869765091 -0.01196579456 -0.4911375532 -0.8710814146 0.001035823705
0.01355975342 -0.01545192051 -0.009814208984 0.6466581774 -0.7627194223 0.00960648326
0.01513261318 0.002334658384 -0.06929210663 0.7546709823 -0.345833402 -0.5575580387
0.007647514582 0.0191246357 -0.03158062935 -0.4609923433 -0.8873914573 0.004739304492
0.01554918146 0.01344290161 -0.02935721684 0.7495136464 0.6619875419 -0.001337228191
0.01519194984 -0.01390490246 -0.009111793518 0.7494170752 -0.6619941589 -0.01173801422
0.01829444504 -0.009415236473 -0.007775299549 0.8875095606 -0.4607347336 0.007091193957
0.005617435932 0.05154088211 -0.04079838943 0.2729435988 -0.001170365763 0.962029325
0.01895816803 -0.00794879961 -0.007489153385 0.9259800367 -0.3775556089 0.003568440708
0.02044467545 -0.002158708811 -0.007632498741 0.9958179592 -0.09132696238 0.002445001416
0.02055250454 -0.0007193042934 -0.00758571291 0.9986991857 -0.05091397311 0.002775574458
0.02025131035 0.003597193003 -0.006931584358 0.9795172716 0.2013538563 -0.001593469779
0.00529893589 0.03503704071 -0.04071278763 0.259457933 0.005054198229 0.9657411848
0.01992163467 0.005041739941 -0.007073711872 0.9725664384 0.2324200339 -0.009769887857
0.01335967731 -0.01564736462 -0.02128089333 0.6376963244 -0.7702622798 -0.006278389116
0.01924436569 0.007219860315 -0.007365794659 0.9433640154 0.3316996825 -0.006297235779
0.0182966671 0.009415167809 -0.007774346828 0.8814793759 0.4721838057 0.006046774947
0.01639552498 0.01240171766 -0.009388777733 0.8200952788 0.5722163812 0.003485221418
0.01519662189 0.0139046917 -0.009109791756 0.7506346112 0.6606206774 -0.01131375162
0.01487870646 -0.01424528265 -0.03137592793 0.7173894576 -0.6966722984 -0.000273569355
0.01356981277 0.01545141888 -0.009809897423 -0.6442834705 -0.7647153628 -0.01045100821
0.01849703026 0.04107733154 -0.06960054779 0.889225734 0.01116373471 -0.4573324447
0.01145794678 0.01705513191 -0.01152690744 0.5455277772 0.8380504331 0.008421157684
0.01089456654 -0.01747176743 -0.03338466454 -0.5209868867 0.8535623246 0.002005464084
0.01949167061 -0.006649602413 -0.02987257385 0.9541338618 -0.2993511799 0.004176700965
0.01597566938 0.04738895988 -0.04760044479 0.766672576 -0.003917292053 0.6420263359
0.008482256889 -0.01873368073 -0.01363018227 0.4845503786 -0.8747626886 -0.00108129306
0.01353189754 -0.0154794836 -0.01143231487 0.6447850978 -0.7643347636 0.006674338195
0.01844809151 0.01743249702 -0.05104693222 0.9046083442 0.1061722914 0.4128089003
0.0133790226 0.01564638901 -0.02127189255 -0.6590558177 -0.751927375 0.01583198991
0.01516053391 -0.01394168997 -0.01152444029 0.751348328 -0.6598916907 -0.004318166167
0.02034275818 0.00754053092 -0.0516619072 0.988741431 0.1088535142 0.102670809
0.01743172836 -0.0109138689 -0.009732143402 0.8500488232 -0.5266587788 0.006894122115
0.01512895298 -0.01397867107 -0.0139498167 0.7434386914 -0.6687101254 0.01121072383
0.01828715324 -0.009431399345 -0.009358901024 0.8896816941 -0.4565658206 0.00375961019
0.01679792023 0.008531808853 -0.07014012909 0.826401659 -0.225931701 -0.5157665794
0.02045035172 -0.002182688713 -0.01795461082 0.9967684698 -0.08023798114 0.003805792263
0.01952665424 -0.006507503986 -0.009607677937 0.9422127909 -0.3350142899 0.0006944609282
0.01862685966 0.01131549072 -0.04738844299 0.9166543736 0.3200780555 0.2393633173
0.01129926395 0.01716556358 -0.01729580688 0.5352262033 0.8446829444 -0.006605658099
0.01991926765 0.005054593086 -0.009435054779 0.9718716606 0.2354912092 -0.003060350405
0.01933584849 0.006992453098 -0.00942767938 0.9431800804 0.3321971361 -0.007509903659
0.01828982925 0.009431316376 -0.009357740402 0.8859768231 0.4637236123 0.002340999782
0.02058781242 0.03126127243 -0.06071860123 0.999999264 -0.0001525606278 -0.001203594102
0.02058636856 0.02972804642 -0.06069134903 0.9999999631 -0.0002428684878 0.0001214444063
0.02056316376 -0.0007297874093 -0.02113163948 0.9981771941 -0.06034798717 0.0006400039987
0.016203825 -0.01270060062 -0.03154545784 0.8038047429 -0.5948020999 0.01041140245
0.01743451881 0.01091376972 -0.009730933189 0.8311827017 0.5559900788 0.003216925079
0.02038982964 0.05303301239 -0.06322122955 0.994525106 0.01116122483 -0.103900147
0.02048412895 0.03594862366 -0.06269791794 0.9970321896 -0.0005233388004 -0.07698401848
0.01516396618 0.01394153452 -0.01152294493 0.7558287386 0.6547693138 0.0002521925595
0.02041091347 0.0499072876 -0.0631100769 0.9956507728 0.001498185487 -0.09315199407
0.0191228447 0.007561302185 -0.01965788587 0.9266975624 0.3756520782 0.01082331261
0.008485988617 0.01873345947 -0.01362856293 -0.4885427525 -0.8725391939 0.0011550449
0.01346366215 0.01969273186 -0.07614756775 0.5428266677 -0.01201761128 -0.8397587665
0.01614209747 0.01274771976 -0.03495558929 0.8036746006 0.5950555248 0.004007333174
0.01141928864 -0.01710066223 -0.01397585011 0.5406886403 -0.8411107569 0.01372912552
0.01350393105 -0.01550715733 -0.0130568552 0.6428744647 -0.7659642419 -0.003347055292
0.01737554741 0.01102807426 -0.01939868355 0.8427666458 0.5381581168 -0.01141148542
0.01742291069 -0.0109326992 -0.01132715034 0.8433946652 -0.5372300393 -0.008326077746
0.01295033455 0.02764525414 -0.07660394287 0.5621746382 -0.01093343691 -0.8269462716
0.0189501152 -0.007982747078 -0.01144676542 0.9171194437 -0.3986056357 -0.00233948456
0.01994441032 -0.004497595549 -0.04489168167 0.9726418364 -0.2256433692 -0.05525330749
0.02044625854 -0.002164185762 -0.009990790367 0.9964605423 -0.08405627129 0.000964779212
0.003250146151 0.05342778206 -0.0402630558 0.1418993161 0.002032463408 0.9898790094
0.02055435944 -0.000721128583 -0.00994299984 0.9989891619 -0.04455277386 0.005975340587
0.02029017639 0.02354277992 -0.05716452789 0.9781914035 -0.002634706374 0.2076887969
0.02050621319 0.001442629069 -0.00996430397 0.9981116906 0.06126459664 0.004438735309
0.01925804138 0.01895274639 -0.053253479 0.9385926913 0.06697226182 0.3384648814
0.0134178133 -0.01559092903 -0.01797079277 0.6400522807 -0.7682901574 0.007956879637
0.01914039103 0.007496566455 -0.01162644704 0.92775868 0.3730262023 0.01073704411
0.02025475883 0.003630923986 -0.01563948584 0.9784456802 0.206235085 -0.01054232091
0.01828296471 0.009447526932 -0.01094721222 0.8793489841 0.476124679 -0.007117178517
0.01742615891 0.01093258381 -0.01132572556 0.8458017162 0.5331879268 -0.0181684249
0.01482665634 0.01428507614 -0.0339382019 0.7374815567 0.6750887096 0.01939555814
0.01637239456 0.0124342041 -0.01179105473 0.8182657468 0.5748368206 0.001948676059
-0.000501865983 0.02602901268 -0.04002674866 0.04907197945 -0.001691480677 0.9987938124
0.01351731682 0.01550648785 -0.01305097866 -0.6610936698 -0.7499346371 0.0235202001
0.01916332436 0.002291378736 -0.06128821945 0.9291272447 -0.2434524414 -0.2783046386
0.01137733078 -0.0171320591 -0.01562432671 0.5384386689 -0.8424693054 0.01814577768
0.01632988167 -0.01251030922 -0.01744938374 0.8175973752 -0.5757494545 0.00686277301
0.009266923904 0.03783365631 -0.04221575165 0.4645875527 -0.003255635522 0.8855212062
0.02046360302 0.04135773277 -0.06283909988 0.9961162472 0.004282584753 -0.08794362737
0.02009640884 -0.004341337919 -0.01172815704 0.9793051582 -0.2022459049 0.007615849152
0.01333042431 -0.01567576218 -0.02294648933 0.6363881798 -0.7713154111 -0.009089617195
0.01027153301 -0.0176766758 -0.04322496414 0.5520548171 -0.8310087866 -0.06826328063
0.02044731712 -0.00216785574 -0.01157099438 0.9975958905 -0.06928443349 0.00145138176
0.02055560303 -0.000722350955 -0.01152252674 0.9986727382 -0.05150496089 3.224218343e-05
0.01991688728 0.005067512035 -0.0118084507 0.9749637392 0.2223553074 -0.001955641764
0.01413511848 0.03132273102 -0.0456788826 0.700009307 0.00739207309 0.714095461
0.01820598221 0.01131079483 -0.04587820053 0.8663924808 0.4245633049 0.2628879406
0.02050830078 0.001445070654 -0.01154372263 0.9985621434 0.05360597661 -0.0002120694408
0.01494013691 -0.01418065453 -0.02715376854 0.7201438107 -0.6937718647 -0.008572726274
0.01995746803 0.01896096611 -0.05551623917 0.9734523528 0.03212721227 0.2266238271
0.01827261257 0.009471969128 -0.01334381628 0.8837943606 0.4678590478 -0.003929320767
0.01741776657 0.01095147038 -0.01292672729 0.8259228556 0.563778509 -0.00228678779
0.01935338593 0.04493880653 -0.05364024353 0.9383999138 0.0007393672469 0.3455503654
0.01617347336 -0.01274641895 -0.03493946457 0.7996516373 -0.6003062681 -0.0137711096
0.01574373102 0.01321728659 -0.01367503309 0.7585217431 0.6515921686 0.008509466867
0.008217707157 -0.01886140347 -0.0195159111 0.4745223993 -0.880241076 -0.002034886979
0.01761925316 0.03346119499 -0.04995387077 0.8555449428 0.0001020026671 0.5177285394
0.01627853394 -0.01258782101 -0.0231911869 0.8059474476 -0.5919000032 -0.01015371505
0.01133519745 -0.01716358757 -0.01727965736 0.5412444417 -0.8408641508 -0.001390790265
0.01918991375 0.007409673691 -0.03169445133 0.9402880943 0.3401819801 0.01159828357
0.01740071297 -0.01098010826 -0.01534288692 0.8515634903 -0.5242485942 -0.00174166363
0.01894524765 -0.00800326252 -0.01383849335 0.91980988 -0.3923153045 0.006203743805
0.009165416718 -0.01483448315 -0.05631788635 0.5093390272 -0.7884195136 -0.3449179989
0.01578814602 0.05905489349 -0.07378910065 0.583787547 -0.02472328017 -0.8115299498
0.01167811203 0.01914761543 -0.04336329269 0.592664741 0.3718647076 0.7144684345
0.01768535995 -0.008352194786 -0.05142203522 0.8447381121 -0.4997491569 -0.1914896922
0.0110216341 0.01735877228 -0.02738904953 -0.5165703614 -0.8562447436 2.770548041e-05
0.0195210247 -0.006535319805 -0.01357771111 0.9455441657 -0.3253321102 -0.01025908829
0.01732216549 -0.01057767105 -0.04549119186 0.836424387 -0.5406387668 -0.09002204569
0.02044838142 -0.002171539783 -0.01315732288 0.9970705642 -0.07643638518 -0.002787279904
0.01221066284 0.02527422333 -0.04401168823 0.5759822624 0.01046663839 0.8173951816
0.01951189995 -0.006580410004 -0.02001331139 0.9439522553 -0.3300643288 0.003417386602
0.01301244259 -0.01596772003 -0.04002539063 0.6217910024 -0.7830672124 -0.01347925136
0.02051039505 0.001447521776 -0.01312925291 0.9973045723 0.07324618741 0.004311170354
0.020253685 0.003621652365 -0.0132456255 0.9816244015 0.1908036469 -0.00273911586
0.01317688751 0.01581989479 -0.03138698769 -0.6445098544 -0.7645456771 -0.00877241113
0.01991529274 0.005076169491 -0.01339890862 0.9709158275 0.2393736471 -0.004765812522
0.01674620056 0.02966819 -0.04861919022 0.8144571981 -0.006491986308 0.5801873202
0.008055739403 0.01895204544 -0.02376072693 -0.4740545269 -0.8804872465 0.003809771233
0.02025911903 0.003668567061 -0.02535872459 0.9799361779 0.1993115301 3.39864765e-05
0.01669369507 -0.0007714009881 -0.06461735535 0.8204771302 -0.3750950722 -0.4314173914
0.01923088455 0.007269338369 -0.01370911455 0.9427076144 0.3333612856 0.01313800273
0.01740431881 0.01097997904 -0.01534125805 0.8275477511 0.5613909429 -0.002220130215
0.01823766899 0.009554483891 -0.02143452168 0.8955802857 0.4448974306 -0.001492687517
-0.004086686611 0.05934973717 -0.04046026993 0 0 1
0.01383368587 0.05299929428 -0.04535634995 0.672116592 0.008242685657 0.7403994495
0.01572475815 0.01324063635 -0.01529625225 0.7603222521 0.6494563074 -0.01079711698
0.0167859993 0.03579204178 -0.04869267273 0.8171337943 -0.005740596064 0.5764194721
0.01129288769 -0.01719524765 -0.01894194984 0.5383481923 -0.8427218902 -0.001019608076
0.01825234795 -0.009496847153 -0.01575754166 0.8856182817 -0.4644022794 0.003283604686
0.007330802441 0.0317563076 -0.04138692474 0.3720434974 -0.001700278857 0.9282137389
0.01670929337 0.02356236839 -0.04856208801 0.8123009909 -0.007567979701 0.5831893567
0.0202602272 0.003678123474 -0.02782610703 0.9820838446 0.1883664546 0.005422271886
0.01878405762 0.02160243797 -0.06901971817 0.9042517547 -0.008754681402 -0.4269099667
0.02051355505 0.001451217622 -0.01552001214 0.997402302 0.07183758009 -0.005292447294
0.0132121315 -0.0157905941 -0.0296817379 0.6319905279 -0.7748157309 0.01576565508
0.01826220703 0.00949654007 -0.01575305939 0.8995333057 0.4368072728 0.006264050379
0.01590654659 0.01301668676 -0.01737284152 0.7587776865 0.6512777334 -0.009681756558
0.01730309868 0.01114568043 -0.02931481171 0.8382196505 0.5449624098 -0.02009451391
0.01122906208 -0.01724300861 -0.02144957829 -0.5308665738 0.8474041822 -0.009318411715
0.01506097698 -0.01405352592 -0.01884841728 0.7487323335 -0.6628695427 -0.001965252181
0.002937673807 0.03997187424 -0.0402130127 0.130793555 -0.008629590178 0.9913720675
0.01893871307 -0.008030815125 -0.01705062866 0.917286909 -0.3982264921 -0.0006224891525
0.01951533794 -0.006563421488 -0.01758859253 0.9414585414 -0.3371173243 0.00277930688
0.02004040209 -0.004611822764 -0.01761109543 0.9770800201 -0.2125486907 0.01173406971
0.01931693713 0.007052685579 -0.01741213735 0.9452846001 0.3262053673 -0.005204157662
0.01825523376 0.009513009071 -0.01736781502 0.8979371997 0.4401213189 0.001417759605
0.005565964699 0.04917333603 -0.04078322601 0.2745833941 0.003454259777 0.961557085
0.01578942998 0.0131569252 -0.02729110209 0.7608008139 0.6487328058 -0.01810713447
0.01738744545 0.01100876045 -0.01777025604 0.8254884721 0.5643485281 0.008917467648
