# .PCD v0.7 - Point Cloud Data file format
VERSION 0.7
FIELDS x y z normal_x normal_y normal_z
SIZE 4 4 4 4 4 4
TYPE F F F F F F
COUNT 1 1 1 1 1 1
WIDTH 563
HEIGHT 1
VIEWPOINT 0 0 0 1 0 0 0
POINTS 563
DATA ascii
-0.01674249935 0.003174708128 -0.0055178864 0.979708413 -0.2004217595 -0.001594927097
-0.01617506218 0.005547422886 -0.005303442478 0.9460446917 -0.3240361241 -0.0001776474081
0.006275502682 -0.01783719921 0 -0.2352774469 0.5982868323 -0.7659617414
-0.0141786046 0.009462131023 -0.005392780304 0.8262431264 -0.5587118553 0.07185651517
0.01118629694 -0.01727500916 -0.02312975979 0.5644446679 -0.825459058 -0.004422725416
0.01362890577 -0.01538349247 -0.005797205925 0.6733923505 -0.7391323072 0.01503911037
-0.01549327517 0.007124362469 -0.005892756701 0.9239377537 -0.3825428415 4.040075915e-05
0.002988721371 0.04233924866 -0.04021958542 0.1665444119 -0.00125652069 0.9860331536
-0.002140152335 0.01824944496 0 -0.1075290926 0.7785582739 -0.6182916047
-0.001598321199 -0.02053546143 -0.001422025442 0.1596881649 0.9532812255 -0.2564265883
-0.01066776228 -0.01329208183 -0.005731028318 0.7728110455 0.6287234816 -0.08642841897
0.01081026506 0.01750704479 -0.03513915634 -0.5504667381 -0.8347066521 0.0158485095
0.01393072796 -0.005438827515 -0.06446394348 0.6913513308 -0.5359490356 -0.4845533704
0.02027724266 0.006775246143 -0.0499378624 0.989508528 0.1169061415 0.08488714357
-0.01674710655 -0.003182672858 -0.008072365522 0.9738888153 0.2267641426 0.01089032023
0.02056287622 0.03353577423 -0.05987271595 0.9999891093 0.0003191385712 0.004656119641
-0.008539092064 0.01476294518 -0.004911111116 -0.5717953704 0.8201276695 0.02099190652
0.01286737895 0.02754813576 -0.04456068516 0.6270219892 0.0004540525463 0.7790014242
-0.001594180942 0.02053520012 -0.001420440555 -0.1599064171 0.9531502547 0.2567771986
0.01084034204 -0.01750536156 -0.03512395668 0.5491451963 -0.8355386809 -0.01773883025
0.003334835887 -0.02027457142 -0.00194835639 -0.2101829972 0.9025816802 -0.3757251897
0.0185269928 0.0154324913 -0.06910623169 0.8997389172 -0.08525626612 -0.4280201514
0.01430975914 -0.01162318325 0 -0.6265282581 0.6402201887 -0.444500227
-0.005380700111 -0.01617728806 -0.004519686699 0.431835278 0.8494904607 0.3031241494
-0.01231191874 -0.01180442572 -0.008051374435 0.7382451121 0.6738123005 0.03116308923
0.01994661283 0.0214598608 -0.06551913261 0.9758360342 -0.005073687774 -0.2184451696
-0.004697769403 0.04805790329 -0.04058345604 0.1206308197 0.001379959152 -0.9926964798
-0.01494356855 -0.008191296736 -0.008793416659 0.886226745 0.463222955 0.005162396325
-0.01548954773 0.007142059803 -0.008437870026 0.9276009536 -0.3734513636 0.009515769346
-0.01175077629 0.01231086858 -0.008112810135 0.8427512109 -0.5120993559 -0.1659055341
0.01110020304 -0.01733943272 -0.02651226807 0.5531902852 -0.8328582043 -0.01810303785
0.02025740719 -0.003582005143 -0.00303080523 0.9741616634 -0.171811998 0.1465936253
0.0204415369 -0.002147843122 -0.002953851342 0.9846642137 -0.1012105674 0.1421013981
0.0205117631 0.04595899773 -0.06201925468 0.9993700695 0.003684132487 -0.03529718742
-0.005380700111 0.01617728806 -0.004519686699 -0.431835278 0.8494904607 -0.3031241494
0.006275502682 0.01783719921 0 -0.2212592876 -0.5942722315 -0.7732301355
0.01971422195 0.005810782433 -0.01428864121 0.9546158792 0.2975470014 0.01320246862
0.003324691296 0.02027521324 -0.001952327669 0.2101005587 0.9031809167 0.374328715
0.008586821556 -0.01868000317 -0.01113918114 -0.5254792283 0.8508042323 -0.001933653855
0.02050799847 0.02442240334 -0.06246914673 0.9942749316 0.0001831238168 -0.1068518923
-0.009992507935 -0.0179988575 -0.007988241673 0.8604073624 0.2300761133 -0.4547132643
0.009334431648 0.04250260162 -0.0422518158 -0.4789085807 -0.0001938227239 -0.8778647582
-0.01616293812 0.005579612732 -0.01126464081 0.9512364913 -0.30434016 0.05026136235
0.02047063637 0.01186903604 -0.05634388479 0.9958364027 0.0311724097 0.08566294393
0.01005952692 -0.01470679855 -0.0001095537469 -0.4975612478 0.7019127978 -0.509657953
0.02017880726 0.0426689415 -0.0566919136 0.9871575379 -0.01429877437 0.1591085806
-0.01062713814 -0.0133237009 -0.008235149384 0.8182844862 0.5555556237 -0.1475413453
0.01430687714 -0.009442565918 0 0.617935905 -0.390574707 0.682353732
-0.01521019618 -0.00768571806 -0.01117304802 0.8966869834 0.4426349207 0.005175009261
0.01934128189 0.05420483017 -0.0676091423 0.955803938 -0.002445624252 -0.2939946447
0.0158081212 0.01313636279 -0.008052464008 0.760116109 0.6497766802 -0.003710360836
-0.01616293812 -0.005579612732 -0.01126464081 0.943523609 0.3268196366 0.0543334554
-0.01674768257 -0.003193294585 -0.01149543786 0.9706888336 0.2388323641 0.02687545549
0.01339503384 0.01563217831 -0.02044201374 -0.6644054333 -0.7473291392 -0.008036037925
0.01841264661 -0.008780065219 -0.04459483465 0.8958753178 -0.438988453 -0.06853140203
-0.01704930687 0 -0.01161449432 0.9971497388 -0.0003419215803 0.07544721021
0.002614435077 -0.02038819504 -0.005474336386 0.2010282021 -0.9671858754 0.1553677712
-0.01674140835 0.003193220973 -0.01149295592 0.9697702875 -0.2396256922 0.0460989922
-0.01548579979 0.007159857035 -0.0109973197 0.9293725238 -0.3685509713 0.02090199851
0.01106983423 0.05092857361 -0.04325499916 0.4983708645 -0.002631057446 0.8669599523
0.01005930567 0.01470680809 -0.0001096408218 0.3534930426 0.6401577071 0.6820856096
-0.009991306305 0.01799879265 -0.007987769604 0.7739397734 -0.3288099839 -0.5412034937
0.0205679245 -6.854534149e-09 -0.02357033491 0.9999891343 -0.0001751861037 -0.004658400016
0.01868460464 0.03091579628 -0.06924311447 0.9124312685 0.0004643199098 -0.4092297212
0.01702541542 0.05975617218 -0.04910296249 0.8335623948 0.05947646001 0.5492142429
0.009032930374 0.01845105743 -0.0005149664879 0.3867482721 0.8408072737 0.3787728903
0.01715372944 0.0186433115 -0.07188145065 0.8090584333 -0.03171690148 -0.5868717829
0.008930871964 -0.01850338459 -0.002942976356 0.4411925071 -0.86332826 0.2449765034
0.003383147478 0.05900379181 -0.04029919434 0.1924384061 0.0166074396 0.981168514
0.01172865915 -0.01686916256 -0.001821140647 -0.5225103437 0.8187635704 -0.237926788
0.01401891088 -0.01454669142 -0.0001176056787 0.5880455069 -0.6872379489 0.4265049629
0.01295228529 0.03678450203 -0.04464025879 0.6318153673 0.0005759552603 0.775118707
-0.01465692806 0.008737386703 -0.0115236845 0.8702954237 -0.4918507561 0.02585941337
-0.004846209049 0.04483909798 -0.04061269188 -0.1263993072 -0.002233547505 0.9919769284
0.009816561699 -0.01800057411 -0.01796002388 0.5204048404 -0.8539189959 -0.001072621446
0.01583903122 -0.005395373344 -0.06147760391 0.7858839774 -0.4684199985 -0.4036942892
0.01647925186 0.01228412437 -0.0006932314634 0.7803103341 0.5805246835 0.2326088441
0.02055901527 -8.136034012e-09 -0.01152101135 0.999999659 0.000438436388 -0.0006997898488
0.02019253874 0.04575215626 -0.05676032925 0.9861935147 -0.0107524417 0.1652475008
0.01972617579 -4.781484604e-07 -0.05644689178 0.9579745678 -0.2172268497 -0.187342529
0.01430779409 0.01016937304 0 0.6118091189 0.3645493629 0.7019924244
0.01372489643 0.01528873444 -0.0002351154685 0.6480226932 0.6622539053 0.3761467187
-0.005047199726 0.04001636887 -0.04065160942 -0.1299379886 -0.002458945095 0.9915190733
0.01270565891 0.01609922147 -0.002216014832 0.5911398363 0.7840590726 0.1892222626
0.02046122265 0.002180742502 -0.01714668465 0.9974971736 0.06991116135 -0.01057441123
0.008931676865 0.01850333786 -0.002942653656 -0.4647948763 -0.8513766079 -0.243153438
0.002585870862 0.02039000988 -0.005485786438 -0.2351196469 -0.9468692662 -0.2194478169
0.01656235186 -0.01220301469 -0.03248472277 0.7931467771 -0.6086850386 -0.02051130959
0.01527615166 -0.01379624796 -0.001963218987 0.6660887165 -0.6722545774 0.323109277
0.009624000549 0.05974631882 -0.04243470383 0.4953177689 0.03063626996 0.8681714847
0.01310470057 -0.01589290237 -0.03567706108 0.6763144014 -0.7366066846 0.003069638106
0.009118584633 0.02466139984 -0.04213650894 0.443850413 0.0485400693 0.8947852662
0.0164797287 -0.0122841053 -0.0006930391788 0.769657248 -0.572417119 0.2827832428
0.01748393822 -0.01080236626 -0.0002873177826 0.823724224 -0.4816263057 0.2991897465
0.02056269646 0.05748555756 -0.05960303497 0.9988953391 0.02349036811 0.04069771575
0.01819366837 -0.0086207757 0 0.8308373235 -0.3727416726 0.4132468843
0.01876987457 -0.005500274181 -0.0002807669838 0.8449208411 -0.2891267299 0.4500161178
0.006794034481 -0.01936165237 -0.04154961014 -0.393425141 0.9163080458 0.07480791175
0.01887765503 -0.003106371482 -0.0002360903819 0.9258167041 -0.1788870264 0.3329607517
0.02043997955 -0.002142452955 -0.0006329487562 0.9714114106 -0.08900456873 0.2200864787
0.0002255650535 0.05383694458 -0.04001202202 -0.0358755803 -0.0009470722202 0.9993558154
0.01818773842 0 0 0.8882933443 -0.02585785987 0.4585480405
0.01624884605 -0.01263263798 -0.02651104736 0.7914309293 -0.6112385106 -0.004956531847
0.01483977747 0.01427198792 -0.03308494186 -0.6839924296 -0.7293200313 -0.01570503604
0.01337424183 -0.01563322592 -0.02045162868 0.6601781116 -0.7510210827 0.0114975796
0.02046915245 0.00220914197 -0.02937437057 0.9976297472 0.06880662374 -0.0007321506899
0.01887737656 0.003106374741 -0.0002362039884 0.8642163859 0.1517819267 0.4796793564
0.02025967121 0.003720358968 -0.03871674728 0.9827922282 0.1823119905 0.02969468616
0.01862532759 0.00610072875 -0.0002106766701 0.8396682117 0.3602189018 0.4064475822
0.01321095276 0.01579065418 -0.02968231773 -0.6771455711 -0.7356476336 0.01721728074
0.01148188353 -0.01705382347 -0.01151658201 0.5842377402 -0.8114941045 0.01198253844
0.002068939924 -0.02047423172 -0.008144246101 -0.05502919533 0.9982654505 -0.02092553453
0.008828418732 -0.01855597878 -0.005383694172 -0.5314574616 0.8470724865 0.004600992922
0.02042956924 0.008307349205 -0.0533818512 0.9943760921 0.06814494636 0.08107067085
0.01164703798 -0.01693023872 -0.005027904749 0.5817191728 -0.8078125849 0.09508749448
0.01645868015 -0.01231587934 -0.003046772838 0.7871315834 -0.5936701652 0.1672710533
0.0183971653 0.009222159704 -0.03830119705 0.9120036092 0.4101810854 -0.0009455178861
0.01747099018 -0.01083001995 -0.002629688442 0.8377899646 -0.5045538728 0.2086465064
0.01145794678 0.01705513191 -0.01152690744 -0.5731607875 -0.8193344401 0.01333367588
0.01864452982 -0.008630484819 -0.002146062821 0.85485476 -0.4154130575 0.3108944047
0.01845158577 -0.009000854015 -0.04141000557 0.9049418206 -0.4241774312 -0.0339677524
0.01973352385 -0.005736535788 -0.002472857714 0.9563358204 -0.2661707015 0.1207267836
0.0204403553 0.002142450333 -0.0006327956915 0.967925547 0.0833496514 0.2370083777
0.01789607143 0.01009456158 -0.002454529613 0.8310516411 0.4982100411 0.2472648878
0.01263572001 0.01615700197 -0.005413465738 -0.609949035 -0.7924364046 0.002592161527
0.008829890251 0.01855589294 -0.005383093357 0.5278772429 0.8493182496 0.002031572167
0.002026374578 0.02047694206 -0.008161616325 0 0 1
0.01713525486 0.0248793993 -0.07198408127 0.8062475203 -0.007696193925 -0.5915282787
0.008725278854 -0.01860892487 -0.007840743303 -0.5289569928 0.8486485109 0.0004523898957
0.006826306581 0.06011720848 -0.04123076057 -0.361126352 -0.01824793687 -0.9323383349
0.01524271059 -0.01384414625 -0.005124197245 0.7281091366 -0.6828268156 0.0600385299
0.01808383179 0.009723522091 -0.008814498043 0.8795485087 0.4752694818 0.02265701744
0.02054968596 -2.041459084e-09 -0.002908688068 0.9855609485 -0.0109088733 0.1689692675
0.02044328785 0.002147830606 -0.002953122616 0.9830207842 0.1159207837 0.1422410272
0.01369074011 -0.01452924824 -0.04751336861 0.6441614258 -0.7520881007 -0.1393540319
0.02025383186 0.003582047343 -0.003032293558 0.9769553473 0.1553360461 0.1463863457
0.01563807392 0.01334549236 -0.005221368313 0.7618151301 0.6470359332 0.03134021091
0.008727424145 0.01860879898 -0.007839850664 -0.5353528049 -0.8446107733 -0.005478677479
0.01564035559 -0.009208062649 -0.0561729641 0.7767217623 -0.5485018859 -0.3095948725
0.01156478643 -0.01699178696 -0.008259456158 0.5867807709 -0.8097379601 0.003572524983
0.007359992504 0.0340917511 -0.04139999771 0.3557826464 -0.00984582492 0.9345168636
0.01643752861 -0.01234780979 -0.005412074566 0.7916585765 -0.6089966607 0.04898740166
0.01863414383 -0.00865985477 -0.005272735 0.9185378436 -0.3941104454 0.03106745494
0.0134322567 -0.01557690811 -0.01714843273 0.6610135026 -0.7502962877 -0.01079954338
0.01940164757 0.05189025116 -0.05379078484 0.9561468793 -0.001050887177 0.2928857129
0.01966546186 -0.005994013468 -0.00509648641 0.9530208923 -0.294471271 0.07097780868
0.009653485775 -0.01098087931 -0.06242804146 0.5745807025 -0.6527712241 -0.4937071452
0.02026208878 0.003694199204 -0.03197677326 0.9823702003 0.1866117652 -0.01117312212
0.01938331261 0.006767863941 -0.005111835861 0.9473649473 0.3168410981 0.04594970194
0.01154762411 0.01699272251 -0.008266683578 -0.5879513796 -0.8086948467 -0.01805048975
0.01357362652 -0.01543819237 -0.009008323193 0.6706316992 -0.7415861752 0.01740887066
0.01305062675 -0.01593762016 -0.03827883911 0.6709630103 -0.7412492313 -0.01892659174
0.01520236731 -0.01389270353 -0.008311739206 0.7186845577 -0.6953260364 -0.003769569672
0.01641624355 -0.01237994051 -0.007792182922 0.8011668616 -0.5983161779 -0.01222338349
0.014760499 0.01435106564 -0.03824028015 -0.6999462187 -0.7130674063 -0.04012686099
0.02046940136 0.00219574964 -0.02361862564 0.9974642493 0.07064780689 0.008599923529
0.02025906467 -0.003594069123 -0.006146333456 0.9834068359 -0.1813756784 0.003722686767
0.02044362545 -0.002155073524 -0.006067182779 0.9974737473 -0.07080205193 0.005761331545
0.02055305624 -4.217028618e-09 -0.006020301819 0.9999988799 0.0002548640899 0.001474875861
0.0204472208 0.002155048013 -0.006065650463 0.995870606 0.09035585217 0.008806595177
0.0001538006961 0.05143807602 -0.04000819778 -0.04727724759 0.003085003292 0.9988770418
0.01935841179 0.04570952129 -0.05365602207 0.9536524195 0.002698091169 0.3008982936
0.0202518158 0.003594154954 -0.006149423361 0.9902269078 0.139285208 0.007092384291
0.01358285999 0.0154377327 -0.009004387856 -0.6337771753 -0.7731158585 -0.02486687381
0.01223895359 -0.01609290123 -0.04567280579 0.6239034426 -0.7725296734 -0.1180779315
0.008589870453 0.01867982197 -0.01113788176 0.5263312631 0.8502782752 0.001502037978
0.01743612003 -0.01090448999 -0.008937699318 0.84238041 -0.5386322237 0.01644908815
0.01477894783 -0.01435020828 -0.03823064423 0.6891879693 -0.7245726375 -0.003799469378
0.01862368059 -0.008689443111 -0.008422679424 0.9163626872 -0.4003470272 0.001297414687
0.01972950697 -0.005771157503 -0.007942918897 0.9549126323 -0.2963578565 -0.01771681646
0.01957170639 0.006206743622 -0.007853689861 0.9531092025 0.3024205453 -0.01116521202
0.008447205544 -0.01875167465 -0.01446520185 -0.4833591624 0.8754220369 0.0004213170327
0.0162711277 -0.01259900141 -0.02401936817 0.7920778944 -0.6103627845 0.008359454932
0.01353189754 -0.0154794836 -0.01143231487 0.6487523252 -0.7609754578 0.00606407904
0.01741776657 0.01095147038 -0.01292672729 0.8695117942 0.4936470445 0.01618132268
0.01846251806 0.009076319377 -0.02323295212 0.9060916659 0.4228671723 -0.01346282005
-0.005747171402 0.02159025002 -0.04083015442 0.152374201 0.003307158831 -0.9883173405
0.01516053391 -0.01394168997 -0.01152444029 0.7167262092 -0.6973453675 -0.003602692437
0.01638768196 -0.01242305565 -0.01098595572 0.7994726829 -0.6005812679 -0.01206523861
0.01480029202 0.01431137276 -0.03565260315 0.6956942465 0.7182698845 0.009893862375
0.02046981716 0.002203374743 -0.02689723206 0.997470459 0.06979082792 0.01348790814
0.02048218727 0.03672013092 -0.06271652412 0.9943388553 -0.01030507627 -0.1057546507
0.01489202547 0.01421987247 -0.02968737698 -0.6873428626 -0.7261905127 -0.01439195829
0.02005025291 0.05397677994 -0.06530517197 0.9733941277 -0.001762909574 -0.2291304528
0.02026031494 -0.003603173018 -0.008497431755 0.9871746077 -0.1596441769 -0.0001750853574
0.02044573021 -0.002162357807 -0.00920370388 0.9973513026 -0.06947180826 0.02154175359
0.02055645227 -6.437301636e-09 -0.009155065298 0.9995485604 -0.02397209557 0.01811115752
0.02016402562 0.04857648722 -0.05655110296 0.9867641618 0.003401340777 0.1621262466
0.02045118237 0.002162318945 -0.009201323509 0.9976729284 0.06657558513 0.01471119699
0.0202515564 0.003603277206 -0.008501231194 0.9918345421 0.127423272 0.005248881261
0.01597843266 0.01292531172 -0.01089829572 0.7866441274 0.617401947 0.00241922517
0.01354361725 0.015478899 -0.01142723083 -0.6396075441 -0.7685501196 -0.01526116629
0.008451166153 0.01875143909 -0.01446347237 0.4890761592 0.8722409188 -0.0005385750626
0.02034040642 -0.002249542952 -0.04640123749 0.9897522929 -0.1339251831 -0.04954234647
0.02007283592 -0.003256148577 -0.04771373876 0.976523226 -0.2044280155 -0.06790858225
0.01348969936 -0.01552105904 -0.01387247801 0.682505079 -0.730863422 -0.005047317561
0.02051927185 0.05190422948 -0.06188509878 0.9986917702 0.0004656358002 -0.05113248728
0.01741848564 -0.01094215107 -0.01212776232 0.8586263446 -0.5124676862 0.01173332354
0.01212400913 -0.00235304904 -0.06928569794 0.6737211842 -0.4600913038 -0.5782869167
0.01861234808 -0.00871928215 -0.01159699154 0.9130279026 -0.4078880406 0.002719435886
0.01303345966 0.003925005913 -0.07249156189 0.6959821609 -0.3201095295 -0.6427586801
0.007719342709 -0.01908715248 -0.02983807182 -0.4556697345 0.8901481236 0.001187881675
0.01918955549 0.03989241791 -0.06789461772 0.9253527162 -0.008898650656 -0.3790028556
0.02026157475 -0.00361233449 -0.01086338758 0.9830203694 -0.183218628 -0.01009394477
0.02044731712 -0.00216785574 -0.01157099438 0.9976338959 -0.06867674163 0.003180388027
0.02025261879 0.003612441182 -0.010867342 0.9846813841 0.173361138 -0.01866782341
0.006447005272 0.04199360371 -0.04109739494 0.3363005491 0.01204215723 0.9416777193
0.01971989584 0.005790924788 -0.01110435677 0.9574980291 0.2881517378 -0.01288799111
0.01837725792 0.009161876583 -0.01154178905 0.891862823 0.4511236735 0.0326823519
0.01745869064 0.0112980423 -0.04281726074 0.8816287251 0.4413329474 0.1672005402
0.0151528635 0.01395385647 -0.01232952023 0.7413890975 0.6710162378 0.008911492114
0.02026064491 -0.003624659896 -0.01403954268 0.9830503147 -0.1831410467 -0.008451973853
0.02044882679 -0.002173389673 -0.01395363855 0.9974745575 -0.06975300534 -0.01338003925
0.01464837217 -0.0144071455 -0.04174932098 0.6849764852 -0.7274934696 -0.03950273935
0.01350411415 0.01552033758 -0.01386610985 -0.6653831193 -0.746286332 0.01794478579
0.00455232048 -0.01956768799 -0.04627176285 0.344401229 -0.9280842402 -0.1415889706
0.01136753893 0.01711804867 -0.01481368065 -0.5792927585 -0.8151160237 -0.002401661835
0.01511836958 -0.01399106407 -0.01476260185 0.7143331479 -0.6997123702 0.01143472095
0.02022536087 -0.003730700731 -0.04129358292 0.9787961719 -0.2041179998 -0.01714339777
0.02044780922 -0.002238713026 -0.04202868462 0.9969799908 -0.0776432563 -0.001556498164
0.01740934181 0.01097043228 -0.01453403854 0.8553377137 0.5180559592 0.00392665626
0.01634911251 0.01246690464 -0.01420913172 0.7977216055 0.6030256746 0.000525318695
0.01857801676 -0.008802000999 -0.02045773649 0.9043717019 -0.42674203 -0.00175060344
0.01511937666 0.0139910183 -0.01476215363 0.7227972464 0.6908199041 0.01822088455
0.02057135582 2.11596489e-09 -0.03265016747 0.9995642619 -0.02942790702 0.002298849828
0.01029971854 0.01772283745 -0.01774367714 0.5281109026 0.8491551474 0.005866016641
-0.005326477289 0.03360053635 -0.04071999931 -0.1380334878 -0.003737992142 0.9904205085
0.008258670807 -0.01884284782 -0.01866746521 -0.4762196108 0.8793259602 -0.0008590587632
0.02024690247 -0.003694384217 -0.03198453808 0.9823568157 -0.1866621252 -0.01150380731
0.02045504665 -0.002215049744 -0.03187657356 0.9971996432 -0.07375474946 -0.01237370608
0.01265654278 -0.01461697483 -0.05074435043 0.6147170086 -0.7568451805 -0.2220548854
0.0159363265 0.04894529851 -0.04765561994 0.772865011 -0.01776925306 0.6343216285
0.01736957455 0.01103777075 -0.02021627522 0.8548745388 0.5186691 -0.01311059006
0.01740517426 -0.01097058105 -0.01453591156 0.8575877744 -0.5143371922 -0.0006797248941
0.01503701496 -0.01407873535 -0.02049534798 0.7097374699 -0.7044596921 0.003044007775
0.01860021353 -0.008749376059 -0.01479642749 0.9121165896 -0.4098076618 0.01005024095
0.01972556877 -0.005810578346 -0.01428351021 0.9602400519 -0.2791673957 0.002146579324
0.02056159401 -9.834766388e-09 -0.01390224552 0.9998983894 0.0003429089671 -0.01425107843
0.02045718288 0.00217332983 -0.0139498601 0.9974173705 0.07052465076 -0.01359641899
0.02025404263 0.003624738812 -0.01404252434 0.9869795693 0.1599553817 -0.01689986908
0.01860492516 0.008749230862 -0.01479429626 0.915634462 0.4016110163 -0.01794780156
0.01345108795 0.01557596254 -0.01713991737 -0.6663013533 -0.7455833963 0.01216164857
0.006503710032 0.04513067532 -0.04111687183 0.345749608 0.01087606865 0.9382637794
0.01720606613 0.02175508499 -0.07189031982 0.8105982337 -0.008089594717 -0.585546806
0.008276154518 0.0188418026 -0.01865960693 0.4827744061 0.8757441929 0.000990685723
0.008176743507 -0.01887995911 -0.02036435699 -0.4744685089 0.8802723043 0.000551731547
0.01739337063 0.01099914312 -0.0169593668 0.8525231533 0.5226505322 -0.006379216028
0.0150729084 -0.01404097366 -0.01802838039 0.7120150058 -0.7020547971 0.01239731372
0.01739177322 -0.01099920082 -0.0169600935 0.8569097646 -0.5152921468 -0.01340368722
0.01500086832 -0.01411676264 -0.02297972107 0.7149849461 -0.6991380257 -0.001596199303
0.01669671059 0.0119875164 -0.03551615524 0.8033006179 0.5953573105 0.01605584544
0.006208531857 -0.01943169594 -0.04361922455 0.3794123006 -0.9208200959 -0.09020342048
0.01402051353 -0.006978290081 -0.06257357788 0.6734806946 -0.579250134 -0.4592309182
0.0173455801 0.01107672119 -0.02350041199 0.854515764 0.5194211052 0.002127107173
0.01631785965 0.01251079845 -0.01745488167 0.8000470383 0.5999110684 -0.005607726118
0.016252244 0.01259977579 -0.024028409 0.7942821369 0.6075374577 0.003758264676
0.01507130527 0.01404104662 -0.01802911568 0.7184035239 0.695625952 0.0009548507385
0.008205599785 0.01887823105 -0.02035123634 0.4807114838 0.8768787393 -0.0003820067051
0.01735564518 -0.01107635689 -0.02349559116 0.8541001917 -0.5201063721 -0.001491403683
0.00328879106 0.05501847076 -0.0402720089 0.1760768784 -0.006130870041 0.984357326
0.008053111553 -0.01893596172 -0.02292503738 -0.4685930123 0.8834141396 0.0002164331199
0.01125039864 -0.01722704315 -0.02061130905 0.5737025959 -0.8190636716 -0.0001826676831
0.0122351408 -0.01390431499 -0.05366016197 0.599907264 -0.7427521486 -0.2973726959
0.01870569102 -0.008529626846 -0.01769683711 0.9116387608 -0.4109570965 0.005388378237
0.01972357607 -0.005830521822 -0.01749129438 0.9599822663 -0.279987373 0.006412431063
0.0133265686 0.0488932368 -0.04495143255 0.6458278661 0.004469433787 0.7634699677
0.02025819302 -0.003637101173 -0.01724157238 0.9835241184 -0.1807696951 0.001620451157
0.02045008183 -0.00218082273 -0.01715184021 0.9975382904 -0.06940433317 -0.0100198656
0.02025547791 0.003637133837 -0.01724282551 0.9828658579 0.1843214382 -0.0005593308982
0.01970850277 0.00583079803 -0.0174982686 0.9598557903 0.2803736431 0.008214741785
0.01407201576 -0.01154685497 -0.05529392624 0.6819802482 -0.6575077966 -0.3202911775
0.01859473705 0.008779502153 -0.01801834249 0.9121521921 0.4098348987 0.003705990933
0.01120752335 0.01722940826 -0.02063103104 -0.5742227947 -0.8186946359 -0.002697272555
0.008095235825 0.01893343353 -0.02290554333 0.4775121078 0.8786251595 0.0001265697552
0.01630062771 -0.01255446959 -0.02072064209 0.7958920556 -0.6052741291 0.01410901728
0.0197022686 -0.005943446875 -0.03562738609 0.9593646806 -0.2820767801 0.007218019037
0.01737378407 -0.01103761911 -0.02021430206 0.8554576119 -0.5177376362 -0.01183276076
0.01628551388 0.01255508757 -0.02072771645 0.7970211729 0.6039344977 0.004513589465
0.01503335381 0.01407890224 -0.02049705124 0.7161851195 0.6978954871 -0.004556731806
0.02025322723 -0.003662290215 -0.02372447205 0.9858620187 -0.1665745875 0.01813799493
0.02045226479 -0.002195873737 -0.02362691975 0.997610432 -0.06864825017 0.007800233989
0.007391146183 0.03642939377 -0.04141384125 0.3490206921 0.007313921069 0.9370864758
0.02028860283 0.01287181473 -0.05526758957 0.9852454117 0.08305778383 0.1496425183
0.01113817263 0.01727766991 -0.02315228367 -0.5668886805 -0.8237904371 -0.002557288153
0.01972156763 -0.005850627422 -0.02072512531 0.959459989 -0.2818277576 0.003105565788
0.02056669664 -1.002848148e-08 -0.0203208065 0.9999902114 2.374375475e-05 -0.004424530349
0.01575771777 0.03047630882 -0.04741644096 0.7639053638 0.001082045877 0.6453273777
0.02025692654 0.003649629116 -0.02046903706 0.9836277205 0.1797756091 0.01253944999
0.009524282455 0.05423610306 -0.0423680954 0.486099208 -0.009477344919 0.8738522415
-0.00495031023 0.04242685699 -0.04063297272 0.1298636595 0.00271130144 -0.9915281533
0.01970273638 0.005850976586 -0.02073403835 0.959244502 0.2820949094 0.01650598115
0.01870124118 0.008559087753 -0.02094102669 0.9108433962 0.4127392038 0.003264545861
0.007920594454 0.01900918293 -0.02634954739 0.4703225904 0.8824944365 -0.0004802008524
0.01955648851 -0.005999342918 -0.04424577332 0.9505766449 -0.3053637061 -0.05618762548
0.01844692357 -0.009076793353 -0.02324042447 0.9044952244 -0.4261301801 -0.01736256276
0.01104502487 0.01734249401 -0.02653868389 -0.554928321 -0.8317179861 0.01731329346
0.006564492822 0.04827346611 -0.04113780594 0.3499464011 0.00291028688 0.9367652036
0.01325671911 -0.01574731064 -0.02714304543 0.6816395403 -0.7316844222 0.002333118652
0.01495232534 -0.0141678319 -0.02631605434 0.709844811 -0.704358077 0.0002089553807
0.01971910715 -0.005870909572 -0.02398603249 0.9589786606 -0.2828306146 0.01915128997
0.0202583847 0.003662227869 -0.02372197437 0.980220976 0.1968568248 0.02035261289
0.01538249588 0.05702304459 -0.04697278086 0.748495028 0.01173871307 0.6630364965
0.01969692278 0.005871323347 -0.02399676943 0.9589393874 0.2830763979 0.01740701576
0.01494380569 0.0141682229 -0.02632017899 -0.7045383042 -0.7096564152 -0.003681065622
0.01326174498 0.01574705601 -0.02714061737 -0.6866549007 -0.7269688886 -0.004613282924
0.007738977432 0.01908596706 -0.029828578 0.4623565795 0.8866912096 -0.00225660905
0.01080160379 0.03074642181 -0.04307007408 0.5002657757 0.0005871653003 0.8658717046
0.01733735275 -0.01111542463 -0.02680480766 0.8634137047 -0.5044661714 -0.005536820242
0.01485394478 -0.01427133274 -0.03307777405 0.6851177304 -0.7282581481 0.0159300121
0.01855090237 -0.008856813908 -0.0262043972 0.9051753009 -0.4247500064 -0.01565588009
0.01650742722 0.04537681198 -0.07286221695 0.8718049282 0.005417674964 -0.4898232498
0.01856824589 0.008856300354 -0.02619590855 0.9138606285 0.4059352918 -0.008677007417
0.01695662371 0.01162184683 -0.0267156264 0.8064597687 0.5912871372 0.001470635524
0.01095103836 0.01740790272 -0.02995556164 -0.5532154061 -0.8330369858 -0.001447334235
0.01594595146 0.01246991873 -0.07258471298 0.8032888972 -0.1717974792 -0.5702741216
0.007592597008 -0.01914456558 -0.03246323776 0.4519282585 -0.8920542193 -0.0003450075861
0.01887831306 -0.006298686822 -0.05014808146 0.9248650022 -0.3540187028 -0.138908192
0.009422425747 0.04796614265 -0.04229982758 0.483415871 0.0180427729 0.875204864
0.0132121315 -0.0157905941 -0.0296817379 0.6844488971 -0.7290588464 -0.001704605221
0.01855613804 0.008887523413 -0.02951668787 0.9153429324 0.402456753 -0.0132619053
0.02056443548 7.182359695e-09 -0.04196415806 0.9998863249 -0.01399798177 0.005603010997
0.0149033556 -0.01421935034 -0.02968176937 0.692867768 -0.7208703583 0.01673865849
0.01677026939 -0.01191076255 -0.02958302259 0.7920490504 -0.6104445267 -0.003972607217
0.01978885142 -0.005642538706 -0.02696312714 0.9587076587 -0.2837915808 0.01849226303
0.0202507143 -0.003675044298 -0.02700699615 0.9864696213 -0.1632760962 0.01478522072
0.02045337009 -0.00220349431 -0.0269053669 0.9974781033 -0.0703428154 0.009451022583
0.02056916285 -3.635883331e-09 -0.0268473978 0.9998761215 0.0022652168 0.01557595655
0.01854374599 0.008919027567 -0.03286695051 0.9083185946 0.4177614971 0.02080053273
0.01969253159 0.00588669157 -0.02646112728 0.9678603735 0.2514173184 0.005969034928
0.01087035036 0.03693211555 -0.04311688042 0.4931344624 -0.00554568284 0.8699354271
0.01656889788 0.01216024907 -0.02912694867 0.7924686268 0.6096341892 -0.01842908087
0.0150812788 -0.01148838139 -0.05292276382 0.7443245813 -0.6267999353 -0.2304403583
0.007601672649 0.01914401627 -0.03245877075 -0.4569208509 -0.8895072682 0.0003947507165
0.003344528675 0.05740822601 -0.04028807449 0.1821670585 0.01476784198 0.9831566882
0.007446148396 -0.0192035799 -0.03511904335 -0.4455925438 0.8952298842 0.003277097407
0.01092161465 -0.01745500946 -0.0325170784 -0.5538617841 0.8326052864 0.002358205555
0.01316720963 -0.01583420229 -0.03223949814 0.6787006521 -0.7344137352 0.001374867379
0.01853568029 -0.008888124228 -0.02952692318 0.9121089025 -0.409868942 -0.008049869091
-0.0005686249733 0.0220784893 -0.04003030586 0.04061575047 0.06146155249 -0.9972827274
-9.921725467e-05 0.04267183113 -0.04000528717 -0.0588782847 -0.003773562008 0.9982580367
0.01294123745 -0.01598552132 -0.04093050194 -0.6462991478 0.7618867618 0.0427314136
0.01964041011 -0.006150550048 -0.02924371783 0.9508281575 -0.3097187261 0.000354346925
0.00914785099 0.02775436592 -0.04215214348 0.4570296205 -0.0003098688245 0.8894514208
0.0196882658 0.005902167916 -0.02894318724 0.9601522134 0.2793095411 -0.009690579825
0.01315977716 0.01583458185 -0.03224322224 -0.6776457153 -0.7353879373 -0.0009307290659
0.0108800106 0.01745733261 -0.03253778076 0.554813743 0.8319710292 -0.002432527789
0.01323945546 0.05696838856 -0.04488295364 0.6616817698 0.01376852294 0.7496583644
0.007450413465 0.0192033205 -0.03511689186 -0.4614470713 -0.8870469775 -0.01463762536
-0.005677376747 0.02399104691 -0.04081188011 -0.1502085492 -0.001274408835 0.9886535124
0.01721989632 0.005411060333 -0.0679981842 0.8662228401 -0.2453980837 -0.4352444965
-0.005573460102 0.02719298649 -0.04078467178 -0.147728785 -0.002243650547 0.9890253647
-0.005456500053 0.03039610386 -0.04075404549 -0.1423933782 -0.003222470234 0.9898049007
-0.005183370829 0.03680642509 -0.04068252945 -0.1337578313 -0.003451429055 0.9910080374
0.0182116642 0.05812644196 -0.05106726074 0.8835004592 -0.002641034679 0.4684228469
-0.004366071224 0.05450513268 -0.04051704788 0.1081957147 0.002510878457 -0.9941264421
0.009299795628 0.04016680145 -0.04223331261 0.4768036878 -0.003302227646 0.8790036056
-0.004182739973 0.05773394775 -0.04047986221 -0.1021205665 -2.983554856e-05 0.9947720287
-0.0004869235903 0.02681966686 -0.04002595139 0.03125657717 -0.02107039768 -0.9992892798
0.01693040721 0.01541119989 -0.04719306056 0.8233389441 0.3614513532 0.4375681688
-0.004037927628 0.06015786743 -0.04045030594 -0.0995399009 -0.004075653451 0.9950252244
0.00722623682 0.01928432465 -0.03870147896 -0.3886958213 -0.8476455205 -0.3611268892
0.01786108017 0.006942914009 -0.06760446167 0.8868913171 -0.2023017672 -0.4153285286
0.02024881554 -0.003684678793 -0.02948664665 0.9868432136 -0.161646277 0.003309509485
0.02045420456 -0.002209250927 -0.02938188744 0.9975844657 -0.06941292555 -0.002660733619
0.02026096916 0.003684531212 -0.02948053551 0.9868055724 0.1618322342 0.005009023479
0.01672623777 0.01194439149 -0.03212097025 0.7972551355 0.6036030013 -0.006904037669
0.01318547702 0.05384460831 -0.04483952427 0.6505060234 0.001498735845 0.7594996164
0.004085580289 0.03592611694 -0.04045952702 0.216247795 0.01096828156 0.9762769013
-0.0004236121476 0.02998364353 -0.04002257729 -0.02874836394 0.01266824841 0.9995064017
0.01968382215 0.005922932744 -0.03227628708 0.9606858996 0.2775294702 -0.007745676471
0.02044643847 0.0002511049708 -0.05041550827 0.9943359593 -0.09267596416 -0.05203043009
-0.0003532058895 0.03315053749 -0.04001882553 0.02666141294 0.01361978191 -0.9995517348
-0.0002756856829 0.03632065582 -0.04001469421 0.03370758787 0.02755224717 -0.9990518866
-0.0001910304874 0.0394943161 -0.04001018143 -0.04821801048 -0.02001598792 0.998636262
-2.653048374e-06 0.04585386467 -0.04000123596 -0.04947081773 -0.01360161858 0.9986829498
8.571567386e-05 0.04904277039 -0.0400045681 -0.04401858685 -0.01023219171 0.9989783112
0.0003212709427 0.05704132843 -0.04001986122 -0.02644046977 0.01241135319 0.9995733389
0.0003925618231 0.05944938278 -0.04002805328 0.01748767622 -0.02667588837 -0.9994911596
0.007197636604 -0.01928606892 -0.03871611977 -0.4241486082 0.9052712861 0.02412170599
0.01852032375 -0.008919712067 -0.03287892342 0.9083582368 -0.4179167182 0.01519639061
0.01811331797 0.04882017517 -0.05087534618 0.8681204026 0.001477007012 0.4963514733
0.01970875072 -0.005922464252 -0.03226354742 0.9683137177 -0.2492818535 -0.01506989382
0.02046848297 0.002214951515 -0.03186970711 0.9973553804 0.0714453303 -0.01333453672
0.01309101677 0.01589360285 -0.03568405724 -0.6633238297 -0.7477614238 -0.02922926749
0.01991688585 0.02761912489 -0.06563406563 0.9749622949 0.001860263515 -0.2223624587
0.003887206256 0.02183227873 -0.04042184258 -0.1713205702 -0.1378270615 -0.9755270182
0.02034549332 0.05196838379 -0.05774325562 0.9916722716 -0.01290540677 0.1281388164
0.003922885835 0.02495853376 -0.04042862034 0.1890276138 -0.02260188865 0.9817116256
0.004371424119 0.02779811923 -0.04051926041 0.2154750026 -0.002787107319 0.976505379
0.01101935911 0.04780755234 -0.04322074127 0.4982725164 0.003251714228 0.8670143746
0.003626849333 0.03308096059 -0.04036592611 0.1958779119 0.02118088804 0.9803995173
0.0165269769 0.01231237857 -0.04102222697 0.8069948401 0.5838491081 0.0887668125
0.002921533704 0.03918352509 -0.04021093369 0.1691748346 -0.01062604682 0.985528773
0.01074325562 0.02457749653 -0.04303304863 0.4971438926 0.0005795270863 0.867667917
0.01889833832 0.03735545222 -0.06863365428 0.9112349373 -0.008306396304 -0.411803221
0.003060795665 0.04549991226 -0.0402291069 0.1706645688 -0.0006512287246 0.9853289709
0.003210039973 0.05183916664 -0.04025570488 0.172276481 -0.007507063848 0.9850200293
0.0134681735 -0.01525289488 -0.04412506676 0.6720335305 -0.7359591198 -0.08206770296
0.01073111153 -0.01757303333 -0.03862758827 0.531043394 -0.8471039871 -0.02019278968
0.007230359077 0.02166113377 -0.04134047699 0.4010424915 0.2329262668 0.8859516207
0.007287371635 0.02786926556 -0.04136717987 0.3563903123 -0.000932913316 0.9343367032
0.01284647536 0.0244774456 -0.04453820133 0.6257661644 0.0003216881735 0.7800106435
0.0205635767 0.003010786831 -0.05064363956 0.9997229253 -0.02334041753 -0.003049176474
0.01672032213 -0.01198657298 -0.03550395298 0.80559667 -0.5924611153 -0.001957565838
0.01071747303 0.01757380009 -0.03863462448 -0.5964523085 -0.7572083846 -0.2662331796
0.006394510269 0.0388618269 -0.04107929516 0.3393280367 0.01400013072 0.9405639159
0.01610903263 0.05498858643 -0.07343362427 0.8378331502 0.004324041949 -0.5459092553
0.00662845552 0.05142253876 -0.04116068077 0.3467206959 0.01159526023 0.9378967475
0.006696590185 0.05457816601 -0.04118500137 0.3470347208 0.001448217599 0.9378511637
0.006769132137 0.05774072742 -0.0412106657 -0.3518816911 -0.009764702206 -0.9359935502
0.02024433231 -0.00370742178 -0.03534003448 0.9876778956 -0.1564853646 -0.002169146804
0.02045617676 -0.002222839236 -0.03522769737 0.9974610254 -0.07017283157 -0.01213575042
0.0205723052 4.649162292e-09 -0.03516620159 0.9999779265 -0.002352907783 -0.006213714611
0.02046758366 0.002222755551 -0.03522174263 0.997487086 0.06963048214 -0.01308086954
0.01865269025 0.008695660909 -0.03590041987 0.9170467902 0.398511416 0.01462312899
0.01303904438 0.0159382143 -0.0382848587 -0.6975068014 -0.7155565569 -0.03825017407
0.007945004463 0.01929131317 -0.04095156479 0.612547061 0.5369781707 0.5800349491
0.007256919622 0.02476360416 -0.04135306549 0.3558566419 0.03731551397 0.9337952682
0.01054603195 -0.01762997055 -0.04133045578 0.5090269317 -0.8590116879 -0.05468549078
0.01687944031 -0.01176808898 -0.03854329554 0.8042141086 -0.5943375854 -0.001581789478
0.01292078805 0.03370120144 -0.04461142445 0.6300858486 0.0005034881924 0.7765253183
0.01346476936 0.02206232834 -0.07618054199 0.7338339949 -0.02857053217 -0.678727775
0.01685916328 0.01176888943 -0.03855396652 0.802486427 0.5928311644 0.0675776966
0.01679792023 0.008531808853 -0.07014012909 0.8060182623 -0.2262650874 -0.5469357102
0.0194598341 0.009192478657 -0.06478074646 0.9428320386 -0.1464437763 -0.2993692827
0.01343427563 0.0159742775 -0.0415369873 0.7102531351 0.6660392621 0.2278863431
0.01662029552 0.04219776344 -0.07269823837 0.8769934069 -0.001094778806 -0.480501161
0.01047750441 0.01867028109 -0.04195597712 -0.5247985089 -0.6366910826 -0.564987602
0.01984492207 0.005993505239 -0.04408671761 0.9522181812 0.2961969433 0.07448426796
0.009092784405 0.02157166862 -0.04212272644 0.4908263158 0.3112042616 0.8137821793
0.009256552696 0.03705677986 -0.04221021271 0.449948433 -0.009846954078 0.8930002493
0.01827667046 -9.173154831e-07 -0.06182372093 0.8810270631 -0.3341362658 -0.3348794856
0.00947200346 0.05109758949 -0.04233276939 0.4858980109 0.0114837657 0.8739400701
0.02043498898 0.002993369699 -0.04461770058 0.9979609907 0.06213896513 0.01458115281
0.01645053355 -0.01231546815 -0.04106326675 0.7864499723 -0.6161848687 -0.04257521195
0.02024173927 -0.003720578909 -0.03872631073 0.9823886096 -0.1861126449 0.01657416894
0.0204573164 -0.002230700016 -0.038609478 0.9973348251 -0.07295812474 -0.0005988422279
0.02057331991 7.405877113e-09 -0.03854668331 0.9999394001 -0.001930441167 -0.01083833242
0.01192346859 0.01758348274 -0.04234825516 0.6457126646 0.6328720348 0.4272331241
0.02047486019 0.002238513112 -0.04201390648 0.9966395066 0.08031531028 0.01609797752
0.0205348773 0.006055533171 -0.05597912979 0.9997707007 -0.01462899856 -0.0156377256
0.0128922739 0.03062257385 -0.04458501911 0.6284786518 0.0004454050663 0.7778267068
0.01975107447 0.005712975661 -0.03870786794 0.9679941766 0.2503089075 0.01824074762
0.01071897936 0.02149815941 -0.04301764297 0.5827256955 0.2877073799 0.7600363329
0.01077079391 0.02766011333 -0.04305052185 0.4986071054 0.0006396189227 0.8668278637
0.01083531284 0.03383688354 -0.04309190941 0.5019474773 -0.0006867146614 0.8648978312
0.01090855837 0.04003236389 -0.0431440239 0.4854386268 -0.0114736511 0.8741954558
0.0109502511 0.04313801575 -0.04317318535 0.4887399088 -0.007599142878 0.8723964435
0.01098370743 0.04547086334 -0.04319632721 -0.4950322404 -0.008171219117 -0.8688361826
0.01112385464 0.05405649376 -0.04329131508 0.5074255849 -0.01228617491 0.8616079884
0.01823613453 0.0604652195 -0.05112207603 0.9012834661 0.02901174506 0.4322573682
0.01118143845 0.05719174767 -0.04332970238 -0.5303236004 -0.006759836267 -0.8477683548
0.01960263952 -0.00622760121 -0.04106557719 0.9555004598 -0.2943447197 -0.01949505953
0.01122686577 0.05954801178 -0.0433597908 -0.5459364742 -0.05782198018 -0.8358289208
0.01961549187 0.006227346102 -0.04105857722 0.9538288807 0.3002250882 0.00868117778
0.01855698013 0.008997686863 -0.04135301495 0.9183810098 0.3931598235 0.04474007144
0.02055300713 0.04892278481 -0.05934408188 0.9981209048 -0.01041788163 0.06038316959
0.01327655602 0.01831928873 -0.04425095844 0.6783451327 0.4154172053 0.6060333543
0.02014702415 0.03992693138 -0.06483243942 0.9822844387 -0.0006220560854 -0.1873950228
0.01282607102 0.02141035318 -0.04451944351 0.6518672822 0.1284895461 0.7473683716
0.01298677778 0.03987291145 -0.04467153454 0.6335786504 -0.001375368998 0.7736770658
0.01302427864 0.04296685886 -0.04470526028 0.6351130384 -0.01808847296 0.7722073786
0.01306480074 0.04606678486 -0.0447414484 0.6380998889 -0.01851089567 0.769731043
0.01291853174 0.05100816727 -0.04462629573 0.6351490521 -0.0008700631913 0.7723891018
0.008842819214 -0.0178204937 -0.04752450943 0.4547789663 -0.8743927175 -0.169155158
0.02027586365 0.003733407021 -0.04212426567 0.9879516894 0.1508353122 0.03464344065
0.01683831882 0.01284324789 -0.04402910042 0.8464062758 0.4760954837 0.2385990499
0.01163511848 -0.01615290642 -0.04776703262 0.5608796161 -0.8012613964 -0.2083128199
0.0190280714 -6.982386112e-07 -0.05955719757 0.9188098504 -0.2762879899 -0.2818748047
0.01890142775 0.009019439936 -0.04461615276 0.9152257814 0.378727911 0.1375752104
0.01800426102 0.01130814552 -0.04512010956 0.8723973356 0.4135044176 0.2606472433
0.01696845341 0.03114834976 -0.07220740891 0.8652202279 0.002711412442 -0.5013846881
0.01512230396 0.01749617577 -0.04586888885 0.7900431578 0.3534206694 0.500924784
0.01607679482 0.01839395752 -0.04745470505 0.7890706219 0.1612323338 0.5927661329
0.01569586293 0.02130763308 -0.04734086355 0.773576134 0.07111926644 0.6296999403
0.01573566643 0.02741622639 -0.04738768895 0.7629691288 0.001060449741 0.6464340523
0.01580888557 0.03661008453 -0.04748314857 0.7662640642 0.001119117824 0.6425248101
0.01255729008 0.03006520367 -0.07690315628 0.5664945684 -0.01011521178 -0.8240033898
0.01874104977 0.01851200962 -0.06900595093 0.9140709563 -0.03475971369 -0.4040619373
0.01583789221 0.0396846962 -0.04752119764 0.7676423324 0.001229636693 0.6408773186
0.01586827135 0.04276519203 -0.04756290245 0.7691526908 0.001328970182 0.6390636683
0.0201488328 0.03345802116 -0.05651236057 0.9810975165 0.000500911407 0.1935133387
0.01590105422 0.04585190964 -0.04760771688 0.7724718274 -0.002360474873 0.6350446472
0.01597410138 0.05204582151 -0.04770662689 0.7752691925 -0.02308892467 0.631208825
0.01571463108 0.0549140269 -0.04732888667 0.7709524906 -0.002903864334 0.6368860375
0.0189386611 0.04489038181 -0.06849925804 0.90889644 0.01512540849 -0.4167475055
0.01559342098 0.0590877552 -0.04720655823 0.749014324 0.07581217904 0.6582021391
0.01061332607 -0.01623484039 -0.05010783005 0.5319259308 -0.8149827636 -0.2299084583
0.01607527606 -0.01190451749 -0.04764520899 0.7723028187 -0.6202078786 -0.1374428736
0.01785877991 -0.009321118991 -0.04722516886 0.8685416619 -0.4840881544 -0.1062734225
0.02055464077 -4.243850708e-08 -0.04454941177 0.9995462658 -0.03012045616 0.0001433467473
0.01836493111 0.01208145595 -0.04753918934 0.8979420909 0.3445710718 0.2738079215
0.008892717361 -0.01635341644 -0.05285955811 0.4854005115 -0.831313369 -0.2707479011
0.01527777147 -0.01221461391 -0.05014873695 0.7397198401 -0.6473734356 -0.1836360341
0.01939005725 -0.005771049023 -0.04752122498 0.9455779203 -0.3096420947 -0.1000208473
0.02047462654 0.003781757355 -0.05511594772 0.9980171909 -0.04625620148 -0.04268548281
0.02052903461 -1.207143068e-07 -0.04716459751 0.9957039534 -0.08849135536 -0.02725650804
0.02050380135 0.003000650823 -0.04718087482 0.9995953613 0.02692999763 0.009159090761
0.02013020277 0.00600928998 -0.04739724636 0.9801449304 0.1808934595 0.08120019561
0.0194672184 0.009034840584 -0.04778057766 0.9382636416 0.2903933806 0.1879708048
0.02014537764 0.01820649529 -0.05629201603 0.982597797 0.04947740677 0.179035068
0.0176854744 0.01438057709 -0.04793333817 0.8835378716 0.3252414136 0.3370146174
0.01699617386 0.05741686249 -0.0490542984 0.8253720707 0.01874019737 0.5642780786
0.01400941849 -0.0130432806 -0.05175650787 0.6932677403 -0.6888579352 -0.2117890114
0.01706518555 -0.009873771667 -0.05001384354 0.8390262034 -0.5166719067 -0.1705437503
0.01787424088 -0.00833951664 -0.05043279648 0.8712991165 -0.4603141563 -0.1701432548
0.01929305649 0.01208792758 -0.05052540302 0.9417716309 0.2139980434 0.259366599
0.01846908045 0.01514099026 -0.05013427353 0.9012674143 0.2212276782 0.3725256533
0.01802788591 0.01820077801 -0.05041003323 0.8651361793 0.1431307653 0.4806797014
0.02037469101 0.05897724915 -0.05794583893 0.9917336621 0.0114961934 0.1277974218
0.01791694021 0.02124941492 -0.05050314045 0.8626146733 0.02805387942 0.5050830677
0.01625681877 0.05177046585 -0.07322663879 0.8420421951 0.004967227194 -0.5393887914
0.01793009949 0.0242941308 -0.0505305109 0.8587486724 0.0005875224526 0.5123966945
0.01794611073 0.02734239817 -0.05056094742 0.8595975235 0.0006772713345 0.5109712702
0.01796411371 0.03039473104 -0.05059495163 0.8604912963 0.0008211579649 0.5094644784
0.01993262863 0.02453716803 -0.06557300758 0.9756620966 0.001641135227 -0.2192732997
0.0179841156 0.03345158863 -0.0506325388 0.8615010547 0.001009123362 0.5077547779
0.0180061245 0.0365134325 -0.05067371941 0.8626574301 0.001173023735 0.5057872895
0.01803014803 0.03958072567 -0.05071851158 0.8639185667 0.001288611691 0.5036298736
0.01770445824 -0.006100625277 -0.05585448837 0.858106488 -0.4424181532 -0.2606135701
0.01808362341 0.04573363495 -0.05081936836 0.8666280121 0.00146594427 0.4989526427
0.01814506054 0.05191406727 -0.05093501377 0.8850296719 -0.007111049533 0.4654803033
0.01817867231 0.0550158329 -0.05099850464 0.8828411646 -0.01736787853 0.4693504393
0.01024421835 -0.01401930666 -0.05660288811 0.5563295727 -0.757198445 -0.3422687854
0.01651543649 -0.009413030624 -0.05328140895 0.8110386091 -0.536380273 -0.2334792867
0.01991640981 -0.002764947494 -0.05072076416 0.9662833405 -0.2349930638 -0.1052367137
0.02046422768 0.005775105317 -0.05099980036 0.9962034706 0.06019479924 0.06289062932
0.02003474236 0.009050400972 -0.0509653883 0.9797037025 0.1428216868 0.1406507057
0.02011286163 0.04614858818 -0.06502151489 0.9788794592 -0.02120552966 -0.2033355107
0.01848929405 -0.005819678942 -0.05331622569 0.9003735527 -0.3877435787 -0.1974395676
0.01941319402 -0.00328106761 -0.05336691793 0.9361564681 -0.3063144715 -0.1725761045
0.02022219276 -0.000754200995 -0.05171631241 0.9793433164 -0.1812979425 -0.08954174806
0.01953907681 0.01514251757 -0.05305633354 0.9503963461 0.1183130388 0.2876609291
0.01929618645 0.01819099045 -0.05322400761 0.9470975399 0.07829334856 0.3112497414
0.01923431587 0.0212347312 -0.05329183483 0.9374604474 0.014383083 0.347794532
0.0192456007 0.02427754402 -0.05332226467 0.9361411369 0.0007507665583 0.3516236741
0.02048962307 0.03363727188 -0.06264525604 0.9935700935 -0.003439660841 -0.1131664177
0.02054487228 0.009084410906 -0.0559860363 0.999737177 0.0194886457 0.01207351107
0.01925844955 0.02732407665 -0.05335676479 0.9368799275 0.0006819406225 0.3496505919
0.01927295351 0.03037479115 -0.05339529419 0.9377021488 0.0007081625565 0.3474394605
0.01930379486 0.03649103451 -0.05348634148 0.9395544122 0.0009566693288 0.3423982934
0.01932051277 0.03955753136 -0.05353868103 0.9405469804 0.0008551698877 0.3396625478
0.01933883858 0.0426301775 -0.05359516335 0.9415485062 0.0007143113002 0.336876684
0.01937927103 0.04879605579 -0.05372126484 0.9549528144 -0.001110125897 0.2967556062
0.01942479038 0.05499275112 -0.05386505413 0.9438417496 0.002163369591 0.3303907862
0.01944788027 0.05810424232 -0.05394457722 0.9461299226 0.01499604621 0.3234397753
0.01946434307 0.06044395256 -0.05400800323 0.945682534 0.04507296249 0.3219518176
0.02014118147 0.03039916325 -0.0564618206 0.9807259798 0.0003030660452 0.1953879748
0.02016960621 -3.193616867e-07 -0.05351450157 0.9789912968 -0.1684312349 -0.1149215379
0.02051919746 0.003019298792 -0.05331354332 0.9980648836 -0.03962302964 -0.04792185005
0.02055519485 0.006038671732 -0.05330004501 0.9995358963 0.0203802849 0.02264146493
0.02030522919 0.009822626114 -0.05346167755 0.9908790224 0.08789497361 0.1021432162
0.01193904877 0.03331520081 -0.07736858368 0 0 1
0.01536396694 -0.008461557388 -0.05813564682 0.7559715782 -0.5533194542 -0.3497778645
0.01677745247 -0.006890862465 -0.05729824066 0.8115568596 -0.4988603007 -0.3041609181
0.01889673932 -0.002789469957 -0.05663986588 0.9201735646 -0.3187156291 -0.2273784484
0.02023973083 0.002778977076 -0.05644294484 0.9803613475 -0.1484927183 -0.1297749625
0.02013334751 0.01515422392 -0.05537683868 0.9795840757 0.0814611831 0.1837909528
0.02012866497 0.02429571152 -0.05637500477 0.9800585528 0.0003917151081 0.1987085293
0.02012413216 0.02125010443 -0.05633849335 0.9804025009 0.006851229148 0.1968857456
0.02013445997 0.02734522533 -0.05641604042 0.9803803371 0.0002989370094 0.1971149545
0.02015741682 0.03652230072 -0.05656768036 0.9815141413 0.0007813203074 0.1913880352
0.02016693783 0.0395925045 -0.05662780285 0.9814628872 -0.002105469355 0.1916407265
