# .PCD v0.7 - Point Cloud Data file format
VERSION 0.7
FIELDS x y z normal_x normal_y normal_z
SIZE 4 4 4 4 4 4
TYPE F F F F F F
COUNT 1 1 1 1 1 1
WIDTH 455
HEIGHT 1
VIEWPOINT 0 0 0 1 0 0 0
POINTS 455
DATA ascii
-0.001869359851 -0.01977335072 -0.0007110127211 0.3127350001 0.9493662978 0.03000753925
0.015141716 0.01396622705 -0.01313930988 0.7877304194 0.6160128291 0.002996772201
-0.01699261411 -0.0007908637524 -0.001384625634 0.8959623435 0.2138146787 0.3892746617
-0.01555250502 -0.01259820509 -1.615935937e-05 0.8426212872 0.4795716928 0.2449497046
0.01192743278 -0.01673089504 -0.03714080238 0.593315555 -0.804858582 -0.01339085882
-0.0201684761 -0.0007964697679 0 0.8994114988 0.1120174774 0.4225056693
0.0199044075 -0.005077607552 -0.01340602313 0.9734081017 -0.2290429114 0.004001529899
-0.02016874695 0.002389409304 0 0.8400700886 -0.3136824758 0.4425895961
-0.01674214935 0.00316161114 -0.001292946063 0.8875953412 -0.06426583076 0.4561188587
0.0003685599715 0.05864641953 -0.04002530479 0.01253161871 0.04447129919 0.9989320608
-0.01638093328 -0.004737636924 -0.001160720728 0.9322479423 0.2437227412 0.2674191458
-0.01527258614 -0.008213474614 -0.001354379639 0.9194700608 0.3858076271 0.07567880953
0.01293594265 0.02764769999 -0.07661377462 0.7327876926 0.0175169939 -0.6802318373
0.01605123011 0.05579963684 -0.07350016785 0.8575801939 0.004440582785 -0.5143311114
0.01631379019 -0.01246024731 -0.01342026738 0.7769836124 -0.6288835039 -0.0283196862
-0.01547066116 0.007288811445 -0.001456952261 0.8557424129 -0.4818895547 0.1883809433
-0.01553652159 0.01180982304 -1.076835642e-05 0.7691022439 -0.5573761987 0.3127515173
0.002115463495 -0.01728790092 -1.421085472e-17 0.06020117996 0.9216767285 -0.3832594762
-0.0106994168 -0.01633895651 -0.0004603223801 0.6030342873 0.7972160795 0.02821650118
-0.007907589753 -0.01519532967 -0.001079227765 0.5936514341 0.7731307166 -0.2232641257
0.01485946894 -0.006953019857 -0.06115942574 0.7149766751 -0.5564690308 -0.4232618241
-0.01142558784 -0.01263660431 -0.001507091498 0.6037246476 0.7711835991 0.2019713007
0.01248114793 0.01585260057 -0.001516529133 0.6001018451 0.6833119437 0.4158876808
0.01715467691 0.02736368752 -0.04924090862 0.8072850031 0.006852405653 0.5901219945
-0.01369170856 -0.0102036252 -0.001848111331 0.7919396918 0.5999377468 0.113605565
0.01696845341 0.03114834976 -0.07220740891 0.7998739118 0.03492394897 -0.599151102
0.01953478368 0.003582086669 -0.001001084182 0.8771883937 0.2906925052 0.3821496951
0.008091551463 0.01850622114 -0.0008820940653 0.3175574048 0.8750079318 0.3654017157
-0.008539092064 -0.01476294518 -0.004911111116 0.7144666662 0.6989573106 -0.03156043233
0.0001542912672 0.05143855031 -0.04000822322 -0.005103484042 -2.366050364e-05 0.9999869769
-0.01207306998 0.01194146906 -0.001604533315 0.6740527177 -0.6860959528 0.2737248205
-0.0150794394 -0.007931950331 -0.009130619287 0.8860306369 0.4615012261 0.04434330633
-0.01094962311 0.01556313467 0 -0.5061025193 0.6972783465 -0.5076053068
-0.006496356487 -0.01923352432 0 0.2543665182 0.8271567364 0.5011081798
0.008090840022 -0.01800987434 -0.0008821897507 -0.3567094631 0.8532034778 -0.380528822
-0.01637795607 -0.004757233024 -0.005381979386 0.9471171571 0.3157130016 0.05739678858
-0.01699781439 -0.0007941543526 -0.005616245455 0.9879530756 0.06960381522 0.1382173267
0.01466551614 0.05176066494 -0.04620370197 0.688832342 -0.001206110921 0.7249196851
0.008027026653 0.01553814602 -0.0001096408218 0.3518592389 0.8312235272 0.430421333
-0.01674249935 0.003174713929 -0.005519752065 0.9749537692 -0.1714975699 0.1416111982
-0.006496356487 0.01923352432 0 -0.2629117828 0.7951252771 -0.5464917092
-0.01555447769 0.006895102569 -0.00555313938 0.9283335953 -0.3695264207 0.04058275766
0.01248147694 -0.01585257832 -0.001516401129 -0.6119236163 0.6745490742 -0.4129564557
0.01641692225 0.04776928075 -0.07299378459 0.8825392845 0.00504079482 -0.4702116562
-0.007907589753 0.01519532967 -0.001079227765 -0.5718855757 0.8200408682 0.02190577273
0.01865745687 0.05913255405 -0.06915223885 0.920262317 0.0800111299 -0.3830345767
0.0158856348 -0.01216952715 -0.00124264541 0.674865614 -0.5898459285 0.4434390416
0.01657504416 0.05900679398 -0.04844220543 0.781023661 0.05250529007 0.6222903144
-0.01019930363 0.01789061737 -0.001381078601 0.6726379895 -0.7398536562 0.01321750376
0.01220996761 0.0166032753 -0.07691399384 0.7288418553 -0.06400263438 -0.6816841004
-0.002139906168 -0.01748764992 0 0.3127350001 0.9493662978 0.03000753925
-0.009991306305 0.01799879265 -0.007987769604 0.7459180745 -0.6064576193 -0.2753459317
0.02049012216 0.05140651067 -0.06219308472 0.9953021866 0.005630420655 -0.09665327583
-0.0154412605 0.007144746224 -0.009271706263 0.8874976795 -0.4602205622 0.02334316013
0.01638645622 -0.01235229083 -0.005433484622 0.7784511561 -0.6139604007 0.1306385239
-0.005474295616 -0.01614157867 -0.002082467496 0.3445116527 0.9097814534 -0.2315370991
-0.01367311001 -0.01023693848 -0.005200540066 0.815547119 0.5702718203 0.09835114511
0.01242550516 -0.01606897354 -0.04469513702 0.5772421 -0.8107077535 -0.09769593828
-0.005474295616 0.01614157867 -0.002082467496 -0.3112653581 0.9302401024 0.1943379241
0.01935953712 -0.0007601961096 -0.05726220258 0.9345791165 -0.2726452506 -0.2285310532
0.01489464188 0.04746972084 -0.04642729568 0.7242214924 -0.02975964237 0.688924955
-0.0116671505 -0.01238229408 -0.005611759663 0.7225969936 0.6837266459 0.1018403575
0.008181214905 0.01990257645 -0.04118237991 -0.5426018892 -0.596055908 -0.5918619302
-0.01508961034 -0.007905868769 -0.005739239931 0.8955466569 0.4402470987 0.06464269085
-0.01224030876 0.01176933861 -0.005494279998 0.8206830457 -0.5653180203 0.08303537988
0.006276207924 -0.01858173943 0 -0.3128716512 0.8451739356 -0.4333501454
-0.001958161871 0.01901136335 -0.0004734801849 -0.3072931531 0.9504625448 -0.04681740036
0.002921775738 0.01978148842 -0.001301551779 -0.1949273111 -0.9160155323 -0.3505979008
0.01684770075 0.03508288956 -0.07237133026 0.8003154174 0.009567825792 -0.5995028685
0.01523693347 0.02743602037 -0.04678384209 0.7525774464 0.001456823263 0.6585021373
0.002928538799 -0.01978106054 -0.00129890426 -0.1024630987 0.955846858 -0.2754234874
0.01986880207 0.03534836578 -0.06581892395 0.9557940209 0.01176762663 -0.2938014851
-0.008539092064 0.01476294518 -0.004911111116 0.6859194043 -0.7259821927 0.04964299266
0.009779698372 -0.01398361397 -0.0002191074938 0.6003157846 -0.6762326399 0.4270016106
0.002115463495 0.01728790092 -1.421085472e-17 -0.05741573218 0.7208399594 0.6907193255
-0.005380700111 -0.01617728806 -0.004519686699 0.5438314785 0.8260288794 -0.1480662468
-0.0043207256 0.05531218465 -0.04050786209 -0.1065805868 -0.0004947251475 0.9943039444
-0.01146593618 -0.01256885338 -0.008564344883 0.8314522579 0.5520091236 -0.06303229486
-0.0136537509 -0.01027045059 -0.008574681282 0.8006839971 0.597611278 0.04202257902
0.016842379 0.01175561485 -0.005557858706 0.8016497454 0.5864067128 0.1161242987
-0.01637397957 -0.004776964307 -0.009635393143 0.967845 0.2496935858 -0.03048227585
-0.01700272846 -0.0007974681457 -0.009880540053 0.9913237843 0.1302184645 0.01789709986
-0.01674236059 0.003187914312 -0.009779018879 0.9928344422 -0.1194551685 0.003198922979
-0.01255981684 0.01141965437 -0.008569503784 0.8506206168 -0.5144833532 -0.1084040843
0.0002739810124 0.05543812943 -0.04001524544 0.004568374469 0.02181793568 0.9997515229
-0.005380700111 0.01617728806 -0.004519686699 -0.2490446599 0.9672952996 -0.04813066438
-0.009992507935 -0.0179988575 -0.007988241673 0.5283517043 0.8480159602 -0.04139332985
0.01897466224 -0.007859549999 -0.02143123163 0.9240642722 -0.3822369207 -0.000396613192
0.02051584265 -0.0007177570264 -0.005256936073 0.9965415889 -0.03207003731 0.07665751241
0.002614435077 -0.02038819504 -0.005474336386 0.120127575 -0.972165841 0.2011540287
0.004008630872 0.0312202692 -0.04044491005 0.2350879588 0.01963502312 0.9717757547
-0.01507176828 -0.007951621532 -0.01168845844 0.9116604134 0.4081341393 0.04797723484
0.01430687714 -0.009442565918 0 0.6706558614 -0.5447895941 0.5034133627
0.02052556006 -0.0007462328871 -0.04198566691 0.9966532938 -0.08147631412 0.006619837537
-0.01637145329 -0.004788881063 -0.012204669 0.9703456096 0.2384733834 0.03949485263
0.0112115736 0.05876226234 -0.04334967422 -0.5252170965 -0.06366833577 -0.8485831395
-0.01700476201 -0.000799463431 -0.01245617421 0.9940930039 0.1070040738 0.01814463557
0.02025655577 0.02354576174 -0.05718696891 0.9775765518 -0.01249421907 0.2102093715
-0.0167408762 0.003195878506 -0.01235136938 0.9915237749 -0.1250315615 0.03532297285
0.02055134137 0.01137779824 -0.0577851963 0.9997216729 0.001470437251 0.02354600916
0.01838926506 0.03957016563 -0.05140200996 0.9007215678 -0.003375814924 0.4343837717
-0.01543420855 0.007162475586 -0.01183242035 0.9035704606 -0.42843952 1.997488462e-05
0.01860445499 0.03559540939 -0.06939561844 0.9085700461 -0.009165952986 -0.4176319631
0.01970338707 0.04735646591 -0.06642188721 0.9423241488 -0.01816556785 -0.3342083342
0.01926862373 0.007333940697 -0.04147898712 0.9306517355 0.3562134719 0.08366187636
0.01430687714 0.009442565918 0 0.8059220296 0.4740830962 0.3545911732
0.01892598128 -0.007985679328 -0.03329918933 0.9228030768 -0.3844802469 -0.02468645796
0.01628434781 0.01147116634 -0.001214312894 0.7805375002 0.5679348035 0.2611728733
0.01495425129 0.01379908466 -0.001309180458 -0.6327224903 -0.6894904689 -0.3525126147
0.02054127884 0.03129554494 -0.0616576697 0.9949645121 0.01862789858 -0.09848157708
-0.004086686611 0.05934973717 -0.04046026993 -0.1020907623 -0.001193541879 0.9947743723
0.002585870862 0.02039000988 -0.005485786438 0.1562073115 0.9684834597 0.1940078971
0.008896810532 -0.01852087021 -0.00375440526 -0.3982483606 0.8857458519 -0.2384376838
0.02021013133 0.003702295502 -0.03367710495 0.9756511416 0.2187482734 0.0159387204
0.01849424267 -0.008627248446 -0.001430708547 0.8263622314 -0.463544824 0.3197681326
0.01933513133 -0.005018409014 -0.001083546049 0.8756335648 -0.315332182 0.3658298446
0.0151805063 0.01880952454 -0.0463484448 0.7749037813 0.2474264501 0.5816393053
0.01973739794 -0.0007159172959 -0.0009174056583 0.9882190634 -0.03063788538 0.1499479997
0.004999630372 0.05930724462 -0.04066858292 -0.2897260811 0.01516992769 -0.9569893788
0.01869262102 0.007903743426 -0.001348820898 0.8569715574 0.4245857484 0.2921073296
0.02020838568 0.003623110003 -0.01326819642 0.9783907831 0.2060349474 -0.01735154011
0.00882979997 0.01855593936 -0.005385269006 0.4178154931 0.8987493547 0.1329654514
0.01721197065 0.03577512042 -0.04933790652 0.8114892117 -0.0116895229 0.5842504722
0.002068939924 -0.02047423172 -0.008144246101 0.2605096785 -0.9647267161 0.03790871454
0.01337903023 0.008643060684 -0.07418925476 0.7659943928 -0.2236725331 -0.6026800048
0.01862070313 0.05550203629 -0.0692289566 0.8938059016 0.006848801727 -0.4484017219
0.008794085026 -0.01857360363 -0.006201604843 0.420885189 -0.8973016738 0.1330615042
0.01242746353 -0.01632076035 -0.005819726086 0.617295696 -0.773961969 0.1411697356
0.0124225668 0.01632103806 -0.005821749115 -0.6024339951 -0.7898371553 -0.1150241267
0.002026374578 0.02047694206 -0.008161616325 0.2701377892 0.96139673 0.05236317833
0.01799754143 0.01236401844 -0.06941142273 0.8516760947 -0.1406651763 -0.5048377342
0.02053624535 0.01904725933 -0.06147276624 0.9944140021 0.01002459259 -0.105072832
0.01555542103 -0.01290825637 -0.04530969111 0.7516482147 -0.6530570884 -0.09241969842
0.001432315588 -0.02054926682 -0.01004967022 -0.2585828152 0.965453417 0.03216562245
0.01250093002 0.01628605804 -0.02135275612 -0.6292445859 -0.7770225366 0.01694782411
0.01524021006 0.01384425879 -0.005125235796 0.741708548 0.6511299816 0.1609291052
0.00865619278 -0.01864439106 -0.009486567497 -0.3603278891 0.9326481345 0.01820081181
0.02009257671 -0.0005399899738 -0.05305598777 0.9747592722 -0.1957481798 -0.1073639204
0.01521036084 0.02361402702 -0.04675434113 0.7631670168 0.0164810469 0.6459910832
0.007338612556 0.0192437191 -0.03690459061 -0.5737743979 -0.8046958171 -0.1524715786
0.01869894867 -0.008517643738 -0.005716018677 0.8675233487 -0.4795611876 0.1320011621
0.01986947174 0.04356980743 -0.06583975372 0.9500056 -0.0121206711 -0.311997515
0.01475782871 -0.0007777063251 -0.06765770721 0.7683720877 -0.388932745 -0.5082673064
0.01990686162 -0.005034707361 -0.005516292625 0.976372639 -0.2083152423 0.05745632719
0.01741802216 0.01006352997 -0.06975908661 0.8523051661 -0.1736844214 -0.4933656104
0.02020725356 0.003592530145 -0.005388351573 0.9840554358 0.1654076613 0.06538505051
0.01901197958 0.007753495038 -0.005700719714 0.8890038001 0.4333943662 0.1477889261
0.0202373546 0.05582817777 -0.05702060636 0.9803276441 -0.006504329895 0.1972698758
0.008658788681 0.01864423752 -0.00948547411 0.3844505227 0.9229550496 0.01875558628
0.004072252353 0.0351413943 -0.04045699501 0.2393507326 0.01695493653 0.970785124
0.01274519711 -0.01608027096 -0.009843701172 0.6311728044 -0.775364266 0.02076405336
0.01633436227 -0.01240742433 -0.009414515674 0.7768868717 -0.6296398321 -0.0006858872625
0.01519526704 0.01390478325 -0.009112428347 0.7706037079 0.6372690113 -0.00762447868
0.01929994901 0.03572560438 -0.05347411537 0.9186368344 -0.01199030216 0.3949210037
-0.0002953624626 0.03552798716 -0.04001574326 -0.02712966639 -0.002113032651 0.9996296896
0.01914779854 0.007508769035 -0.02541597862 0.90719481 0.4206200805 0.008736394044
0.01274301758 0.01608041878 -0.009844612503 -0.6394171743 -0.7686602846 -0.01752267292
0.008482158343 -0.01873373159 -0.01363253403 -0.5209044892 0.8536130988 0.001786237376
-0.004735361576 0.04725307592 -0.04059087499 -0.1217538601 0.0002315252155 0.9925602974
0.01855345879 -0.008846509838 -0.009560421467 0.8988409884 -0.4382696841 0.00213579257
0.01883273452 0.00817818376 -0.009573393481 0.9029440208 0.4292748253 0.0203769393
0.00796564277 0.0189901371 -0.02548660723 0.5055863451 0.8627662542 -0.004103448695
0.01701891479 0.01150896339 -0.009595293808 0.7971514085 0.6037590485 -0.004964206502
0.008485890706 0.0187335097 -0.0136309131 0.521174009 0.8534503996 0.0002603896305
4.203698318e-05 0.04744748878 -0.04000223923 -0.01455977617 -0.00103247459 0.9998934678
0.01246494055 -0.01630304384 -0.01351373219 0.6287117488 -0.7776383882 -0.0002722426501
0.0199059302 -0.005056045016 -0.009440983454 0.9731018772 -0.2299252799 0.01439104469
0.02051954492 -0.0007207902273 -0.009171278159 0.9992823813 -0.03522472448 0.01392628053
0.008422186017 0.04337081909 -0.04185969734 0.4584639757 0.01593254672 0.8885701643
0.02020745341 0.003607746641 -0.009308435599 0.9798861633 0.199348562 0.009124567076
0.01600347137 0.01516817506 -0.04536969757 0.7790047247 0.4286133561 0.4576485878
0.01245847487 0.01630343175 -0.01351651692 -0.6406782082 -0.7678072531 0.001858938336
0.01677954559 0.01185798321 -0.0135340168 0.7951293426 0.6060519898 -0.02168672844
0.01073705101 0.02380753644 -0.04302911123 0.4966074789 0.02959181672 0.8674706544
0.02009261513 -0.00440518564 -0.02544117403 0.9753952968 -0.2204616496 -0.0008222484976
0.008299453259 -0.0188243742 -0.01782278156 -0.5140251055 0.8577675087 0.003618294835
0.01912915166 0.05577419874 -0.05316168213 0.9272333816 -0.01052644657 0.3743360121
0.008707725406 0.05907419586 -0.042009799 0.4813853855 0.03662789089 0.8757434032
0.01217398586 -0.01652894211 -0.01722855988 0.6226550446 -0.782202984 -0.02142865697
0.01867343178 -0.008590841866 -0.01364311829 0.8992230502 -0.4374736121 -0.003839889486
0.02052326414 -0.0007238545219 -0.01312547514 0.9995499033 -0.02826559972 -0.01005219413
0.01682871681 0.04348042467 -0.04881387287 0.8116765629 -9.981100079e-05 0.5841071368
-0.004537735224 0.05127985191 -0.04055157661 -0.1148656174 0.0002765866384 0.9933810011
0.0192308801 0.007269354741 -0.01371121661 0.9110465716 0.4116024909 0.02403193181
0.01815983963 -0.004321661234 -0.05707755152 0.8632440903 -0.4284732551 -0.2668713365
0.01827261257 0.009471969128 -0.01334381628 0.8971895446 0.4416430883 -0.001517736025
0.01215995502 0.01652974949 -0.01723485241 -0.6317989746 -0.7749237078 0.01798062241
0.02025263882 0.0597285862 -0.05713702679 0.9728944002 -0.01324678158 0.2308701125
0.01605490315 -0.01278875995 -0.03755602837 0.7746143221 -0.6324268031 0.002998469287
0.00831127739 0.01882366753 -0.0178174839 0.5162035271 0.8564617575 -0.00267888927
0.01625940156 -0.01251654994 -0.01748106325 0.7839020525 -0.6206637247 0.01655635329
0.01508359845 0.01402851073 -0.01721114635 0.7775630297 0.6287535703 0.008042554433
0.008135595322 -0.01889859867 -0.02121662426 -0.5073324235 0.8617482685 0.001932304935
0.01880492783 -0.008248935223 -0.01757440158 0.9251989982 -0.378993291 0.01925874135
0.01825522359 0.009513031006 -0.01737000465 0.8957253 0.4445059688 -0.009520007842
0.02027213478 0.03117907524 -0.05729719204 0.9781408482 0.01274305597 0.2075526332
0.01695960159 0.01160959148 -0.0176454361 0.7988456936 0.6014043965 0.01258211737
0.01717672793 0.01942045975 -0.07187708791 0.826731354 -0.05225262412 -0.5601650932
0.008170166016 0.01889652634 -0.02120079803 0.5107389335 0.8597347447 -0.001382256358
0.01250740643 -0.01628564625 -0.02134978065 0.6166908078 -0.7869598395 -0.01966363438
0.02052040799 0.04363290977 -0.06195116997 0.9982944306 -0.01211340484 -0.05710950243
0.0200950036 -0.004367361665 -0.01731778431 0.9751499379 -0.2214548863 -0.006350747127
0.02052668349 -0.0007269488871 -0.01711608378 0.9967342375 -0.07919732154 -0.01576845023
0.02020932611 0.003638614496 -0.01726433595 0.9766836943 0.214312907 -0.01260710961
0.019221735 0.007300678372 -0.01772562361 0.9094428804 0.4155903741 0.0140814826
0.01342212868 0.01969526609 -0.07617480469 0.7344014049 -0.02620644522 -0.6782092588
0.007928595384 -0.01899236488 -0.02550401878 -0.5025127821 0.8645627534 0.00348559124
0.01623703194 -0.01257049152 -0.02156858253 0.7821820041 -0.622681561 0.02142396129
0.0181796999 0.00967320776 -0.03305541611 0.891381528 0.45265466 -0.02329657172
-0.005573460102 0.02719298649 -0.04078467178 0.1476231278 0.0001600150375 -0.9890436727
0.01670936623 0.01196262817 -0.0216729866 0.793786206 0.6080566378 0.01306079309
0.01713167095 0.02355144087 -0.04920686467 0.8085733705 0.02541273641 0.5878463211
-0.005080118815 0.03921360906 -0.04065865072 -0.1320188412 -0.0007850072077 0.9912468962
0.01502063179 0.01409159184 -0.02132433128 0.7542530401 0.6565838143 -0.0002154099302
0.01198757153 -0.01668142338 -0.02558295746 0.6121077546 -0.7907616405 -0.004486057915
0.02046985579 0.01517897868 -0.05786268425 0.9947055082 0.05082416884 0.08931884331
0.02009381517 -0.00438618203 -0.02135978476 0.9753927919 -0.2202503394 -0.009934260806
0.01872545951 -0.008425137792 -0.03747776631 0.9203253722 -0.3911040211 0.00623328839
0.02052848286 -0.000730074048 -0.02115057394 0.9977352633 -0.067231376 -0.002070396495
0.02021027713 0.003654286808 -0.02130369971 0.9767989484 0.2141582966 -0.000196101103
0.01926971474 0.00718149662 -0.02142981911 0.9239502877 0.3825125619 -7.688414721e-05
0.01823766899 0.009554483891 -0.02143452168 0.8951807819 0.4457011093 0.001374400713
0.008308423638 0.03557680893 -0.04180426502 0.4223165301 -0.01560889159 0.9063140244
0.01195918007 0.01668301487 -0.02559647064 -0.6248367893 -0.7807035777 -0.008995024479
0.01601414858 -0.01284280804 -0.02544203104 0.7844176847 -0.6202326199 0.000627075212
0.01495665614 0.01415540504 -0.02548453903 0.7760032313 0.630664582 0.009009433609
0.01108319124 0.05171025467 -0.04326399231 0.511522328 -0.01914564623 0.8590566641
0.004558360434 0.04739158096 -0.04055847702 0.255390325 0.01647358724 0.9666976791
0.007719342709 -0.01908715248 -0.02983807182 -0.4926154139 0.870235214 0.004552608696
0.01833585231 0.03114958382 -0.05128123856 0.9027479374 0.01903387566 0.4297486162
0.01681146208 0.01205723031 -0.04144531186 0.8267639471 0.5493120223 0.1213164376
0.008487649918 0.04728109868 -0.04189175669 0.4572539222 0.01321595078 0.8892379823
0.01879135776 -0.008291916132 -0.02546832299 0.9237720659 -0.3829379579 0.001921106793
0.01821904945 0.009596428235 -0.02554499181 0.8937586664 0.4482999372 0.01492020653
0.01678450346 0.01185929203 -0.02542115736 0.794136329 0.607739193 0.0007512084859
0.007738977432 0.01908596706 -0.029828578 0.4972212506 0.8676219915 0.00176288373
0.01232815418 -0.01643640251 -0.02978276939 0.6074435863 -0.7941140289 0.01987959999
0.01829916954 0.02352542369 -0.05119590759 0.9040946452 0.00610804885 0.4272886194
0.02052996667 -0.0007332288027 -0.02522446314 0.9970861051 -0.07626138173 -0.001871017323
0.02021082592 0.003670114756 -0.02538257376 0.976593807 0.2150858525 -0.001616248383
0.01230695629 0.01643757992 -0.02979315147 -0.6181744684 -0.7854908746 -0.0294008945
0.01786108017 0.006942914009 -0.06760446167 0.8767081271 -0.2123843055 -0.431596764
0.007550076008 -0.01916382694 -0.03334393692 -0.4853438903 0.8742925257 0.007340822702
0.020124268 0.01134237893 -0.05357807456 0.9796778363 0.1310754117 0.1518241534
0.01631722123 -0.01245814065 -0.02933304269 0.7805261824 -0.6245878627 -0.02586272281
0.01686256752 0.01175443935 -0.02920357513 0.7969509275 0.6040123004 -0.00619355905
0.01489202547 0.01421987247 -0.02968737698 0.7426228749 0.6696460481 0.00924316136
0.007553921938 0.01916359425 -0.03334204674 0.53271325 0.8455018076 0.03665087419
0.01201583409 -0.01666759849 -0.03366921425 0.6035169519 -0.7970699823 0.0211360353
0.01885499382 -0.008140005747 -0.02936527761 0.9222271095 -0.3862092436 -0.0184276632
0.02051521428 0.003774249739 -0.0533207088 0.9991197397 -0.02986953032 -0.02945431746
0.02009118303 -0.004424410741 -0.02956945483 0.9750690043 -0.2214226161 0.01457607294
0.02053146807 -0.0007364196512 -0.02934496477 0.9973453919 -0.07281550372 -0.0002677051668
0.008364455605 0.02361810379 -0.04181842422 0.4569740671 0.2015366672 0.8663473171
0.02021003893 0.00368613063 -0.02950882106 0.9758084415 0.2180876413 0.01535142524
0.01919561291 0.007390154362 -0.02919285011 0.9231067188 0.3843605644 -0.01187190864
0.0181974535 0.009638883114 -0.02969827461 0.8925817012 0.4507202196 0.01221435221
-0.005424539089 0.03119715309 -0.04074567668 -0.1422401731 -0.001354742604 0.9898312472
0.01085668182 0.01747388363 -0.03340360832 -0.5827710642 -0.8125945664 -0.008243626027
0.008026898193 0.02735737305 -0.04167901001 0.4062576849 0.02107703219 0.9135154362
-0.005700641632 0.02319078128 -0.04081797155 -0.1496721496 0.0002310420892 0.9887356544
-0.005256561041 0.03520329094 -0.04070169258 -0.1370048065 -0.001417246056 0.9905693688
0.01921307646 0.04362145506 -0.05330793817 0.930855244 0.007934046294 0.3653020196
0.02005278619 -0.004479916811 -0.04139137777 0.965786247 -0.2565350347 -0.03803552292
-0.004916091204 0.04323081589 -0.04062632179 -0.1271592197 -0.0001159270369 0.9918823113
0.01483977747 0.01427198792 -0.03308494186 0.737475825 0.675167966 -0.01666209121
0.007322482347 -0.01924470139 -0.03691276741 -0.4645280226 0.8853215949 0.02047900861
0.0161214041 -0.01272903184 -0.03327324268 0.7800133059 -0.6252944806 -0.02420857663
0.01660447273 0.01211307125 -0.03336361198 0.7870811125 0.6167793887 -0.009300966315
0.01312547684 0.01586402369 -0.03395965004 -0.6124924623 -0.7898498312 -0.03146788477
0.02013956038 0.003795639396 -0.05799790446 0.9797534417 -0.1250251414 -0.1563710572
-0.0005809175968 0.0212887249 -0.04003096008 0.03249158384 -0.006872166671 -0.999448383
-0.0005431573689 0.02365829468 -0.04002894974 -0.03549459818 -0.02082146692 0.9991529413
-0.0004713910619 0.0276105442 -0.0400251236 -0.0353218375 -0.01140132649 0.9993109514
-0.0003892970234 0.03156670666 -0.04002074814 -0.03554313761 -0.003638471677 0.9993615196
-0.0001910304874 0.0394943161 -0.04001018143 -0.02382867701 -0.003500768626 0.9997099273
0.003984709549 0.04334287109 -0.04043426437 0.2488571269 -0.01922660971 0.9683493522
-7.476816078e-05 0.04346707026 -0.04000398382 -0.0153917827 -0.001548968263 0.9998803397
0.01918531704 0.007422804356 -0.03337503274 0.9231111945 0.3843031468 -0.0132971405
0.01076397943 0.01754034328 -0.03688272858 0.5801330351 0.8052435017 0.1225910457
0.01115219975 0.05562317657 -0.04331024933 -0.5400249194 -0.02378761532 -0.8413128049
0.003878884315 0.021051054 -0.04042026138 -0.2203911576 -0.2269142553 -0.9486504406
0.003904447913 0.02339506102 -0.04042511845 0.1878994594 0.1637937426 0.9684345115
0.01811930847 -0.006835810661 -0.05293993759 0.896349878 -0.404944796 -0.1804899121
0.00395303909 0.02730530961 -0.04043434779 0.2269681355 -0.009323946912 0.9738575509
0.004395680285 0.03951627197 -0.04052453766 0.2633725796 -0.008969151513 0.9646524963
0.004161397219 0.05124381104 -0.04047065201 0.2594972386 0.01572234552 0.965615861
0.004508268714 0.05565497907 -0.04055119705 -0.2777953295 -0.0111587874 -0.9605754715
0.006964542389 -0.01933422947 -0.04058488274 -0.4347420036 0.8989435188 0.05385109425
0.0183633213 0.03573775609 -0.05134368261 0.9034075984 -0.008103931908 0.4287062369
0.02008740711 -0.004443873584 -0.03374147129 0.9746480918 -0.223543647 0.009451725153
0.02053298442 -0.0007396432658 -0.0335078392 0.9974636958 -0.07109245403 0.003469667904
0.01477376334 0.01433783468 -0.03737772115 0.7444384814 0.6673888252 0.0200873959
0.01305639553 0.01592332077 -0.03741656494 -0.6448408 -0.756034202 -0.1122168797
0.0170086956 -0.005365018845 -0.05896199799 0.8033677562 -0.4868958813 -0.3428303503
0.01148074245 -0.01697354431 -0.04118483047 0.5810052733 -0.8127192671 -0.0438208308
0.01815727297 0.009716569901 -0.03729647446 0.8917441617 0.4524854948 -0.00701620195
0.01668184471 0.01200922775 -0.03722547436 0.8119769141 0.5818413517 0.04641263129
0.01105665379 0.0185364399 -0.04176836777 -0.5932187165 -0.609891023 -0.5254754936
0.008260316849 0.03169130548 -0.04178072357 0.4180677369 -0.01466398134 0.9082974926
0.008362656434 0.03947004827 -0.04183068848 0.4256990333 0.0008082232595 0.9048644538
0.008746747684 0.05165082779 -0.04201409912 0.4686517131 -0.0110667794 0.8833137032
0.008452636719 0.05546851044 -0.04188922043 0.4656894642 0.003791933236 0.8849400794
0.006208531857 -0.01943169594 -0.04361922455 0.4242237191 -0.9015040411 -0.08558446134
0.01916134008 0.05966702716 -0.0532597332 0.9247056154 -0.005872664768 0.3806376711
0.02008357525 -0.004459621787 -0.03711476326 0.9876187608 -0.155931383 -0.01716354065
0.02053440221 -0.000742906087 -0.03772108714 0.9966387917 -0.08055082758 0.01492256545
0.02024607876 0.003503550359 -0.03739116396 0.9852511977 0.170560487 -0.01375491386
0.01917208958 0.007455876112 -0.03760297108 0.9221921724 0.3854238954 0.03178078018
0.01314671803 0.01597493887 -0.04082143784 -0.6778244872 -0.7009497492 -0.2218635024
0.01832957125 -0.0007652592659 -0.06088435078 0.8652900369 -0.3533248976 -0.3555765303
0.00455232048 -0.01956768799 -0.04627176285 0.3578366637 -0.9256595271 -0.1229120092
0.0159547499 -0.0128454512 -0.0416184686 0.7756036897 -0.6308390791 -0.02193109184
0.008892717361 -0.01635341644 -0.05285955811 0.5463493717 -0.7992320617 -0.2504605268
0.01462808037 0.0149200894 -0.04205233892 0.7731504647 0.5763423346 0.2647033667
0.02054509163 0.0236320041 -0.06152706973 0.9954896778 -0.01816122193 -0.09311536574
0.01077079391 0.02766011333 -0.04305052185 0.5273452584 -0.01765805961 0.8494675811
0.02002937698 0.05555112076 -0.06537181091 0.97179853 0.01076348771 -0.2355669001
0.01080998961 0.0315188446 -0.04307539495 0.5306872694 -0.000768473225 0.847567361
0.0108525486 0.03538388634 -0.04310406494 0.5314398117 -0.000296002498 0.8470960034
0.01888899358 0.007935687701 -0.06574149068 0.914850823 -0.171404837 -0.3656068292
0.01089886157 0.03925708771 -0.04313715363 0.5323487197 0.0004564311014 0.8465250335
0.0109502511 0.04313801575 -0.04317318535 0.4975442979 0.006081844123 0.8674172484
0.01873126475 0.02702930705 -0.06914009349 0.9389479109 0.01400657229 -0.3437741069
0.02054981079 0.03559294128 -0.06155761108 0.9988451961 0.0009293605048 -0.04803551354
0.01485092258 0.04360305532 -0.04637323507 0.707838086 -0.00393063128 0.7063637831
0.01100747522 0.04702865601 -0.04321260325 0.5236616196 0.01312002421 0.8518253184
0.009788944244 -0.01773534012 -0.04524227905 0.5061535436 -0.8522998842 -0.13188441
0.01989459546 0.03147932784 -0.06572092311 0.9580832452 -0.0007614006826 -0.286488945
0.01308686185 0.04761902428 -0.04476011467 0.6417770609 -0.01768565321 0.7666873038
0.0188706853 -0.008029149941 -0.04154908752 0.9165708945 -0.3994031333 -0.0193631732
0.02019438219 0.003919038773 -0.04152729654 0.9793756986 0.2002654846 0.02677641894
0.01819882965 0.009758350372 -0.04154893494 0.9032477674 0.4199442174 0.08826281739
0.01292896366 0.0194084938 -0.04427217102 0.7299960317 0.3868677986 0.563417341
0.0128412571 0.02371054236 -0.04453340912 0.65718654 0.03849515763 0.7527442955
0.01286737895 0.02754813576 -0.04456068516 0.6440015635 -0.01402599041 0.7648955862
0.01990566778 0.05128184795 -0.06577007103 0.9687533314 -2.790238541e-05 -0.2480261723
0.01268761635 -0.0007850471735 -0.06987472916 0.7199448475 -0.4072779483 -0.5619644912
0.01697368279 0.03977808609 -0.04901303024 0.8122419636 -0.01262420199 0.5831840379
0.01289927832 0.0313920428 -0.04459151967 0.645248784 0.000225919945 0.7639724836
0.01293616319 0.03524224091 -0.04462553692 0.645564867 0.01393277488 0.7635783393
0.01297802957 0.03910058912 -0.04466361364 0.64307411 0.01032803486 0.7657343016
0.01303428284 0.04374157969 -0.04471420415 0.6404303931 -0.0138588304 0.767891167
0.01300990696 0.05120863113 -0.044699189 0.642889525 -0.007605510086 0.7659211545
0.01255018711 0.05547380638 -0.04433309746 0.6419560902 0.01034337626 0.766671633
0.01260492706 0.05860544395 -0.04437713623 0.637826963 0.03112114664 0.7695506738
0.007959801197 -0.01788649178 -0.04889968872 -0.4381971625 0.8797961569 0.1842334634
0.0144344058 0.05528696728 -0.045968997 0.6693446354 0.03313074671 0.7422129834
0.0144849751 0.05840902042 -0.04601859379 -0.6749901357 -0.05807370948 -0.7355377359
0.01208586407 -0.01538969874 -0.04928828144 0.592768869 -0.7780142884 -0.2081317732
0.01625681877 0.05177046585 -0.07322663879 0.8588018574 0.01225645754 -0.5121612529
0.02049252923 -0.000749126941 -0.04544985835 0.9941926399 -0.1053137047 -0.02213635877
0.01871321373 -0.007975871181 -0.0452365181 0.910104042 -0.4083679269 -0.07032971634
0.01591782029 0.006997055531 -0.07068695831 0.8147048173 -0.2315085439 -0.5316576481
0.01950634079 0.00766008358 -0.04549117203 0.9459014648 0.3068655444 0.1053753129
0.01438757102 -0.01202617232 -0.05332439931 0.7045352092 -0.6629863216 -0.2531388481
0.01863667793 0.01039519081 -0.04598505096 0.919470325 0.3135546427 0.2371872835
0.01749224281 0.01233202553 -0.04511767324 0.8819226273 0.3807711283 0.2778953531
0.01526780176 0.03126447646 -0.04681811333 0.7544317086 0.01452796866 0.6562177499
0.01177632904 0.0341308403 -0.07749108124 0.7168287069 0.02327073438 -0.6968608741
0.01531002315 0.0358675855 -0.04686498769 0.75708915 -0.01492354063 0.6531411079
0.01852879969 0.03950905101 -0.06953976695 0.9301272718 0.005002653581 -0.3672032567
0.01516700045 0.03946677272 -0.046710687 0.7591389839 -0.005626049136 0.6509042561
0.01553327727 -0.01219357347 -0.04912329578 0.7609038528 -0.6263177139 -0.1695625196
0.01877023602 0.02315131855 -0.0690512352 0.9406137662 0.004197794327 -0.3394526792
0.01772784424 -0.009817088127 -0.04613524628 0.885283361 -0.45714841 -0.08537389554
0.01624473667 0.003873723427 -0.06860219065 0.7979842152 -0.3000967606 -0.5226500996
0.02049424616 0.05839038722 -0.061506073 0.9918627538 0.08205109304 -0.09734421296
0.01989388514 -0.004502410591 -0.04578725243 0.9561170896 -0.2831903078 -0.07512230416
0.0203527902 0.003746528149 -0.04553061295 0.9852705046 0.1577060091 0.06611238445
0.01980128908 0.01532522559 -0.06553723717 0.9600186261 -0.04935160869 -0.275551549
0.01686955468 0.0473368721 -0.04887414996 0.8124556122 0.01710431053 0.5827721002
0.01992920335 0.01915634791 -0.06550035477 0.9607353749 -0.01605905047 -0.2770011666
0.01691431639 0.05120490985 -0.04893993335 0.8052466907 0.000429782048 0.5929397798
0.02037780952 -0.0007523958683 -0.04899480057 0.9831751457 -0.1670254611 -0.07395355498
0.01682038307 0.05535291417 -0.04880061086 0.7893277275 -0.0007561514563 0.6139716335
0.01740874863 -0.009356262843 -0.04981999715 0.8425517015 -0.5084435174 -0.1777408785
0.01846234655 -0.007559665561 -0.0492171526 0.889225205 -0.4354570753 -0.1401986816
0.01911123112 0.01154087039 -0.04936981419 0.9343864119 0.2319416875 0.2704165061
0.01756903076 0.01591314761 -0.04859585063 0.8715393207 0.2180454598 0.4391758076
0.02029901075 0.01916904354 -0.05733211851 0.980780316 0.04021227861 0.1909265419
0.01710921249 0.01928452454 -0.04899896774 0.8355053676 0.1744177384 0.5210654789
0.01717885558 0.03118282731 -0.04928188324 0.8088260004 0.01243562136 0.5879165386
0.01147084522 -0.01469915009 -0.05320046234 0.6204760153 -0.7383386059 -0.2643210499
0.01958319378 -0.004523348987 -0.04945068169 0.9420140726 -0.3124668612 -0.1223680826
0.02049207338 0.003757973631 -0.04893319066 0.9939239564 0.1048217381 0.03357934054
0.02004772806 0.007527572036 -0.04919564438 0.9704680819 0.2071367682 0.1236368117
0.01846488266 0.01559929161 -0.05031680527 0.9263570688 0.1643864079 0.3388800524
0.01785688877 0.05658091927 -0.05033119202 0.8822317267 0.006004005627 0.4707771579
0.01788966942 0.05969667053 -0.05040126419 0.8742698508 0.02717310374 0.4846791212
0.009165416718 -0.01483448315 -0.05631788635 0.5550321629 -0.7542237329 -0.3508359431
0.01299943638 -0.0131094799 -0.0541198616 0.6683965928 -0.691021576 -0.2752002475
0.01707621257 0.02722722944 -0.07206284078 0.8453828312 -0.0171922962 -0.5338841576
0.01678010821 -0.008774887681 -0.05372041798 0.7901989359 -0.5575546948 -0.2543981211
0.0183085289 0.01972050667 -0.05114834213 0.9092529744 0.03731397893 0.414568083
0.01831599998 0.02733405972 -0.05123546028 0.9014085587 0.02182356364 0.4324191743
0.01841170979 0.04264309883 -0.05145336151 0.8999106805 0.03870021927 0.4343536119
0.019061855 0.04725621478 -0.05297137133 0.9140631595 0.03711258771 0.4038702715
0.01909132534 0.0511206504 -0.05305387412 0.9299628574 0.005729161757 0.3676088417
0.01578814602 0.05905489349 -0.07378910065 0.8534698763 0.01212816258 -0.5210010344
0.01191711378 -0.01241515684 -0.05744739723 0.6264535458 -0.6892373147 -0.3640163168
0.01898855209 -0.004548821747 -0.05332050705 0.9191765292 -0.3500204723 -0.1805551911
0.01024977875 -0.00785423255 -0.06577104187 0.6242496855 -0.6098692087 -0.4882334261
0.02046282832 0.007551205794 -0.05336196327 0.9957590442 0.06282246034 0.0672105968
0.01967727068 0.01590838676 -0.05387129635 0.9686764977 0.074261553 0.2369621586
0.01924483919 0.01971360302 -0.05326912308 0.943183816 0.01528169241 0.3319198081
0.01924273205 0.02351669693 -0.05331447728 0.9154486038 2.330256179e-05 0.4024349055
0.01925844955 0.02732407665 -0.05335676479 0.9170251844 0.02009953659 0.3983225072
0.01927692477 0.0311384271 -0.05340576871 0.9180739451 0.01631633792 0.3960732362
0.01932051277 0.03955753136 -0.05353868103 0.9168232707 -0.007447957476 0.3992237697
0.01585553265 -0.008442136288 -0.05694495392 0.7676522316 -0.5577970577 -0.3155510952
0.009128713608 -0.01177403545 -0.06181835556 0.5644288012 -0.6862590099 -0.4587686778
0.01334647274 -0.01006631947 -0.05932950974 0.6745228905 -0.6244154959 -0.3938580439
0.02026358414 0.02735872332 -0.05723805936 0.9784103523 0.0008397967659 0.2066699717
0.02028343815 0.03577383338 -0.05737832769 0.9791786445 -0.01267144578 0.202604582
0.02029270363 0.03961261749 -0.05745508512 0.9798218456 -0.01377523709 0.1993975772
0.02030402395 0.04346213743 -0.05753972965 0.9817882716 -0.004364117058 0.1899282605
0.02050232792 0.05525719961 -0.0613952109 0.999232111 0.01702593552 -0.03528889088
0.0203169899 0.04732199796 -0.05763141569 0.9840629197 0.008503039577 0.1776171963
0.02033042378 0.0511949874 -0.05773205651 0.9875207669 0.01034578904 0.1571486546
0.01199191856 -0.009353811264 -0.06195678329 0.6550234877 -0.6063516978 -0.4508678844
0.02051121759 0.007584360719 -0.05778814888 0.9976576832 -0.03876162256 -0.0563620776
0.01622524452 -0.004365105549 -0.06185364532 0.7634175298 -0.4945829212 -0.4154291868
0.01393072796 -0.005438827515 -0.06446394348 0.7150403477 -0.5112723879 -0.4767786137
0.01698612213 -0.002307765245 -0.06260661697 0.8342144227 -0.3859954196 -0.3938195438
0.0193861763 0.0041243155 -0.0618854393 0.9305964595 -0.212338177 -0.2981656054
0.02000496864 0.007624851227 -0.06170316124 0.9619610055 -0.1326145927 -0.2388396822
0.02035647615 0.0114267834 -0.06151145617 0.9875261014 -0.0861263701 -0.1318121673
0.02051041317 0.01523290229 -0.06144833851 0.9965210541 -0.004211917717 -0.08323489999
0.02054339933 0.02745982075 -0.06158743477 0.9956680674 -0.005657209206 -0.09280676402
0.02052299347 0.0393101326 -0.06202298889 0.9942080918 -0.0005464987271 -0.1074707942
0.02050578451 0.04751256752 -0.06206683826 0.9981957781 -0.01488353677 -0.05816931189
0.01346891117 -0.003897696495 -0.06659379578 0.6943001629 -0.5046786847 -0.5130757342
0.01648622179 -0.0003880743533 -0.06520658302 0.8047504748 -0.3788265027 -0.4570198619
0.01828285917 0.003842678706 -0.06487425486 0.8918500946 -0.2531721142 -0.3748430195
0.0171784687 0.002314865828 -0.06616437531 0.8273218871 -0.3125050417 -0.4667752073
0.0193990008 0.01150497437 -0.06575461451 0.9307146602 -0.1156810737 -0.3469698985
0.01993619792 0.02376766268 -0.06555924098 0.9542651433 -0.006112716001 -0.2988990984
0.01991688585 0.02761912489 -0.06563406563 0.9597971771 -0.01589833908 -0.2802438609
0.01983947817 0.03922872416 -0.0659294192 0.9532448904 0.01575964438 -0.3017876945
0.01998401833 0.05870851517 -0.06551209641 0.9708667972 0.01553378197 -0.2391157956
0.01881179857 0.051980896 -0.06880013657 0.9183684972 -0.009186463576 -0.395619656
0.01303345966 0.003925005913 -0.07249156189 0.7378200765 -0.3231573538 -0.5926135836
0.0185269928 0.0154324913 -0.06910623169 0.9216417392 -0.08556394801 -0.3784908392
0.01875760905 0.01928410339 -0.06900547028 0.937726585 -0.03508342781 -0.3455980394
0.01867189344 0.03169494883 -0.06926745351 0.9366739505 -0.0112007389 -0.3500235048
0.0184465313 0.04343544006 -0.0696975975 0.9015902248 0.01244253575 -0.4324121295
0.01835663859 0.0473778801 -0.06987121073 0.8981031367 0.01606492447 -0.4394913812
0.01558059883 0.01170226892 -0.07281107585 0.7696348387 -0.1444214862 -0.6219362101
0.01677200985 0.01555026293 -0.07208858109 0.8144528121 -0.1024895897 -0.5711063832
0.01717170525 0.02331647968 -0.07193571472 0.8234911661 -0.00330303329 -0.5673194772
0.01669913546 0.03982108561 -0.0725837733 0.8931371004 0.01076245073 -0.4496557456
0.01656489086 0.04378589439 -0.07277871704 0.8963706953 0.011777726 -0.4431488032
0.01336066771 0.02365107346 -0.07627186584 0.7367937652 -0.01910817322 -0.6758474867
0.01225631285 0.03168710423 -0.07712974167 0.7168287069 0.02327073438 -0.6968608741
