# .PCD v0.7 - Point Cloud Data file format
VERSION 0.7
FIELDS x y z normal_x normal_y normal_z
SIZE 4 4 4 4 4 4
TYPE F F F F F F
COUNT 1 1 1 1 1 1
WIDTH 308
HEIGHT 1
VIEWPOINT 0 0 0 1 0 0 0
POINTS 308
DATA ascii
0.01993164078 -0.0007160754154 -0.001612791896 0.9877864068 -0.09784293565 0.1212632445
-0.01699365171 -0.0007915204366 -0.002229105949 0.9560087628 0.2243031478 0.1890379414
-0.01608675692 -0.005526052501 -0.001894997012 0.9380203695 0.3056684113 0.1633542428
0.01104877872 -0.0160133667 -0.001616908094 -0.5685917397 0.7837275224 -0.2499492032
-0.0201684761 -0.0007964697679 0 0.9276254445 0.09796772524 0.3604349588
0.003935361505 -0.01987262726 -0.002121127009 0.2393650647 -0.9425322856 0.2331035316
0.01985920105 -0.005275276971 -0.02277601242 0.9649289049 -0.2624771947 0.00423446632
-0.0146297262 -0.009703748279 -0.001915870282 0.8920521603 0.4421002866 0.09375649235
0.01968476486 0.05487997754 -0.06649139531 0.9601854831 0.025754059 -0.2781736266
0.0002497046242 0.05463769658 -0.04001373672 0.08651106281 0.01851909504 0.9960787515
-0.01655487612 0.003952543603 -0.002067445685 0.963105484 -0.2362741877 0.128850048
-0.012361914 0.01173775927 -0.002190913121 0.8023009862 -0.5937879826 0.0610652051
-0.02016874695 0.002389409304 0 0.9237341847 -0.117880672 0.3644438271
-0.01559826374 -0.01338791752 -3.231871873e-05 0.822717623 0.518860517 0.2322056775
0.01966940832 -0.005769619981 -0.007184472919 0.9599306943 -0.2737216468 0.06007929965
-0.01484689975 0.009051569025 -0.001856468629 0.8294893359 -0.5246008478 0.1916804425
0.01927219527 0.02430169596 -0.06769608198 0.9451211417 0.005494278062 -0.3266739053
0.02034065183 0.05430278015 -0.05781892353 0.9953827938 0.04355087526 0.08553604516
0.009277153015 0.04407345496 -0.04230425432 0.4494589865 0.02300483191 0.8930047016
0.01104542274 0.0160135479 -0.001618266314 0.5976692347 0.729855151 0.3318176374
0.004394406366 0.01931719398 -0.001700393844 0.2670830608 0.9414504281 0.2057613426
-0.004086686611 0.05934973717 -0.04046026993 0.00615909352 -0.02653752968 -0.9996288437
-0.01559822559 0.01338791656 -3.230506927e-05 0.8287907066 -0.482457373 0.2834446115
-0.01009567728 -0.0146211072 -0.001842207539 0.594297413 0.7623450007 0.2562043811
-0.01607679749 -0.005576555252 -0.01123061879 0.9602796957 0.2712198663 0.06559489471
-0.009934654236 0.01380025959 -0.006845592499 0.7284158626 -0.6698337594 0.1439898119
-0.012361914 -0.01173775927 -0.002190913121 0.7236307629 0.6613992456 0.1972550555
-0.010084374 0.01425783719 -0.001893523812 0.7273508375 -0.6734216376 0.1321516444
-0.006496356487 -0.01923352432 0 0.4452028936 0.8947268801 0.0354710251
0.0126883049 0.02925855382 -0.07680341848 0.7294072055 0.01087943041 -0.6839932504
0.01642333857 -0.01236923027 -0.00699881347 0.7802646789 -0.6229110945 0.05629208942
0.01466664137 0.0143464489 -0.03743071638 0.7042329282 0.7018526665 0.1070458656
-0.005705687881 -0.01615294027 -0.002171155423 0.4197680046 0.8898208882 0.178923473
0.0153872474 -0.0116007994 -0.001131097476 0.7725763469 -0.6198586957 0.1374808552
0.02026989365 0.03939973727 -0.05730038487 0.9816714907 0.006092547387 0.1904835036
0.01539996763 0.03917999326 -0.04707382055 0.7359845432 0.01868375417 0.6767404742
0.01523547109 0.03433861637 -0.04687977791 0.7427947189 0.02254589821 0.6691395132
0.01487136682 0.0141226457 -0.02276591894 -0.7067382005 -0.7074697159 -0.002777932018
-0.009948509693 -0.01484988499 -0.007131017208 0.5960193863 0.7693028595 0.2300739043
0.02041711977 0.03441588593 -0.06271021652 0.993757748 0.001142334297 -0.1115537243
-0.005705687881 0.01615294027 -0.002171155423 -0.6069542946 0.7793126314 0.155814976
0.01445850549 -0.01445376941 -0.001959037353 -0.6688512163 0.6979452353 -0.2559501885
-0.01019930363 0.01789061737 -0.001381078601 -0.5738697066 0.8187397249 0.01840713771
0.01158537579 -0.01697638003 -0.007450523376 0.5597495806 -0.82141217 0.1093730041
-0.006496356487 0.01923352432 0 -0.558115128 0.7887385965 0.2576798989
-0.01465898895 -0.008737440109 -0.01152450466 0.8985336687 0.4351635196 0.05718354099
-0.005486283779 0.02959527334 -0.04076184464 0.1460267244 0.002292034726 -0.9892779904
-0.0005409250259 -0.0194469134 -0.0004740084807 -0.02107983778 -0.9569563595 0.2894653114
-1.222133636e-05 -0.01738777542 -7.105427358e-18 0.01509856567 0.9401731529 -0.3403622716
0.01499205849 0.01367660037 -0.00186380323 0.7155305142 0.6722824901 0.1898745287
0.01212400913 -0.00235304904 -0.06928569794 0.713628965 -0.4528308874 -0.5344884355
-0.01608163717 -0.005553493288 -0.00696677245 0.9355632208 0.3405108767 0.09366857885
-0.01699990633 -0.0007954778406 -0.007318203926 0.9638289422 0.04169591606 0.2632398539
0.02031169923 0.004548097293 -0.05700351206 0.9830263916 -0.1275849163 -0.1318377885
0.002433303833 -0.02041676331 -0.006360877514 0.2297526534 -0.9555959786 0.1845265401
0.002068939924 -0.02047423172 -0.008144246101 0.182675559 -0.9653019328 0.1866060522
0.02047691091 0.05453171666 -0.06230101522 0.9853762537 0.002442241336 -0.170375098
-0.01655233701 0.003972186698 -0.007146911727 0.9443545778 -0.2532755792 0.2098711805
-0.01460761356 0.008700345622 -0.00753146002 0.8810702056 -0.4541125718 0.1322764716
0.009542341471 0.05897021802 -0.04245642408 -0.4571898998 -0.08280572754 -0.8855058481
0.004818174028 0.05848174362 -0.04062597504 -0.2607770561 -0.08370435047 -0.961763437
-0.0003286154985 0.01862320595 -0.0002840881109 -0.05650497416 0.9643897974 0.2583786108
-0.01231908735 -0.01179486656 -0.007211058776 0.7327014223 0.6653663971 0.1429551798
-0.01654858494 0.003988684893 -0.01141685088 0.9711480277 -0.2255770498 0.07737249438
-0.01416652695 -0.00948541832 -0.007927061876 0.8759423195 0.4623999174 0.1375186144
0.002026374578 0.02047694206 -0.008161616325 0.2159814566 0.972789287 0.08386306398
-0.01231908735 0.01179486656 -0.007211058776 0.7870874045 -0.5933207601 0.1687124575
0.00627479744 -0.017092659 0 -0.2853822077 0.9138825001 -0.2887486305
0.008964844386 -0.01848594475 -0.002133658171 -0.3733864919 0.8892205112 -0.2643282244
-0.01700410811 -0.0007987977266 -0.01159665616 0.9894067661 0.08762976734 0.1157379585
0.01519629939 0.0297379996 -0.04683440272 0.7461969157 -0.00988287945 0.6656519298
-0.01520950921 0.007685700258 -0.01117277463 0.9084797915 -0.4122680321 0.06855317725
0.01161443806 0.01694622421 -0.005837664127 -0.5529654526 -0.8170539132 -0.1632547432
-0.009991306305 0.01799879265 -0.007987769604 0.8220862185 -0.5486565594 -0.1521519932
0.008965428034 0.01848591105 -0.0021334246 0.3704078343 0.9103491639 0.1845601148
0.01430779409 0.01016937304 0 0.7694920281 0.5814572046 0.2641770959
0.01787837458 -0.01009513545 -0.002464502443 0.8527711862 -0.488829643 0.1839208637
-0.004364612818 0.05450557518 -0.040516716 -0.02847152703 -0.006100372571 0.9995759889
0.001432315588 -0.02054926682 -0.01004967022 -0.224221513 0.9732508725 -0.05007446753
0.01930210853 -0.005741994813 -0.001874333043 0.9223228416 -0.3595504081 0.1415771167
0.006501283169 -0.01939667416 -0.04258441734 0.4670889258 -0.8784334899 -0.1009085685
0.01957729399 0.004302338928 -0.001760019764 0.9211724455 0.3009618162 0.2467049063
0.01817740091 0.009365706603 -0.002340693275 0.82301088 0.5207818341 0.2268024969
0.002400097847 0.02041887474 -0.006374258995 0.2469027941 0.9641423281 0.09730663588
0.008759658813 -0.01859127617 -0.007021726926 0.4452792076 -0.8922316448 0.07516062344
0.02002729972 0.004419362028 -0.0279457763 0.9805876116 0.1954438178 0.0158003212
0.009875997353 0.01795178719 -0.007519232368 -0.4565458315 -0.888315792 -0.04960803773
0.01429190554 -0.01475499671 -0.007450319018 0.6802991899 -0.7313136917 0.04871649121
0.01762535985 0.03422657013 -0.04996343994 0.9024810559 0.02198861074 0.4301679263
0.01493332319 0.01403915625 -0.007314026928 0.7245885826 0.682293302 0.09719689343
0.008551966667 -0.01869789569 -0.01196951485 -0.4089851165 0.9125310302 0.004277075202
0.02051806211 -0.0007195754399 -0.007603603482 0.9939933025 -0.1000341552 0.04439011621
0.01786746788 -0.01015519603 -0.007961279631 0.8726350582 -0.485542609 0.05250171419
0.02006982525 0.004155722985 -0.007253432201 0.9896505522 0.1394818811 0.03371334055
0.01823264673 0.009419683139 -0.007803869936 0.8755280214 0.4743138339 0.0920710086
0.009995309512 0.01788427035 -0.01215779098 0.4560335787 0.8899242125 0.008262631955
0.0203328043 0.04470074997 -0.05773434296 0.9958803938 -0.0259579124 0.08688169036
0.01146101856 -0.01706943639 -0.01233633804 0.6523726946 -0.7578530364 0.008285084009
0.01875298484 0.04958130074 -0.05231428719 0.9303297541 -0.02929284808 0.3655522913
0.01432688618 -0.01473060878 -0.0126959947 0.673740573 -0.7388468787 0.01337647858
0.0190284392 0.03940736198 -0.06829374568 0.9364860199 0.02236068275 -0.3499913346
0.01638049507 -0.01243390433 -0.01178959306 0.808449075 -0.5884565464 -0.01135720255
0.01501416323 0.01396488211 -0.01239265823 0.7131548049 0.7009678573 -0.00736799112
0.008337020238 -0.01880613899 -0.01698192819 -0.4519077592 0.8919583688 -0.01377118211
0.02052326414 -0.0007238545219 -0.01312547514 0.9938904549 -0.1083477222 0.02103651035
0.01784209633 -0.01020781676 -0.01273903147 0.8724412054 -0.4884141342 0.01726200017
0.01972740119 -0.005592978733 -0.01234992116 0.9638818901 -0.2663001212 0.003993414083
0.02005328751 0.004289547884 -0.01236028525 0.9886949627 0.1499394232 0.0006634556479
0.01821425798 0.009468296952 -0.01257252714 0.8865906962 0.4619306088 0.02402186409
0.01962730789 0.05883307743 -0.06666815376 0.9635320384 0.05145273176 -0.2625997474
0.02026620632 0.01897676023 -0.05712561459 0.9801499607 0.05475241173 0.1905471805
0.009822749615 0.01798559602 -0.01713796282 0.611431489 0.7912971301 -0.0006213851478
0.01133513864 -0.01716363144 -0.01728197797 0.6462395688 -0.7630803531 -0.00909914084
0.01425115379 -0.01480971797 -0.01759189622 0.673931879 -0.7387061012 0.01136303167
0.02007197935 0.004261307586 -0.03781550668 0.97780854 0.2084937943 -0.02051333099
0.0163298521 -0.01251035404 -0.01745271254 0.8087486269 -0.5879407968 -0.01585174635
0.01546829581 0.05442192841 -0.04715480932 0.7359815323 0.02512738342 0.6765351422
0.01508348637 0.0138898818 -0.01753584976 0.7081010344 0.7061099954 0.00126471475
0.008094322205 -0.01891729418 -0.02207147725 0.5531025112 -0.8331127606 -0.0008603411576
0.01781533051 -0.01026109632 -0.01757399432 0.8700824682 -0.4928911022 -0.003854859019
0.01515852123 0.02438273811 -0.04678964639 0.7601055376 0.0418047714 0.6484534931
0.01966114203 -0.005832714498 -0.01752137836 0.9428861644 -0.3331150327 -0.0002367011857
0.02002482268 0.004425727221 -0.01753782595 0.9748154236 0.2230073438 -0.001616964155
0.009930532972 0.03468051243 -0.04269636726 0.5046104913 -0.02201754619 0.8630663241
0.01819400152 0.009517545064 -0.01739832656 0.8837364324 0.467984676 0.0005110089774
0.02042491023 0.01907193671 -0.06245236842 0.9857404102 0.001125766958 -0.1682693564
0.01755823565 0.02430217552 -0.04985824776 0.8643681254 0.01791097598 0.5025404866
0.009646656672 0.0180883077 -0.0221829869 -0.605851359 -0.7955776667 -0.0005540305694
0.01120766417 -0.01725902049 -0.02229027621 0.6155580173 -0.7879757584 -0.01351042223
0.01592407949 -0.01058381735 -0.05218465151 0.7673332688 -0.5969973871 -0.2340807006
0.02052708647 -0.0007275723219 -0.01792075348 0.9943641276 -0.1032513401 0.02406538035
0.01417164977 -0.01488994487 -0.02255023893 0.6744399613 -0.738093514 -0.01867359668
0.01442906237 -0.01001950677 -0.05718531926 0.7181162707 -0.6185904763 -0.3188335686
0.007845155557 -0.01903016154 -0.02723222669 -0.540884695 0.8410665685 0.007125593782
0.01627851295 -0.0125878528 -0.02319352913 0.809072204 -0.5874891311 0.01608382727
0.0181665554 -0.009567598343 -0.02228655879 0.8929611222 -0.4501283884 -0.002206397683
0.01998992054 0.004564374374 -0.02278747867 0.9840397053 0.1772814441 -0.01539960951
0.01817178218 0.009567459 -0.0222840697 0.8826225118 0.4700784483 0.001937536389
0.009448413134 0.01819358476 -0.02730476507 -0.5980711357 -0.8014404655 0.002024068517
0.01107648595 -0.01735577138 -0.0273651708 0.6091126492 -0.792827157 -0.02017126225
0.02052907477 -0.0007313324213 -0.02277557479 0.9931688774 -0.1165946876 -0.004610827038
0.01220996761 0.0166032753 -0.07691399384 0.7253515015 -0.08852232569 -0.6826631652
0.01650557423 -0.01227767968 -0.02846470261 0.8093395916 -0.5869428868 0.02162112601
0.01409097878 -0.01497121541 -0.02757275581 0.6798453578 -0.7333526324 -0.002050856616
0.01569291676 0.05856445779 -0.04743305503 0.7352843368 0.05607948244 0.6754347013
0.01479530991 0.01419963476 -0.02778148842 -0.7061972191 -0.7076012409 -0.02420685109
0.01891715399 0.01462719138 -0.06792803574 0.923357855 -0.09032492565 -0.3731644133
0.01523928115 0.04450769043 -0.04688303604 0.7339542104 -0.02024893835 0.6788970448
0.007592460314 -0.01914462789 -0.03246607018 0.5342606363 -0.8452915001 -0.006917533913
0.01824466515 -0.009427328706 -0.02697656298 0.9057865936 -0.4237219424 -0.003219058474
0.01246195984 0.05001212056 -0.0442620697 0.5307186558 0.0129110356 0.8474497115
0.01856522338 0.008864094734 -0.02702489281 0.916798705 0.3989433751 -0.01800883233
0.017315286 0.01112589645 -0.02764668846 0.8812461057 0.4723378205 0.01738633352
0.0202579217 0.0243081797 -0.05719698747 0.9750369412 0.006931945601 0.2219344757
0.01057665691 0.029680163 -0.04299814453 0.5522091284 -0.01337617881 0.8335983183
0.00924033316 0.01830075677 -0.03250124359 0.5578874316 0.8284273238 0.04969690949
0.01092153041 -0.01745506223 -0.0325197862 0.6104651741 -0.7920220009 -0.005781108915
0.0198931143 -0.00515711485 -0.02801346376 0.9653207307 -0.2594353035 0.02914121136
-0.0004397351642 0.02919253604 -0.04002343623 -0.008437019236 -0.009208065566 0.9999220111
0.02053086578 -0.0007351396084 -0.0276919952 0.9987884586 -0.03526206349 -0.03432494588
0.004993991057 0.02099599711 -0.04072601446 0.4404864728 0.6153496516 0.6536944803
0.01400923014 -0.01505357234 -0.03266239134 0.6806077054 -0.7324272622 0.01798491157
0.01471823364 0.01427765475 -0.03286417219 0.7093576354 0.7038418836 0.03766096277
0.01253714498 0.05469251887 -0.04432260132 0.5314274144 0.01926475702 0.8468847456
0.01724122365 0.01124612172 -0.03778361638 0.8407087553 0.5330435782 0.09525404178
-0.005747171402 0.02159025002 -0.04083015442 -0.1493397895 -0.0009616260179 0.9887854684
-0.005651940823 0.02479148483 -0.04080522029 0.1487805351 0.002514986283 -0.9888670422
-0.005291246414 0.03440194448 -0.04071077474 0.07143528838 0.004560334534 -0.9974348114
0.01669913546 0.03982108561 -0.0725837733 0.8197906506 -0.03559752815 -0.5715558635
-0.005080118815 0.03921360906 -0.04065865072 0.06037874551 0.005321430569 -0.9981613544
0.01024421835 -0.01401930666 -0.05660288811 0.5729938462 -0.7471210753 -0.3368800247
-0.004880909443 0.04403501765 -0.04061945216 -0.03088268448 -0.01941950922 0.9993343497
-0.004658244928 0.04886325455 -0.04057559586 -0.02357795735 -0.01967140734 0.9995284466
0.007384741783 -0.0192240715 -0.03601345062 0.5186666102 -0.8548054654 -0.0171044962
0.01674159431 -0.01195425447 -0.03295691299 0.8067247208 -0.5909273868 -0.0002200431072
0.01852416833 -0.008911803404 -0.03203968112 0.9055499622 -0.4241826584 -0.006952573147
0.01854686324 0.008911139488 -0.03202813848 0.9178727058 0.3967485306 -0.01001496295
0.0168399086 -0.001539583117 -0.06361198616 0.8217242051 -0.389980075 -0.4155536931
0.0172785066 0.01118560187 -0.03268079376 0.8841209901 0.4672114825 0.006595869396
0.01924220538 0.04461651754 -0.06760687542 0.9580527217 0.01881252399 -0.2859738998
-2.689112537e-05 0.0450581487 -0.04000216293 0.07271817832 -0.02937471923 0.9969198526
0.009904194713 0.01797368097 -0.03732164669 0.6314492157 0.7223164428 0.2820121354
-0.0005809175968 0.0212887249 -0.04003096008 0.06993139586 -0.02188585114 -0.9973116912
-0.0005293935736 0.02444853401 -0.04002821604 -0.05187086421 0.02022194315 0.9984490405
0.01234232044 0.04069482422 -0.04415158844 0.5082142165 -0.02605485607 0.8608364854
-0.0003341227869 0.0339429245 -0.04001780828 -0.01342930636 0.006820404197 0.9998865615
-0.0001901357472 0.03949479771 -0.04001013374 -0.02467582911 -0.000308529954 0.9996954578
0.0001084106813 0.0498412056 -0.04000577799 0.08443402102 -0.02702058971 0.9960626405
0.01883659442 0.0588950901 -0.05252562586 0.908709951 0.04288962366 0.4152188642
0.01807595189 0.01386715905 -0.04829736646 0.9137171591 0.2870121783 0.2876542415
0.01040963078 0.01938530135 -0.04228596449 0.6282029819 0.6029707535 0.4917187042
0.0003685599715 0.05864641953 -0.04002530479 -0.1072347219 -0.07370137191 -0.9914982714
0.0200956568 -0.0009709447111 -0.05229650116 0.9672822515 -0.2190008015 -0.1280769104
0.007197636604 -0.01928606892 -0.03871611977 -0.4786282498 0.8764322043 0.05274077833
0.01075846291 -0.01755608813 -0.03775027974 0.6020816358 -0.7982551971 -0.01692170468
0.01988684209 -0.005184347524 -0.03300953632 0.9676451203 -0.251226271 0.02341541973
0.0205326803 -0.0007389966514 -0.032672806 0.9989328245 -0.02792392245 -0.03678949227
0.005025883622 0.02411385939 -0.04073454369 0.1841462574 0.2444961101 0.9520041009
0.0200240051 0.004442666749 -0.03293797032 0.9787064872 0.2040253911 0.02252225144
0.00722623682 0.01928432465 -0.03870147896 0.4496981151 0.7929107133 0.4111741797
0.01909465844 0.02963066428 -0.06816583688 0.9425716584 -0.01105036797 -0.3338211469
0.005301526265 0.02934805593 -0.04080281448 0.2637129204 0.01068495487 0.9645420299
0.02034215037 0.01449170102 -0.06245572705 0.9861290315 -0.05928211319 -0.1550327844
0.003888981308 0.03470676422 -0.04041941234 0.185890873 -0.03413066579 0.981977434
0.004158278068 0.03985518074 -0.04047333781 0.1889516768 -0.01420180021 0.9818836859
0.01950057435 -0.005454216987 -0.04709736729 0.9285300362 -0.3595192405 -0.09261688661
0.004255122741 0.04457965215 -0.04049182447 0.2167310561 -0.001181041472 0.9762306359
0.004359259884 0.04931666819 -0.04051430384 0.2265134233 9.294205199e-05 0.9740080392
0.004470401088 0.05406775983 -0.04054098574 0.2602954572 0.01758849401 0.9653687999
0.01655976582 0.01531396656 -0.04646367493 0.8740858802 0.3241074964 0.3618400266
0.01410250282 -0.01497127647 -0.03738512192 0.6765978547 -0.7360763741 -0.02017212073
0.01681294518 -0.01185980911 -0.03766854324 0.802116008 -0.5962558029 -0.03299889745
0.01850092347 -0.008959616025 -0.03711341095 0.9018696186 -0.4319111986 -0.009160108059
0.01852492778 0.008958910306 -0.03710080846 0.9206493011 0.3903789303 -0.003025741511
0.009773507638 0.03921270683 -0.04260447624 0.4960637132 0.009435776953 0.8682348522
0.00952281163 0.04931280518 -0.04242973189 0.4506424379 -0.008380698326 0.8926651987
0.009284316158 0.05474037247 -0.04232372437 -0.4635858692 -0.004187516053 -0.886042102
0.01040878248 -0.01765332317 -0.04227770996 0.566108558 -0.8201012681 -0.08339670636
0.01368592771 -0.01521518723 -0.04226829656 0.6680619563 -0.7430472477 -0.03967379785
0.01993043232 -0.005023382396 -0.03783379793 0.9666704463 -0.2556659964 -0.01353316477
0.02053440221 -0.000742906087 -0.03772108714 0.9992471372 -0.03234477283 -0.02142368715
0.0151521042 0.01440050628 -0.04234536708 0.7255959841 0.618577881 0.3014496194
0.01082976359 0.02436407939 -0.0431421429 0.606328958 0.1910249562 0.7719291812
0.01938713604 0.01437916586 -0.05225335693 0.940609402 0.1219329963 0.3168379668
0.00455232048 -0.01956768799 -0.04627176285 0.4120550668 -0.9003402083 -0.1399933254
0.01649485747 -0.006394543648 -0.05866850408 0.8090347042 -0.4796884105 -0.3396496376
0.01653692071 -0.01207813994 -0.04245726585 0.7964635553 -0.6019148848 -0.05782971949
0.01062645888 -0.01695041037 -0.04655165672 0.5459588222 -0.8295350293 -0.117475953
0.0184086024 -0.009010169347 -0.04229567337 0.8985278349 -0.4376421331 -0.03342294521
0.01982249784 -0.005235278934 -0.04237593031 0.9611326799 -0.2715490685 -0.04985052591
0.02007118495 0.00448633341 -0.04266880449 0.9834023187 0.175075423 0.04762851867
0.0183801899 0.009578072786 -0.04252859306 0.9072498386 0.3939028633 0.1474390202
0.01725601959 0.01128543663 -0.04120109558 0.9069462116 0.4109045404 0.09276867934
0.01327655602 0.01831928873 -0.04425095844 0.6523611097 0.4508148005 0.6092544609
0.01238708138 0.0445711813 -0.04419642544 0.5394758337 -0.00175331068 0.8419992582
0.01260492706 0.05860544395 -0.04437713623 0.5624850451 0.03088128078 0.8262305493
0.02052014287 -0.0007469350629 -0.04284872309 0.9921616098 -0.1238974673 -0.01627137532
0.02042539703 0.02979958344 -0.06261384201 0.994384227 -0.01584504901 -0.1046371991
0.01560464334 0.01917201843 -0.04701939697 0.7901382065 0.2776519701 0.5464348068
0.01540503422 0.0497624108 -0.04708009624 0.7336873926 -0.02433201371 0.6790513699
0.00707678318 -0.01795248985 -0.05027486801 0.4567013435 -0.8658744688 -0.204169751
0.01369074011 -0.01452924824 -0.04751336861 0.6590766242 -0.7373895748 -0.1479007046
0.01572844009 -0.01232120914 -0.0476078392 0.7798387064 -0.6117124528 -0.1328889277
0.01032562955 -0.01576246897 -0.05205595016 0.5520303754 -0.8017220475 -0.2291380002
0.01804642601 -0.00891455822 -0.04735391006 0.8881968426 -0.4471309605 -0.1057368095
0.02031732383 0.004680643375 -0.04789454181 0.983819409 0.1595332551 0.08153840176
0.01920688788 0.01923775387 -0.06779730352 0.9415406546 -0.029141727 -0.3356366419
0.01909220039 0.009792481846 -0.04712258911 0.9487013823 0.2569262407 0.1842677237
0.01282798958 -0.01386322737 -0.05243210602 0.6629776325 -0.7141300298 -0.2246752307
0.02044829011 -0.0005630905256 -0.04786493063 0.9860678969 -0.1585410952 -0.05034703323
0.01762516276 0.01896893946 -0.04976308823 0.8976521662 0.1473926505 0.4153263717
0.01759145164 0.02964031537 -0.04991030121 0.8575809184 0.004181423239 0.5143320758
0.01684770075 0.03508288956 -0.07237133026 0.801329708 -0.03037194446 -0.5974514575
0.01939613321 0.0493789711 -0.06721457418 0.9546302055 -0.02814956095 -0.2964604071
0.01867554176 0.03956988454 -0.05212909031 0.9018960872 0.02738980929 0.4310838042
0.01871505324 0.04495142078 -0.05222337786 0.9038376729 -0.01807604495 0.4274935293
0.02043335867 0.02442904838 -0.06251955573 0.9859992704 -0.004898465913 -0.1666776645
0.01879460176 0.0542284104 -0.05241436895 0.9081868586 0.02148419697 0.4180132285
0.02040683662 0.03904600016 -0.06282111062 0.9936330346 0.01495033157 -0.1116686174
0.01768535995 -0.008352194786 -0.05142203522 0.8752367705 -0.4533504514 -0.1686237341
0.01894783282 -0.005112849057 -0.05223971558 0.9229204693 -0.3437402587 -0.1733794734
0.020038087 0.009814288881 -0.0518500256 0.9736673958 0.1468489185 0.1743765967
0.0189681299 0.01895404349 -0.05253435347 0.9150996239 0.1062408922 0.3889801424
0.01342212868 0.01969526609 -0.07617480469 0.7338097364 -0.02115155024 -0.6790256864
0.01893135786 0.02428100173 -0.05261639913 0.9008610411 0.02069501304 0.4336140001
0.01895537504 0.02961549632 -0.0526777632 0.9010985119 -0.01239544585 0.4334372213
0.01897944514 0.03419915983 -0.05274067688 0.9011858419 0.02387004544 0.4327751139
0.02052839923 0.004525210977 -0.05242889166 0.9998756927 -0.007643740984 -0.013790298
0.01653598722 0.04458159002 -0.0728207194 0.8833276209 0.004369446245 -0.46873577
0.01801341057 -0.004956360638 -0.05656752491 0.8868179179 -0.3823428205 -0.2595533627
0.009942369779 -0.01019594034 -0.06317854691 0.624806414 -0.6340087004 -0.4556862001
0.0193740859 -0.0005709128454 -0.05732975101 0.9376163138 -0.275670237 -0.211852705
0.02052704896 0.00985158062 -0.05689630424 0.9971769847 0.01396691177 0.07377659908
0.02038797463 0.01441002284 -0.05701000553 0.9878856992 0.03159252554 0.151933399
0.02026856889 0.02965013271 -0.05727272839 0.9761322296 -0.01752340798 0.2164689366
0.02027965228 0.03424085151 -0.05734993913 0.9785591536 0.01455183218 0.2054512767
0.0203250885 0.04964439689 -0.05769085015 0.9951272657 -0.02602447401 0.0951023231
0.02032788467 0.05877777815 -0.057742311 0.995956006 0.06382280735 0.06323198121
0.01380557919 -0.008519899368 -0.06087583923 0.7045595127 -0.572488562 -0.4193479933
0.01532539501 -0.005102486849 -0.06251969147 0.7436456875 -0.5083127485 -0.4342916546
0.01805780697 -0.0003821638525 -0.06195953178 0.8579088103 -0.3563930968 -0.3701032744
0.009979419708 -0.007082402706 -0.06686252594 0.6512410612 -0.5424393389 -0.5307020293
0.01938855338 0.004581582785 -0.06206792498 0.9483798117 -0.1937777366 -0.2510496396
0.02002120484 0.009922104836 -0.06261812888 0.9688617559 -0.1126143267 -0.2205105698
0.02044012146 0.04413355064 -0.0625639328 0.993934246 0.009377030875 -0.1095754802
0.02049649143 0.04984743245 -0.06214152273 0.9968152981 -0.01364716932 -0.07856854501
0.02045953703 0.05845165157 -0.06244466114 0.9839351574 0.04256280808 -0.173378238
0.01346891117 -0.003897696495 -0.06659379578 0.7006215287 -0.5061959907 -0.5028867592
0.01544894632 -0.0007758565148 -0.06661385854 0.7695891848 -0.4165082094 -0.4839973121
0.01647816968 0.003484009027 -0.06799273682 0.8289786507 -0.293875726 -0.4758481421
0.01398435307 0.00469329977 -0.07189519501 0.7744855052 -0.3133242704 -0.549545361
0.01831971884 0.005768676341 -0.06593096161 0.8894023075 -0.2193362381 -0.4010675131
0.01325122356 0.0007829546928 -0.07046376038 0.7349877484 -0.3995829602 -0.547837994
0.01828274651 0.01033276691 -0.0681048996 0.8895460952 -0.1578704935 -0.4287011217
0.0190970637 0.03472751236 -0.06813819758 0.9388460381 -0.01196958255 -0.3441291122
0.01533060455 0.00920863409 -0.07220191498 0.768975275 -0.2014539806 -0.6067069476
0.01828011131 0.05054227448 -0.07001965332 0.9251223391 -0.002844299682 -0.3796584881
0.01817668104 0.05451668262 -0.07022126579 0.9318066627 -0.001474559929 -0.3629520203
0.01804431629 0.05930746841 -0.07048026657 0.9297091572 0.02374384917 -0.3675283834
0.01661001269 0.01477893194 -0.0721840388 0.8016162006 -0.08874215285 -0.5912159481
0.01717672793 0.01942045975 -0.07187708791 0.8545673014 -0.03219850812 -0.5183415702
0.01715330569 0.02409807078 -0.07196014659 0.8593600244 0.01676394191 -0.5110961933
0.01701225948 0.02957928371 -0.07214858246 0.7995353554 0.006359470108 -0.6005853583
0.01635427411 0.04936764908 -0.07308488464 0.8843244523 0.005148506794 -0.4668444666
0.01614715576 0.05418333944 -0.07338083394 0.8857212108 0.001583986098 -0.4642148508
0.01586188555 0.05823831558 -0.07371117783 0.8828670914 0.01041165804 -0.469507504
0.01329170195 0.02444807752 -0.07632939911 0.727092478 -0.002797431973 -0.6865338322
0.01193904877 0.03331520081 -0.07736858368 0.7202143253 0.008976907435 -0.6936935496
