# .PCD v0.7 - Point Cloud Data file format
VERSION 0.7
FIELDS x y z normal_x normal_y normal_z
SIZE 4 4 4 4 4 4
TYPE F F F F F F
COUNT 1 1 1 1 1 1
WIDTH 554
HEIGHT 1
VIEWPOINT 0 0 0 1 0 0 0
POINTS 554
DATA ascii
-0.004447505474 -0.007219221592 -0.06967713928 0.214774281 0.6627668329 0.7173647144
-0.01084313393 -0.01745846939 -0.04120698929 -0.5136278524 -0.8573328361 -0.03415900077
-0.004967325211 -0.01998145294 -0.0133413868 -0.2369189509 -0.9714965244 0.007994611234
0.009422607422 -0.008700094223 -0.06556854248 0.4458502674 -0.673911036 -0.5891192194
-0.003224420547 -0.02030649185 -0.0126358633 -0.1591734461 -0.9872484237 -0.002089008345
-0.01718152618 0.0177455101 -0.07178579712 0.8342041604 0.05759156861 0.5484401791
-0.000186044991 -0.02056710434 -0.03479220963 -0.006478921833 -0.9999615675 -0.005906525388
-0.003896134615 0.02400048065 -0.08080270386 0.1808174793 -0.005238017069 0.9835027211
-0.01068228531 -0.01760328293 -0.01671167564 -0.5183289946 -0.8551752827 -0.00320767752
-0.01422363186 0.04086730194 -0.04571747971 0 0 1
-0.005135278463 -0.01993904972 -0.02108571625 -0.2537678991 -0.9672550717 -0.004413580724
-0.001375517845 -0.02055080414 -0.01183742809 -0.09081589102 -0.9958594461 0.004054321568
-0.0181379509 0.04952840424 -0.05090307999 0.8901325983 -0.004315471017 -0.4556811761
0.006227479935 -0.01958574295 -0.007573772907 -0.2335133301 0.9723431575 -0.004506520578
-0.02026663589 0.02153598404 -0.05712182617 0.9839809485 -0.003716713896 -0.1782348983
-0.01636612034 -0.01246486712 -0.02370771313 0.7865327257 0.6175302276 -0.004763338837
0.01108725452 -0.01731019211 -0.004022845745 0.9785645219 3.237019248e-06 -0.2059404685
-0.01752879906 0.01074064732 -0.006115917206 0.1328899134 -0.9825814883 0.1298995369
-0.02042529106 -0.002354532003 -0.04360002136 0.9921868877 0.1225783986 0.02323178816
-0.01871022701 0.0254948101 -0.06914811325 0.9067553996 0.001533941774 0.4216542331
-0.01969798851 0.006014173031 -0.009515357018 0.9740465227 -0.2263350429 -0.002412463437
-0.01637904358 -0.01244184542 -0.01867245674 0.7855730926 0.6187177329 0.007955070392
-0.01650067806 -0.01090739703 -0.04933344173 0.8051203349 0.5651506964 0.179960931
-0.02037132072 0.003058079958 -0.0113043499 0.986484707 -0.1638373861 -0.002287731662
-0.0187620163 0.04405889511 -0.06904042053 0.9072595451 0.01131073909 0.4204190587
0.002210675478 -0.02046331978 -0.028787323 0.1111625259 -0.9937520958 -0.009983228902
-0.02030268478 0.027914505 -0.05730450821 0.988209062 0.01823522071 -0.1520208094
-0.02050733185 -0.001389494538 -0.01356338787 0.9950095932 0.09968884965 -0.004247681187
-0.01925633621 0.007248374939 -0.03754586029 0.9601080091 -0.2795821812 -0.0051395319
-0.01950780869 -0.006575947762 -0.01562672043 0.9516377727 0.3071754215 -0.005367490903
-0.01454463768 -0.01454470587 -0.02548594952 0.7075969598 0.7064379001 -0.0158756313
-0.02056054306 0.03372009277 -0.06178193283 0.997634127 -0.003544022104 0.0686555798
-0.01850768534 -0.00894745636 -0.01743856239 0.9036285864 0.4282334853 -0.008453399677
-0.01757542419 -0.0106533699 -0.01668367958 0.8561263 0.5167648745 0.001350149179
0.001700221658 -0.002976554632 -0.07365318298 -0.07867209238 0.5695140949 0.8182080405
-0.01937679672 -0.006988429546 -0.03880880737 0.9371743594 0.3486866513 0.01103807889
-0.01896432877 0.008008428574 -0.02887762642 0.9520729748 -0.3058003148 -0.006574046708
-0.01638340378 -0.01243407869 -0.01697376156 0.7865872787 0.6174096423 0.009262102062
-0.01957578087 0.05261068726 -0.06684422302 0.9576285258 0.01205722166 0.2877537662
-0.01541818428 -0.0089532938 -0.05720148659 0.7429084515 0.5744414042 0.3436627793
-0.01141763115 0.04987287521 -0.07773387909 -0.5456697411 0.0003844980094 -0.8380002302
-0.02002327156 0.00466506052 -0.03080849648 0.9690604378 -0.2468235248 -0.0001248404015
-0.01867573738 -0.008595229149 -0.02518506559 0.9161464945 0.4008425315 0.0009303273983
0.007264800072 -0.01888126373 -0.04538570404 0.2916900685 -0.9465054722 -0.1380010688
-0.01454210997 -0.01454219198 -0.01710523033 0.7074231783 0.7067047885 0.01099039278
-0.006715923786 -0.0163181324 -0.05544655228 -0.3128816404 -0.8793115118 -0.3590492226
-0.01327499866 -0.006839173794 -0.06378959274 0.6450995268 0.5845989947 0.4920270479
-0.02041111946 0.01076490498 -0.06091741943 0.9910980361 0.065309504 0.1160144451
-0.01243603897 -0.01638541842 -0.01697572136 -0.6234150688 -0.7818454387 -0.00844760167
-0.008950126648 -0.01851021703 -0.01744110616 -0.417228791 -0.9087695232 0.007621653418
-0.01559527683 0.0235006752 -0.07402279663 0.7743213018 0.0002975747914 0.6327925671
-0.01904292488 -0.006837462187 -0.04718989372 0.9232344489 0.3686979634 0.1081663721
-0.003298596263 -0.02029906654 -0.01526254749 -0.1693901768 -0.9855490576 -0.0001517429864
0.0006956766844 -0.02055131531 -0.01255741024 0.0190119192 -0.9997951802 -0.006938636407
-0.02025193214 0.05315592194 -0.05713344193 0.991664441 -0.007471862614 -0.1286305089
0.00301920104 -0.02033802795 -0.013058815 0.1632356895 -0.9865860568 0.001436019996
-0.02011205864 0.00433068037 -0.03589474869 0.9753087121 -0.2207628884 0.00605501675
0.006092124939 -0.01962976456 -0.009443281174 -0.2279509073 0.9736601984 -0.004919543947
-0.01817762375 -0.009635407448 -0.03942831039 0.8799725248 0.4749847268 0.006153453603
-0.00183110106 -0.01392251968 -0.06224015045 -0.07636594181 -0.8339763638 -0.546490318
-0.01972406006 0.00589994669 -0.01135264206 0.9749688427 -0.2223414525 -0.0001853819363
-0.01412529786 -0.008293489456 -0.06068592834 0.6911972669 0.5902487684 0.416956508
-0.02057732201 0.0005633733869 -0.01523867321 0.9999875902 -0.004878670149 -0.001008968896
-0.02050443268 -0.001447986007 -0.01532061672 0.9946173944 0.1035591505 0.003426527771
-0.01991403389 -0.005224559784 -0.02529756927 0.9702053683 0.2421461588 -0.008171965721
-0.00217579627 -0.02046742821 -0.03721437836 -0.09367611279 -0.9955861979 0.005736593464
-0.01949808693 -0.006606557846 -0.01734706497 0.9535999849 0.3010516527 0.003869265077
-0.01802938652 0.03805139542 -0.07054353333 0.8801935577 -0.00655604732 0.4745696146
-0.01756678295 -0.01067673349 -0.01923549366 0.8558530179 0.5172189085 0.000460931246
-0.0122976408 -0.01014956061 -0.06069263077 -0.598278918 -0.6651791832 -0.4467650283
-0.01737190247 -0.008995300293 -0.05120320129 0.8428590854 0.5016791519 0.1946961498
-0.006592527866 -0.01948499107 -0.01733381462 -0.3058264065 -0.9520863263 0.001355151412
0.004711658001 -0.02005153656 -0.02914743423 0.2467336091 -0.9690734923 -0.004369516438
-0.005042559624 -0.01996245766 -0.01681045341 -0.2079291248 -0.9781377225 -0.003474897011
-0.01039150524 -0.01039176941 -0.06254980469 -0.5074048866 -0.6942968659 -0.5103843093
-0.0003800611794 -0.02057057953 -0.03968481064 -0.01351067773 -0.9998693564 -0.008873092639
-0.01414440584 -0.01414447451 -0.04739586067 0.689911318 0.7116784544 0.1324241322
-0.001493257761 -0.02054535866 -0.01536272526 -0.09969522386 -0.9950164085 -0.001791389899
0.01026690674 -0.01785826302 -0.008309041977 -0.6719011982 0.7398603754 0.03399124545
0.00180117321 -0.02051156235 -0.03713972855 0.06662355042 -0.997740996 -0.008614378783
0.004201789379 -0.02015782928 -0.03758470154 0.2255207832 -0.9742001855 0.008624092119
-0.01974995422 0.005786489964 -0.01317754459 0.975766427 -0.2188137703 0.0006433321321
-0.01730430222 -0.0107327733 -0.044984478 0.8411772183 0.5334373565 0.08868750851
-0.02040676689 0.04971166229 -0.06313938522 0.9941950003 -0.004533762171 0.1074976579
-0.01395128345 -0.0001360514611 -0.06905601501 0.6756765507 0.4261724086 0.6015299469
-0.02039152527 0.002882750034 -0.01489190865 0.9873406103 -0.1580166227 0.01375740774
-0.02050155258 -0.001506108522 -0.01706676102 0.9939490478 0.1098405282 -0.0005905177134
-0.02030709457 -0.003388992786 -0.01788286972 0.9864462061 0.1640602373 -0.002849730553
-0.01994055367 -0.005066299915 -0.018516325 0.9772582565 0.2120435439 0.00195846036
-0.02020890427 0.003991328001 -0.04089867401 0.9776963369 -0.2100070347 0.002630256073
-0.0194884243 -0.006636980534 -0.01905687523 0.95036544 0.3109963143 0.009317881969
-0.01713226509 -0.01058391857 -0.0471643219 0.8340615683 0.5384561456 0.120026162
-0.01637255645 -0.01245340157 -0.02120009422 0.7852345471 0.6191981056 0.0006418866554
-0.008706715584 -0.01239617205 -0.06118789673 -0.4048210611 -0.7698331612 -0.4934336961
-0.02040834045 0.03155462646 -0.06320405006 0.9921295441 -0.008135327889 0.124951127
-0.02040152931 0.002795937061 -0.01666825294 0.9869644818 -0.1606875668 0.008978728018
-0.01454339385 -0.01454346871 -0.0213255229 0.7076116447 0.7065975644 -0.002375324947
-0.01944097137 -0.006786381721 -0.02745343018 0.9435756747 0.3311434149 -0.002997480143
-0.00875272274 -0.01860577011 -0.01965269184 -0.4187970439 -0.908044022 0.008067849777
-0.02052363396 0.004946948767 -0.05545379257 0.9967168112 0.06435828782 0.04912849617
-0.006623053551 -0.01947542191 -0.01904384232 -0.3218080412 -0.9468029454 -0.001940934937
-0.005307177067 -0.01945431519 -0.04596454239 -0.2596309199 -0.9544506004 -0.147023253
-0.01952968025 0.04108482361 -0.06701826477 0.9541946902 -0.006724429941 0.2991108077
-0.01636186266 -0.01247245073 -0.02536636639 0.78322658 0.6215947735 -0.01326883271
-0.01937695408 0.02170842934 -0.06752028656 0.9361810415 0.007730953714 0.351433194
-0.002442666769 0.007874829292 -0.07898293304 0.1100657037 0.3156300773 0.942477159
-0.005079828739 -0.01995304871 -0.01852891922 -0.2145930014 -0.9766955118 -0.003964979197
0.0001323811859 -0.01577731991 -0.05921863556 -0.005508204836 -0.8903391145 -0.4552646712
-0.00337215209 -0.02029170418 -0.01786726952 -0.1720292668 -0.9850872343 0.00301199987
-0.001549913168 -0.0205411644 -0.01710713196 -0.1015041489 -0.9948085874 -0.007265134616
-0.0178498745 -0.007616297722 -0.05236654663 0.8676697796 0.4545342107 0.201364855
-0.02056614971 0.001225564301 -0.04921593666 0.997179071 0.07109322659 0.02407599544
-0.01934877682 -0.007015108824 -0.04117160797 0.9353383591 0.3529122173 0.02439509956
0.005824240208 -0.01971688843 -0.0131432724 -0.2164515235 0.976276309 -0.005771172746
-0.0186037302 0.05114715004 -0.06934564209 0.9069344069 -0.005618585128 0.421234392
-0.01879035568 -0.008361568451 -0.04072026062 0.9190830423 0.3934928309 0.02120738966
-0.01803824043 0.009874656677 -0.01214524937 0.7398679667 -0.6718929241 0.03398956334
-0.02035360813 0.05690623856 -0.06342593765 0.9872105866 -0.006733966313 0.15927935
-0.02053197861 0.006845640182 -0.05704533386 0.998617599 0.04186571793 0.03178289914
-0.006678602695 0.04751519203 -0.08006306076 0.3275961976 -0.02039677751 0.9445976407
-0.01977567863 0.005673790932 -0.01499025822 0.9765057103 -0.2154910876 0.0004345687608
0.0004858877063 -0.02055507278 -0.01784775925 0.001847456166 -0.9999810836 0.005866799906
-0.02037514877 0.01879772949 -0.06348949814 0.990181936 0.01487865105 0.1389905008
0.002829592943 -0.02037172318 -0.01663782692 0.150804503 -0.9885104056 -0.01025572423
-0.0003807281256 0.009046321869 -0.07949755096 -0.01271667764 -0.2773226155 -0.9606926944
-0.01072148037 -0.01757900047 -0.02178710175 -0.5159351772 -0.8565747951 0.009513848873
-0.02032352638 0.03671217728 -0.0575538826 0.9919907016 0.005637137806 -0.1261850646
-0.009078995705 0.01245599651 -0.07819428253 0.4423785384 0.1901261003 0.8764435491
-0.008774147511 -0.0185968647 -0.02134239864 -0.401652834 -0.9157915082 0.0009563272056
-0.006653028488 -0.01946556854 -0.02074315262 -0.3483589773 -0.9373525296 -0.004032139295
0.01411258698 -0.008238863945 -0.06077968597 0.618304339 -0.6218343025 -0.4806473184
-0.01944981575 0.05710161591 -0.05394469833 0.9517720174 -0.01670090404 -0.3063512799
-0.02004795933 0.0452329464 -0.06516159439 0.9758941964 -0.005335851735 0.2181789313
0.005691680908 -0.01976000214 -0.01497416496 -0.2105071456 0.9775725935 -0.006210158615
-0.01820525932 0.009590744019 -0.01412194443 0.7398666332 -0.6718943764 0.03398988231
-0.02010453224 -0.0004151344001 -0.05350256729 0.9736738826 0.1845423368 0.1338032001
-0.01815616989 -0.009638742447 -0.04099248886 0.8756848171 0.4822220784 0.02525803386
-0.02046491814 -0.002115961313 -0.03558397675 0.9957231628 0.09170054237 -0.01124248779
-0.01980123138 0.005561837673 -0.01679097366 0.961037498 -0.2751601548 0.02634040045
-0.01796637821 -0.006813273191 -0.05361230278 0.875971343 0.4307489731 0.2170933635
-0.01448675823 -0.00895560503 -0.05908611488 0.717087486 0.5854373588 0.3782177102
-0.01775758934 0.005452276707 -0.06702780914 0.8574374953 0.2582927035 0.4450683329
-0.02039274788 -0.00254937911 -0.02091752052 0.9923440067 0.1227858199 0.01330469154
-0.02045060921 0.002370048523 -0.02538267326 0.9903722911 -0.138429462 -9.545449438e-05
-0.01836369705 0.009317463875 -0.01607524872 0.7398758195 -0.6718843671 0.03398777731
-0.01626322174 -0.008856948376 -0.05524325752 0.7982408844 0.5356569525 0.2754689087
-0.002710655391 -0.01198466063 -0.06482920074 -0.1284017797 -0.7834144196 -0.6080911363
-0.01635342264 -0.01248748636 -0.02865491962 0.7823208752 0.6228278017 0.007718657299
-0.01755254173 -0.01071523666 -0.02344090462 0.8575121931 0.5143988547 -0.008164369632
-0.01075998306 -0.01755514717 -0.02677281189 -0.5215795213 -0.8531973986 -0.00300034035
-0.01959789085 0.01226198006 -0.05161452866 0.9500013163 -0.1799646185 -0.255167073
-0.01246817207 -0.01636941767 -0.02371084881 -0.6216402202 -0.7832933506 0.00386826971
0.008391109467 -0.01878250313 -0.02527080727 0.3340152783 -0.9425214112 0.009337203147
-0.01073439026 -0.01757100296 -0.02345877075 -0.5149117254 -0.8571982843 0.00877589822
-0.008795444012 -0.01858801365 -0.02302202129 -0.4044057648 -0.9145309966 -0.009435766917
-0.006697631359 -0.01945090675 -0.02327177525 -0.3479510251 -0.9375099727 0.002266103903
-0.01251770115 0.03103540421 -0.07693296051 0.6010956698 -0.01383986807 0.7990572281
-0.002563240707 -0.02040525055 -0.02093004131 -0.1128044841 -0.9934985767 -0.0153533833
0.005560024261 -0.01980282021 -0.01679258919 -0.204889208 0.9787748767 -0.004489234554
-0.01986618805 0.003497149467 -0.05952125931 0.9619302993 0.1675746205 0.2158908193
0.00960307312 -0.01819456482 -0.01411101055 0.8386023567 -0.5410489078 -0.06334166574
-0.01982661629 0.005450619221 -0.01857987595 0.956774287 -0.2906121054 0.01129459502
-0.01105423164 -0.0009266819358 -0.07126186371 0.5317183295 0.4779919395 0.6991418481
-0.01628364563 0.04893224716 -0.07318293762 0.7900818047 -0.005948614421 0.6129725572
-0.02011221313 0.02315395164 -0.06502510071 0.9786483695 0.001280951469 0.2055376561
-0.008289645672 -0.01882816982 -0.0351550312 -0.397379973 -0.9176351198 0.005911339554
-0.02058741951 0.0003148565888 -0.0213491478 0.9999999643 -0.0002232922285 -0.0001470218929
-0.01986436367 0.00528523159 -0.02124006367 0.9645908809 -0.2635421462 0.01048664589
-0.02044091606 0.002454164028 -0.02366152573 0.9895103038 -0.1437949921 -0.01386935494
-0.02042112287 -0.002311239878 -0.02306309064 0.9927117156 0.120068331 0.01034628556
-0.0199206028 -0.005185351849 -0.02361754036 0.9639287061 0.2661329217 -0.003836349995
-0.01267667818 -0.01083352947 -0.05910819817 -0.6260733603 -0.667674664 -0.4027936078
-0.002255111098 -0.02041118622 -0.04119423103 -0.1018083157 -0.9940800784 -0.03794554705
-0.01635763073 -0.01247999001 -0.02701538658 0.7833411314 0.6215274075 0.008964018241
-0.01754690552 -0.01073047447 -0.02510514832 0.8566995339 0.5157809122 0.005996592279
-0.01209587097 0.007388048649 -0.07480350494 0.6183484431 0.2623466827 0.7408234749
-0.01847891998 0.009094687462 -0.01797089005 0.9358542144 -0.3520904391 -0.01446416658
-0.002829255581 0.03347660446 -0.0809944458 0.1431224848 -0.01179544147 0.9896346911
-0.01632168674 -0.01253016257 -0.03908494091 0.7967626663 0.6041020886 0.01516311758
-0.01247601986 -0.01636541033 -0.02536971569 -0.6250871185 -0.7804647759 0.01186708828
-0.01250914001 -0.01634039974 -0.03351751518 -0.6102346626 -0.7922173379 0.002312157312
-0.006491137822 -0.008642230511 -0.06742892456 -0.3240614819 -0.6895766187 -0.6476636804
-0.01074722385 -0.01756305122 -0.02512062454 -0.5168036722 -0.8560709898 -0.007511651852
-0.008600436211 -0.01868069903 -0.02518984985 -0.3962367982 -0.9181461102 -0.002029816201
-0.005190283775 -0.01992516327 -0.02362200546 -0.269362869 -0.9630326084 0.003440924049
-0.00487853384 -0.01508426762 -0.05929063034 -0.2381014572 -0.854348955 -0.4619475719
-0.00233042117 -0.02043847402 -0.02308019511 -0.1136209582 -0.9934535532 -0.01184548047
0.005484994888 0.0323227005 -0.080445961 0.2657228765 0.2430584946 -0.9329061695
0.0003482199907 -0.02055753708 -0.02131939316 -0.002568106161 -0.999992511 0.002895306451
-0.004461507082 -0.01785880025 -0.05316519419 -0.2294150143 -0.9221638095 -0.3114203906
0.005093947411 -0.01883962822 -0.04935250473 -0.2548227656 0.947539468 0.1929619516
-0.01820981407 0.05423735046 -0.05105884171 0.8848428994 0.02348619403 -0.4652971546
-0.008187948227 -0.003582604885 -0.07117882538 0.4062464323 0.5680793312 0.7157162215
0.005429256439 -0.01984535027 -0.01859874153 0.2786741019 -0.9603120126 -0.01189888269
-0.02059021378 0.0002449150085 -0.023070158 0.9998840147 0.01174205143 0.009699555216
-0.01035495901 -0.01405439281 -0.05646517754 -0.5027918299 -0.7840750639 -0.363904754
-0.01922538185 0.04820862961 -0.06799485016 0.9318828265 -0.006242082717 0.3627057127
-0.0203791256 -0.002677277446 -0.02516429234 0.9925112108 0.1212850404 -0.0145408163
-0.01248278046 -0.01636041069 -0.02701798344 -0.6245380871 -0.7809392817 -0.009274477674
-0.009074807167 -0.01846026548 -0.02750698153 -0.4239891497 -0.905631592 0.008038682068
-0.01622596455 -0.007908341646 -0.05711446381 0.7824718756 0.5351360024 0.3183821961
-0.006741882324 -0.01943636131 -0.02578043938 -0.3358852265 -0.9419029197 -6.667901125e-05
0.001665370643 -0.02047775078 -0.04117422867 0.06687089956 -0.9969458907 -0.04033824224
-0.01979053497 0.007363362312 -0.06262949753 0.9652473666 0.1303206305 0.2265260572
0.004052456379 -0.02015502739 -0.04085099792 0.2175738559 -0.9750516455 -0.04399892925
-0.005226663113 -0.01991597748 -0.02529945564 -0.2473454161 -0.9688990679 0.007405498199
-0.01136261368 -0.006768014908 -0.06602507782 -0.5439278558 -0.6097470419 -0.5764989441
-0.008233055115 0.03371286011 -0.07946699524 0.4110408768 0.009701168579 0.9115652938
-0.01747487259 -0.01086013126 -0.04122125626 0.8575513335 0.5137821926 0.02517079741
-0.02031250381 0.03227608109 -0.05742430496 0.9894573125 0.01293010841 -0.1442464523
-0.002690505445 -0.02039110565 -0.02517592812 -0.1136864805 -0.9933548353 0.01793196602
-0.02008340836 0.02741917038 -0.06518437958 0.9739124596 -0.001437053957 0.2269194922
0.002549752474 -0.02042145348 -0.02192004967 0.1212327691 -0.9926218443 0.002118921126
-0.001371481776 0.03726193237 -0.08112812805 -0.1190227346 -0.01727112878 -0.992741304
0.005234847069 -0.01990857697 -0.02128389931 0.2667904671 -0.9637324786 -0.006523531785
-0.02029286861 -0.0005337020606 -0.05133189011 0.9861344709 0.1463714318 0.07819340929
0.009183900833 -0.01840147209 -0.01789322662 0.7801535076 -0.6233931351 -0.05235937072
-0.008982988834 0.01548624277 -0.07875716019 0.4375802376 0.1145833895 0.8918487442
-0.01858446312 0.008883730888 -0.01984363174 0.9381894292 -0.3459337559 -0.01142065824
-0.0199531765 0.01707356834 -0.06542931366 0.9676622381 0.03979645313 0.249090416
-0.02059299088 0.0001754015833 -0.02478063202 0.9999962327 0.002700632792 0.0004910790454
-0.004261548042 0.006949239254 -0.07833916473 0.2074750023 0.3273794327 0.9218334071
-0.02014225705 -0.004174366713 -0.02712512398 0.9777791927 0.2091836139 0.01378644397
-0.0175329628 -0.01076817036 -0.0292223711 0.854603047 0.5192817939 0.0002249677888
-0.01454544878 -0.01454551315 -0.02876982784 0.707450175 0.7067133524 0.008395681624
-0.01248942661 -0.01635536575 -0.02865671158 -0.6251795436 -0.7804375095 -0.008236023457
-0.01643055248 0.004869897842 -0.06897650909 0.8000115136 0.2906559123 0.5248816235
-0.01077897453 -0.01754338169 -0.02923212624 -0.5219140803 -0.8529970108 -0.001338809137
-0.01601851463 0.01495061398 -0.07300925446 0.773058735 0.1005323258 0.6263173666
-0.006771152973 -0.01942673874 -0.02743982887 -0.3296822987 -0.9440906854 0.001536106509
-0.004440395196 -0.01993814405 -0.04321531932 -0.2198318929 -0.9727273823 -0.07399580078
0.0002122433037 -0.02055997276 -0.02474838257 0.001412887868 -0.9999987535 0.0007048162028
-0.01930561447 0.02809692001 -0.06778173065 0.9398049234 0.001782818045 0.3417067859
0.00246233201 -0.02043367195 -0.02365441132 0.1282354239 -0.9916341839 0.01474182454
-0.01866794777 0.008698812485 -0.02168177605 0.9429969128 -0.3326342808 -0.01054787868
-0.01889802361 0.008171179771 -0.02710367012 0.9503870187 -0.3109811909 -0.007430591511
-0.01931030846 -0.004659619967 -0.05128009415 0.9319497606 0.3296529476 0.1509919795
-0.01722033501 0.001273352295 -0.06530516815 0.8302794102 0.3379439847 0.4432042015
-0.01990179062 0.005121256351 -0.02387753105 0.9641953425 -0.2651221584 -0.006130463616
0.005088082314 0.04473428345 -0.08051677704 0.2650125954 0.2314337939 -0.9360591452
-0.02059712505 7.197140343e-05 -0.02732567406 0.9999503769 0.006923979186 -0.007162557985
-0.01992653084 0.005012863159 -0.02562098694 0.9655646215 -0.2598904466 -0.01191290986
-0.02048229408 -0.001844820976 -0.02731796074 0.9928619287 0.1187017132 -0.01162298776
-0.02007255936 -0.00449667716 -0.02916021061 0.9785400146 0.2058786497 0.008568630311
0.006183876514 0.001442797303 -0.07533679199 -0.2725729042 0.4552799878 0.8475990471
-0.01994074821 0.03292980957 -0.05547641754 0.9666022832 0.01599616937 -0.2557814472
-0.01943164635 -0.006815738201 -0.02910331345 0.9438793473 0.3302290396 0.006368604177
-0.01634658837 -0.01249806666 -0.03109508133 0.7819706337 0.6233146887 0.0008525882979
-0.01401109028 -0.002049178064 -0.06752451324 0.6680119364 0.4788920818 0.5695809221
-0.01903019524 0.007846749306 -0.03063989067 0.9543877367 -0.2985207366 -0.005423819995
0.002515444994 -0.0153466959 -0.05970899582 0.1003440447 -0.8708915047 -0.4811227075
-0.02055884933 0.04751732254 -0.06062790298 0.9998208667 -0.004593887501 -0.01836112193
-0.01454605126 -0.01454611206 -0.03120710278 0.7073850067 0.7068263195 -0.0017338718
-0.01249932051 -0.01634785461 -0.03109622812 -0.6250018987 -0.780621983 -0.00139506452
-0.01190377617 7.045733929e-05 -0.07121952057 0.5722057059 0.4462088506 0.6880975888
-0.002131849706 0.05752763939 -0.08104431152 0.1391748197 0.01824878533 0.9900996674
-0.002226024628 -0.02046151161 -0.038828022 -0.09785349615 -0.9950230002 -0.01881282564
-0.02000197474 -0.00481335783 -0.03117580032 0.9777488383 0.2095250229 -0.01031862276
-0.01942691231 0.005770271778 -0.06305171967 0.9387824623 0.1786321469 0.294581134
-0.01850389767 0.009518455029 -0.06741529846 0.9027525194 0.1693445082 0.3954242357
-0.01229723072 0.05345641327 -0.07708030701 0.5999225547 5.897120805e-06 0.8000580781
-0.008879392147 -0.01855312061 -0.02964270306 -0.4253608367 -0.9049862015 0.008254314343
-0.004500785232 -0.02007631969 -0.02916377258 -0.2135954949 -0.9768794613 -0.009136887874
-0.01863030942 0.005247668584 -0.06493311564 0.9024122554 0.2206063789 0.3701147752
-0.02045810318 -0.002222271442 -0.03882496262 0.9946707323 0.1027207957 0.00886410718
-0.01081029415 -0.01752397728 -0.03328779221 -0.5157125668 -0.8567327476 0.007039010033
0.0001113896817 -0.02056177807 -0.02729165745 -0.001396169111 -0.9999675957 0.007928320248
-0.02048406792 0.002079709172 -0.03132352161 0.9924437346 -0.122698497 -0.0007159321391
-0.01927941895 -0.0006606268995 -0.0578134613 0.9318480624 0.2820875199 0.2282231795
0.00237793231 -0.02044361496 -0.02537587166 0.12081915 -0.992674338 0.0006258897656
-0.006567769686 -0.01056444105 -0.06518313599 -0.306718524 -0.7381973966 -0.6008230611
-0.01970257568 0.0277478199 -0.06648943329 0.9581987255 0.0002130393421 0.2861034028
0.005046055794 -0.01996781731 -0.02394210052 0.2705899144 -0.962627203 0.01140027487
-0.007863864422 0.02167952538 -0.07962779236 0.3949377225 0.01975711918 0.9184954282
-0.02000536919 -0.004513546864 -0.0432737414 0.9705811154 0.2394661732 0.02506492112
-0.0144411006 0.02578046894 -0.07524475861 0.7024742243 0.01375641133 0.7115762259
0.008770846367 -0.01860536003 -0.02162022781 -0.3475508425 0.9375938934 -0.01122955396
-0.02047877884 -0.001899681091 -0.02899043274 0.9927741431 0.1195922874 0.009858270327
-0.01454664898 -0.01454670668 -0.03362617874 0.7073035153 0.7068110229 -0.01182857515
-0.02038607979 0.05046135712 -0.05802344894 0.993493468 0.008471404753 -0.1135736078
-0.01156735802 0.03854493713 -0.07764543152 0.5325832019 -0.01028838254 0.8463151199
-0.01942237663 -0.006844926357 -0.03074373436 0.9428689364 0.3329794571 0.01108376959
-0.01079782295 -0.01753170395 -0.03167283058 -0.5207487285 -0.8536551945 0.009673190426
-0.01232445574 -0.01417988729 -0.05276562881 -0.5967447424 -0.7554883061 -0.2704313808
-0.0001391360909 -0.01224980593 -0.06477371216 0.006693590304 -0.8010847913 -0.5985134526
0.007848872662 -0.01902834702 -0.03063816071 0.3112244821 -0.9502740597 0.01088729464
-0.008900078297 -0.01854452229 -0.03127415752 0.4264864898 0.9044860119 -0.003785276977
-0.02021268749 0.01286409473 -0.06314863396 0.9821453795 0.07012932923 0.1745632572
-0.00682918787 -0.01940766144 -0.03072994232 -0.3315611855 -0.9433894643 -0.009137777447
-0.004816687981 -0.02000502841 -0.03117866453 -0.2166057692 -0.9762014636 0.01061335239
-0.02056819153 0.02934459877 -0.06163124084 0.9981113889 -0.00375866222 0.06131498774
-0.001920363307 -0.02049752045 -0.02900828552 -0.1107525285 -0.9937701577 -0.01243990073
-0.01208813 0.02940014458 -0.07725634766 0.5839708521 0.003348636433 0.8117677196
0.004933886528 -0.0199958992 -0.02568816376 0.2646561197 -0.9641893313 0.0172067362
-0.01257943964 -0.01443771219 -0.05145564079 -0.6091847094 -0.7554783768 -0.2411356713
-0.009187767982 -0.002742738724 -0.0712352066 0.4629748558 0.5317534025 0.7091492098
0.008574351311 -0.01869942284 -0.02345697594 -0.3379839397 0.9410884704 -0.010924621
-0.01883127594 0.008335021973 -0.02531783485 0.9483416431 -0.3171513986 -0.007944710702
-0.01996316338 0.004891438007 -0.02736506844 0.967685653 -0.2521542392 0.00164820618
-0.020599617 -2.884228528e-05 -0.02984891701 0.9999795335 0.001675733481 -0.006174505951
-0.0005082591772 -0.005159655094 -0.07211110687 -0.02814185542 -0.6166854797 -0.7867064606
-0.01884326935 -0.006679515839 -0.0493481636 0.9166850062 0.3770927519 0.1322484626
-0.02047528267 -0.001954220295 -0.03065312195 0.9926575277 0.1209406455 0.002095930451
-0.01940857506 -0.00688837862 -0.03318579292 0.9403044023 0.3403320417 0.001316184493
-0.01620631552 -0.01062892723 -0.05138588905 0.7952844024 0.5724647695 0.1995164328
-0.0127920289 0.04943126678 -0.07669265747 0.6051387236 -0.002857466938 0.7961149164
-0.01852626038 -0.00891048336 -0.03288749695 0.9007280919 0.4343807583 0.001503788046
-0.01711261559 -0.001412230253 -0.06324765396 0.8366398647 0.3706882067 0.4032666489
-0.00708216238 0.05500699234 -0.07989697266 0.3420725341 -0.009477769346 0.9396257517
-0.01751921082 -0.01080535221 -0.03328343964 0.8572634764 0.5148770477 0.0009786933882
-0.02044823837 -0.002295904756 -0.04122688293 0.9940123986 0.1092240473 -0.003075536757
-0.01327293396 -0.008671978951 -0.06149725723 0.6398343386 0.6158945509 0.4596584834
-0.01414076392 -0.006474291007 -0.06298916626 0.6989323152 0.5413521457 0.4673665298
0.003279628158 0.03300072098 -0.08089747238 0.2645919348 0.2387042012 -0.9343507973
-0.01633904266 -0.01250779295 -0.03351630211 0.7940850965 0.6078021973 -0.00231267838
-0.0002027139664 0.0007315804958 -0.0760338974 0.001194475859 0.4857979844 0.8740703013
-0.008920647621 -0.0185359726 -0.0328964119 -0.4280947592 -0.9037294877 -0.002808952733
0.002726815462 -9.084235877e-05 -0.07538301086 -0.1425522363 0.5036952062 0.8520387311
-0.0169624157 -0.006785410404 -0.05697146797 0.8182224369 0.4871036959 0.3053555849
-0.006872261763 -0.01939350319 -0.03317187119 -0.3379952768 -0.941146515 -0.001558898329
-0.01480733299 0.02747503281 -0.07487074661 0.7312450428 0.000938818118 0.6821142177
1.133722905e-05 -0.02056357002 -0.02981472778 0.004799953878 -0.9999820539 0.003585009949
0.004822423935 -0.02002380562 -0.02742321777 0.2547567247 -0.9670037948 -0.001634663016
-0.01999331093 0.004777896404 -0.02909215164 0.9692528925 -0.2460448799 0.003278328288
-0.02047008038 -0.002035399675 -0.03312796593 0.9921116298 0.1251816242 -0.006638902105
-0.009644786835 -0.01816194344 -0.04099753952 -0.4759865526 -0.8787943397 -0.03401926438
-0.02004976082 -0.004591396689 -0.03326106262 0.9771095842 0.2125964755 -0.007720037032
-0.002426974297 -0.01451548576 -0.0611768074 -0.116644357 -0.851546446 -0.5111386741
-0.003395571709 0.02865886879 -0.08090951538 0.1716316983 -0.007519686592 0.9851324857
-0.01039686108 -0.008251801491 -0.06522574107 -0.5096386963 -0.6504838597 -0.5631510877
-0.01819995308 -0.009580554008 -0.03464722061 0.8810961418 0.4729329928 0.001993278657
-0.02033485794 0.059351017 -0.06352786255 0.9898783392 -0.01183590819 0.1414241314
-0.02051685143 0.001795226812 -0.03714452744 0.9969217297 -0.07836035972 0.002592070361
-0.01751376534 -0.01082007504 -0.03489151001 0.8584783926 0.5127901102 0.007819994136
-0.01474858475 0.001547046204 -0.06925658671 0.7150193111 0.3756916579 0.5895788014
0.001083841801 0.002021511316 -0.07671563721 -0.0405691825 0.4538613639 0.8901483044
0.007089985847 -0.01932170105 -0.03925403214 -0.2843546407 0.9585648974 0.01719813157
-0.002048953295 -0.02048237133 -0.03313939667 -0.1162486905 -0.9931900326 0.007733118432
-0.01633404875 -0.0125142293 -0.03511852646 0.8000896282 0.5998408412 -0.006895802403
-0.01251563835 -0.01633546734 -0.0351197834 -0.6025759555 -0.7980354242 0.006455966219
-0.01082269669 -0.01751629257 -0.03489379883 -0.5138793055 -0.8578158523 -0.008945554012
-0.009603442192 -0.01822180367 -0.03466709518 -0.4699290341 -0.8826987746 -0.003094534456
-0.004596652865 -0.02005458355 -0.03326553726 -0.2190019498 -0.9756930983 0.007818178241
-0.02008982213 -0.004413359165 -0.03694851049 0.975858444 0.2181791166 0.009908095166
-5.484042689e-05 -0.02056475449 -0.03148356247 0.004418884546 -0.9999645938 0.007161321416
-0.01068374777 -0.01438734388 -0.05521979904 -0.520353682 -0.7854460171 -0.3351217687
-0.0205916748 0.01267388821 -0.05955737686 0.9989691967 0.001994877957 0.04534935973
0.00820912838 -0.01886501122 -0.02707215118 0.3264067503 -0.9451806142 0.009604156128
-0.02003424072 -0.00219942832 -0.05111359406 0.9749072627 0.201532553 0.09455400175
-0.01556918812 0.007637940407 -0.07146330261 0.7622261867 0.2443497014 0.5994201063
-0.02059791946 -0.0001562637836 -0.0331724205 0.9999602886 0.005896245274 0.006682472214
-0.01818874741 -0.009608080864 -0.03704647064 0.8813205188 0.4723352329 -0.01317463338
-0.01454743814 -0.01454749155 -0.03681904793 0.7073580435 0.7068022655 0.008669242537
-0.01252210045 -0.01633056164 -0.03671327591 -0.6110231426 -0.7915565207 -0.009433648574
0.009262331486 -0.01681493855 -0.05087826538 -0.4142925952 0.8594782072 0.2994308883
-0.01084116507 -0.01750485229 -0.03728522873 0.5105731403 0.859834294 0.0002351742505
-0.009628466606 -0.01820821476 -0.03706392288 -0.4689352535 -0.8831431313 0.01256732465
-0.009617791176 -0.01612459946 -0.05246911621 -0.4690103548 -0.8390080203 -0.2758529118
-0.008054026604 0.02761531448 -0.07954496765 0.4014496065 0.01421371165 0.915770814
-0.009940324783 0.02759875298 -0.07861040497 0.4952727017 0.009973719529 0.8686803071
-0.012776968 0.02140351009 -0.07673777771 0.6071273445 0.01306210952 0.7944971799
-0.006915014744 -0.01937944984 -0.03559558868 -0.3391616212 -0.9406881033 0.008676806816
-0.01617242384 0.04563413048 -0.07326289749 0.7922433987 0.01168765203 0.6100932683
-0.01628942299 -0.01251419592 -0.04141949654 0.7998055202 0.5996667355 0.02666338709
-0.004635319591 -0.0200460453 -0.03489047623 -0.2416972578 -0.9702667628 -0.01283918245
0.004601577759 -0.02007909775 -0.03086097717 0.2357379333 -0.9715898371 -0.02099560316
-0.01494033591 -0.0005065634251 -0.06756775411 0.7289160275 0.4181982856 0.542025478
-0.02046829033 0.02082412148 -0.06284972763 0.9940430061 0.008079598751 0.1086886474
0.008028389931 -0.01894695473 -0.02886120605 0.3191113535 -0.9476668963 0.009767176916
0.000195254311 -0.002602792501 -0.07400920105 -0.007913846488 0.559737792 0.8286319902
-0.01601373672 -0.002189497709 -0.0646031723 0.7751155982 0.4240137377 0.4684102472
0.0009689078331 -0.005561017036 -0.07176570892 -0.03562257035 0.6339943774 0.7725167713
-0.006971443176 -0.01936090088 -0.03879462051 -0.3451707493 -0.9384413752 -0.0135992317
-0.02049820518 0.001957039833 -0.03383355331 0.9932839918 -0.1153261719 -0.009315879596
-0.0135214386 -0.01075420856 -0.05790766144 -0.6316231015 -0.6689278227 -0.3919028268
-0.01881689262 -0.008325958252 -0.03755820084 0.912524299 0.4090189224 0.001710230306
-0.0143606739 0.03326384735 -0.07536006165 0.7000484812 -0.01793430221 0.7138700756
-0.01938581085 -0.006960045815 -0.03721360397 0.9374680932 0.3478870799 -0.01132050614
-0.01888583755 -0.004907135487 -0.05323465729 0.9193272125 0.3513292921 0.1772151375
-0.001195352793 -0.00212588191 -0.0742975235 0.06955288047 0.5525164143 0.8305949727
-0.01454802394 -0.01454807472 -0.03918994141 -0.7070657465 -0.7070749907 -0.01014828329
-0.006326869488 0.02336322975 -0.08019577789 0.3041934617 -0.006589297239 0.9525874863
-0.01650762177 0.05333986664 -0.07285442352 0.7865378507 0.008211896656 0.6174874688
0.001963530421 -0.02049243546 -0.03382821274 0.1008605941 -0.9948067969 0.01365933101
-0.01517306232 0.01385515118 -0.07380935669 0.7344819657 0.1332195462 0.6654237707
-0.01253172445 -0.01632325554 -0.03908629799 -0.6049291016 -0.7961138306 -0.01623424504
-0.02053222942 0.00306827867 -0.05310591888 0.9973386739 0.06807711484 0.02609743224
-0.004653481007 -0.004654126406 -0.07182612228 0.2504689568 0.6008985514 0.75906932
-0.00832217598 -0.01881331825 -0.03755499649 -0.4047888741 -0.9144012164 -0.004047558764
-0.004420433362 -0.02009631729 -0.03695439657 -0.2232755495 -0.9746939306 -0.01094398048
-0.002125287533 -0.02047337914 -0.03559172821 -0.1169525479 -0.9930649807 0.0120019032
-0.02004499817 0.03176959419 -0.06534696198 0.9723153094 -0.00193645637 0.2336646942
-0.02020804405 0.008952705383 -0.06147548485 0.9819914426 0.09054814948 0.1658126635
0.004499656677 -0.02009990311 -0.03255788422 0.2203939463 -0.9752115089 -0.01972362476
-0.02010197449 0.05941051865 -0.06507239532 0.9678016553 0.008171362406 0.2515813682
-0.008712251981 -0.01846156184 -0.04333388392 -0.4274608794 -0.9002255556 -0.08289237311
-0.02050755501 0.00187589848 -0.03549384308 0.9969320554 -0.07785092701 -0.008106170612
-0.001817511916 0.01625256729 -0.08083498383 0.09658203499 0.09995504167 0.9902933405
-0.02046150017 -0.002169265032 -0.03720900345 0.9951073336 0.09879973356 -8.468440599e-05
-0.01518502045 0.003292650938 -0.0698059082 0.7386484619 0.3423792869 0.5806676102
-0.01460484695 0.00766678834 -0.07260321426 0.7110150162 0.2570314628 0.6545169775
-0.02053752232 0.001598232806 -0.04122694588 0.9983314034 -0.05703336046 -0.009033537323
-0.02044302559 0.06003203201 -0.05840126419 0.9936548925 -0.004430871155 -0.1123847057
-0.01749760628 -0.0108637619 -0.0396630249 0.8552865723 0.5180910716 0.008156029781
-0.01085949898 -0.01749349213 -0.03965941238 -0.5185871139 -0.8549609515 -0.01044876869
-0.009653225899 -0.01819464302 -0.0394433403 -0.471389178 -0.8818716209 -0.009730733071
-0.008343705177 -0.01880348969 -0.03914337158 -0.4044828051 -0.9144464658 -0.01346556627
-0.01713101387 0.05343745804 -0.04924225616 0.7883815411 -0.2313129366 -0.5700428678
-0.01861182404 0.03267469788 -0.0518588295 0.9249485828 -0.01261049397 -0.3798830012
-0.0002834185958 -0.02056884861 -0.03724772835 -0.01047807099 -0.9999434893 0.001796711748
0.00435013485 -0.02012898159 -0.03508121681 0.2297503569 -0.9732362886 -0.005089214987
0.000520134449 -0.01937081337 -0.04978742599 -0.002916338326 -0.971717968 -0.2361264187
0.001882116079 -0.02050202751 -0.03548877716 0.09772832894 -0.9951412591 0.01196027689
-0.01211998558 0.003585207462 -0.07307904816 0.601531015 0.3601542393 0.7130563525
0.007583339691 -0.01914817429 -0.03327879333 0.2970428197 -0.9548588754 0.003176691894
-0.01336840725 0.0004494403899 -0.07012652588 0.6399471093 0.4235275771 0.6411646346
-0.01469867516 0.01933938694 -0.07496927261 0.7001846299 0.03761793541 0.7129701081
-0.01853114128 0.02148830795 -0.06957345963 0.9046399719 -0.005139070892 0.4261456455
-0.01828255463 -0.0006780026853 -0.06118616867 0.8942201244 0.3103201 0.3226016191
-0.01251100826 -0.01628633738 -0.04141681671 -0.6002625854 -0.7992476215 -0.02980047157
-0.002756451607 -0.01579647017 -0.05877680588 -0.1425709334 -0.878329344 -0.4563015368
-0.006979572296 -0.0193155098 -0.04114241409 -0.3454110489 -0.9376328226 -0.03919052471
-0.01834127998 -0.002582388639 -0.05891769028 0.8960929628 0.3466386588 0.2772346339
-0.01913811684 0.05155304146 -0.05310372353 0.9335416749 -0.001669902444 -0.358464995
-0.01041930962 0.02915456963 -0.07832623291 0.5246083611 -0.00349536571 0.851336508
-0.02014129639 0.004220561504 -0.03756977081 0.9733924808 -0.2290708953 -0.00579682886
-0.02016274071 0.01752705002 -0.0561521225 0.9852900622 -0.0228854747 -0.169350962
-0.01999178028 -0.004765571117 -0.04128281021 0.9689864256 0.2469556931 0.008842662675
-0.02009535408 0.05110999298 -0.05607289505 0.9795680346 0.001682442938 -0.2011060292
-0.01873047352 -0.008345548153 -0.04303417206 0.8966159443 0.4405914711 0.04426063791
-0.01808570862 -0.00960341692 -0.04328960037 0.8717177839 0.4864862853 0.0586446889
-0.01623836851 -0.01247332573 -0.042939888 0.793906894 0.6056492855 0.05385895161
0.003527827501 0.0270497551 -0.08085913086 0.2653539541 0.2442136104 -0.9327094893
-0.006523598671 -0.01206281376 -0.06324040985 -0.3067200016 -0.7768145675 -0.5499836073
-0.01447160101 -0.01447163296 -0.04303680038 -0.7035803577 -0.7074567286 -0.06693024286
-0.01247217894 -0.01623727179 -0.04293893814 -0.6015074031 -0.796596949 -0.06018425778
-0.0183638134 0.01356402016 -0.06902511597 0.8823365857 0.1050732246 0.4587393236
-0.02055905914 0.020976017 -0.05975208282 0.9989529553 -0.003039019098 -0.04564819126
0.009859572411 -0.006373645306 -0.06767108154 -0.4724986111 0.6105969232 0.6355442235
-0.01080897617 -0.01740637016 -0.04273199463 -0.5128834352 -0.8557571224 -0.06804652294
-0.009622320175 -0.0181159668 -0.04253226471 -0.4664399617 -0.8820839497 -0.0660429245
-0.01095520687 0.02544346905 -0.07801597595 0.514374561 -0.002226978845 0.8575627391
-0.006576644778 -0.006577153206 -0.0694437561 0.3182448908 0.641427644 0.6980621512
0.007359909534 -0.01923228073 -0.03586471558 0.2837912078 -0.9588814564 0.002983767155
-0.020538167 -0.0005618769228 -0.04525823021 0.9965029104 0.07977020728 0.02487294851
-0.02017036247 0.004111095905 -0.03923484802 0.9747378995 -0.2232729625 -0.005933930329
-0.006002987385 0.004216414452 -0.07676945496 0.2791497227 0.3888652282 0.8779859148
-0.01927655029 -0.006994182587 -0.04347945023 0.9349374979 0.3526552655 0.03906582484
-0.01953651428 0.02263784599 -0.05411483383 0.9532698634 0.005807750551 -0.3020642938
-0.01610754251 -0.01235659552 -0.04516024113 0.7824925233 0.6168857901 0.08460125921
-0.0123307066 -0.01608222222 -0.0451389122 -0.6139663903 -0.7821860418 -0.1059729568
-0.01067266321 -0.01724627876 -0.04493525505 -0.5173053342 -0.8478297551 -0.1165328177
-0.02056258774 0.01680621338 -0.05964073181 0.9995355239 -0.01537275112 -0.02631377928
-0.005931033134 0.03956177902 -0.0803174324 0.2813292932 -0.01071345531 0.9595514841
-0.01794810486 0.05415111923 -0.07069662476 0.8753806179 -0.009792692527 0.4833351601
-0.0003907552063 -0.02052383995 -0.04125511932 -0.01364449338 -0.9990090747 -0.04236385712
0.003364765406 0.05159482574 -0.08090605927 0.2647591312 0.2253975719 -0.9376025475
0.007224535465 -0.01927712631 -0.03756454849 0.2807595795 -0.9597696985 -0.004022988395
-0.006505928993 0.05339035416 -0.08012562561 0.3068822648 -0.003232517954 0.9517419957
-0.01930852127 0.007105091572 -0.03924230576 0.9624958935 -0.2707783063 -0.01675601125
-0.006090588093 0.03401312256 -0.08027828979 0.2896867075 0.001450797062 0.9571204243
-0.02057881927 -0.000514231205 -0.04290647888 0.9993603551 0.03324824896 0.01316945765
-0.01919878387 -0.006948367119 -0.04498239899 0.9340323824 0.351324177 0.06445798023
-0.006840797901 0.04178128052 -0.08001215363 0.3321886287 -0.0008973666187 0.9432125475
-0.01829068279 -0.008893613815 -0.04540759277 0.8813356186 0.4635293539 0.09158638288
-0.004082491875 0.02997031593 -0.08076054382 0.1860840385 -0.002781441166 0.9825298948
-0.008809535027 -0.01821086121 -0.04533963013 -0.4256778933 -0.8946720379 -0.1355000953
-0.006825686932 -0.01908388901 -0.04488388824 -0.3260564047 -0.9390059974 -0.1093387298
-0.004587250948 -0.01971908379 -0.04500428772 -0.2137452928 -0.9701512446 -0.1145404404
-0.002206303358 -0.02029061508 -0.04348272705 -0.09814574837 -0.9912276375 -0.08851656807
-0.02048757267 0.007110021591 -0.05310152245 0.9962621134 -0.07401135527 -0.0445434696
-0.0003885230124 -0.02046575356 -0.04280748367 -0.0112738612 -0.9971559065 -0.0745184424
-0.004800738096 -0.01888529587 -0.04938128853 -0.2264341701 -0.9465975338 -0.2295227128
-0.005898247242 0.05182751083 -0.08033335114 0.27463006 0.0025001594 0.961546712
-0.0157147913 0.01329031754 -0.03684431839 0 0 1
-0.02026501083 0.003852089882 -0.04256821823 0.9823224116 -0.1867913837 -0.01231497788
-0.02038021469 -0.002360458612 -0.04514527893 0.9914610779 0.1262969898 0.03246538811
-0.01891046429 0.007206011534 -0.06535696793 0.9138248336 0.1944372493 0.3565365753
0.001876956701 -0.01597768211 -0.05866107941 0.08097878321 -0.88027809 -0.4674964395
-0.01635744667 -0.01168430901 -0.04729619217 0.8014963918 0.5843176035 0.1271867609
-0.01550678062 -0.01270423794 -0.04736449051 0.7372510905 0.6607863633 0.1407913763
0.005708511114 -0.006552609682 -0.06982334137 -0.2878902937 0.6471523745 0.7059128721
-0.01265909958 -0.01546231747 -0.04732770538 0.6313942826 0.7596810903 0.1556467183
-0.01160330868 -0.01627845764 -0.04723051071 0.5602319827 0.8151252883 0.1473461568
-0.01046939468 -0.01702170181 -0.04707191467 -0.4999318501 -0.8500878959 -0.1655859733
-0.005988547802 0.01770594788 -0.08017883301 0.3093443962 0.07036571788 0.9483431395
-0.02057685471 0.003127209902 -0.05079713058 0.9996593901 0.02535370758 0.006188162705
-0.0205438242 0.05946623993 -0.06109282684 0.9991497052 -0.02292881245 0.03426566898
-0.008400123914 -0.01809025383 -0.04717854309 -0.4127761415 -0.8962447124 -0.1623615488
-0.00209475708 -0.02013873863 -0.04493709564 -0.09976865396 -0.986740409 -0.128021799
-0.01979957485 -0.003833353877 -0.04936506081 0.9641378259 0.2479892831 0.09454928896
-0.01689597416 0.00346652782 -0.06739525223 0.8196040204 0.3109791636 0.4811872916
-0.0002293331325 -0.02023892117 -0.045000494 -0.02419458208 -0.9911662565 -0.1303996708
0.001452756882 0.01383908176 -0.08055400848 -0.07232105053 0.1631091136 0.9839538011
-0.01797617149 0.02728027153 -0.07064376068 0.86805115 -0.008765503791 0.4963973881
0.004100975752 -0.02001237392 -0.04315391541 0.2123790826 -0.9747628396 -0.0687933998
0.001103918791 0.00392244935 -0.07761008453 -0.0284298691 0.4101328906 0.911582555
0.001711202145 -0.02034500694 -0.04347236633 0.07242114153 -0.9936555478 -0.08604551495
0.007017493725 -0.01931254959 -0.04088625336 0.2780584568 -0.9600720737 -0.03074260622
-0.01739370346 -0.007195399761 -0.05504345703 0.8469218763 0.4688186156 0.2508633913
0.003489930391 -0.00589278388 -0.07106335449 -0.1559859684 0.6458907716 0.7473242194
0.01280543709 -0.01613373375 -0.03721522522 -0.6691892688 0.7421948383 0.03650403511
-0.01653115082 0.01225444698 -0.03923569107 0.7421984415 -0.6691854106 0.03650150317
-0.02013670158 -0.002257593393 -0.04964490128 0.9782372095 0.1889044424 0.08583165894
-0.0005053703884 -0.01011655935 -0.06737158457 -0.01115732764 -0.750577822 -0.6606878591
-0.02037318134 0.003616934419 -0.04507355881 0.9880744588 -0.1442410352 -0.05388309267
-0.02055995178 0.001401587009 -0.04525656128 0.9997283195 -0.01418029781 -0.01849881802
-0.01997939491 -0.003956102371 -0.04717873001 0.9717692966 0.2271381577 0.06381764239
-0.01608467674 0.003328974724 -0.06863275909 0.788291599 0.3168916062 0.5274239896
-0.00273917675 -0.0167361536 -0.05686858559 -0.1206125952 -0.8992266414 -0.4205282978
-0.0195206871 -0.005421638489 -0.04758285904 0.9422212179 0.3188935201 0.1025967803
-0.01796927166 -0.008626960516 -0.04901077843 0.8776697132 0.4601086718 0.1341487409
-0.01866594505 0.03709890366 -0.05197883224 0.9271640807 -0.01302100315 -0.3744291936
-0.01480497313 -0.01294237876 -0.04946811581 0.7103134035 0.6766378053 0.1939488315
-0.01289686108 -0.01476003718 -0.04943157578 -0.6370747271 -0.7440763593 -0.2012117381
-0.008407312393 0.02311496925 -0.07939109802 0.4227848558 0.002310997295 0.9062271376
-0.01077271676 -0.01637008333 -0.04922627163 -0.5143798649 -0.8316321292 -0.2092877357
-0.009020987034 -0.01743231964 -0.04895096397 -0.4318703536 -0.8782462844 -0.2053569129
-0.01274995708 -0.01275013685 -0.05538396072 -0.6270304069 -0.7095782703 -0.3214522471
-0.02056659126 0.008807864666 -0.05710798073 0.9998067044 0.01605307993 0.01135131582
-0.0172697258 0.009763804436 -0.06987772369 0.8356935171 0.1841425685 0.5174049284
-0.003604411364 -0.01965644836 -0.04690457535 -0.1711046792 -0.9729376961 -0.1552914301
0.001841448545 -0.02016805458 -0.04491859818 0.07839703061 -0.9885973244 -0.1285660757
-0.0154473176 -0.01081290579 -0.05342561531 0.7397371009 0.6177233308 0.2668462257
-0.02046776009 0.03867655563 -0.05856536102 0.9955149124 0.004860523763 -0.09447981002
0.004290062428 -0.01974628067 -0.04533654785 0.2158556406 -0.9698660814 -0.1129872849
0.01222607994 -0.01655567169 -0.03925717545 -0.6691892688 0.7421948383 0.03650403511
-0.01727419662 0.0113046627 -0.04153955078 0.7421939685 -0.6691901855 0.03650491442
-0.01948596954 0.007630493641 -0.06392490387 0.9457268491 0.1494950065 0.2885341746
-0.01816786003 -0.004259459019 -0.05723038483 0.8789491076 0.3871067778 0.2785620377
-0.01981855774 0.006273606777 -0.04457659149 0.9596536262 -0.2714259605 -0.07343613335
-0.0205749073 0.001316892028 -0.04685767365 0.9997783187 0.02105283406 -0.0003027683586
-0.02048268318 -0.0005924210548 -0.04758128357 0.9949620206 0.09179707802 0.04029732124
-0.0194074707 -0.005342268944 -0.0490417366 0.9400525901 0.3223518932 0.1113121054
-0.007674429417 -0.01796297836 -0.04939036942 -0.3784945765 -0.8994139988 -0.2186236821
-0.01937286186 0.01759912586 -0.06732145309 0.9298254072 0.04597945353 0.3651172442
-0.01752374649 0.01942111588 -0.07138207245 0.8438882191 0.02987485101 0.5356866314
-0.006339152813 -0.01852432251 -0.04908292389 -0.2932312938 -0.9296800265 -0.2229584191
-0.003300215483 -0.01930982113 -0.04895593262 -0.1547753221 -0.964691178 -0.2131091992
-0.01860324478 -0.006478165627 -0.05145917892 0.9038638989 0.3931718522 0.1686592626
2.502077818e-05 -0.01992683029 -0.04710933685 -0.02224327112 -0.98443158 -0.1743551008
-0.01434151745 0.05342397308 -0.07533647156 0.7026176627 -0.006785671633 0.7115352238
0.002115071774 -0.01983327484 -0.04701844978 0.0931101804 -0.9802537291 -0.1744509128
0.01194332886 -0.01672191048 -0.0410606041 -0.6691880925 0.7421959209 0.03650358627
-0.01849648285 0.009802140236 -0.04423233414 0.9121534243 -0.3736158421 -0.1684854091
-0.02017304516 0.005746157408 -0.04728669357 0.9813985781 -0.1693313682 -0.09046390753
0.004875509977 -0.01497964954 -0.05948997498 0.236584245 -0.8501486738 -0.4703989025
-0.01449403667 -0.01263654184 -0.05150081444 0.7089510764 0.6675275442 0.2275859158
-0.01044540644 -0.01602836514 -0.05124193192 -0.5026020597 -0.8293254853 -0.24415243
-0.0003788192496 -0.01825375748 -0.05352976799 -0.01876036309 -0.9423367603 -0.3341399093
-0.008680343628 -0.01707075691 -0.05095784378 -0.413297416 -0.8778205803 -0.2421079814
-0.01960844994 0.03122957993 -0.05433348083 0.9572775839 -0.01733102814 -0.2886507627
-0.006455348492 -0.01798422623 -0.0509501737 0.3076317108 0.9136524925 0.2657100928
-0.001555567145 -0.01949814987 -0.04911110687 -0.1044860729 -0.9682534775 -0.2270855871
