# .PCD v0.7 - Point Cloud Data file format
VERSION 0.7
FIELDS x y z normal_x normal_y normal_z
SIZE 4 4 4 4 4 4
TYPE F F F F F F
COUNT 1 1 1 1 1 1
WIDTH 533
HEIGHT 1
VIEWPOINT 0 0 0 1 0 0 0
POINTS 533
DATA ascii
-0.00799582243 -0.01896231365 -0.01347772074 -0.36624584 -0.9304147576 0.01386951585
-0.01900947475 -0.007796175718 -0.001036860012 0.9296883972 0.3656935852 -0.04413259444
-0.02052801552 0.0001494856477 -0.005398758602 0.9991479164 -0.03447313525 -0.02269458149
0.01201261679 -0.01666215706 -0.04100532913 0.4824573241 -0.8751151746 -0.03752814417
-0.01162160397 0.008833349705 -0.07567232132 0.5233406486 0.2589129586 0.8118365878
-0.02007228775 -0.004310150623 -0.001374251756 0.9798727271 0.1881904638 -0.06658669619
-0.001230301004 -0.001541941047 -0.07461535645 0.1042772241 0.5361855028 0.8376343875
0.002692224741 0.01579074764 -0.08064522298 -0.09694236162 0.1402809468 0.9853544715
0.00345527339 -0.02026053429 -0.004827588081 0.2357248469 -0.9717882551 -0.007834778597
-0.01925155004 0.04309768422 -0.05344104767 0.9362407686 -0.01298170806 -0.3511192084
-0.01291386112 -0.01595537853 -0.002140321791 0.6434094388 0.7629476948 -0.06273044841
-0.004183599472 0.03458974743 -0.08071655083 0.1963501821 -0.01818612913 0.9803651721
-0.01596105353 -0.01293884293 -0.005725050211 0.7659374778 0.6425565041 -0.02146902536
-0.01801434088 -0.009883042812 -0.001620595932 0.858575864 0.5088890142 -0.06228528769
-0.01596684361 -0.01292548037 -0.002152628024 0.7636418716 0.642309299 -0.06549699592
-0.01729518414 0.03113528156 -0.04947286606 0.9209401435 -0.0102266604 -0.3895698493
-0.009885136843 -0.01801647949 -0.001622847661 0.5089708489 0.8585690959 -0.06170723215
0.00677077198 0.05800693893 -0.08001454163 0.1566318633 0.01293484779 -0.9875723513
0.01155500793 -0.01698752022 -0.001800223351 0.4353939921 -0.8998849831 0.02528020487
-0.01907842827 0.01519123459 -0.06774856313 0.9226379214 0.08588314746 0.3759831792
-0.02054284859 0.04742425346 -0.06145819092 0.9985842336 -0.03880771004 0.03637980395
-0.009921504021 -0.01800136375 -0.005212428331 -0.4966597649 -0.86776979 0.01745478133
-0.004302587414 -0.02006543503 -0.001366611292 0.1872342083 0.9801537238 -0.06513086021
-0.01540457559 0.007807745576 -0.07172237206 0.7511845872 0.2554401967 0.608664129
-0.007822767258 -0.01903451443 -0.001064390682 0.367030475 0.9292718272 -0.04174328109
-0.01778493786 0.01030524206 -0.009147359848 0.9280814678 -0.3719276561 -0.01829228673
-0.000495457766 -0.01941434034 -0.04943147024 -0.04414578674 -0.9718874097 -0.2312704311
-0.02052291552 -0.0002801325123 -0.001781458875 0.9969379113 0.009493704342 -0.07761875121
0.003422851181 -0.02025890007 -0.02514946709 0.2016838662 -0.9793640005 -0.01302968085
-0.0199189118 -0.004967465775 -0.005024198702 0.9710227374 0.23896948 -0.002903647433
-0.004995048483 -0.01991362286 -0.01704773347 -0.2007130194 -0.9795587063 -0.01338001564
-0.01899277878 -0.007850964785 -0.004646293759 0.9006326346 0.434572272 -0.002792465547
0.0129401207 -0.01334598732 -0.05368790436 0.469705637 -0.8117821679 -0.3469673276
-0.01799556065 -0.009915571451 -0.005206288695 0.867492203 0.4971089507 -0.01843824506
-0.01292700609 -0.01594937229 -0.005712738037 -0.6436781466 -0.7650171193 0.02067004656
-0.02018578072 0.003731701994 -0.02930855598 0.9845427559 -0.1741551847 -0.01858853119
-0.007874121428 -0.01901459312 -0.004669840574 -0.4346994292 -0.9005734925 0.0019470241
-0.004952141694 -0.0199048015 -0.005008870806 -0.2400169963 -0.9707677026 0.00138172501
-0.01897222519 -0.007918413162 -0.009089695454 0.9312657669 0.364304609 0.005120866327
-0.02036077156 0.002787476969 -0.03697772675 0.9953084147 -0.09626545631 -0.009701631232
-0.0003032671611 -0.02054367956 -0.001804386298 0.00567208813 0.9969984062 -0.07721402361
-0.01957345104 0.006370260477 -0.004801599979 0.9559667775 -0.292044166 -0.02894348564
-0.02024082756 0.003635842323 -0.001104866967 0.9962179201 -0.08084391165 -0.0318452121
0.003653402686 -0.02022532463 -0.001087732241 -0.08541314243 0.9959403643 -0.02841453737
-0.004460326751 0.003290195876 -0.07673671383 0.2290560182 0.3995760494 0.887621722
-0.01950293187 -0.0004531065002 -0.05696081979 0.948393125 0.2531842458 0.1909141644
-0.01834656811 -0.009307608604 -0.008606420279 0.8954545574 0.4451445707 0.00272889142
-0.01832084974 -0.009352154414 -0.01296984164 0.9050227152 0.4252185366 0.0110941924
0.003279628158 0.03300072098 -0.08089747238 -0.1131121589 -0.001397365107 0.9935812432
-0.01636791527 -0.01236049843 -0.00915935564 0.7881834228 0.6154265571 0.004128539573
-0.005083007813 0.04383019511 -0.08052753957 0.2166626004 -0.007385977327 0.9762186051
0.01411258698 -0.008238863945 -0.06077968597 0.5893457458 -0.6658762934 -0.4574716973
-0.01235974443 -0.01636698246 -0.009158487082 -0.6178583683 -0.7859559047 -0.02289874519
-0.004917394263 -0.0199374752 -0.01329324777 -0.1952394871 -0.9805118911 0.02186261646
-0.009295704365 -0.01833522892 -0.008594465733 0.4451954687 0.895428432 0.002986278998
-0.00474115777 -0.01996935081 -0.04126043193 -0.2044226914 -0.9773724128 -0.05435558783
0.006159802437 -0.01960775375 -0.00850852704 0.2704422437 -0.9627079638 -0.007373547744
0.003795273701 0.03889368693 -0.08078495534 0.156461224 0.004761588512 -0.9876726242
-0.009347290993 -0.01831621552 -0.01296505324 -0.4305206035 -0.9025507558 -0.007358199417
-0.007936430931 -0.01898920504 -0.009107619445 -0.3643545555 -0.9312464697 -0.005076467205
0.000129188621 -0.02054624634 -0.005418549013 0.03885981186 -0.9989961613 0.022284182
-0.01595790529 0.04739336586 -0.07349972534 0.7947925554 -0.01056599374 0.6067892168
-0.007506443024 -0.01914024798 -0.02928188801 -0.3383959791 -0.9409068805 -0.01350568436
-0.004849171956 -0.005774641991 -0.07079536438 0.2696804938 0.6263327358 0.7314230891
-0.01947526741 0.006612499714 -0.001910429597 0.9582330503 -0.2816935482 -0.04937779051
-0.02029179764 0.003419885516 -0.004861507654 0.9720090985 -0.2349066925 0.004142258446
-0.01499385262 0.05407712555 -0.04654608154 0.8091867925 -0.001880725883 -0.5875484642
-0.02001370375 -0.004586741345 -0.00917716183 0.9806542315 0.19562508 0.006935871596
-0.02036614895 0.01565398288 -0.05727393341 0.9916114985 -0.03504502979 -0.1244125472
-0.01623616037 -0.01255632895 -0.01711314392 0.7895420371 0.613425148 0.01824717673
-0.01901387978 0.02309752703 -0.06847689247 0.9358122373 0.001372879938 0.352496201
-0.01828786214 -0.006196169058 -0.05349790064 0.8831760575 0.4050941504 0.2364292301
-0.004572229692 -0.02000041417 -0.009163065229 -0.1940636189 -0.9809607023 0.007443942941
0.007120262623 0.04491102982 -0.07989762878 0.202919837 0.0007735556599 -0.9791950477
0.006639379978 -0.01945178032 -0.001884658098 -0.2864500715 0.9568398301 -0.0490295426
-0.01994087355 -0.004921101332 -0.01329676941 0.9801868905 0.1965872391 -0.02423049922
-0.02053458786 -0.0002225580364 -0.009498393774 0.9993666467 0.03540646447 0.003561987072
-0.01299400065 0.007101181931 -0.07388357713 0.64061528 0.2823184973 0.7140786575
-0.0201858565 0.05895182165 -0.05697250621 0.9782239861 -0.04937799049 -0.2015927754
-0.01649453545 -0.01218301211 -0.01290091048 0.7879340147 0.6154025905 0.02096759464
-0.007569365184 -0.01911913617 -0.0176299394 -0.373167392 -0.9276886943 0.01182303009
-0.0191013689 -0.007642955701 -0.0373829937 0.9304670745 0.3662793273 0.00839509443
-0.01215358448 -0.01652903214 -0.01313301992 -0.6190982901 -0.7851239335 -0.01725445862
-0.0002386595309 -0.02054915428 -0.009513899326 -0.03032414672 -0.9995344577 -0.003363621708
-0.01718194008 0.01133026695 -0.002010776281 0.9019445756 -0.4316984425 -0.01150813685
0.003407557885 0.0585108134 -0.08084464518 -0.1271611455 -0.02980299514 0.991434226
0.006432444572 -0.01951908302 -0.004742827296 -0.2935013106 0.9553572267 -0.03390501598
-0.01941294511 -0.005034887195 -0.04943065389 0.9468824715 0.3003520109 0.1149010648
-0.02034603405 0.003202430725 -0.00857029295 0.9893046708 -0.1450422915 0.01545968754
0.01085573912 -0.01746989822 -0.005122936964 0.3839992011 -0.9230850458 0.02141522386
-0.01895197678 -0.007984859228 -0.01346706438 0.9311621174 0.3643566857 -0.0134653853
-0.02053256531 0.05608939209 -0.06094219971 0.9986035439 -0.02816946721 0.04469276397
0.003259858966 -0.02029526138 -0.00851619792 0.1425230257 -0.9896622317 -0.01599544409
-0.02034971857 0.01929909086 -0.05754231834 0.9863113487 -0.0236478139 -0.1631891675
-0.01744245434 0.01088742352 -0.005094009876 0.9229423119 -0.3847753624 -0.0111986351
-0.01139212481 -3.057193756e-05 -0.07156908925 0.5602469555 0.4530143258 0.6934705253
-0.02038143412 0.002970319351 -0.01310008685 0.9896274487 -0.1420852459 0.02119659744
-0.01967819786 0.00607929635 -0.008583315849 0.9651085993 -0.2611838757 0.01866479721
-0.02054014301 -0.0003607174307 -0.01307211494 0.9996702526 0.02346106286 0.01043860988
-0.01262410536 -0.01617643814 -0.0173030694 -0.6174058947 -0.7866430876 -0.001616744289
-0.02013011336 -0.0001845384911 -0.05323338223 0.9730139135 0.1971261377 0.1199383592
-0.0007756945491 0.05918932152 -0.0810685997 -0.04565487153 0.08379330184 -0.995436746
-0.0003725501001 -0.0205509367 -0.01308342624 -0.04297406806 -0.9985873202 -0.0312504932
-0.007527211094 -0.01913310127 -0.02133624916 -0.345995699 -0.9382353213 -0.001207539026
-0.01917162323 -0.007449074745 -0.02515702486 0.9336636122 0.3572448475 0.02546327137
-0.0145564003 0.02879439354 -0.07516899109 0.6926355753 0.01877627656 0.7210432798
-0.01927326965 -0.007178793812 -0.01717331085 0.9284520964 0.3712171376 -0.01321141467
-0.0201834569 0.003499956921 -0.05737671709 0.9788246755 0.1416910497 0.1477359168
-0.02004283905 0.03509420141 -0.06509165637 0.9697630761 0.0001495186451 0.2440482615
-0.01829550362 -0.009396056652 -0.01727017975 0.905937574 0.4233758109 0.005480398167
-0.01450126457 0.04517084503 -0.04600332642 0.7915882103 -0.0005647458093 -0.6110546509
-0.009398128033 -0.01829747772 -0.01727215958 -0.4290839105 -0.9032458154 -0.005830497093
-0.008683094835 -0.01237479296 -0.06117147064 -0.4301618092 -0.7581575435 -0.4900591364
-0.01715217495 0.02257480717 -0.0492595253 0.9104421451 -0.03514663755 -0.4121405274
0.003019411802 -0.02033799044 -0.01305483786 0.1446649239 -0.9892954817 -0.01914444344
-0.01974989764 0.005786742528 -0.01317348162 0.9713106358 -0.237804128 -0.002201251051
-0.008314220905 -0.002786663055 -0.07169042969 0.4035048989 0.5350987891 0.7421947739
-0.02053307648 -0.0007069188654 -0.01703710003 0.9997965517 0.01888563458 0.007084343912
0.007768297791 -0.0007919554934 -0.07330295181 -0.3718915208 0.5072967233 0.7773974089
-0.02012770748 -0.004206439018 -0.0173370924 0.9793765928 0.2020279447 -0.002489788956
-0.0007211431384 -0.02054604759 -0.01705032253 -0.0277995563 -0.9995712758 -0.009189631503
-0.01913720474 -0.007531619549 -0.02134030342 0.9381673193 0.3461811732 0.0008223444075
-0.01690267372 0.01177955484 -0.04038762093 0.8772678695 -0.4762928676 -0.05954988989
-0.007570040345 -0.01911581898 -0.03335829735 -0.3420873464 -0.9396413209 0.007101791209
0.00582454586 -0.01971678988 -0.01313904985 0.2361991748 -0.971703203 -0.001683805035
0.01014773703 -0.01792140007 -0.009290400028 -0.3698996889 0.9288306469 -0.02116245664
0.006894072056 0.05131519699 -0.07997650146 0.1573818141 0.01449067249 -0.987431509
-0.01827056503 -0.00943925031 -0.02150114886 0.9060836058 0.4228900812 -0.01328451997
-0.001193232844 0.03112383016 -0.08113843536 0.1283766742 -0.004674442451 0.9917144645
-0.01633831167 -0.01241678929 -0.02116602445 0.7941800104 0.6076798696 -0.001813082245
-0.004845473379 -0.01768987036 -0.05330941725 -0.2649532839 -0.9066760184 -0.3282352129
-0.01560319873 -0.01227248791 -0.0485386685 0.7708102061 0.6195269225 0.1484520744
-0.01956628527 0.01145034572 -0.06522392327 0.9473953819 0.1081921505 0.3012249143
-0.009940847715 0.02760217857 -0.07861009471 0.4651208057 0.00442360825 0.885236165
-0.01241677892 -0.01633813977 -0.02116593671 -0.6107537811 -0.7918200903 -0.0008737313696
-0.01286328177 -0.008930853497 -0.06157633036 0.6377611354 0.62700547 0.447353188
-0.009448141416 -0.01827904447 -0.02150946109 -0.4282779716 -0.9035682047 0.0119364388
-0.0001903844401 0.01897795439 -0.08109584427 0.01657069777 0.06973077618 0.9974282084
-0.008118786097 0.03921840477 -0.07951018143 0.4615506584 -0.01318395158 0.887015881
-0.01812174988 0.009732700348 -0.0131335969 0.9396368746 -0.3420174667 -0.01032455451
-0.02040649986 0.002752808809 -0.01755073261 0.9910135306 -0.131792434 0.0228678038
-0.01999408436 0.02362088935 -0.06534296989 0.9647871882 0.004714943022 0.26298945
-0.01849648285 0.009802140236 -0.04423233414 0.9528641007 -0.2805534473 -0.1154979168
-0.02014601707 -0.004136866713 -0.02121397667 0.9782979943 0.2069130083 -0.01095633869
-0.01804436684 0.01567088203 -0.07003632965 0.8639589593 0.08163705725 0.4969007019
-0.0203504777 -0.0007592976764 -0.04933107901 0.9894652466 0.1239916943 0.07473008466
-0.01422363186 0.04086730194 -0.04571747971 0.7830719745 -0.002669115475 -0.6219253642
-0.004135522795 -0.02014482346 -0.02121277542 -0.2046499767 -0.9787519979 0.01276376004
0.002782652736 -0.02038006496 -0.01752386093 0.125861284 -0.9918889059 -0.01775768878
0.009709044933 -0.01814225578 -0.01315482092 -0.3359208863 0.9418733631 -0.005632595646
-0.01981392384 0.005506228447 -0.0176854248 0.9746307919 -0.2235870759 -0.01018032322
-0.02055021095 -0.0004709061503 -0.02136071243 0.9988937453 0.04030560325 -0.02422279797
-0.01021045494 0.05826169205 -0.07842651367 0.5085096323 -0.04970680122 0.8596203742
-0.01632853079 -0.01243681661 -0.02533080959 0.791523013 0.6108363944 -0.01924108195
-0.01742325974 0.04000818253 -0.04970196152 0.8469149749 -0.01316359047 -0.5315653724
-0.02004886398 0.04386401596 -0.06509588318 0.9684776824 0.006244289268 0.2490220625
-0.01243606861 -0.01632765953 -0.02533005063 -0.6108749447 -0.7914914273 0.01931637717
-0.01911388016 0.03151318693 -0.06820810509 0.9372626663 0.01164198564 0.3484295604
-0.0004645759106 -0.02054466858 -0.02135519371 -0.04524461605 -0.9985393296 0.02953188043
-0.009467839638 -0.0137810119 -0.05801868248 -0.4515603402 -0.7942792933 -0.4064648366
0.00549464035 -0.01982408524 -0.01769566536 0.2270743275 -0.9738224298 0.01035012033
-0.01842130852 0.009206075668 -0.01702306938 0.9488531301 -0.3152862105 -0.01650281577
-0.006214103699 -0.01838996792 -0.04974406433 -0.3138594789 -0.9207245666 -0.2318587932
-0.02014530897 0.003933309317 -0.02114919186 0.9782920789 -0.2072268412 0.001282420228
-0.02005568733 -0.004569322729 -0.02538919907 0.9669908315 0.2543909217 -0.01462842042
0.003109958311 -0.004082579772 -0.07257738622 -0.1172365574 0.6110882987 0.782832473
-0.01824597168 -0.00948184824 -0.02567370701 0.9050637985 0.4249855506 -0.01570995015
-0.018997262 0.00792758894 -0.02975875854 0.9632620193 -0.2684813981 -0.006634837683
-0.009497460842 -0.01826086617 -0.02568798828 -0.4243513325 -0.9053509974 0.01629472265
-0.007441989064 -0.01916500616 -0.02515060997 -0.3562275089 -0.9340679623 -0.02487978495
-0.0008056243435 -0.02053673887 -0.02520592022 -0.09323996291 -0.9954819647 0.01794344796
-0.004571410799 -0.02005761032 -0.02539107094 -0.2527300565 -0.9674172801 0.01520936439
0.003915470541 -0.02016089773 -0.02116460657 0.2126254336 -0.9771337776 -7.577180056e-05
-0.000649862634 -0.004373456925 -0.07264013863 0.03901853716 0.6136388717 0.7886221459
0.003628469467 -0.01361968072 -0.06220805232 0.199641152 -0.8316730678 -0.5181344602
0.009288305283 -0.01834993744 -0.0169511795 0.3141663253 -0.9493016308 0.01122201963
-0.01323086381 -0.01323115861 -0.05312521887 -0.640421702 -0.7112603548 -0.2897736208
-0.004475783944 0.04731734848 -0.08064719772 0.2179608319 -0.01789272624 0.9757934854
-0.02054099131 -0.0008105105795 -0.02520999718 0.9957046218 0.09073165906 -0.01844104671
-0.01858446312 0.008883730888 -0.01984363174 0.952288957 -0.3051967164 -0.0008406393908
-0.01242825897 -0.01221587871 -0.05689784153 -0.6188741496 -0.7037234938 -0.3489527636
-0.01991426659 0.02704608917 -0.06562749386 0.9672075084 -0.01704668272 0.2534147712
-0.02023601799 0.003448956013 -0.0251272007 0.980189348 -0.1975012809 0.01490255481
-0.01266303624 -0.01615113841 -0.03722378498 -0.6110580146 -0.7915031512 -0.01143959955
-0.02052741766 0.02827876282 -0.06196487331 0.998388387 0.0172436013 0.05406742926
0.007081881205 -0.00775316906 -0.06802868144 0.2821200012 -0.6925424772 -0.6639226026
-0.01914787896 -0.007514602184 -0.02928910605 0.9405271704 0.3394415871 0.01371315648
-0.0182265625 -0.009515464783 -0.02896660995 0.9040433644 0.427252191 0.01269490343
-0.01912331104 0.007611875534 -0.03325592613 0.9230720378 -0.38423619 0.01733676145
-0.0205405571 0.02003313713 -0.06129723663 0.9982919755 -0.01290396645 0.05697911287
-0.01631885087 -0.01245654094 -0.0294393003 0.7906800098 0.6119285755 -0.01919741036
-0.0124539578 -0.01631620705 -0.0294368999 -0.6119913715 -0.7906399369 0.01884280679
-0.009536380291 -0.01824652195 -0.02898538303 -0.4269352981 -0.9041963337 -0.0124595878
0.008976620674 -0.01850378799 -0.01976351738 -0.3096304619 0.9508569676 -6.516633635e-05
-0.01866794777 0.008698812485 -0.02168177605 0.9560834907 -0.2930866043 -0.002145020983
-0.01913852247 0.03117992973 -0.05310733032 0.9498437893 -0.01729599706 -0.3122460958
-0.004743618345 0.02798809547 -0.08057800751 0.2078773338 0.02000901037 0.9779502306
-0.020526894 -0.001137986317 -0.02899620972 0.9952014833 0.09679558372 0.01430463593
-0.007729652564 0.02318265216 -0.07966944122 0.3763847713 -0.001044636722 0.9264628501
0.004301418066 0.04491180229 -0.08069551468 0.1582550987 -0.009501105409 -0.9873525473
-0.001508543809 0.04360666784 -0.08110897827 0.08546890503 -0.02062699059 0.9961272979
-0.01229743981 -0.01605089676 -0.0451122694 -0.5847136496 -0.8034147452 -0.1124041599
-0.02007225037 -0.004494732559 -0.02915772295 0.9657883383 0.2591700983 0.009151273418
-0.009580652952 0.01881079483 -0.07872796631 0.4739123387 0.0707802812 0.8777227621
-0.004498914301 -0.02007607937 -0.02916136694 -0.2566669673 -0.9664548999 -0.009327076941
-0.001134308757 -0.02052370949 -0.02899317818 -0.09953019799 -0.9949344772 -0.01411119335
-0.004089325825 -0.01492115943 -0.05993756739 -0.184857288 -0.8644933391 -0.4674174255
0.008770846367 -0.01860536003 -0.02162022781 0.3003392015 -0.9538244195 0.003916721392
-0.01882671611 0.008340463638 -0.02530951945 0.9588303398 -0.2838463323 -0.00869708027
-0.0182071476 -0.009561671893 -0.03303255844 0.9040015152 0.4275280676 0.001005944166
0.003546410044 -0.01629098066 -0.05741419093 0.1531016266 -0.8940288313 -0.4210372201
-0.008051754157 0.02762146886 -0.0795430781 0.3886396774 0.005351481378 0.9213742794
-0.02039027278 0.01177448432 -0.06131579399 0.9859516254 0.0643070481 0.1541557525
-0.01642419676 -0.01232908726 -0.03332586323 0.7914784767 0.6110136423 0.01497163363
-0.004766611894 0.03129499181 -0.08060924784 0.2356523863 -0.0244628678 0.9715294751
-0.01232701744 -0.01642210579 -0.03332398224 -0.6108904701 -0.7915746468 -0.01491348839
-0.02047541455 -0.0007800075582 -0.04543406023 0.9963601235 0.08115859135 0.02607273296
-0.0095843846 -0.01822882779 -0.03305247053 0.4275474124 0.9039916804 0.001500620895
-0.0004098414592 -0.01205043578 -0.06498385096 -0.01374700208 -0.7938714749 -0.607930178
0.008391529719 -0.01878231239 -0.0252666448 -0.2930485381 0.9560501422 -0.009522595568
-0.02004977735 -0.004591324449 -0.03325799688 0.9794336133 0.2012583564 0.01431331674
-0.01904864168 0.01892676687 -0.06829247856 0.9323810972 0.03429215413 0.3598465475
-0.01912445021 -0.007579258442 -0.03336626434 0.9392154246 0.3432260665 -0.008381735173
-0.00459657983 -0.02005459976 -0.0332624712 -0.2014359462 -0.9795016299 -0.0003415699291
0.003694827557 -0.02021816864 -0.0293393177 0.1748632215 -0.9843900265 0.0199782236
-0.02054678497 -0.0009078451037 -0.03315273285 0.9958018416 0.09153394239 -0.0004793075368
-0.02021352243 0.03134911537 -0.05690317726 0.9733237999 0.003222668364 -0.2294131532
-0.01996951561 0.05136838989 -0.06540398178 0.9781631311 -0.00413593139 0.2077974569
-0.01815518379 0.03903704643 -0.07029809952 0.8876718557 -0.01800442837 0.4601244583
-0.004404610435 0.007117935101 -0.07833522161 0.2319081079 0.3361241062 0.9128193768
-0.01615762721 -0.01266957135 -0.03722951804 0.7900953125 0.6127071289 0.01842203351
-0.0008918849118 -0.02053250694 -0.03313944778 -0.09380710061 -0.995590384 0.0001229677302
-0.02023439789 0.03575964165 -0.05703431416 0.9718524641 0.01299550983 -0.235231598
-0.0004946632981 0.03613030624 -0.08116770935 0.08356295367 0.008038819446 0.9964700749
-0.0202806735 0.00324752003 -0.03318024063 0.9935281263 -0.1108443618 -0.02480705024
-0.01008015951 0.05144892375 -0.07850532277 0.4382537021 0.008738010036 0.898808845
-0.01818874741 -0.009608080864 -0.03704647064 0.9012502645 0.4332774542 0.004313742089
-0.009628466606 -0.01820821476 -0.03706392288 -0.4323326441 -0.9016714276 -0.00878188896
-0.007632695595 -0.01909175142 -0.03737433624 -0.3645575722 -0.9310482226 -0.01571571399
-0.010030653 0.03920919609 -0.07854317856 0.4606098804 -0.009793145667 0.8875486648
0.003227097124 -0.02029861355 -0.03319685459 0.1095270431 -0.9937511141 0.02150697763
0.007938631296 -0.01898765087 -0.02974968338 -0.2732819831 0.9618912355 -0.009066902131
-0.01585403442 0.05881963196 -0.07359560547 0.7665838275 -0.05981679574 0.6393521615
-0.02051523514 -0.001426878589 -0.03723246994 0.993685755 0.1121971519 -0.0006476469091
-0.0200275979 -0.004686652303 -0.03730463219 0.9774587544 0.2111115072 -0.002512967594
-0.004692868352 -0.02003331232 -0.03730980301 -0.2095566937 -0.9777818905 -0.005344780124
-0.01449879837 0.01854024124 -0.07514286041 0.6895378343 0.05188994336 0.7223884058
-0.001418789124 -0.02050800323 -0.03722591705 -0.1112126344 -0.9937818749 -0.005416193073
-0.0181512146 -0.009633511861 -0.0409854749 0.8980509957 0.4387729456 0.03134822628
-0.004505934307 -0.004111894642 -0.07222927856 0.1750441787 0.6025631418 0.7786380389
-0.02050351715 0.01171435738 -0.05710986938 0.9981673397 -0.002387195573 -0.06046704205
-0.01625635735 -0.01247913472 -0.04138807615 0.7888483821 0.6137786078 0.0315285684
-0.01247049371 -0.01624790589 -0.0413807888 -0.6072946328 -0.7932287777 -0.04451219257
-0.00964011097 -0.01815751775 -0.04099104818 -0.4320024295 -0.900695136 -0.04606704715
-0.0005602040768 -0.01418007603 -0.06188388519 -0.03805126614 -0.8310119144 -0.5549516188
-0.0197328167 0.006983881632 -0.04584140142 0.9693878614 -0.213405242 -0.1214305433
0.002781253028 -0.02036621971 -0.03698268204 0.100479801 -0.9947849623 -0.01751252222
0.007583339691 -0.01914817429 -0.03327879333 0.3714819504 -0.9284104156 -0.007433756439
-0.01819747734 0.02390378952 -0.0702269516 0.8852995579 0.006910699271 0.4649698217
0.003643528382 -0.01488879999 -0.06014773687 0.1677969378 -0.8583825934 -0.4847922349
-0.01998625215 -0.004759494742 -0.04127521133 0.9772327356 0.2111308867 0.02097448694
-0.009684126445 0.003129797884 -0.07451895469 0.4647364975 0.3924398175 0.7937323085
-0.01906196404 -0.007688196301 -0.04133429909 0.9288281733 0.3700372076 0.01872670599
-0.001133912319 -0.02047650909 -0.04122717514 -0.1066759886 -0.9934242314 -0.04157559362
-0.007657954216 -0.01903353405 -0.04130940437 -0.3491216572 -0.9355821001 -0.05291693858
-0.01199883032 0.01164956474 -0.07616374842 0.5655736765 0.177784376 0.8053068559
-0.01923008156 0.007320461273 -0.03669237137 0.925448064 -0.3788146666 -0.006732690571
-0.02053259964 -0.001196122396 -0.04127658005 0.9923661689 0.1231313858 0.006931718
-0.019892136 -0.004591320372 -0.04554171448 0.9727202013 0.2263994121 0.05058375421
0.0072922225 -0.01925470352 -0.03671463203 0.3769036244 -0.9256032642 -0.03467355219
-0.02034386444 0.00303019588 -0.0410311264 0.993762418 -0.1104392533 0.01547345548
-0.02051514549 0.05074365997 -0.06156890411 0.9951285352 -0.009034537393 0.09817115439
-0.01898047638 -0.007486953068 -0.04480230179 0.9258008092 0.3727902226 0.06261239147
-0.01915079212 -0.004221725663 -0.05307205709 0.9198897025 0.3504038329 0.1761252086
-0.01917753537 0.03545370992 -0.06806704966 0.9283323823 0.004188657775 0.3717276465
-0.02043150584 0.00290566059 -0.04459882736 0.9960974028 -0.08778158926 -0.009184588229
-0.01809748793 -0.009180182695 -0.0458300333 0.8664268152 0.4874828501 0.1080048367
-0.007762078762 0.04736368752 -0.07963923264 0.3999271591 0.01771645703 0.9163756842
-0.01620050844 -0.01213725143 -0.04536512968 0.7866443954 0.6109594512 0.08898957279
0.007033851941 -0.01929839643 -0.04087097295 0.3909966179 -0.919004166 -0.0505270986
-0.009160941919 -0.0179260505 -0.0458798364 -0.4478310395 -0.880832911 -0.1535602259
-0.007180655837 -0.01896825457 -0.04459295464 -0.3584559423 -0.9282600148 -0.09921029382
0.006461493492 -0.003941264153 -0.07172052765 -0.2878498315 0.5810006386 0.7613019982
-0.007694800496 0.004362052381 -0.07616094589 0.3500734371 0.3790070362 0.8566225862
0.003108649325 -0.02027446518 -0.04097012024 0.1025780128 -0.993086211 -0.057074765
0.006278801918 -0.01169334459 -0.06387730789 0.2565614046 -0.7822698973 -0.5676531101
-0.01941998545 0.006894594034 -0.04097706095 0.9461751726 -0.3231605897 -0.0178822831
-0.004390047503 -0.01970682487 -0.04538319168 -0.1985421847 -0.9720498378 -0.1253000947
-0.00111682864 -0.0201342783 -0.04531713486 -0.08056599362 -0.9870973225 -0.1383762865
-0.009383261681 0.03136100483 -0.07892408371 0.4578102601 0.02373717584 0.8887329814
-0.0157147913 0.01329031754 -0.03684431839 0.8581712373 -0.5123250213 -0.03263740339
-0.007371057272 0.05582092094 -0.07978232956 0.3406690064 0.005810111911 0.9401653422
-0.01219773102 -0.01552994932 -0.04847859519 -0.576362066 -0.7983691276 -0.1743946819
0.01251249886 0.007652894497 -0.07456848145 0.4670457528 -0.321253653 -0.8238108734
0.003080085278 -0.01994456196 -0.04511509005 0.1168200376 -0.9836442715 -0.1371022461
-0.01725695992 0.05815058136 -0.04943861389 0.8518875025 0.01710407889 -0.5234454446
-0.007700851679 -0.01138876772 -0.06341851616 -0.3574966794 -0.7610122113 -0.5413469668
0.01280543709 -0.01613373375 -0.03721522522 -0.4875897729 0.8727478256 0.0238211298
-0.01891281986 -0.006735388279 -0.04863223648 0.9152706314 0.3865382285 0.1134366311
-0.01767342949 -0.009004631042 -0.0493695646 0.8428777853 0.5098306744 0.172132863
-0.01388033366 -0.01388038182 -0.04947322178 -0.6767661553 -0.7101393569 -0.1941382619
-0.00888825406 -0.01729536438 -0.04960578367 -0.4432879307 -0.8661607915 -0.2307840845
-0.00439126764 -0.01903312302 -0.04894973809 -0.1856342774 -0.9588412267 -0.214856736
-0.004702151155 0.03946416092 -0.08060335999 0.2583675359 0.01816500749 0.9658758973
0.007299846013 -0.01885069656 -0.04535829163 0.3705074727 -0.9199394554 -0.1282014472
-0.02052196121 0.003754056752 -0.04937211037 0.9984525514 -0.05123479325 -0.02162171637
-0.01701296978 -0.008656860971 -0.05319827538 0.8121003613 0.5320164228 0.239690486
-0.01904820697 0.04302775065 -0.06838536835 0.9256654677 -0.02507735643 0.3775110171
-0.01527714481 -0.01138065701 -0.05252426834 0.7640407301 0.6054511441 0.2228691878
-0.01989322117 0.01570115471 -0.06521328136 0.9732455794 0.05782313176 0.2223724975
-0.01140576148 -0.01512171245 -0.05201925659 -0.5265403854 -0.8078514634 -0.2648230269
-0.01128557158 -0.01128580523 -0.06024368668 -0.5482666257 -0.7084075226 -0.4444800211
0.003487459946 -0.0192328598 -0.04888658676 0.1153070897 -0.9721100149 -0.2042214339
-0.02013261986 0.00704615291 -0.04911248652 0.9884121154 -0.1120886467 -0.1023602721
-0.008691540813 -0.01612838717 -0.05361970215 -0.4084713705 -0.8583485466 -0.3104656376
-0.01856371498 0.02831781578 -0.0517513237 0.9291344668 0.003740356821 -0.3697230753
-0.01528117561 0.05858692169 -0.0468638382 0.8281275663 -0.01817724897 -0.5602448765
0.01258103371 -0.01597600842 -0.04453590965 -0.4853071835 0.8705415686 0.08145130477
-0.01798461723 0.0517686348 -0.0705670929 0.8668355339 0.01777994836 0.4982770621
-0.001482846388 -0.01819774361 -0.05347201538 -0.101832828 -0.9335749271 -0.3436101434
-0.008980623643 -0.008981859763 -0.06547441292 -0.4295395162 -0.679500097 -0.5947902338
0.0001104447246 -0.01876145363 -0.05201358032 2.341159639e-05 -0.9557407335 -0.2942102135
0.00770382154 -0.01783536196 -0.04951811409 0.3731291336 -0.9021687157 -0.2164861616
-0.0191790816 0.03558781306 -0.05322291946 0.9537800317 0.006136550053 -0.300442996
-0.01955391026 0.01035740328 -0.04996302605 0.9774306488 -0.1556952467 -0.1427876636
-0.02052389984 0.01591509571 -0.06115717545 0.9926796468 0.01690486186 0.1195882289
-0.01000398604 0.03527458445 -0.07856376902 -0.4578707987 0.01366758341 -0.8889136791
-0.02054944801 0.004240975142 -0.05312824097 0.9998032392 -0.009885645966 0.01719758518
-0.01577701144 -0.008468344125 -0.0570868988 0.7781342737 0.5483406698 0.3063161145
-0.007742076993 0.03533817387 -0.0796543808 0.3609285581 -0.0006137978855 0.9325932657
0.003190567017 -0.01866350746 -0.05156277847 0.1956245946 -0.9413871753 -0.2748112156
-0.0006428107573 0.006871769786 -0.07873631668 0.05338731206 0.344896578 0.937121201
-0.0205497036 0.03110312319 -0.06065910721 0.9999798528 -0.004189752141 -0.0047686509
-0.01794956779 0.01532343626 -0.04905350876 0.9508812937 -0.167877715 -0.2600804454
-0.02044358778 0.008147957325 -0.0534693079 0.9978276444 -0.05878061047 -0.02974612373
-0.01802460997 -0.00096079579 -0.06151281248 0.8531922528 0.3645815231 0.3730191587
-0.01888038349 -0.003073584199 -0.05630609512 0.9110119257 0.3421033561 0.2302662915
-0.01775246119 -0.004782668114 -0.05764212036 0.8471519994 0.4348966064 0.3052841817
-0.007615153885 -0.01521355362 -0.05706702423 -0.3458026011 -0.8542938256 -0.3880755347
-0.009649713516 0.02311460304 -0.07877267456 0.4610601237 0.02106469895 0.8871188425
-0.004619793713 -0.01625038099 -0.05701094389 -0.2246704159 -0.8865657635 -0.4043814428
0.01099307092 -0.004668730577 -0.06826091512 -0.474376812 0.5913615901 0.6521181719
0.003245974898 -0.01779062347 -0.05397236099 0.1994695402 -0.9156237783 -0.3490630303
-0.008120163282 0.05147341029 -0.07949463908 0.3858701475 0.01043591362 0.9224940764
0.006893129468 -0.01702142096 -0.0533966732 0.3344129864 -0.8826926445 -0.3301842664
-0.0198757906 0.011885252 -0.0526382103 0.9729790764 -0.1391878946 -0.1842239042
-0.01387616253 -0.009880873998 -0.05870619583 0.6747810655 0.6313794549 0.3821393693
-0.000634716291 -0.01679461336 -0.05705200863 -0.01579623522 -0.9025338441 -0.4303291058
0.01049727599 -0.01562764168 -0.05231096649 -0.3927810504 0.8615762777 0.3215732641
-0.0008598842174 0.01142752314 -0.08006469154 0.05430204755 0.2054833531 0.9771529457
-0.01828900146 0.05902263641 -0.05122991943 0.8967610368 -0.0006813563681 -0.4425146085
-0.0125636754 0.003604921922 -0.072672122 0.6044282348 0.3633155621 0.7089910517
-0.01800148201 0.01832640076 -0.05033860779 0.9458325144 -0.06704349964 -0.3176570854
-0.0163122057 -0.0006256674193 -0.06534467659 0.7880479316 0.3858939009 0.4796523269
-0.01959746615 0.0149148852 -0.05324155045 0.9584777033 -0.114010068 -0.26138515
-0.0006061748378 -0.008512152195 -0.06901595306 0.02063893262 0.7050161858 0.7088908324
-0.02053714027 0.00764060936 -0.05706216431 0.9984568389 0.03035079316 0.04650559355
-0.01946716363 0.003311419283 -0.06094013105 0.9510150964 0.2027412781 0.2333800774
-0.01722389317 0.02681935215 -0.04936304474 0.8945710001 -0.00598647983 -0.446885766
-0.01850808525 0.01977084541 -0.05159071732 0.94148723 -0.03104657777 -0.3356157115
-0.01880364927 7.636847099e-05 -0.06036195755 0.8937355492 0.3282926067 0.3057134809
-0.01649278344 -0.004496173647 -0.06116284943 0.7994663366 0.461465663 0.3845816149
-0.01517693806 -0.00688527751 -0.06080574417 0.7709539378 0.5113436586 0.3796810354
-0.005156828582 -0.01348942745 -0.06178531551 -0.2553632053 -0.815374813 -0.5195705416
-0.0185213089 0.02402665138 -0.0516556778 0.934545581 -0.003972264578 -0.3558212729
-0.01951532618 0.01983608119 -0.05404917272 0.9613722524 -0.01146602938 -0.2750125862
-0.0003964073248 -0.01534602952 -0.06000248337 -0.05278960862 -0.8769304377 -0.4777093936
-0.0004879857898 0.0004437139593 -0.07584497643 -0.0150264652 0.4908405236 0.8711198458
0.007185497284 -0.01538283348 -0.05703206635 0.3294172179 -0.8584676183 -0.3930873247
-0.01735942268 0.03553343391 -0.04958386421 0.8885014018 -0.04612669581 -0.4565496544
-0.01934641457 0.02398212147 -0.0535702343 0.9573361433 0.002496532017 -0.2889658734
-0.02001818252 0.007432609439 -0.06137209892 0.9776146398 0.1163708116 0.1752924705
-0.0145739603 -0.006291701317 -0.06258868408 0.7238642422 0.520748818 0.4525938879
0.01102560965 -0.01307140287 -0.05738600032 0.5199915645 -0.7587672537 -0.3922767232
-0.01957329369 0.02689650536 -0.05422102356 0.9647038971 -0.01736972264 -0.2627635508
-0.009467810154 0.05563315582 -0.07885707855 0.4364336968 3.321266053e-05 0.8997364209
-0.02020687342 0.02321939421 -0.05690787029 0.9803362933 -0.02618169649 -0.1955895467
-0.02029020071 0.04712300777 -0.05740768814 0.9898180007 -0.03688099485 -0.1374776991
0.01015529728 0.01112432957 -0.07728344727 0.40183971 -0.2339231553 -0.8853275128
-0.01543133163 -0.00345832181 -0.06425083694 0.7636609476 0.4545371525 0.4584952935
-0.01300923885 -0.005068943609 -0.06588031908 0.6366576056 0.5315721551 0.5586574416
-0.01186889044 -0.007579137802 -0.06453077888 -0.5608701547 -0.6241673298 -0.5439115866
0.004545816898 0.02105544853 -0.0806627121 -0.1707076765 0.01976236578 0.9851235141
0.007669324875 -0.0142449131 -0.05899287415 0.3656862213 -0.827988311 -0.4250987467
0.002257230282 0.04581727982 -0.08105042267 -0.05393276368 -0.009839081239 0.9984960939
-0.0147399931 0.0495970192 -0.04626444244 0.7984818928 -0.000441371955 -0.6020186642
-0.01749605274 0.04454953766 -0.0498352356 0.8670133265 0.02320283119 -0.4977444328
-0.02026409988 0.02710000954 -0.05724925385 0.9812787362 -0.01575306493 -0.1919476043
-0.009447060267 0.04317551549 -0.07887430573 0.4655387806 -0.004813886514 0.8850143899
-0.01879752922 0.00445531702 -0.0640267601 0.9225074469 0.2151780582 0.3204347262
-0.01785821206 0.002931484614 -0.06517243958 0.8433647106 0.310373768 0.4386389051
0.01161218929 -0.0008977063894 -0.07064190674 0.4838578332 -0.5022885051 -0.7166504412
-0.004436155528 -0.0116083014 -0.06474464417 -0.1583898909 -0.7800088212 -0.6053915108
0.00751439929 -0.01292895174 -0.06123996353 0.3371024836 -0.784465313 -0.5205536363
-0.01701859665 0.04878926086 -0.0490658989 0.8420839425 0.01243986466 -0.5392030078
-0.0194730072 0.03930422974 -0.05396943665 0.9543533584 -0.005897479365 -0.2986216452
-0.01915671825 0.007621598403 -0.06480576134 0.9269267177 0.1725138987 0.3332353745
-0.01939617538 0.05555496852 -0.0538568395 0.9575454941 -0.01518176122 -0.2878821647
0.003158739567 -0.0120428278 -0.06461274948 0.1522163496 -0.7924747159 -0.5906047812
0.01024263159 -0.011160031 -0.06157823563 0.4359773232 -0.734805939 -0.5195998515
-0.000686985299 0.02345754337 -0.08114501572 0.04173363877 0.03997025535 0.9983289448
-0.01767041397 0.05383740425 -0.05015054893 0.8776244244 -0.0001019941573 -0.479348891
-0.0149870162 0.000685082674 -0.06840424347 0.7613027531 0.371182522 0.5316405302
-0.0181379509 0.04952840424 -0.05090307999 0.8880986723 -0.0001865510063 -0.4596528183
-0.01452788925 0.03960675049 -0.07518423462 0.7095068819 0.0007463904317 0.7046981109
-0.009764592648 0.0472687397 -0.07869261169 0.4428025128 -0.003505468297 0.8966123166
-0.01930301158 0.04770205561 -0.05358820216 0.9553413132 0.007002112822 -0.2954216405
-0.02054884453 0.03515408173 -0.06100153809 0.9997835521 -0.01841634395 0.009679217526
-0.02054173927 0.02423862267 -0.06143412323 0.9996278666 -0.002206095494 0.02718936415
-0.01427641964 -0.002314033031 -0.06697384644 0.6831894469 0.4735324829 0.5558949246
0.003393246382 -0.001309783861 -0.07444795418 -0.1555481841 0.5319442362 0.8323701653
-0.005317409197 -0.009935507139 -0.06649199931 -0.259155083 -0.7301011734 -0.6322902178
-0.01913811684 0.05155304146 -0.05310372353 0.935033136 0.005303954511 -0.354520666
-0.0202405103 0.04295210775 -0.05710087713 0.9752876185 -0.02921919858 -0.218998401
-0.02033598646 0.03970862452 -0.05764857864 0.9952915945 0.0162897644 -0.09554729439
-0.02010180397 0.01983561516 -0.06487945175 0.9774606505 0.02711428537 0.2093692724
-0.01801233482 0.006156754255 -0.06688032913 0.8664746523 0.2511850752 0.4314252368
-0.01593972073 0.003479596496 -0.06882818069 0.7757042902 0.3156821783 0.5464683124
0.002790839612 -0.01032384396 -0.06682831955 0.1054394681 -0.7513057889 -0.6514768838
-0.01288886271 -0.0009205061272 -0.06954218826 0.6410849428 0.4428946803 0.6267809811
-0.004740321338 0.01905483198 -0.08054633522 0.2088552963 0.03657614701 0.9772623244
-0.01190008545 -0.003625609279 -0.06842914009 0.5565246355 0.5437225588 0.6282086509
-0.008803092176 -0.004871636347 -0.06969029375 0.4419792916 0.5859883992 0.6791700095
-0.01812754345 0.05875458145 -0.07030234909 0.8994502881 -0.03432850783 0.4356727359
-0.007565008481 -0.007258385658 -0.06830039469 -0.3588379116 -0.6630005172 -0.6570126844
-0.01256752968 0.01946344921 -0.07681116159 0.5947384798 0.04922966671 0.8024104813
-0.007413033168 0.04332239024 -0.07978518422 0.3967297086 -0.01595124708 0.9177968708
-0.004536290884 -0.008234606695 -0.06858300476 -0.1710625025 -0.6976014157 -0.6957656826
-0.001995136261 -0.0103438797 -0.06696881104 -0.126275286 -0.7517855713 -0.6472039918
-0.01869510937 0.0112772975 -0.06764748383 0.9047935397 0.1388368173 0.4025828966
-0.0170812983 0.007398662355 -0.06910449134 0.811724545 0.2389318071 0.5329304407
0.006834000905 -0.009890743256 -0.06582749939 0.3034126372 -0.7214376506 -0.6224696682
0.0105733881 -0.008261516412 -0.06503983688 0.4981144168 -0.6615870087 -0.5605217727
-0.01904033661 0.06028562164 -0.05279183197 0.9111014678 -0.003105656834 -0.4121704385
-0.01809370041 0.03505549367 -0.07040987142 0.8887161533 -0.02806662865 0.4575979275
-0.02031909323 0.051805439 -0.05757890606 0.9904698708 0.03154880799 -0.1340675495
-0.02054319839 0.03963570862 -0.06115875931 0.9990193073 0.02849964296 0.03388501007
-0.01633418306 0.05550717481 -0.07301689784 0.792819238 -0.01037451752 0.6093685463
-0.01756031827 0.01142249434 -0.06986606162 0.8443517722 0.1486725174 0.5147490334
-0.01394968255 0.002351848046 -0.07067381287 0.67514701 0.3831728122 0.6303610956
0.00331993195 -0.008068126202 -0.06907911137 0.1150732951 -0.7048511205 -0.6999593093
-0.01613784901 0.0514240462 -0.07325504049 0.7992046942 -0.002278036636 0.6010546292
0.01387074375 -0.006494369507 -0.0633477211 0.5795466749 -0.6185744532 -0.5305575346
-0.02026656532 0.05554385757 -0.05722040176 0.9845073806 0.001347428218 -0.1753379653
-0.007886518955 0.05948694992 -0.07957435862 -0.3624837665 0.04749684996 -0.9307790115
-0.02053362617 0.0442027977 -0.06132350082 0.9947153698 0.01011304718 0.1021717152
-0.02001416626 0.03094529991 -0.06528458557 0.9695292445 -0.009574848403 0.2447884113
-0.008438776096 -0.0004418513303 -0.07316432826 0.3994769383 0.4917079674 0.7737192324
-0.019998511 0.03959003194 -0.06526532873 0.9788868629 0.003812583493 0.2043672523
-1.769680716e-05 -0.00653362751 -0.07092871094 -0.04316402888 0.6707017485 0.740470142
-0.000229832761 0.003516028603 -0.07740234375 0.02479295706 0.424186015 0.9052356234
-0.01906593895 0.02761802737 -0.06836073049 0.9334836463 0.01692889066 0.3582201764
-0.01811870257 0.02018427595 -0.07034418233 0.8840145385 0.03325028979 0.4662753628
-0.01600409317 0.01525458976 -0.07301812853 0.7908997776 0.1003792955 0.6036568055
-0.01556068202 0.01150451374 -0.07276555634 0.7728467814 0.1573475396 0.6147760602
0.004379550457 -0.005960867405 -0.07079987335 -0.2317592403 0.6319300484 0.7395620788
0.007695857684 -0.005271418889 -0.07001220957 -0.3232604475 0.6197711486 0.7151128627
-0.0205438242 0.05946623993 -0.06109282684 0.9962323481 -0.04189811707 0.07593191963
-0.0200039285 0.04759354782 -0.06524135844 0.9788256805 -0.0007520200903 0.2046942149
-0.01812210083 0.02713862228 -0.0703547554 0.8853452141 -0.002151179208 0.464929268
-0.01625717449 0.0192199707 -0.07308609867 0.7950525168 0.03370370908 0.6056034639
-0.004723658403 -0.001019799391 -0.07433747864 0.2389363288 0.5081925981 0.8274356253
-0.02008778038 0.05558607025 -0.06486305237 0.9802057996 -0.0004137936699 0.1979808559
0.008042417526 0.007082061609 -0.07707500966 0.3765058444 -0.3216784998 -0.8687728656
-0.01894644483 0.03863040415 -0.06859794617 0.9131091648 -0.02705393974 0.4068165894
-0.01817735481 0.03135004234 -0.07025221252 0.8859463397 0.008291568672 0.4637136326
-0.01614870811 0.02343860483 -0.07328178215 0.7942881084 0.01709696807 0.6073006624
-0.01379517396 0.01139058018 -0.07461144765 0.6759426093 0.1913095455 0.7116897124
-0.01990712357 0.05898704815 -0.06553433609 0.9687151677 -0.02708666169 0.2466925953
-0.01908749199 0.04719497108 -0.06824395561 0.9398025003 0.006540784922 0.3416554968
-0.01626888847 0.03120796943 -0.07311868477 0.7967489404 -0.02295490837 0.6038743232
-0.01627578417 0.02730731424 -0.07311899567 0.7934842503 -0.003620836558 0.6085800145
0.008478300095 0.001797448397 -0.07453059387 -0.3985782852 0.4365469832 0.806574288
-0.01439346313 0.01466875267 -0.07478775787 0.6745699365 0.137680413 0.7252582331
-0.008669945049 0.007705080986 -0.07698922882 0.4376786835 0.2915728159 0.8505425698
-0.003250375986 0.0004658351839 -0.07559873962 0.1537048035 0.4773541885 0.8651634597
-0.01914735413 0.05140818278 -0.06811807251 0.930783778 0.03605946193 0.3637874021
-0.01820563825 0.043100619 -0.07018430074 0.8857123972 -0.003270992316 0.4642228453
-0.01608770384 0.03541145052 -0.07332882799 0.7991195406 -0.0008621631996 0.6011715366
-0.01253763553 0.01550577968 -0.07648125349 0.5916627667 0.1012755763 0.7997989924
0.002726815462 -9.084235877e-05 -0.07538301086 -0.1172021336 0.5178863656 0.8473826598
0.0120034043 0.003308601181 -0.07299763489 -0.4929429534 0.3946653767 0.7754008545
-0.01906111622 0.05544258118 -0.06828839493 0.9264038168 -0.01238042794 0.3763279065
-0.01809475263 0.04778090032 -0.07039404806 0.9011285149 0.005932655639 0.4335114799
-0.01628044237 0.03959534073 -0.073087386 0.7937716557 0.01697028403 0.6079790852
-0.01245407459 0.02336528342 -0.07692920467 0.6048757609 0.007874825618 0.7962809184
-0.008598671675 0.01135254033 -0.0781277415 0.4205121863 0.210982209 0.8824148733
0.003619558525 0.003054042602 -0.07681739502 -0.1531304042 0.4226050128 0.8932838756
-0.004370480442 0.01550032883 -0.08032128601 0.1929705068 0.1221800151 0.9735678854
0.006711743951 0.003381992072 -0.0760819664 -0.3055120958 0.3999804561 0.8641053142
-0.01914760876 0.05896563911 -0.0681437912 0.9393736674 -0.05757653618 0.3380267081
-0.01822888883 0.05466603978 -0.07011219533 0.8991689339 -0.01827493367 0.4372199161
-0.0164290875 0.04358338111 -0.07290711212 0.7954764318 0.008194969862 0.6059291121
-0.007337784608 0.01890526835 -0.07975343068 0.3536049776 0.06884168501 0.9328581576
-0.01269387054 0.02724217415 -0.07675831713 0.607342038 -0.01572147582 0.7942848884
-0.009223151588 0.01464366608 -0.07848560028 0.4701198595 0.137587959 0.871812406
-0.01281070328 0.03162849753 -0.07664291709 0.6064239569 0.01162481025 0.7950565063
-0.000612859726 0.02762357712 -0.08113957596 0.04692887334 0.005083693585 0.9988852972
-0.005437892914 0.01049632263 -0.07912319946 0.2948528458 0.2573573756 0.9202331121
0.002977243394 0.007236788869 -0.07865714264 -0.1331308854 0.3181019394 0.9386625184
-0.01287338676 0.0392646637 -0.07662028656 0.6099740589 -0.02332917822 0.7920778983
-0.01249938202 0.03569568443 -0.07691385015 0.6055797963 0.01331666526 0.7956731595
-0.007027539253 0.01560836315 -0.07960459518 0.337969984 0.1132871066 0.9343138238
-0.004102323532 0.01189452076 -0.07978787231 0.1714006522 0.1918113901 0.9663489054
-0.0003807281256 0.009046321869 -0.07949755096 -0.001048903159 0.2748424792 0.9614886954
-0.0124693876 0.04319993101 -0.07689829581 0.6073041699 -0.005421847134 0.7944509102
-0.001252734207 0.0148937676 -0.08068048477 0.04736522664 0.1220300994 0.991395577
-0.0002180084089 0.04002295685 -0.08112722778 -0.02875487159 0.005078063322 0.9995735944
0.003182793617 0.01176333308 -0.07989366722 -0.1618801205 0.2298127695 0.959677507
0.005185872078 0.009960640907 -0.07907424927 -0.2176627213 0.2699703957 0.9379439883
0.007881486416 0.01174102592 -0.07852908707 0.3565369253 -0.2358522136 -0.9040216559
-0.01283771286 0.05098887558 -0.07661690216 0.6424562915 -0.01886889733 0.7660899935
-0.01278873444 0.04754191907 -0.07666509247 0.6110618613 0.02296076928 0.7912497739
0.007184711695 0.0269401989 -0.07984298325 0.175163965 0.00859406305 -0.9845017661
-0.004745348501 0.02347624626 -0.0805979248 0.2147862762 0.01674267265 0.9765175567
0.006151155472 0.01287975502 -0.07945676422 -0.2051153865 0.2190961674 0.9538996528
-0.01270054477 0.05532650321 -0.07672682408 0.6104727074 -0.01891545697 0.791811391
-0.007391075373 0.03149092293 -0.079811409 0.3610017289 0.03238759838 0.9320025725
0.006840704441 0.01652286339 -0.07973993683 0.2534041182 -0.1184503133 -0.9600811821
-0.01217783356 0.05947809601 -0.07711566925 -0.6071976107 -0.01906286561 -0.7943221441
0.002503169954 0.02187266541 -0.08102752686 -0.06667262451 0.0258653833 0.9974395937
0.006261126518 0.02087999535 -0.08021874237 -0.1707076765 0.01976236578 0.9851235141
0.002910678983 0.027398194 -0.08094334666 -0.08528437469 0.000382832054 0.9963565772
0.001467409849 0.03411691284 -0.08112510681 -0.06563470404 -0.01133766771 0.9977793057
0.006673320532 0.03259854507 -0.08003561783 0.2331741924 -0.001243633232 -0.9724341877
-0.005217572331 0.05207760048 -0.08047076225 0.252708551 0.01902245185 0.9673554334
0.007444282532 0.03877113342 -0.07977996063 0.1874811252 0.0050408188 -0.9822552712
-0.004674375892 0.05908460045 -0.08060532761 -0.2620152815 0.03680213734 -0.9643617552
-0.004633123875 0.0556509997 -0.08061822764 0.2635447127 0.001551179437 0.9646459341
-0.001006682793 0.05163245646 -0.08108317057 0.05393219111 0.000831788436 0.9985442538
0.000162195685 0.04778220495 -0.08116174062 -0.04272524249 -0.00351823528 0.9990806652
-0.0008607904787 0.05561042277 -0.08113946788 0.07989872118 -0.01212017136 0.9967292992
0.003490800301 0.05174855423 -0.08083336894 0.151749772 0.005764900742 -0.988402131
