# .PCD v0.7 - Point Cloud Data file format
VERSION 0.7
FIELDS x y z normal_x normal_y normal_z
SIZE 4 4 4 4 4 4
TYPE F F F F F F
COUNT 1 1 1 1 1 1
WIDTH 554
HEIGHT 1
VIEWPOINT 0 0 0 1 0 0 0
POINTS 554
DATA ascii
-0.01596384478 -0.01294251394 -0.005728487968 0.7925054416 0.6097536081 0.01164742231
0.006860043764 -0.01705074215 -0.05341871452 0.313532715 -0.8963106572 -0.3135672854
0.0001530018821 -0.01672701359 -0.0573031044 0.006078077483 -0.9108352239 -0.4127253952
-0.02057057762 0.02089579201 -0.06055469513 0.9994201836 -0.007344413383 0.03324689836
-0.01297169733 -0.0159925561 -0.005758799791 -0.612667725 -0.7902501292 -0.01195792564
-0.005625322628 -0.01433335857 -0.06018100891 -0.2666285044 -0.8378779744 -0.4763084513
-0.005279088179 -0.01987329038 -0.003461058378 -0.2191899298 -0.9754315654 0.02211415652
-0.008848124743 -0.01856611681 -0.02717676687 -0.4666614389 -0.8843947488 0.008545737176
0.001467409849 0.03411691284 -0.08112510681 -0.05322711773 0.01630294909 0.9984493416
-0.01712900066 -0.01140271688 -0.03577596474 0.8404965289 0.5416885581 0.01179368639
-0.01449456596 -0.01449460316 -0.04227710629 -0.7038687084 -0.7085462697 -0.05030929261
-0.002336487532 -0.02040480296 -0.003394945741 -0.07823635714 -0.9968495514 0.01304010312
7.100999355e-05 -0.02054332638 -0.001307331681 0.04365361117 0.9983110126 -0.03833385394
-0.02056234789 0.02410723782 -0.06024606037 0.9998494158 -0.007674091143 -0.01556451053
-0.02022856522 0.003689567327 -0.0001596893966 0.9894109538 -0.1384959631 0.04341465933
-0.01464948106 0.03349136734 -0.07500655746 0.7041530078 -0.006891259668 0.7100148253
-0.02046032969 -0.001882000605 -0.009122711182 0.9976711496 0.06748372167 0.009910826166
-0.01970445824 -0.005862621784 -0.006057044665 0.9637042002 0.266536561 0.01524717017
-0.02053840446 0.003281138659 -0.04839898491 0.9944242242 -0.09597498269 -0.04369513736
-0.01877707418 -0.008345573107 -0.006273811658 0.900301095 0.43519771 -0.007803306961
-0.01965981929 -0.006035600344 -0.01486179129 0.9502698288 0.3111267489 0.01368936413
-0.01721302414 -0.01123690796 -0.01249859428 0.8201125497 0.5720992189 -0.01085769587
1.369297504e-06 -0.02054463768 -0.003152884722 -0.03342181577 -0.9991204591 0.0253237135
0.008168160439 -0.01791380024 -0.04858781052 0.3340562981 -0.9148163912 -0.2269743599
-0.01718936157 0.03967251968 -0.07187591553 0.826469444 0.01185052658 0.5628568407
0.0004098784626 -0.003323910832 -0.07343690491 -0.01165873163 0.5805549585 0.8141375892
-0.01119741631 -0.01723905563 -0.006369375706 -0.5324298092 -0.84639559 -0.01153271772
0.003703281164 -0.02021646118 -0.0001462346017 -0.1459273342 0.9882674941 0.04508406858
0.007861646175 0.03287438965 -0.07962527466 0.2782693543 -0.01319078808 -0.9604124997
-0.01438237015 0.0183355821 -0.07516768392 0.7017281307 0.0521266653 0.7105353203
-0.02026526546 0.003528770685 -0.00298856616 0.9938373423 -0.1108466628 -0.0005953779229
-0.01960299587 -0.006261637807 -0.03938473415 0.9435506319 0.3312279058 -0.0005285890373
-0.01462691307 -0.002661096437 -0.06616798401 0.7081057525 0.4695426325 0.5273670065
-0.0164244976 0.009650841713 -0.07110665512 0.7921048756 0.2061213157 0.5745292588
-0.01595903635 -0.01295660543 -0.009255743027 0.7831910589 0.6217241003 0.008420707037
-0.01787697296 0.01227750397 -0.06957074585 0.8660465122 0.1335384313 0.4817996743
0.009497891426 -0.0182464838 -0.01506007147 -0.3701829848 0.9289261617 -0.007793834351
-0.01838986015 0.03917473729 -0.06981484985 0.8955713076 -0.001863738094 0.4449141036
-0.01855511475 -0.008844562531 -0.008768769423 0.8906788254 0.4545399303 0.009202269884
-0.01722757578 -0.01121408796 -0.00901175952 0.8222448782 0.5691091024 0.005309401444
-0.01298303127 -0.01598503828 -0.009282695293 -0.624527331 -0.7809748249 -0.006628402153
-0.006704277039 -0.01893544388 -0.04632085419 -0.3416132702 -0.9284796088 -0.1456914196
-0.01148158145 0.03007734489 -0.07763936615 0.5535834468 0.003803468125 0.8327850269
-0.01438172102 0.02428902817 -0.0752845974 0.7078963029 -0.006077147262 0.7062902325
-0.01168805758 0.009404571056 -0.0757653211 0.5816031838 0.2461865948 0.7753256717
-0.0202806735 0.00324752003 -0.03318024063 0.9801165404 -0.1983887133 0.003672278954
-0.005291117668 0.03634739812 -0.0804533488 0.2372445301 -0.003044909648 0.9714451922
-0.0195085907 0.006530964851 -0.002877096951 0.9316210202 -0.3631479218 -0.01434787692
-0.01121696138 -0.01723020887 -0.009014586449 -0.5685415246 -0.8226427035 -0.004417838738
-0.0130298562 -0.01585620975 -0.04223377991 -0.6148226554 -0.7868016993 -0.05418660692
0.002058706999 0.01060243797 -0.07980808258 -0.08700646156 0.2404259022 0.9667601881
-0.002426467578 -0.02039839999 -0.006418639501 -0.08620259107 -0.996276773 0.001305716181
0.0006503251344 -0.02044451141 -0.04237161064 0.01775125302 -0.9979553462 -0.06140048815
0.003553993225 -0.02024299049 -0.002964167953 0.1165248239 -0.9931830253 -0.003073055394
-0.01981392384 0.005506228447 -0.0176854248 0.9681989127 -0.2501609066 0.003222776211
-0.01976021957 -0.005654717565 -0.009215630293 0.9642698817 0.2649210691 0.0006498500877
-0.005658218384 -0.01976333523 -0.009219001293 -0.2646103652 -0.9643551229 -0.0007427242235
-0.01669135284 0.03082806015 -0.04854160309 0.8790466296 0.0008595875313 -0.476735025
0.0009457017481 -0.02054683876 -0.006252407551 0.07613026508 -0.9970743417 0.006851265942
-0.008747629484 -0.01861642456 -0.03659362157 -0.467139704 -0.8841773053 0.003315069492
-0.003945076942 0.05417428589 -0.08077677155 0.2350605778 -0.00380143665 0.9719732887
-0.02032111931 0.003308394313 -0.006724594831 0.9944006872 -0.1039421313 -0.01906060384
0.00549464035 -0.01982408524 -0.01769566536 0.2531558035 -0.9674250179 -0.0009868115074
-0.01566104126 0.0153208952 -0.07351951599 0.7543864987 0.1055822743 0.6478837812
0.000520134449 -0.01937081337 -0.04978742599 0.0151051138 -0.9698674922 -0.2431643129
-0.008574329853 -0.008969535146 -0.0658171136 -0.3989428457 -0.6858031623 -0.6087024136
-0.01864299202 -0.008650870442 -0.0119149127 0.8901430329 0.455678936 0.001445111561
-0.0201272316 0.006132966638 -0.06017965794 0.9804661553 0.1190958123 0.1565321242
-0.01454080606 -0.01454089451 -0.01281756592 0.7104153823 0.7036351728 -0.01440583543
-0.011242697 -0.01721848869 -0.01250426984 -0.5711932741 -0.8207431955 0.01090186257
-0.002279026389 -0.02044424502 -0.02137646612 -0.08213955935 -0.9965019295 0.01539471614
-0.01695131226 -0.008234755611 -0.05436866531 0.8332131466 0.4965265444 0.243345933
-0.02030143674 0.01799577904 -0.05707329559 0.9916881283 -0.04161095461 -0.1217505015
-0.01979927111 0.03917392445 -0.0661098423 0.9714906048 -0.007206753717 0.2369684946
-0.001894437035 -0.02047143618 -0.00913452816 -0.06237927486 -0.9980165713 -0.008470504283
-0.005251961231 -0.0183625555 -0.05088064003 -0.2321158644 -0.9338642375 -0.2720658219
0.003357232213 -0.02027795696 -0.006678197622 0.1112143672 -0.9936630626 0.01628135433
-0.01726902485 0.01118223333 -0.003041439414 0.9007216436 -0.4341792405 -0.01374437312
-0.01257461071 -0.01537503052 -0.04802304268 -0.6153431441 -0.767883291 -0.1780675897
-0.01963169765 0.006217755318 -0.006705355167 0.9563128215 -0.2923446974 -0.0006044455377
0.003527827501 0.0270497551 -0.08085913086 -0.1978428463 0.009623671919 0.9801865093
-0.02055023956 0.0008361650109 -0.008974766731 0.9965724016 -0.08266040482 -0.003271986732
-0.0204234705 -0.002295743227 -0.0122312727 0.9952958561 0.09599229555 0.01310106755
-0.01981868172 -0.005454426289 -0.01234662437 0.9628804909 0.2693339287 -0.01789958607
-0.005463675022 -0.01982715162 -0.01235545953 -0.2701867857 -0.9626548151 0.01716997068
-0.002302536398 -0.02042945766 -0.01223745704 -0.09154736297 -0.9957040995 -0.01387179032
-0.01958369255 0.01834760666 -0.05408374786 0.958261564 -0.04906156813 -0.2816518018
-0.01704179287 0.0214634037 -0.07209958839 0.8299836949 0.01865380354 0.5574756514
-0.02056399028 0.03985855103 -0.06035233053 0.9996183968 -0.001428564693 0.02758659149
-0.0130564971 -0.01593284655 -0.03277495956 -0.6433301765 -0.7655083257 -0.01110347975
-0.02035598373 0.003152419806 -0.009487323761 0.9922826924 -0.1239239859 -0.004231316451
-0.02056303215 0.0007172780335 -0.01167722893 0.9971220308 -0.07521358454 0.009516950546
0.01282945538 -0.01572228813 -0.04514049149 0.6691879501 -0.7421960468 -0.03650363849
-0.01862478018 -0.008694859028 -0.01537837815 0.8854152794 0.4645452656 -0.01541036026
-0.01142078185 -0.01711310673 -0.03894820595 -0.5432552092 -0.8394381673 -0.01474248506
-0.00841177845 -0.01117700318 -0.06317534038 -0.3988383603 -0.7366658352 -0.5461239873
-0.01299061012 0.02219037247 -0.07657694244 0.6191994672 0.005854595195 0.7852119099
-0.008140756607 -0.007220448494 -0.06799563599 -0.3567156209 -0.6634491558 -0.6577151234
-0.02056496286 0.0005155692324 -0.04247712231 0.9999136624 -0.002160297762 -0.0129615152
-0.0173271567 -0.01105424023 -0.01561946074 0.8429638181 0.5377290961 -0.01610653875
-0.01691519197 0.006604993184 -0.06906224696 0.8297955651 0.2379161466 0.5048120712
-0.01936533737 0.01455091763 -0.05224427032 0.9537994545 -0.1403646951 -0.2656395169
0.008539764404 -0.008900091966 -0.06592919668 0.3988900214 -0.6913146954 -0.6024705327
-0.01595076656 -0.0129808445 -0.0153231554 0.773126659 0.6340953414 -0.01408073676
-0.01454159117 -0.01454167557 -0.01539861679 0.7089465164 0.7050795147 -0.01605349651
-0.01960460758 0.006570779562 -0.06283845139 0.9509326746 0.1634963817 0.2626708615
-0.002719218463 -0.01672059011 -0.05685429859 -0.1251363613 -0.9069047193 -0.4023241493
-0.01300252914 -0.01597210598 -0.01534456825 -0.6380763454 -0.7698378668 0.0144303987
-0.01126114893 -0.01720916557 -0.01509362984 -0.5366515337 -0.8436887444 0.01394395428
-0.01839008713 -0.009200232188 -0.03880621211 0.8783703061 0.4778126219 0.01267689486
-0.002599671841 0.03907441521 -0.08101781464 0.1141703733 -0.005789891086 0.993444313
-0.01712313175 0.05151073837 -0.07195453072 0.8313534036 0.005232804399 0.555719476
0.0002461334094 -0.02055936527 -0.02389375973 0.05192974035 -0.9985667898 -0.01294868502
-0.008698570967 -0.01862827778 -0.01538194919 -0.4617585937 -0.8868897369 0.01433861129
-0.01445815811 -0.005808176231 -0.06325911407 0.7144536545 0.5291499899 0.4577731576
-0.0157147913 0.01329031754 -0.03684431839 0.7421984388 -0.6691854134 0.03650150529
-0.006030781428 -0.01965526072 -0.01485711384 -0.3159658102 -0.9487041276 -0.01122876316
-0.01134820104 -0.01716123247 -0.02768278217 -0.5374894161 -0.8431050572 0.01670299494
0.0007310936451 -0.02055068111 -0.01166428375 0.08307323797 -0.9964814202 -0.01111829142
0.003211338043 -0.02030388451 -0.009432070732 0.1322851234 -0.9912054541 0.003520501965
-0.02005240965 -0.003099466562 -0.04840685844 0.9698537012 0.2333442724 0.07024420796
-0.00590160203 -0.01969986057 -0.0213367095 -0.3167155307 -0.9484040087 0.01486973209
-0.008692882919 -0.01828838959 -0.04501282272 -0.4557493522 -0.8812558103 -0.1252227012
-0.01752879906 0.01074064732 -0.006115917206 0.9046147378 -0.4261267196 -0.009391220994
0.003502348304 -0.01944455528 -0.04787457943 -0.1746282494 0.9660802717 0.1902469007
-0.01969798851 0.006014173031 -0.009515357018 0.9606596669 -0.277722938 -0.001724530053
0.005448338747 -0.007746671438 -0.06880765915 -0.2375560002 0.6833353994 0.6903766209
-0.01974089527 0.02773408699 -0.0547877655 0.9630632742 0.01040616331 -0.2690740448
-0.02037638855 0.003014104009 -0.01220417595 0.9953652466 -0.09616637242 -0.0002338240833
-0.02038169479 -0.002697239836 -0.01529647986 0.9947601881 0.1022273776 0.001315826689
0.0002873185575 -0.01277234459 -0.06406569862 -0.01409095724 -0.8179643253 -0.5750963463
-0.01706666311 -0.01147956435 -0.01797257169 0.8210558329 0.5707711316 0.009361335994
-0.01594727898 -0.01299106598 -0.0178815279 0.7906162177 0.6121826979 0.01258335026
-0.02042625427 0.002581387043 -0.02105832005 0.9967891916 -0.08001564041 -0.002967289426
-0.02031691615 0.03374749502 -0.05746623103 0.9852709464 0.02520746076 -0.1691323329
-0.002333403516 0.006469489098 -0.07848362427 0.1307432443 0.3480029581 0.9283319155
-0.01454236794 -0.01454244852 -0.01795335531 0.7087852712 0.7053610841 0.009443541022
0.00798463583 0.01672891426 -0.07935273743 -0.3085196862 0.1253468303 0.9429229954
-0.01301075077 -0.01596665287 -0.01790069962 -0.6145075841 -0.7887806673 -0.01433485423
-0.02055605125 0.01888841438 -0.05969056892 0.9981815995 0.008936692765 -0.0596123312
-0.019541605 -0.006277102232 -0.04251001358 0.94004415 0.3402458635 0.02344671594
0.0006715611145 -0.02054327679 -0.03923153496 0.02308493743 -0.9995627158 -0.01847871588
-0.01468918006 0.04238968277 -0.07498869832 0.7054171676 -0.003375502531 0.7087843295
-0.01127914524 -0.01719967985 -0.01765621853 -0.5703298185 -0.8213382024 -0.01128961521
-0.002696816762 -0.02038116391 -0.01529594008 -0.09776811948 -0.9952065751 -0.00229512459
0.003067074776 -0.02032952023 -0.01215515947 0.1021343256 -0.9947696892 0.001358301128
-0.01845658064 -0.008996923923 -0.04163052368 0.8760697542 0.4801619196 0.04411707934
-0.01447038627 0.04525426006 -0.07518281555 0.7080775735 -0.004007809668 0.7061232806
0.006092124939 -0.01962976456 -0.009443281174 0.2854372328 -0.9581867437 0.02009353819
0.01062422371 -0.01762960434 -0.006223028183 0.4150115141 -0.9097393858 0.01181918549
-0.02057226276 0.003095871329 -0.05157641411 0.9997515588 0.01081604862 0.01948932705
-0.0001206325516 -0.02056593323 -0.03314267349 0.02272298274 -0.9996444574 -0.01395079742
-0.01778493786 0.01030524206 -0.009147359848 0.9135286019 -0.4067379302 -0.005454325573
-0.01973700714 0.005843218327 -0.01226509333 0.9549586101 -0.2966979439 -0.004937927546
-0.01978835487 0.05406271362 -0.05502747726 0.9739312726 -0.00257128908 -0.2268287125
-0.02057732201 0.0005633733869 -0.01523867321 0.997979076 -0.06307414823 0.007708160271
-0.02035691071 0.02457958031 -0.05767392159 0.9925673847 0.003734744454 -0.121638968
-0.01138969302 -0.01704990959 -0.04204573345 -0.5418748817 -0.838326679 -0.05983303288
-0.01907222939 0.006097522736 -0.0643033905 0.9224549442 0.1962250813 0.3325245756
-0.005441300074 0.04267809931 -0.08040817769 0.2536136869 0.0177896286 0.967141989
-0.0197185874 -0.005833991647 -0.01792881966 0.9614422955 0.2745381951 0.01604655405
0.01048848248 -0.01563545513 -0.05231471634 0.4479678404 -0.8416319635 -0.3016296603
-0.01827838516 0.01391557598 -0.04891405106 0.9350562364 -0.2166083525 -0.2806254734
-0.01871501096 -0.008509797096 -0.01845883179 0.8868496233 0.462037351 -0.004385426065
-0.002928970337 -0.02035829401 -0.03347177124 -0.1452438599 -0.9893619509 0.008194585865
-0.02034807348 -0.002917746246 -0.03346228886 0.9888582863 0.1487192208 -0.00647170147
-0.0145649488 0.0303779068 -0.07510035896 0.7023891053 -0.003718712129 0.7117834754
-0.008513174693 -0.01871820768 -0.0184620355 -0.4593437391 -0.8882483717 0.004261404861
-0.005834492445 -0.01971897984 -0.01792925739 -0.2758876149 -0.961067226 -0.01535614298
-0.00898494482 -0.01844525671 -0.04162064838 -0.4671580365 -0.8819145927 -0.06316660654
0.005890978336 -0.01969518375 -0.01222149229 0.2896218764 -0.9571265385 0.005287535754
-0.01112078299 -0.01151644598 -0.06005593164 -0.567439993 -0.6990274057 -0.4351695537
0.0005903359056 -0.02055320168 -0.01521383953 0.06500362118 -0.9978627471 -0.006668367864
0.002101584435 0.05922805023 -0.08104432678 0.08382211019 0.01443494377 -0.9963761771
-0.01462239122 0.05194829464 -0.0750177536 0.7091936863 0.007030880056 0.7049786394
-0.02039652729 0.002839343548 -0.0157800808 0.9966960034 -0.08090677697 -0.007153331306
-0.01970558929 0.04469904327 -0.05471373367 0.97410472 0.007523595593 -0.2259721001
-0.01952487183 0.01543960476 -0.06656970596 0.9512585048 0.05574216331 0.3033151304
-0.02040142107 -0.002473086298 -0.01833814287 0.9962924692 0.08442056177 -0.01656757426
-0.002835162342 -0.02037259865 -0.03018250656 -0.1536332673 -0.9880919457 -0.008433618739
-0.01848788325 -0.008986425082 -0.02083111445 0.8886004713 0.4586302045 0.006894776607
0.0004513634443 -0.02055569077 -0.01871837425 0.0615657092 -0.9980628528 0.008955741972
-0.002669855976 -0.00508142004 -0.07190505829 0.1097748781 0.6303074884 0.7685453442
-0.01718174934 -0.01129722333 -0.02103326273 0.8443872333 0.5355995025 0.01197385139
0.004251140594 -0.02014823246 -0.03675184822 0.193575212 -0.9810232046 0.01105030761
-0.01594267607 -0.01300455618 -0.0212583847 0.7910518353 0.6117453768 -0.002141919255
-0.01732552147 0.00323397398 -0.06644329529 0.8450308446 0.2821999971 0.4541872228
-0.02040121841 0.01510933399 -0.0570957489 0.9911910025 -0.02465218394 -0.130125579
-0.01427736664 0.01545091661 -0.07500791168 0.6937093185 0.0985100797 0.7134866121
-0.01454339385 -0.01454346871 -0.0213255229 -0.7069243228 -0.7072869518 0.001780353417
-0.01302160263 -0.01595945501 -0.02127468204 -0.6139804017 -0.7893183075 0.002162364493
-0.006209591866 -0.01548574543 -0.05769090366 -0.3014388061 -0.8557179194 -0.4205728102
0.001300403833 0.04033371735 -0.0811293869 -0.08036446234 0.008122367907 0.9967324517
-5.625405908e-05 0.03556449318 -0.0811875 0.03483090428 0.002639680785 0.9993897339
-0.01638300514 -0.008060232162 -0.05648433685 0.7995815951 0.5215216397 0.2977993489
-0.01130289865 -0.01718716049 -0.02103860331 -0.5350904759 -0.8446962023 -0.01290381428
-0.002486663431 -0.02041362953 -0.01835056353 -0.0805833861 -0.9965719236 0.01872749113
0.00709885788 -0.0190976944 -0.04395478058 0.3797305238 -0.9205808697 -0.09129946172
-0.008992184003 -0.01849336751 -0.02083652242 -0.4569919066 -0.889459214 -0.004550156558
-0.01929520988 0.04354943466 -0.06778762817 0.9336584615 0.007439425725 0.3580873247
0.002876839399 -0.02036332703 -0.01574601078 0.08246609755 -0.9965515327 0.009186153324
-0.001265995264 -0.01918497086 -0.05041099167 -0.06519684796 -0.972155745 -0.2250834921
-0.002646313965 0.03053657913 -0.08095446014 0.1268311568 0.0004333785477 0.9919242259
-0.01803824043 0.009874656677 -0.01214524937 0.921903175 -0.3872365106 -0.0119340167
-0.01386921914 -0.01355968507 -0.05060774485 -0.6822863479 -0.7020395213 -0.2040241408
-0.01847944736 -0.005456111789 -0.05404341888 0.8803226411 0.4209692538 0.2186708368
-0.01852202034 -0.008920724392 -0.03369414616 0.883195189 0.4689279621 -0.008533719996
-0.02030041885 0.03009528542 -0.05735599327 0.9857385236 -0.01339352086 -0.1677503406
0.005484994888 0.0323227005 -0.080445961 -0.242753871 -0.005024028232 0.9700749029
-0.01977567863 0.005673790932 -0.01499025822 0.9596693798 -0.2808240374 0.01313550359
-0.01123576522 -0.01686788034 -0.04501139736 0.5423201281 0.8316589406 0.1192991411
-0.02058319283 0.0004206418842 -0.01874615479 0.9979645037 -0.0631892079 -0.008600776421
-0.01970229197 -0.005904157043 -0.02133908558 0.9488054997 0.31544969 -0.01611262904
-0.01990306854 0.009903513908 -0.05105366516 0.9740307567 -0.1643167365 -0.1557693651
0.005691680908 -0.01976000214 -0.01497416496 0.2796633832 -0.9600141837 -0.01269485142
0.009815016747 -0.01808994675 -0.01219863129 -0.3780483197 0.9257708106 -0.005279598051
-0.01828447819 0.009454103947 -0.01509859657 0.9295481731 -0.3685588977 -0.01022413378
-0.008889735222 -0.01854882145 -0.03045843029 -0.4704405647 -0.882403411 0.007063666591
-0.02042615509 -0.00225900801 -0.02135845884 0.9962400795 0.08544886971 -0.01428966861
-0.01727419662 0.0113046627 -0.04153955078 0.885585271 -0.4499317565 -0.1153262431
-0.01857683897 -0.008798921347 -0.02385030651 0.8843830068 0.4666526129 0.01010129631
0.00354828006 -0.01482040477 -0.06028120232 0.1633752552 -0.8536362318 -0.4945843807
-0.01716978931 -0.01132114315 -0.02437596893 0.819425312 0.5731448269 -0.006867709684
-0.008831343174 0.003197742796 -0.07505734863 0.4158074808 0.4039118268 0.8148370236
-0.02056181812 0.03611652756 -0.0602213192 0.9984156696 -0.01222325108 -0.05492488395
-0.01593812799 -0.01301788712 -0.02459516811 0.784179563 0.6205048111 -0.006016006142
-0.0179141819 -0.002545030189 -0.06008731613 0.8660214681 0.3732721881 0.3326780581
-0.0145443964 -0.01454446602 -0.02465778399 0.7082585366 0.7058375664 -0.01277400943
-0.02021153959 0.0120745376 -0.05450922012 0.9882607538 -0.08854371971 -0.1245017756
-0.01985077667 0.04769015884 -0.06596149063 0.9706964417 -0.01157659909 0.2400299992
-0.01303225946 -0.01595227623 -0.02460865402 -0.6230134153 -0.7821848492 0.006414524616
-0.01855736876 -0.008838956118 -0.02716845798 0.8831872534 0.4689310398 -0.009162716989
-0.0159347496 -0.01302778721 -0.02707337189 0.7902198427 0.6128208774 -0.00178114468
-0.008806029797 -0.0185836134 -0.02385686731 -0.4642968982 -0.8856168445 -0.01054490606
-0.01833348322 -0.008924443245 -0.04466334629 0.8716473988 0.4828646101 0.08409863578
0.002735712528 -0.02038840675 -0.01840989494 0.08453030345 -0.9964208691 -0.0002818167807
-0.01762075043 0.01673129654 -0.04919296646 0.9187311521 -0.1548863964 -0.363239968
-0.009045913378 -0.01242770386 -0.0608294665 -0.4492918394 -0.7560714091 -0.4759126678
0.003581515312 0.01314009619 -0.08013047791 -0.1799814061 0.1781379902 0.9674055767
-0.02058741951 0.0003148565888 -0.0213491478 0.9982487091 -0.05913583678 -0.001570876061
0.008557909966 0.02740824699 -0.07932550812 0.300446938 -0.01013248022 -0.9537447092
-0.02038216257 -0.002652502179 -0.02431938028 0.9936419402 0.1125855578 0.0004322997769
0.0006481747553 -0.01147936869 -0.06571969604 0.03896716477 -0.7705887643 -0.6361403276
-0.01801478767 0.04033221436 -0.05063456726 0.8862559383 0.004035787158 -0.4631782855
-0.01976480675 -0.005712354819 -0.02434659831 0.9696406096 0.2435790991 -0.02159423002
0.003012937784 -0.01885195827 -0.05093278313 0.172354498 -0.95106618 -0.2564508693
-0.005709795634 -0.01976239332 -0.0243442529 -0.2829282368 -0.9589993865 0.01648604148
-0.01224895167 -0.0122491138 -0.05724495125 -0.6077308701 -0.7054476295 -0.3647010167
-0.002665419161 -0.02039384985 -0.02433078146 -0.1089141961 -0.9940507819 -0.0008607422633
-0.02056362343 0.02735020638 -0.05994155121 0.9998811257 -0.00742828948 -0.01351128774
-0.01405938005 -0.01405943847 -0.04809153652 -0.6943540079 -0.7026116792 -0.1555935088
-0.005666347742 0.05787679291 -0.08038014221 0.2844770744 0.003485681436 0.9586765065
0.001676381946 0.02809507179 -0.08111177826 -0.06912050241 -0.01093067832 0.9975484331
0.0003482199907 -0.02055753708 -0.02131939316 0.05432009968 -0.9985227275 0.001299754814
-0.01300356388 0.05033104706 -0.07652241516 0.6141183008 0.009965345977 0.7891510657
0.002596094012 -0.0204132185 -0.02104531384 0.07548399824 -0.9971293646 0.005932645285
-0.01891281986 -0.006735388279 -0.04863223648 0.9149982169 0.3866638413 0.115192608
-0.01847891998 0.009094687462 -0.01797089005 0.9347012952 -0.3552958194 -0.009918133168
-0.01986436367 0.00528523159 -0.02124006367 0.9732478416 -0.229718503 -0.00424832006
-0.01962270308 -0.006200552464 -0.03618857479 0.9443793652 0.3288363473 -0.003777741572
-0.02059160233 0.0002101582959 -0.02392539501 0.9998103301 -0.01134806433 0.0158279892
-0.02039960289 0.009185893059 -0.05383709335 0.9911105053 -0.0809291975 -0.1055956028
-0.017157969 -0.01134478354 -0.0276796813 0.842901163 0.5378015151 -0.01694579159
-0.01303971577 -0.01594649315 -0.02708440399 -0.6149778125 -0.7885431012 0.001437936441
-0.006018661618 -0.01966692924 -0.02720305157 -0.3287704735 -0.9444097488 -0.0004494987263
0.005234847069 -0.01990857697 -0.02128389931 0.232449359 -0.9725742373 0.008163845968
0.009183900833 -0.01840147209 -0.01789322662 -0.3614242087 0.9323832176 -0.005837535421
-0.01764404837 -0.005597828706 -0.0567841053 0.8489632963 0.4408827311 0.2913481405
-0.01167443148 0.02090500768 -0.07753290812 0.560686877 0.02539538253 0.8276383875
-0.01880400658 0.041752985 -0.06893822861 0.904485053 -0.01454074166 0.4262573819
-0.01862620544 0.008791271687 -0.0207627039 0.9412139938 -0.3377546149 -0.006167496697
-0.02044576263 0.002412106276 -0.02452209949 0.9974407404 -0.07088419463 -0.009348812004
0.01104814339 -0.009102526665 -0.06364554214 0.4992744043 -0.6714679184 -0.5475910004
-0.02033385468 -0.003034794887 -0.02724188868 0.9884147796 0.15157654 0.007795891002
-0.01593127918 -0.01303746605 -0.02952771854 0.782720891 0.622344472 0.005946852586
-0.02017376995 0.003256946445 -0.05746197319 0.9785793934 0.1518622832 0.1389971858
-0.01454565001 -0.01454571319 -0.02958378077 0.7078533144 0.7061913008 0.01541207142
-0.01304694653 -0.01594061327 -0.02953636646 -0.62435583 -0.7811120596 -0.0066142169
-0.003046772122 -0.020344745 -0.02725235558 -0.1465297108 -0.9891523328 -0.0103298735
-0.01996571541 0.00914430666 -0.0628266468 0.9710950568 0.1175537934 0.2077390102
0.00242013216 -0.02043864346 -0.02451514149 0.06395847447 -0.9979138978 0.008784420919
-0.01139200083 0.01852416356 -0.07763615926 0.5572027003 0.05383242685 0.8286297247
0.008873733521 -0.01855457401 -0.0206918726 -0.3502153981 0.9366495359 -0.006068106374
-0.006130002379 -0.01963440609 -0.03294936228 -0.2846057521 -0.9585764805 -0.01143227595
-0.01316086102 -0.01039630318 -0.05912618256 -0.6260583304 -0.6702673951 -0.3984878743
-0.01991416073 0.005067059755 -0.024749259 0.9748199526 -0.222933219 -0.005180718553
0.01190588522 -0.01671539974 -0.04187940598 0.4898445677 -0.8707129115 -0.04371870582
-0.02059712505 7.197140343e-05 -0.02732567406 0.9991585562 -0.04097924782 -0.00169730683
-0.01958083852 -0.006331640879 -0.03004000155 0.9456644482 0.32476556 0.01568701674
-0.01456019187 0.04856177235 -0.0751065979 0.7122311398 -0.004159943855 0.7019326879
-0.01140033054 -0.01712666702 -0.03577388096 -0.5415566983 -0.8405819739 -0.01175957668
-0.01294084454 0.03269272614 -0.07660281372 0.5992573067 -0.01545317257 0.8004073212
-0.01853858948 -0.008879019499 -0.03044889832 0.8812861195 0.4725266104 -0.007306029286
-0.0172743543 -0.01117174466 -0.03064461072 0.8401872304 0.5420345371 -0.01685166157
0.008482730389 -0.01874096298 -0.0243638916 0.3106485224 -0.9505231917 -0.001776967152
-0.003896134615 0.02400048065 -0.08080270386 0.2201532403 0.0008510446929 0.9754649284
-0.01117527548 -0.01727773857 -0.03064775149 -0.5417656328 -0.8403643819 0.01666447376
-0.005931033134 0.03956177902 -0.0803174324 0.3040132282 0.00670089743 0.9526442437
-0.006321323872 -0.01957119306 -0.03003091685 -0.3252415896 -0.9455114092 -0.01503606963
0.006409062862 -0.01546089411 -0.05759653473 0.3151012304 -0.8464628593 -0.429199071
0.0001113896817 -0.02056177807 -0.02729165745 0.03524961777 -0.9993779771 0.001059878651
-0.01861186218 -0.008742875099 -0.03658951187 0.8832691374 0.4688490274 -0.004027453992
0.004989971161 -0.01998185825 -0.02481513214 0.2252220803 -0.9742757423 0.007860816048
-0.01857654762 0.03023722204 -0.06943907674 0.905222312 0.01098065524 0.4247964114
-0.01879106236 0.008425105572 -0.02441244411 0.9545161565 -0.2981524809 0.002001268453
-0.0202117033 0.003588943005 -0.02722917747 0.9769317486 -0.2134790405 -0.005572964103
-0.01454724145 -0.01454729605 -0.03602302074 0.7072508996 0.7069625499 0.0003436054641
-0.02035989285 -0.002821188807 -0.0301704793 0.987360735 0.1583333057 0.00702448215
-0.00270920403 -0.01105266666 -0.06598245239 -0.1004443539 -0.7708101735 -0.6290966604
-0.01701242574 -0.01157613595 -0.03286413511 0.8026442855 0.596347544 0.01147857716
-0.01592407322 -0.01304758596 -0.03276698875 0.7667259191 0.6418880534 0.01054001832
-0.01576601601 -9.041837603e-05 -0.06673426056 0.7630320164 0.3924542469 0.5135774587
-0.02054671669 0.05716656876 -0.0601294651 0.9983060669 -0.001334420352 -0.05816542019
-0.01454645014 -0.01454650879 -0.0328213253 0.7074902108 0.7066581895 0.009581482612
-0.003194384734 -0.01851709684 -0.05191758092 -0.1847912235 -0.9399551777 -0.2869433179
-0.02045859432 0.003079039454 -0.05460079002 0.9892922123 0.1138381549 0.09133341807
-0.009893361092 -0.003453666687 -0.07024642944 0.4643542982 0.5515535122 0.6929385318
-0.01157359727 -0.01700993474 -0.03286186028 -0.5976474299 -0.8016711474 -0.01187101367
-0.01080187734 0.01258350245 -0.07722189077 0.5178096656 0.1659126094 0.8392533326
0.003558236599 -0.02023865128 -0.02725500298 0.2140637266 -0.9767919659 0.007360452743
-0.02024143505 0.003441767991 -0.02979442787 0.978244988 -0.2064855417 0.02001160998
-0.0202616876 0.05474787903 -0.05719141515 0.9850482465 0.007994650898 -0.1720931077
-0.02059919167 -6.079035997e-05 -0.03068220997 0.9997391835 -0.01758682985 -0.01456943661
-0.01964133215 -0.006137401342 -0.03295575762 0.9587901941 0.2838601448 0.01203253782
-0.008930875063 -0.01853172207 -0.0337030077 -0.4674321957 -0.8839873492 0.008573734272
-0.01660890579 0.02652592278 -0.04842803574 0.8535054624 0.003848603776 -0.5210696824
-2.175159892e-05 -0.02056416225 -0.03064914513 0.01490976923 -0.9998081853 0.01270005533
-0.005786526871 -0.01715479431 -0.05410760117 -0.273198234 -0.8988436758 -0.3426992434
0.003412928462 -0.0202667594 -0.02981834269 0.2041293066 -0.9787496997 -0.01950004097
0.008803185463 -0.01121410704 -0.06285202408 0.3606414768 -0.7604489433 -0.5400510438
-0.01889802361 0.008171179771 -0.02710367012 0.960717124 -0.2775283627 -0.0007845205029
-0.01591618633 -0.01305682182 -0.03596968651 0.7871837062 0.6166701894 0.007725938701
-0.01164299663 -0.008884278218 -0.06319672203 -0.5749980843 -0.6433146464 -0.5054932926
-0.002564574313 -0.008681621265 -0.06865834808 -0.1232442999 -0.7043303543 -0.6990919786
-0.01306594181 -0.01592516708 -0.03597768784 -0.618293322 -0.7859100404 -0.007666583083
-0.01789901543 0.03144250298 -0.05040412903 0.8891187215 0.003137710801 -0.4576658759
-0.01896432877 0.008008428574 -0.02887762642 0.9608440304 -0.2770697622 -0.003331090239
-0.02059791946 -0.0001562637836 -0.0331724205 0.9995537708 -0.02528554482 0.01590284747
-0.00619359529 -0.01961618233 -0.03618267345 -0.329100974 -0.9442892965 0.003205209069
-0.01542378378 -0.01262410307 -0.04806315613 0.7442374867 0.6491989523 0.1570072725
0.003227097124 -0.02029861355 -0.03319685459 0.1905672307 -0.9816660533 -0.003986279868
0.008028389931 -0.01894695473 -0.02886120605 0.2856278002 -0.9583344169 0.003450395665
-0.01903019524 0.007846749306 -0.03063989067 0.9639614118 -0.2659866163 -0.005432912459
0.007583339691 -0.01914817429 -0.03327879333 0.268358653 -0.9632463445 0.01183694154
-0.01403996944 -0.0106547664 -0.05707209905 0.68059156 0.6456480559 0.3463144762
-0.02055443192 0.0007923692241 -0.03597899914 0.9995076304 -0.02425450226 0.01990517391
-0.01433646107 -0.008413334983 -0.06010189002 0.7110245235 0.5838010295 0.3919444921
-0.02038002904 -0.002716074308 -0.03634153366 0.9901355562 0.1400227561 -0.005020776062
-0.0171176362 -0.01142544413 -0.0389521904 0.8389681587 0.5440370667 0.0124939501
-0.01590838528 -0.01306595707 -0.03913759995 0.7868157251 0.6171299705 0.008462523112
-0.02018617582 0.0004568985328 -0.0539624176 0.9783035739 0.168228467 0.1209185685
-0.01454802394 -0.01454807472 -0.03918994141 -0.7067230329 -0.7074494429 -0.00760529561
-0.01870454534 0.0001674279372 -0.06078967031 0.8964868038 0.3111544032 0.3154272466
-0.013075284 -0.01591757011 -0.03914562798 -0.6176107339 -0.7864248787 -0.009638023317
-0.009211226781 -0.01840060234 -0.03881554667 -0.4738844648 -0.8803288737 -0.02132107181
-0.002724373658 -0.02038758787 -0.03634842555 -0.1376367087 -0.9904820029 0.001240267989
-0.02032732487 0.04507151031 -0.06370910454 0.9830473601 -0.01036234367 0.1830587601
0.0008115402013 -0.02053724098 -0.03596325874 0.02247397527 -0.9995818618 -0.01819400893
0.007848872662 -0.01902834702 -0.03063816071 0.2708954605 -0.9625867128 0.006516886877
-0.02045631409 0.005917829514 -0.05735485077 0.9917294116 0.07396597222 0.1048895091
-0.01909563255 0.007686126709 -0.03239064407 0.9641699263 -0.2650167519 -0.01193626501
-0.01164013131 0.0488611145 -0.07753917694 0.5634417325 0.0008062112152 0.8261554116
-0.02032855177 -0.003086590469 -0.03913601685 0.9904130893 0.1375418497 0.01281218919
-0.01433622551 -0.01433628583 -0.04524598026 -0.6963185162 -0.709975071 -0.1052422088
-0.006253169298 -0.01959505558 -0.03937769699 -0.3283122349 -0.944490426 -0.01220293683
-0.003088919461 -0.02033070707 -0.03913797665 -0.131447233 -0.9910295533 -0.02412570105
-0.01915098953 0.007537624359 -0.03412120819 0.9643147435 -0.2645259823 -0.01109414695
0.001501476288 -0.006901026249 -0.07055545044 -0.08211132764 0.6686328023 0.7390452662
-0.01139369488 0.0005885483112 -0.07192527008 0.5754630235 0.4291247829 0.6961998486
-0.02012667751 0.004275620937 -0.03673225975 0.9799722204 -0.1977432679 -0.02349568554
-0.02056284428 0.0006497115269 -0.03924905872 0.9997671106 -0.02158064626 1.605468319e-05
-0.01706488991 -0.01140517187 -0.04205867481 0.8347136425 0.5487034059 0.0466659129
-0.02054542859 9.261105458e-05 -0.0452576739 0.999597235 0.02808564591 -0.004069916566
0.00288599205 0.04545330048 -0.08096233749 -0.09679729708 -0.01346487071 0.9952130327
-0.01585202932 -0.01302561188 -0.04223019791 0.7824436409 0.6210760557 0.04523805824
-0.01923008156 0.007320461273 -0.03669237137 0.9639282335 -0.2657705604 -0.01443502418
-0.01443079387 -0.01165267679 -0.05410793262 0.699124255 0.6573750544 0.2812175563
-0.02030051613 -0.003162060618 -0.04231359196 0.9881622629 0.1517960334 0.0222105045
-0.003337549925 0.05954637146 -0.08090998077 -0.17709273 0.0587902075 -0.9824367035
-0.006235638976 -0.01950290394 -0.04247630024 -0.327760886 -0.9431839889 -0.0545597352
-0.003090195775 -0.0202350688 -0.04225634766 -0.1441938854 -0.9870577215 -0.07017961138
0.003233306736 -0.01083732653 -0.06610985947 0.146092075 -0.7621192387 -0.6307387506
0.0072922225 -0.01925470352 -0.03671463203 -0.2666880864 0.9637796512 -0.002499720321
-0.00535835743 -0.01089976788 -0.0653696022 -0.2654970203 -0.7469775113 -0.609537472
-0.02017036247 0.004111095905 -0.03923484802 0.9823082428 -0.1858058101 -0.0233819824
-0.0169145422 -0.01128392196 -0.04505090141 0.8140365204 0.5727229402 0.09660733506
-0.008600433826 -0.005533396165 -0.06928875605 0.3952339647 0.6185645725 0.6790935008
-0.01569030285 -0.01287812042 -0.04520315742 0.7614537163 0.6407373154 0.09820351605
-0.01286254597 -0.01567496252 -0.04519028473 -0.624127025 -0.7731568399 -0.1126674645
0.004103662014 -0.02017691231 -0.03924070358 0.1917308137 -0.9810492903 -0.02795684261
-0.01930852127 0.007105091572 -0.03924230576 0.9225265589 -0.3857065096 -0.01323769609
-0.008572972775 0.009139185905 -0.07755248871 0.4461551586 0.2459782002 0.8604884075
-0.02023695755 0.003921708941 -0.04173344612 0.9879091867 -0.1545578368 -0.01213729762
-0.01111144861 0.0333132604 -0.07790302277 -0.5317462031 0.00369963554 -0.8468956773
-0.02021512032 -0.00317356348 -0.04540815258 0.9817484903 0.1841716662 0.04744153417
-0.01923973274 0.03247016907 -0.06795672607 0.9410382399 -0.008167982166 0.3382015894
-0.0194036212 -0.006209630609 -0.04553770351 0.9341872058 0.3526466112 0.05417224429
0.001876956701 -0.01597768211 -0.05866107941 0.08571170381 -0.8880663222 -0.4516544157
-0.02044537544 0.01877416325 -0.0627585392 0.9927685244 0.03551342737 0.1146710659
-0.005849278132 -0.01937748273 -0.04512100347 -0.3223953438 -0.9387258115 -0.1218814717
-0.00292117542 -0.01998487473 -0.04521050453 -0.1306791265 -0.981780284 -0.1379508603
0.004054421663 -0.02011995602 -0.04163072014 0.1973787667 -0.9788123578 -0.05447926859
0.007089985847 -0.01932170105 -0.03925403214 0.3931675581 -0.9191746625 -0.02317781579
-0.01947571754 0.006789345264 -0.04184443855 0.9417221323 -0.3337485906 -0.0420868596
-0.0181411747 -0.008595561123 -0.04799483261 0.8784859877 0.4614535976 0.1237858906
-0.0165323391 0.02228675652 -0.04832579041 0.8680316508 -0.04583465409 -0.4943887516
-0.0190024929 -0.003182566643 -0.055641716 0.9198424219 0.3339283032 0.205868422
-0.01658322906 0.05482964706 -0.07274352773 0.8169820065 0.01226056542 0.5765328088
-0.01666667271 -0.01106185102 -0.04793480778 0.7954234399 0.5891107277 0.1423028521
-0.0003397304974 0.04830064011 -0.08117712784 0.06629958096 -0.0170697203 0.9976537426
-0.01095801306 -0.01656599712 -0.04785129261 -0.5349203307 -0.8258718468 -0.1783141399
-0.01842996089 0.05446719106 -0.06969532267 0.9018896501 -0.004259547825 0.4319455005
-0.008576347065 -0.01774711304 -0.048439888 -0.4422585447 -0.8751494074 -0.1962674055
-0.008890343666 0.01789212863 -0.07902607218 0.4132914513 0.08064917464 0.9070203344
-0.01679293156 0.01317095613 -0.07159415817 0.8094947518 0.131800103 0.572142447
0.0004609274268 -0.02021529897 -0.04497319539 -0.01760814631 0.9927054251 0.1192723442
-0.005895902729 0.006211964321 -0.07759819794 0.2843706484 0.3372986973 0.8974201486
0.007005784988 -0.01928674412 -0.04167944336 0.3609293994 -0.9313798609 -0.04755547618
-0.01013323879 -0.001847495198 -0.07125628662 0.4809598044 0.5019444369 0.7188389589
0.01280543709 -0.01613373375 -0.03721522522 -0.6691886791 0.7421953837 0.03650375508
-0.01886801529 0.05079151917 -0.05242082596 0.9281810335 0.006023907511 -0.3720802086
0.005811513424 0.0264721508 -0.08036045837 0.2457061195 0.002809037154 -0.9693402974
-0.02056266594 0.009485158285 -0.0571177597 0.9994975759 0.00633857891 0.03105508432
4.398930073e-05 -0.01395558739 -0.06233504486 -0.004486586527 -0.8361873952 -0.5484254832
0.008534996033 0.005660718918 -0.07634784698 -0.3883627 0.3585004459 0.848912153
-0.01653115082 0.01225444698 -0.03923569107 0.8754622277 -0.4715969002 -0.1056515574
-0.02037318134 0.003616934419 -0.04507355881 0.9905461713 -0.1352594508 -0.02287276873
-0.005930505276 -0.01875992711 -0.04850320816 -0.3003396115 -0.9281121342 -0.2200090546
-0.002704211116 -0.01950176506 -0.04833424683 -0.1338387459 -0.9726105094 -0.1900420668
0.009919028282 -0.0121131506 -0.06049806976 0.4849834288 -0.7436619931 -0.4601716134
-0.006658916473 0.01502031898 -0.0796609726 0.3323564992 0.1423509916 0.9323493726
-0.01860935974 0.02718027115 -0.06936070824 0.8951125852 0.001089311404 0.4458388423
0.003475503842 -0.0198867836 -0.04519296646 -0.1756703748 0.9758329256 0.1299616122
0.01222607994 -0.01655567169 -0.03925717545 -0.4904640317 0.8705486687 0.0398754195
-0.01993805504 0.006096155167 -0.04548322487 0.9673883027 -0.2381935884 -0.08616081565
-0.02052180481 0.0003378025889 -0.04800094128 0.9968833703 0.07434729744 0.02638229275
0.01090441322 -0.01317896938 -0.05746300507 0.4728857665 -0.7898381689 -0.3905569342
-0.01951762009 0.02480495644 -0.05413418198 0.9453738504 0.01682220418 -0.3255538304
-0.01670635986 -0.01019129896 -0.05065203476 0.8217369417 0.5391611331 0.1845363682
-0.01548665953 -0.0117672863 -0.05079205704 0.7377304631 0.6406342414 0.2129355126
-0.008454046567 0.01572296429 -0.07902084605 0.3950513993 0.1203335635 0.9107437759
-0.01173726447 -0.01514710029 -0.05115006828 -0.5839702187 -0.7715824284 -0.2522683885
-0.008757325717 -0.01687857301 -0.05134585244 -0.403267403 -0.87777653 -0.2586189573
0.0001371124759 -0.01979831982 -0.04778852654 -0.01815762689 -0.983728293 -0.1787426813
-0.01849648285 0.009802140236 -0.04423233414 0.9018712233 -0.4120887469 -0.129657862
-0.01976355362 0.03365995312 -0.06621817207 0.9614573006 0.003418208645 0.2749330372
-0.01981016159 -0.002937568605 -0.05131279755 0.9662902368 0.2321367255 0.1113360628
-0.01925813675 -0.005223810673 -0.0504646225 0.9288853647 0.3424430285 0.1410842003
-0.0187623024 -0.006010317326 -0.05159241104 0.8944709135 0.405798974 0.1877471107
0.007264800072 -0.01888126373 -0.04538570404 0.3728756287 -0.9210961237 -0.1120075731
-0.002900154312 -0.01248424943 -0.06408506012 -0.1553476488 -0.7976961134 -0.5827074898
-0.01932234001 0.008759334564 -0.04655775452 0.9563476111 -0.2486614287 -0.1535146265
-0.02028853798 0.005573611259 -0.0481835289 0.9937776221 -0.1006255796 -0.04775490017
-0.02040166569 0.0003436349705 -0.05103448677 0.9926639355 0.1006505222 0.06699092114
-0.01160385728 -0.01415196323 -0.05416853285 -0.5796152677 -0.7604567769 -0.2928337958
0.00631491375 -0.01870637989 -0.04804344749 0.2891561606 -0.9344546451 -0.2078057532
0.0007995284125 -0.00200303936 -0.07436722946 -0.05856231744 0.5641412646 0.8235988638
0.0002838762142 -0.01807736254 -0.05397275639 0.03196715036 -0.932207314 -0.3605102287
0.01233261204 -0.0162297287 -0.04393132782 -0.4869163374 0.8703521892 0.07348161021
-0.0195344429 0.009428584099 -0.04874675941 0.9591689158 -0.2276865082 -0.1677910756
-0.02041260529 0.006297456264 -0.05106359196 0.9941154494 -0.0782993567 -0.07485775909
-0.01947044992 -0.002668232411 -0.05411652851 0.9534714016 0.2555500443 0.1599576855
-0.009166213989 -0.0156606617 -0.05437592125 -0.430241568 -0.8385553717 -0.3342410535
-0.007964440346 -0.01632674408 -0.0541709156 -0.3602479285 -0.8753481651 -0.3224701844
-0.01372386646 -0.007284822464 -0.06263691711 0.6604276031 0.5784754468 0.4787499749
-0.02048332691 0.0337318058 -0.06253623199 0.9955570812 0.006597947826 0.09392851118
0.000353670915 -0.01885020701 -0.05169835154 0.01735902512 -0.9554640699 -0.2945964619
-0.01587556458 -0.009398226738 -0.05530107498 0.7818222882 0.5530490034 0.2879074669
0.006084684372 0.00323626852 -0.07631235504 -0.2642265472 0.414011014 0.8710793374
-0.002805524677 -0.01778031683 -0.05426981831 -0.1531878816 -0.9280779247 -0.339418383
-0.001371481776 0.03726193237 -0.08112812805 0.08670421648 0.005466673784 0.9962190996
0.005742627859 -0.01816865635 -0.05117222023 0.2618054783 -0.9257397139 -0.2728806949
-0.02056716681 0.005954339504 -0.05433327484 0.9998015488 0.01543832358 0.01259051628
-0.0185213089 0.02402665138 -0.0516556778 0.8957576418 -0.01760266856 -0.444194094
-0.002415941556 0.02157352765 -0.08103191884 0.1075169516 0.02705986157 0.9938349305
-0.01533068299 -0.008866917014 -0.05750914097 0.743046005 0.5737331663 0.3445473673
-0.01071143436 -0.01348325014 -0.05713046074 -0.5079260096 -0.7660036272 -0.3940172735
-0.00858149004 -0.01475380707 -0.05705679703 -0.4142399839 -0.8120785906 -0.4110153264
0.003509436846 0.01017070198 -0.07950563049 -0.1719369434 0.2763819873 0.9455425345
-0.005280925035 -0.01644386292 -0.05620589066 -0.2518877172 -0.888744069 -0.3829968118
0.006843739986 -0.009243433952 -0.06660597229 0.3408898378 -0.7041631867 -0.6228549791
-0.02022419357 0.02697078419 -0.05680954933 0.9858684479 -0.01361712825 -0.1669669946
-0.01689283816 0.04523302587 -0.0722960434 0.8358703933 -0.007864590953 0.5488705073
0.003648133874 -0.01768828869 -0.05408831692 0.1696842234 -0.9240669459 -0.3425018889
0.009262331486 -0.01681493855 -0.05087826538 0.4354237583 -0.8592528923 -0.2684969605
-0.01980966873 0.000929071869 -0.05712479706 0.9667407664 0.1890057028 0.1723053537
-0.01929649734 -0.001604624629 -0.05666704178 0.9344265699 0.283068115 0.2161467734
-0.01854121399 -0.002762220889 -0.05793750763 0.8898436069 0.3645945531 0.2743158165
-0.01825478363 0.01904862309 -0.05096466255 0.9169083766 -0.08310663583 -0.390348967
-0.0184599061 0.01545810747 -0.06919761658 0.8810653927 0.08552987242 0.4651971784
-0.01665070953 -0.005386179161 -0.059764048 0.8236784412 0.4542239228 0.3394620058
-0.008361373901 -0.01359602515 -0.05952412669 -0.4143349521 -0.7871517515 -0.4568573821
0.003522243798 0.0006962695885 -0.07563664627 -0.2103554289 0.4878120046 0.8472249062
0.002890011907 -0.01693429089 -0.05637415695 0.1301063513 -0.9094114882 -0.3950228885
-0.01971747875 0.01609759855 -0.05415740585 0.9643581381 -0.08183374014 -0.2516279406
-0.01928058052 0.0002600367963 -0.0589761734 0.9371591071 0.2540133102 0.2391862166
-0.01254942131 -0.009787820339 -0.06089937592 -0.5880441415 -0.6673530629 -0.4569945044
-0.002851747394 -0.01494306908 -0.06029177704 -0.1505160861 -0.8597319936 -0.4880633228
-0.002013213634 -0.01600340271 -0.0585812645 -0.0739191589 -0.8939349918 -0.4420590327
0.005312721729 -0.01652991867 -0.05609734344 0.23356614 -0.8876383023 -0.3969195164
0.00787610817 -0.01605463219 -0.05498324585 0.3726622781 -0.8553690657 -0.3598146576
0.01219441748 -0.01403484106 -0.05343398476 0.5172861644 -0.7883885619 -0.3329542006
-0.02035360813 0.05690623856 -0.06342593765 0.991200077 -0.03776826787 0.1268698755
-0.01455502565 0.0005887505391 -0.06881213924 0.6930884774 0.4003168522 0.5994787572
-0.01820129776 0.02771529865 -0.05102468872 0.8972188763 0.0004547800485 -0.4415858706
-0.008820382118 0.05992495346 -0.07920716858 -0.3882123921 0.03078482717 -0.921055608
-0.01949960009 0.02126616096 -0.05405953471 0.9472955024 -0.03110323465 -0.3188476437
-0.007412559986 0.04331905365 -0.0797853775 0.3584535054 0.002346523474 0.9335446311
-0.0195274868 0.002851187587 -0.06037819195 0.9508053989 0.2148007798 0.223225712
0.0003181707077 -0.01511440635 -0.06041164207 -0.01797895098 -0.8619547836 -0.5066662692
-0.01187175337 0.02685213153 -0.07740124512 0.5831137424 -0.0005741921109 0.812390321
-0.0202956852 0.0156092886 -0.0633102684 0.9842461154 0.0271929976 0.1747001009
0.003794327497 -0.01603694916 -0.05798953247 0.1938134154 -0.8813948572 -0.4307893518
-0.02026663589 0.02153598404 -0.05712182617 0.9923019625 0.003893359683 -0.1237806806
0.009185676098 -0.01479829216 -0.05635510063 0.4265490025 -0.820680177 -0.3801841601
-0.01422363186 0.04086730194 -0.04571747971 0.7641108483 0.0004295836107 -0.6450848215
-0.01675603294 0.03522543716 -0.04864732361 0.859279397 0.001896613946 -0.5115030017
-0.01958729172 0.03347443008 -0.05435868835 0.9616691244 -0.001264059228 -0.2742095864
-0.02043909035 0.009977946854 -0.06014256058 0.990624814 0.0442779728 0.1292359815
-0.01769075235 0.000199716645 -0.06338140424 0.8590945048 0.3378791727 0.3844402378
-0.01697249746 -0.002199618429 -0.06273616314 0.8230687289 0.4094166917 0.393618902
-0.0185800848 0.05486896324 -0.0518285923 0.9254750742 -0.001254828541 -0.3788064313
-0.01613909149 -0.004156394482 -0.06239197159 0.8026638785 0.4441242809 0.3981008933
-0.00578577261 -0.01225425625 -0.06334237137 -0.2801113804 -0.7820895503 -0.5566628692
-0.005192705631 -0.01352195358 -0.06180908585 -0.2192468527 -0.8297765555 -0.5132267388
-0.00633987236 0.01147355556 -0.0791124115 0.3097074014 0.2173144534 0.9256650333
-0.01450126457 0.04517084503 -0.04600332642 0.7703879195 0.003257702361 -0.6375671266
-0.0168317318 0.0396841507 -0.04876935577 0.8453386902 -0.01009739349 -0.5341353214
-0.01831437874 0.03647016716 -0.05124961853 0.9022884975 -0.0005607007976 -0.4311324076
-0.01861182404 0.03267469788 -0.0518588295 0.9191998905 -0.01467482579 -0.3935177388
-0.0116583569 0.03627983189 -0.07751689529 0.5812698308 -0.009647176227 0.8136536829
-0.02056472301 0.01574565959 -0.06000800419 0.9994183545 0.01245722471 -0.03174539652
-0.01940187168 0.03043254566 -0.05373158073 0.9332679568 -0.01702202839 -0.3587773284
-0.01980664253 0.03650273514 -0.05502897644 0.9700201319 0.009118157185 -0.2428534597
-0.020538908 0.01268451118 -0.06029542351 0.9976635674 0.02592887866 0.06320679971
-0.01932346153 0.003967824221 -0.06215100861 0.933231665 0.2202520606 0.2838444806
-0.01586011744 -0.002960250616 -0.06408203316 0.7696451923 0.4471720473 0.4557229838
-0.002118708253 -0.01358167553 -0.06271661377 -0.09212480582 -0.825428398 -0.5569389374
0.006343959967 -0.01421352259 -0.05995622762 0.3094765647 -0.8275229555 -0.4684335749
0.002762905955 0.05200366783 -0.08097747803 -0.0963953866 -0.01667832331 0.9952033777
0.006198336124 0.01002555704 -0.07875899887 -0.2987170788 0.2612398033 0.9178899019
-0.0147399931 0.0495970192 -0.04626444244 0.7977316535 0.01022261438 -0.602925955
-0.01691904831 0.04420512009 -0.04890857697 0.8294419493 0.01191625516 -0.5584658052
0.003247634331 -0.013352314 -0.06274622472 0.1687717236 -0.8189882601 -0.5484289701
-0.01704374313 0.04811835353 -0.07207043966 0.82623809 -0.01400297505 0.5631469927
-0.01376808167 -0.004879232566 -0.06523573303 0.6643687778 0.5266804228 0.5303035539
0.006353754282 0.03859941101 -0.08013324738 0.1915384697 -0.03803097593 -0.9807480102
-0.01192815892 -0.005801181952 -0.06637709045 0.5875214978 0.569279178 0.5750997367
-0.01105271594 -0.007682406425 -0.06525735982 -0.541915098 -0.6290416596 -0.5573460478
-0.01097089005 0.003820585847 -0.07409035873 0.5327154461 0.3634660379 0.7642687308
0.008692286491 -0.01327039814 -0.05980887222 0.3885575411 -0.8044326995 -0.449345156
0.01253942966 -0.01166536713 -0.05788792419 0.5784195852 -0.7138330559 -0.3948077403
-0.01499385262 0.05407712555 -0.04654608154 0.7868958568 0.003838367848 -0.6170738833
-0.01701859665 0.04878926086 -0.0490658989 0.8454346721 0.01071354697 -0.5339713805
