# .PCD v0.7 - Point Cloud Data file format
VERSION 0.7
FIELDS x y z normal_x normal_y normal_z
SIZE 4 4 4 4 4 4
TYPE F F F F F F
COUNT 1 1 1 1 1 1
WIDTH 381
HEIGHT 1
VIEWPOINT 0 0 0 1 0 0 0
POINTS 381
DATA ascii
-0.0002753222823 -0.02054959984 -0.0161490591 -0.01048746405 -0.9999253287 0.006272969733
-0.02003818512 0.009386417389 -0.05155836741 0.9864785889 -0.1318249329 -0.09737648944
-0.01953282483 -0.006270121018 -0.001706207134 0.9273536846 0.3705272801 -0.05219845144
-0.0205281477 0.009259511709 -0.05591109085 0.9990892644 0.01141173102 -0.04111464672
-0.01915417385 0.01432327271 -0.05146323967 0.9729378126 -0.1311311157 -0.1902541544
-0.01838860798 -0.009234794617 -0.001474047065 0.9161040423 0.3990401374 -0.03899169736
-0.01962711449 0.03477657394 -0.06660735168 0.9570548372 0.02677714746 0.2886676688
-0.0147399931 0.0495970192 -0.04626444244 0.8255123126 0.01381717618 -0.5642149479
-0.0168260417 -0.01175271479 -0.001984976133 0.8048722882 0.5923238866 -0.03651045086
-0.01966605759 0.04455936159 -0.06648374067 0.9528575179 -0.0007668383242 0.3034171427
-0.01856003952 -0.008227859974 -0.04601363468 0.9068907251 0.41252816 0.0858471318
-0.01182133081 -0.01680743334 -0.01172049088 -0.6144082934 -0.7889409092 0.008642385344
-0.01453701878 -0.01453712225 -0.002249881089 0.7014581843 0.7017473631 -0.1245273223
-0.02047567463 -0.0009402108689 -0.001801995484 0.9921164832 0.1131157705 -0.05394169333
-0.02023906549 0.004722478787 -0.04614865367 0.984183804 -0.1619349745 -0.07182829492
-0.01850936222 -0.008951296488 -0.03610223707 0.9099767194 0.4146502937 -0.002739344408
-0.01176297522 -0.01683604225 -0.001995777527 -0.5965463843 -0.8016726828 0.03812244827
-0.009388002714 -0.01830120977 -0.01641430982 -0.4794544333 -0.8772674094 0.02292027202
-0.0102934945 -0.01439471579 -0.05560834231 -0.4665466832 -0.8153683779 -0.3427952752
-0.009211373329 -0.01836631107 -0.001449666411 0.4019299108 0.9151747509 -0.03012510795
-0.01762075043 0.01673129654 -0.04919296646 0.9566488338 -0.1383101825 -0.2563070468
-0.01954463357 -0.0005188288683 -0.05647096898 0.9576375444 0.2239469493 0.1810472247
-0.01987361081 -0.005209131453 -0.02637370004 0.9725240044 0.2326252383 -0.009086216151
-0.008913488007 -0.01853122597 -0.02171072197 -0.4098715221 -0.9120663401 0.01184595719
-0.02050318794 0.05852332687 -0.06119448929 0.9939405269 -0.1011493793 0.04302362288
-0.01679626221 -0.01180982727 -0.01170899836 0.7907616896 0.6120477245 -0.009671252155
-0.006282723188 -0.01954451307 -0.001719125248 0.3741433183 0.9263504621 -0.04349251332
-0.001230806061 -0.02045525496 -0.002071742323 0.1102141325 0.9920232485 -0.06117776984
-0.01959645882 -0.0060308882 -0.006322970128 0.9344928253 0.3558817508 -0.008446232606
0.00464872845 -0.01996747653 -0.001353374193 -0.2539599248 0.9655097766 -0.05740407548
-0.005390399098 -0.01979712124 -0.02113857441 -0.2558420208 -0.9667176616 0.001350250619
-0.01170617867 -0.01689470243 -0.01665110207 -0.6056490174 -0.7952834717 0.02671080959
-0.01836221949 -0.009280500094 -0.005951070468 0.9088710785 0.4168406309 -0.01404460851
-0.009264309247 -0.01834679985 -0.005934579213 -0.4193737366 -0.9077668591 0.009219469571
0.004885215958 -0.0199052693 -0.005719154795 0.2530923566 -0.9671320121 0.02449347372
0.003620022138 0.04521362813 -0.08081381734 -0.06090241091 0.02217180325 0.9978974434
-0.01681281047 -0.01177936215 -0.006446882778 0.8102686375 0.5860516697 0.002859304932
-0.02053914303 0.02944226498 -0.06106830724 0.9997523984 0.005010269007 0.02168038532
-0.01752831459 0.01074147129 -0.006110179583 0.9267294318 -0.3755670301 -0.01104382719
-0.01453894536 -0.01453904454 -0.006700577021 0.7095515306 0.7039030341 -0.03251375124
-0.02051604271 0.01970583725 -0.06126533345 0.9971886343 0.02415467888 0.07093221478
-0.01667774285 -0.01195581447 -0.04134492238 0.8110968351 0.5823744955 0.05442307491
-0.01178977097 -0.01682293712 -0.006457584275 -0.5890822267 -0.8080695255 -0.002402519487
-0.006364970684 -0.01952109104 -0.006219698853 -0.3583702749 -0.9335655179 0.005115645187
-0.01971711506 -0.005560925072 -0.01113474959 0.9520769195 0.3052520446 0.01925431488
-0.009326743444 -0.01832378896 -0.01122418594 -0.4490468798 -0.8933251963 -0.01808295958
-0.008651823044 0.01485674191 -0.07883734894 0.3867351594 0.1419615176 0.9111985755
-0.01998564084 0.004628061454 -0.001373387843 0.9649719353 -0.2565844627 -0.05471359541
0.01065946166 -0.01759935315 -0.006184971968 -0.373094986 0.9275679692 -0.02044000844
-0.0200547924 0.004647257507 -0.04136200237 0.9640405347 -0.2623062227 -0.04267660919
-0.02048253523 -0.001090361655 -0.005859952722 0.9948029306 0.09757400768 -0.02909368083
-0.02008409386 0.02958126488 -0.05634089661 0.9802967806 -0.001081439756 -0.1975273463
-0.01688508284 -0.01169624138 -0.01664143252 0.7973952151 0.6029750768 -0.02412317629
-0.001107536018 -0.02048326084 -0.006378426756 -0.1142673813 -0.9930728899 0.02737153416
-0.01995416482 0.00482952555 -0.005771792014 0.9671183498 -0.2535050295 -0.02042786136
-0.01454461241 -0.01454468091 -0.02548272769 0.7086797873 0.7052795515 0.01880727002
-0.01833109411 -0.009334410667 -0.01123179436 0.8788023106 0.4762862186 0.02929055806
-0.01454054228 -0.01454063225 -0.01195003478 -0.7069987835 -0.7072046506 0.003781845025
0.01226735687 -0.00410760355 -0.06766634369 0.5107640904 -0.571704451 -0.6420857144
-0.02011123689 0.0397474645 -0.0564804999 0.980349599 0.008423194797 -0.1970880856
-0.01967775997 -0.005742586056 -0.01615554412 0.96926076 0.2451172933 0.02123891778
-0.01190682718 -0.0167599339 -0.02638396602 -0.5688063007 -0.8223250886 -0.01551905066
-0.005558894743 -0.01971537833 -0.01113288012 -0.3052988 -0.9520310817 -0.0207234689
-0.01892282963 0.03334687424 -0.05254989433 0.9567229554 -0.01304507252 -0.290707779
-0.01718194008 0.01133026695 -0.002010776281 0.9231305015 -0.383924379 -0.02078817918
-0.01899682999 -0.005446796616 -0.05120914618 0.9208798399 0.3601538877 0.1492296811
-0.005536892374 -0.01920855284 -0.0463423392 -0.2448651055 -0.9591341889 -0.1417839478
-0.02053451157 -0.0002867972056 -0.01128374974 0.9960105931 0.08911039082 -0.004715570003
-0.01834929212 0.009334298452 -0.01605602773 0.9660799043 -0.2577218159 -0.01640378406
-0.01676711051 -0.01186920685 -0.02138567924 0.8198482 0.5722264496 0.02014495613
-0.0003038020929 -0.02054992104 -0.01129989751 -0.08622127953 -0.9962486666 0.007381417993
0.004536594868 -0.01999717617 -0.01127144257 0.2434910568 -0.9698957008 -0.003799314926
-0.008675956249 0.04075803947 -0.07927365112 0.416178052 0.01256572883 0.9091963108
-0.0006820477359 -0.0169262352 -0.05667970276 -0.02867498372 -0.9079895486 -0.4180104363
0.004195058823 -0.02008720557 -0.01671123536 0.1520390275 -0.9874599709 0.04250811726
0.01155500793 -0.01698752022 -0.001800223351 0.3870822914 -0.9214586504 0.0328824452
-0.02004679394 0.004480206251 -0.01132353655 0.970359119 -0.2416648793 0.001125244661
-0.0008398958445 0.04439133453 -0.08111447525 0.08133523329 -0.005268069005 0.9966728788
-0.01187881703 -0.0167764581 -0.02139482498 -0.5748043149 -0.8180624639 -0.01933403157
-0.02008409405 0.04518437862 -0.05632421684 0.9650974709 0.01723251345 -0.2613233861
-0.01855849075 0.005317442576 -0.06513380877 0.8962557509 0.2354169533 0.375904891
-0.01830055173 -0.009387312571 -0.01641366132 0.877655595 0.4788509169 -0.02055373421
-0.01394001039 -0.009026683807 -0.05989848391 0.6946992775 0.5947934084 0.4044919222
0.009815016747 -0.01808994675 -0.01219863129 0.3453616492 -0.9384108581 0.01050678964
-0.01454185057 -0.01454193377 -0.01625192356 0.7084231126 0.7057727285 0.00464211206
-0.01675294611 -0.01189965238 -0.02637731828 0.8240789755 0.5662859284 0.01463179673
-0.0157147913 0.01329031754 -0.03684431839 0.869213837 -0.4943692403 -0.008146151312
-0.00573910137 -0.01967458789 -0.01615227111 -0.2432083286 -0.969711983 -0.02254726109
0.004248361409 0.05838484478 -0.08063711929 0.008268978897 0.01040139273 -0.9999117136
-0.005630521154 -0.01970223026 -0.04120675583 -0.2437995642 -0.9682735617 -0.05484598643
-0.01195972888 -0.01672326883 -0.03663629235 -0.5711059903 -0.8208750302 -0.001460343152
-0.02054848137 -0.0002742593825 -0.01614791851 0.9992563088 0.0134631143 -0.03613272616
-0.01795404053 0.01001778698 -0.01114872503 0.9329569287 -0.3597232639 -0.0138037142
-0.01856222693 -0.008828966935 -0.02634053993 0.9172870663 0.3981694363 -0.006748181682
-0.01454313787 -0.01454321416 -0.02048417536 0.7085393382 0.7052605841 0.02407311086
-0.001005501372 0.039403936 -0.08109733582 0.05913614036 -0.02059651466 0.9980374244
-0.005618994872 0.03419988378 -0.08034953944 0.2311790092 -0.008435643188 0.9728746608
-0.02010134188 0.00417910258 -0.01672574695 0.9893575607 -0.1414705359 -0.0340250573
-0.01983514538 0.02937354641 -0.0658706501 0.9718341698 -0.02161150163 0.2346727284
-0.01989857822 -0.005096795638 -0.0213273485 0.9664812978 0.2567324255 -0.001537105668
-0.01859160455 -0.008768558979 -0.02133385436 0.9117039883 0.4107050813 -0.01082468875
-0.02054162407 -0.0006530664265 -0.0209342591 0.9983400351 0.03716736194 0.04399728934
0.01002856731 -0.01798453712 -0.01027175808 -0.3552011108 0.9346026556 -0.01870954483
-0.0006544473767 -0.02054302629 -0.02093573825 -0.01636427841 -0.9995088429 -0.02672607903
0.009393227895 -0.01829814657 -0.01600445652 -0.2649398315 0.9638895944 -0.02690233344
-0.01905808544 0.04457891273 -0.05287819862 0.924477044 -0.02188734443 -0.3806089059
-0.02020443039 0.003637480259 -0.02165165863 0.9897325641 -0.1419989741 -0.01630162465
-0.008837621689 -0.01857048225 -0.02634841569 -0.4169143468 -0.9089255584 -0.006062736783
-0.00520562058 -0.01987030347 -0.02637050502 -0.2331507867 -0.9723923517 0.009686336261
-0.0007826063267 -0.01460804905 -0.06116600834 -0.01465545711 -0.8523653126 -0.5227414193
0.003624842834 -0.02021545258 -0.02166256752 0.1393588603 -0.990049505 0.01952141752
-0.01870545235 -0.004013984776 -0.05553973694 0.9219133236 0.3315143279 0.2004347128
-0.02054079278 -0.0008415383715 -0.02605476093 0.9980820079 0.04306117626 0.04447516761
-0.0008354963933 -0.02053549639 -0.0260497001 -0.04422481768 -0.9980675912 -0.04364915741
0.005068475485 0.05138278325 -0.08047590383 0.122317667 -0.005974997379 -0.9924730161
-0.01879214859 0.04930973562 -0.05232178752 0.9152525317 0.00161897202 -0.4028773786
-0.01866775322 0.008699244181 -0.02167748706 0.9730792337 -0.2301681081 -0.01180876563
-0.01881236935 0.02043023014 -0.05225947189 0.9642551723 -0.03817132373 -0.26221158
-0.01665710449 -0.01204137459 -0.03151156521 0.82227914 0.5687519851 -0.01944724472
-0.01454605007 -0.01454611099 -0.03120255303 0.7077674538 0.7064347426 -0.003896901859
-0.01204535055 -0.01666099396 -0.03151514874 -0.5690835403 -0.8220573383 0.0191221493
0.008773939451 -0.01860285695 -0.02161357371 -0.2416746543 0.9701262575 -0.02117560111
-0.02014046745 0.003936410809 -0.02586790924 0.9933343452 -0.1152172054 -0.003445884505
-0.01984661971 -0.005316846662 -0.03132961633 0.9719876192 0.2349928756 -0.004291437274
-0.01853447978 -0.008889507453 -0.03126176453 0.9179266686 0.3967492971 0.0007914098431
-0.008900039355 -0.0185445385 -0.03127109083 -0.3957266497 -0.9183681989 -0.0005196375261
0.003366132339 -0.0202749548 -0.03066485627 0.07500727394 -0.9971783524 0.003040123438
-0.005314839654 -0.0198446846 -0.03132780266 -0.2354654332 -0.9718779017 0.003061707184
0.003894869566 -0.0201769268 -0.02590322838 0.1177091269 -0.9930342398 0.005249765569
-0.02053702863 -0.001023364914 -0.0310810957 0.9983733822 0.05243502081 0.02238656743
-0.001013324667 -0.02052809874 -0.03107274437 0.05360635876 0.9983017906 0.02280116436
-0.0109689877 -0.006258186966 -0.06672108054 -0.555741207 -0.5915433779 -0.584147364
-0.01886464977 0.008253100872 -0.02621075249 0.977649348 -0.2101285908 -0.006908519769
-0.02052598882 -0.0004403469898 -0.03609316492 0.9988926664 0.04681655147 0.004653110245
-0.02025126457 0.003393108209 -0.03064258067 0.9971635932 -0.07523331311 -0.002171876262
-0.004523183584 0.01049269152 -0.0793393542 0.1964431733 0.2364366741 0.9515817247
0.008300118923 -0.01882375717 -0.02617147923 -0.2147661151 0.9766107789 -0.01033935771
-0.01980492292 0.04874729974 -0.06597851454 0.9713380254 -0.0005806630594 0.2377017105
-0.02046749772 -0.0005303827326 -0.04651487266 0.9974950712 0.0649452837 0.02803021558
-0.01920371755 0.007392848969 -0.03583531698 0.9546617217 -0.2966227123 0.02521832025
-0.01981964238 -0.005422256364 -0.03620110321 0.965456456 0.2594034225 0.0245702236
-0.01672218037 -0.01195864254 -0.0366353319 0.8201257857 0.5721806635 -0.001727402337
-0.01836990801 0.01455311203 -0.06920926158 0.905285685 0.09072898972 0.4150013
-0.01454743735 -0.01454749107 -0.03681617292 0.7073464475 0.7068192018 -0.008223088352
-0.008960307121 -0.01851798185 -0.03610999997 -0.4135476631 -0.9104821078 0.0008134599185
0.01282158661 0.001212198198 -0.07111487579 0.479330021 -0.4776442609 -0.7362735164
-0.005420777665 -0.01981819344 -0.03619978121 -0.256641216 -0.9663384641 -0.01803494051
-0.01903005219 0.007847101529 -0.03063605372 0.9554549186 -0.2942981051 0.0222378926
-0.0004306463823 -0.02051732016 -0.0360852766 0.04975867118 0.9986991384 0.01114026624
-0.006555694262 0.008376484553 -0.07813193893 0.3392482643 0.2959318006 0.8929361593
0.01411258698 -0.008238863945 -0.06077968597 0.5352077026 -0.695555252 -0.4793282869
0.007849273841 -0.01902816455 -0.03063419088 0.266838411 -0.9633156128 -0.02864075054
-0.008216821671 -0.01857905388 -0.04447225952 -0.4019974958 -0.9087398355 -0.1122048341
-0.02020855045 0.003737436175 -0.03537692738 0.9982218389 -0.05952715857 -0.003110898166
0.003716397375 -0.02022705698 -0.03539383698 0.05834370736 -0.9982958753 -0.001165002778
-0.01972684135 -0.005656979823 -0.04122827415 0.9495149354 0.3124464128 0.02825998126
-0.01846859296 -0.008995194912 -0.0408495725 0.8962262788 0.4416270325 0.04176148112
-0.01451245022 -0.01451249154 -0.04151053937 -0.704810346 -0.70819042 -0.041336486
-0.01194975842 -0.01667191198 -0.0413398713 -0.5765803256 -0.8146931912 -0.06188806287
-0.008989451726 -0.01846319326 -0.04084488424 -0.4349455378 -0.8989195329 -0.0525932749
-0.02051778984 -0.0003784381097 -0.04124517129 0.9987269089 0.05024794872 -0.004439034442
-0.0003790531065 0.05504907608 -0.08113702202 0.101673152 -0.0176559012 0.9946611681
-0.008935738564 0.04974945704 -0.07912166341 0.4234302774 0.01849311643 0.9057399212
-0.0003035683171 -0.02045056586 -0.0411862415 0.02036753992 0.9978398342 0.06245661305
0.007360188484 -0.01923218791 -0.03586121496 0.2915629461 -0.9558997101 -0.03530995119
-0.01968007224 0.05836759513 -0.06639526803 0.9529691656 -0.03829267277 0.3006383884
-0.02051481056 0.02390891211 -0.06139960044 0.9997013908 0.01268997307 0.02088286055
-0.01689865562 -0.01100813069 -0.04614084979 0.7940639973 0.5953673165 0.1224750042
-0.01427228562 -0.01427234872 -0.04596260707 0.7073102734 0.6990000541 0.1054092102
-0.01725695992 0.05815058136 -0.04943861389 0.8813661238 -0.005923188035 -0.4723967313
-0.01224895167 -0.0122491138 -0.05724495125 -0.5959160043 -0.7152516314 -0.3651016565
-0.01097199745 -0.01678316994 -0.04625402476 -0.5629711473 -0.8127360991 -0.150078381
-0.01675380316 0.01459781523 -0.07187859955 0.7888403131 0.1170738885 0.6033445657
0.004070835114 -0.02013894145 -0.04083404795 0.1987495647 -0.9781466907 -0.0610545823
-0.01934253216 0.007024632931 -0.04009245682 0.9551503619 -0.2957517492 -0.0147881349
-0.01961299953 -0.005288074231 -0.04632956772 0.9401464524 0.3324385005 0.07489520307
0.007033851941 -0.01929839643 -0.04087097295 0.3111721505 -0.9490221478 -0.05028772931
-0.0005205827337 -0.02001093793 -0.0461937604 -0.006051330456 -0.9880408699 -0.1540734268
-0.01712753995 0.03937315051 -0.07194273504 0.8022992104 0.01151846093 0.5968109433
-0.005406015705 -0.005679764341 -0.07060809147 0.2288136998 0.6310565917 0.7412232247
0.01280543709 -0.01613373375 -0.03721522522 -0.4856610239 0.8739623475 0.01797734545
-0.01653115082 0.01225444698 -0.03923569107 0.8871378372 -0.4605498065 -0.02967041618
-0.0159655702 -0.0109426897 -0.05110924861 0.7686846081 0.6044000252 0.2093432179
-0.01391127319 -0.01372557201 -0.04987953186 -0.6910484393 -0.6960203452 -0.1949557223
-0.01450126457 0.04517084503 -0.04600332642 0.8246027618 0.009308602147 -0.5656356028
-0.01070550674 -0.01570915419 -0.0513118825 -0.548691189 -0.8015478645 -0.2376110267
0.003658134222 -0.01967124812 -0.04634020106 -0.1893456355 0.9680217026 0.1645667453
0.0120847044 -0.01663879108 -0.04015888977 0.4420547626 -0.8961777303 -0.0381190578
-0.01727419662 0.0113046627 -0.04153955078 0.9307478493 -0.3356060669 -0.1451792304
-0.006751311461 -0.0176420126 -0.05169081052 -0.3415161976 -0.8931385812 -0.2926946559
-0.004816941704 -0.01861808259 -0.0502650092 -0.202406584 -0.948494379 -0.2437006109
0.007459150314 -0.01867586136 -0.0460149765 0.2959097897 -0.9461508328 -0.1312859393
-0.01922765223 0.008869116783 -0.04647040685 0.9646984595 -0.2150827835 -0.151974598
-0.02026152649 -0.0004957793534 -0.05130424881 0.9844775966 0.1495252067 0.09190252583
-0.005665194869 0.04946984355 -0.080326135 0.2725388856 -0.005174202847 0.9621308557
-0.01952162476 0.01446452446 -0.06613585625 0.947800838 0.07499529566 0.309918178
-0.01795153427 -0.007708383322 -0.0516843071 0.8675358624 0.4548768632 0.2011680062
-0.0007172792337 -0.01880416489 -0.05158184606 0.003955788365 -0.9635759344 -0.2674056288
-0.01883881187 0.02467652416 -0.05234065628 0.951327355 -0.005108620671 -0.3081398476
0.01186844158 -0.01670888901 -0.04269820786 0.4255574066 -0.9006570221 -0.08785113651
-0.02054160849 0.004145881494 -0.05116135724 0.9980920054 0.06156958208 0.004640624376
0.0037939231 -0.01875968393 -0.0505966924 0.1517316595 -0.9532631485 -0.2612793012
0.01258103371 -0.01597600842 -0.04453590965 0.4771709042 -0.8667897897 -0.1448564418
-0.01726651955 -0.006521629763 -0.05638840027 0.8212626489 0.4804068414 0.3077936457
-0.0149213078 -0.01029621178 -0.05565123296 0.7265693752 0.6190199204 0.2981799476
-0.005747532352 -0.01622740854 -0.05624685847 -0.2988312103 -0.86602576 -0.4008731605
-0.006064839329 0.03925964573 -0.08021866172 0.2892236735 -0.02516169376 0.9569307999
-0.02012384387 0.01935399055 -0.05638326154 0.974033035 -0.02450270842 -0.2250761295
0.009772223473 -0.01633305435 -0.05128838043 0.4447654636 -0.8588560603 -0.2540668221
-0.02042370415 0.004815510654 -0.05637843819 0.9852569683 0.1057428862 0.1344884699
0.006268845081 -0.01763845444 -0.0523180275 0.2589927763 -0.9132546955 -0.3144655833
0.004294450177 -0.01665718471 -0.05618154187 0.2848577151 -0.8716126221 -0.3989329757
0.002161046505 0.05241250992 -0.08104889679 0.005517659787 -0.007220646666 -0.999958708
-0.01657062244 0.02440633965 -0.04837691307 0.9107841527 -0.02534663246 -0.4121040833
-0.01800148201 0.01832640076 -0.05033860779 0.9308261486 -0.08609039722 -0.3551775959
-0.01580530861 -0.005557985399 -0.06113012293 0.7596695157 0.5151848334 0.3968460839
-0.01407372975 0.05845256329 -0.07554663658 0.7055097894 -0.05365895283 0.7066658715
-0.01063423729 -0.0109754587 -0.06129480462 -0.5289582129 -0.7032082416 -0.475080391
-0.008816567898 -0.01343362713 -0.05938387489 -0.3923562883 -0.8092248042 -0.4372776684
0.008862118626 -0.01511686573 -0.05582476883 0.3733162419 -0.8305097011 -0.4133867678
-0.0177720108 0.02286285782 -0.05019326019 0.9235231658 -0.0372071661 -0.3817336624
-0.02029160843 0.0140626215 -0.05619010315 0.9906647453 -0.07900128282 -0.1110952734
-0.01859486675 -0.0002690931894 -0.06059566593 0.8849808416 0.3324743876 0.3259903243
-0.0170368779 0.0243591671 -0.07208357239 0.8056264793 -0.01073896407 0.5923264729
-0.005141583538 -0.01422502003 -0.06056180534 -0.2459362351 -0.8347073036 -0.4927261771
-0.01669135284 0.03082806015 -0.04854160309 0.9163046256 0.0001692734421 -0.4004819651
-0.01786894798 0.02927764225 -0.05035109138 0.9187169938 -0.0107123397 -0.3947712388
-0.01950714475 0.003990011909 -0.06125797445 0.9469489369 0.1986169647 0.2526638325
-0.01528117561 0.05858692169 -0.0468638382 0.8267200209 0.006157234894 -0.562579857
-0.01724781926 -0.001847908939 -0.06246421814 0.8395334852 0.3821991899 0.3861441525
0.004366578539 0.0043627491 -0.07723648961 -0.266866357 0.3975136439 0.8779323723
0.0129401207 -0.01334598732 -0.05368790436 0.5223877405 -0.787988068 -0.3258617088
-0.01422363186 0.04086730194 -0.04571747971 0.8250178057 -0.009609308253 -0.5650250272
-0.01675603294 0.03522543716 -0.04864732361 0.8949410411 -0.0262413085 -0.4454120864
-0.0188795042 0.02897666359 -0.05244050217 0.9445755547 -0.01289889499 -0.3280406071
0.003922064251 -0.01419269064 -0.06113769913 0.1904088604 -0.8417021469 -0.5052543536
-0.01997470951 0.02483401521 -0.05587350337 0.9657308054 0.01936819377 -0.2588221099
-0.02021435998 0.009148164186 -0.06120314893 0.9827704979 0.09733302094 0.1571255279
-0.006362664413 -0.01245999489 -0.06273469543 -0.3292216572 -0.782054225 -0.5291543155
-0.01742325974 0.04000818253 -0.04970196152 0.8875415439 -0.0045288199 -0.4607054348
-0.01796281242 0.03584143066 -0.05052040482 0.8986690923 -0.007395210166 -0.4385649021
-0.02048710213 0.01473354053 -0.06109138832 0.9961074731 0.02705171685 0.08389342453
-0.01392887616 -0.004731256992 -0.06511949015 0.6854294608 0.521127982 0.5085391633
-0.009879974501 -0.008960795539 -0.06480364118 -0.4275622467 -0.6925481746 -0.5810056377
0.008180805683 -0.01375765562 -0.05940087318 0.344676623 -0.8233536082 -0.4508734429
0.003993031065 0.02517863274 -0.08072303263 -0.1160164541 0.01740343638 0.9930948106
-0.01749605274 0.04454953766 -0.0498352356 0.8823394875 -0.01118642494 -0.4704804914
-0.01888952192 0.03905494563 -0.05248472087 0.9323797546 -0.01396555284 -0.3612104049
-0.01588419482 -0.0004158157334 -0.06610871147 0.7567524399 0.403226536 0.5145231826
-0.01386706028 0.0003216406196 -0.06946113892 0.6499992609 0.4060255718 0.6423738754
-0.005408960432 -0.01026008344 -0.06599445915 -0.2066876353 -0.7378914072 -0.6424924067
-0.002666448593 -0.01287350082 -0.06364619446 -0.1246212498 -0.8065230138 -0.5779188285
0.01253942966 -0.01166536713 -0.05788792419 0.472427156 -0.7633948003 -0.4405008071
-0.01499385262 0.05407712555 -0.04654608154 0.8279555372 0.008176961164 -0.5607341311
-0.01701859665 0.04878926086 -0.0490658989 0.8793499694 0.01082828598 -0.4760529167
-0.02011333609 0.04983813667 -0.05648190308 0.979151727 0.02001659677 -0.2021416123
-0.02014208126 0.03442165947 -0.0566463267 0.9777227866 -0.02577324263 -0.2083120079
-0.01906175492 0.009789653345 -0.06603098505 0.916102861 0.1423366436 0.3748277311
0.004014750401 0.03277471415 -0.08074696859 -0.1043750801 -0.01423665229 0.9944361017
-0.01716004223 0.003942600992 -0.0671639328 0.8194012992 0.312033595 0.4808498169
-0.01445126963 0.02918162823 -0.07521654034 0.7061115848 -0.01464793543 0.7079490573
-0.0005255273112 -0.01103260674 -0.06617896679 -0.03147937432 -0.7623647137 -0.6463815378
0.009502563874 -0.01120982011 -0.0621077493 0.4384313314 -0.7363887244 -0.5152762505
-0.01713101387 0.05343745804 -0.04924225616 0.8814769556 -0.002069663712 -0.472222504
0.004485876853 -0.01031518043 -0.06625968864 0.1566302014 -0.7557021866 -0.6359097304
0.005746982098 -0.01220325756 -0.06348246765 0.3042952442 -0.766900784 -0.5650376907
-0.0185800848 0.05486896324 -0.0518285923 0.9211468489 0.01319563343 -0.3889914628
-0.0003800353944 0.02912120628 -0.0811297821 -0.02307256449 -0.009793500327 -0.9996858227
-0.01292490864 -0.002809726477 -0.06813920593 0.6299420694 0.5045512392 0.5904244543
-0.007043958187 -0.007965108395 -0.06787477875 -0.3509930866 -0.671509303 -0.6525941381
-0.01866466904 0.05965412903 -0.0520108757 0.9274247578 -0.02590798104 -0.373111371
-0.01999632721 0.05412418289 -0.05607766876 0.9628768544 -0.009516022508 -0.2697732539
-0.02052505557 0.03491898791 -0.06138303693 0.9996357758 -0.001685278719 0.02693465514
-0.01963035774 0.01961153551 -0.06655605663 0.9337797282 0.0316440489 0.3564464523
-0.01780441856 0.007311481953 -0.06790351105 0.8471495383 0.2300715775 0.4789621374
-0.01487401617 0.00440918253 -0.07069188455 0.7227110425 0.3045656451 0.6204260769
0.007444282532 0.03877113342 -0.07977996063 0.1641608543 -0.009197244162 -0.9863907059
-0.0107411959 -0.0006066575138 -0.07157173381 0.5453558782 0.473933481 0.691356653
-0.00958605739 -0.004197896174 -0.06976630184 0.4288670168 0.5804286606 0.6922251454
0.008710790157 -0.009374750614 -0.06527940369 0.3854254344 -0.7093573743 -0.590135027
-0.02000184631 0.05848927021 -0.05621555424 0.9639859091 -0.02033272147 -0.2651749376
-0.02050060844 0.04385417666 -0.06128089905 0.9980311865 -0.01323711758 0.06130684684
-0.02051529503 0.03939858627 -0.06154074669 0.9983744313 -0.01378653172 0.05530304302
-0.01971600151 0.02470951571 -0.06635784476 0.955062745 0.008066268326 0.2962939222
-0.01596836079 0.009270726045 -0.0714045851 0.7667936802 0.2128491501 0.6055763299
-0.001097325563 -0.008529159546 -0.06900006485 -0.1048747256 -0.7176882016 -0.6884220633
0.01387074375 -0.006494369507 -0.0633477211 0.5126772438 -0.6644055835 -0.5438081135
-0.02052046903 0.04868182119 -0.06106441371 0.9995124469 0.02082717614 0.0232614946
-0.0007322560052 -0.005671488065 -0.07156085792 0.02996621199 0.6392337281 0.7684284397
0.003016480565 -0.008226817608 -0.06901887894 0.1444683425 -0.7081673319 -0.6911063073
0.0097688996 -0.007102116108 -0.06693509674 -0.4549201348 0.6257325638 0.63364535
-0.02050589916 0.05391051974 -0.06144894082 0.9980155957 -0.03531137634 0.05213422606
-0.01840796534 0.0192119681 -0.06974223582 0.9168409589 0.03037747304 0.3980952967
-0.01229860973 0.003404021204 -0.07283095741 0.5923886662 0.3694027526 0.7159729566
-0.006154834747 -0.002278008056 -0.0730093338 0.313812907 0.5380363162 0.7823288195
0.004157335329 -0.005245129561 -0.07138331757 -0.1966055679 0.6385640058 0.7440310889
-0.01449317 0.0192293716 -0.07510341051 0.7065492513 0.04644890241 0.7061378442
0.008398207474 -0.004727183723 -0.07001371155 -0.3734972117 0.5950546882 0.7116247262
0.005622263432 0.007526022196 -0.07815903473 -0.2792446074 0.3054954243 0.9103268616
-0.0197231775 0.0399689173 -0.06629411861 0.9712270775 0.02135314813 0.2371961361
0.007861646175 0.03287438965 -0.07962527466 0.1912355517 0.0001042155071 -0.9815441676
-0.01860366821 0.02454758024 -0.06940822983 0.9195795688 0.006673376728 0.3928471493
-0.01449737151 0.02433815765 -0.07518133418 0.7078879794 -0.004623907375 0.7063095837
-0.01710742426 0.01960715389 -0.07193933487 0.8006343838 0.04894948049 0.5971503428
-0.0185015672 0.02959492366 -0.06961004384 0.8985497883 0.01856892118 0.4384785891
-0.01051945912 0.004714666388 -0.07472906772 0.5073643708 0.3412220994 0.7912956933
-0.008783213615 0.001377353668 -0.07415218353 0.3993950573 0.4452217856 0.8014119726
-0.0169881293 0.04400156975 -0.07214916992 0.806478412 -0.001088718434 0.5912625353
-0.005523315859 3.12343061e-05 -0.07470118027 0.2611259529 0.4992762454 0.8261576529
-0.01974499484 0.05350927571 -0.06618188749 0.9540059787 -0.01642610775 0.2993372272
-0.01841001765 0.03400932821 -0.06979361216 0.8958677263 -0.01769502568 0.4439683581
-0.01707263851 0.02929037166 -0.07203417015 0.8067584484 -0.01507574413 0.590689028
-0.01441953834 0.01431830645 -0.07465824763 -0.7003291598 -0.1083442071 -0.705549857
-0.01360595036 0.01093839041 -0.07468791199 0.6490336632 0.1862277082 0.7376140893
-0.01130413273 0.01938894653 -0.07771332005 0.5922048565 0.04926624978 0.8042799541
-0.01061732979 0.009309484927 -0.07638650665 0.5490308068 0.2440224057 0.7993861637
-0.005935671219 0.004286593309 -0.0767329084 0.3018450369 0.3924082144 0.8688529029
-0.0008594735065 -0.0004384078885 -0.07526740404 0.01629263616 0.508181493 0.8610958833
0.001700221658 -0.002976554632 -0.07365318298 -0.07415547141 0.5597855865 0.8253127063
0.009281960805 -0.001220930462 -0.07221888479 0.3915328332 -0.5108691611 -0.7653200251
-0.01858691851 0.03897787603 -0.06941900635 0.9182596325 -0.02267504111 0.3953290905
0.004299141288 5.310109165e-05 -0.07504247379 -0.212951526 0.4940074461 0.8429758542
0.00673939991 -0.001786913157 -0.07318572235 -0.3133728518 0.5455231673 0.777304271
-0.01846842051 0.04435511112 -0.06964909935 0.9191531372 0.01689938245 0.3935376998
-0.01693656213 0.0348129534 -0.07223448944 0.8038809288 0.01599968843 0.5945750267
-0.01109283855 0.01440869661 -0.07731234048 0.5714747762 0.1486921487 0.8070360742
-0.01862177658 0.05035174815 -0.06931080119 0.9130465125 0.01521832835 0.4075714274
-0.0005620263632 0.004309210873 -0.07770898437 0.02897027595 0.4316394486 0.9015808946
0.008478300095 0.001797448397 -0.07453059387 -0.3319379095 0.4602317223 0.8234099745
0.01187397099 0.003183830976 -0.07307350159 0.4408984536 -0.4292784425 -0.7882439803
-0.00921074899 0.05478004328 -0.07899308268 0.3943317377 -0.01703031507 0.9188103444
-0.01851061122 0.05518012746 -0.06952565511 0.9086493377 -0.03081518366 0.4164214278
-0.01701319599 0.0488168275 -0.0720927342 0.8112857651 -0.006672919937 0.584611734
-0.01459533691 0.03455323628 -0.07507409668 0.7298015165 0.01168958629 0.6835591416
-0.01173322201 0.02444779423 -0.07746705954 0.5929702904 0.01791241226 0.8050250805
0.009563293457 0.004756410678 -0.07530785624 0.4038738589 -0.3617531877 -0.8402502825
-0.0009903976073 0.0191155955 -0.08104362233 0.06918647797 0.06652413408 0.9953832281
-0.0184336853 0.05845085526 -0.06967456818 0.9148013184 -0.05884528133 0.3995945204
-0.0008558267703 0.01433721383 -0.08059729258 -0.004036850261 0.1626265753 0.9866794317
-0.0170422554 0.05394358953 -0.07206469091 0.8097721643 -0.02339678116 0.5862777776
-0.01449113737 0.03965774863 -0.07515985216 0.6785100436 0.0182261378 0.7343649832
-0.005917684635 0.01450855001 -0.07975214301 0.3624197897 0.1510423155 0.919694577
-0.0006039451286 0.00929612124 -0.07949603081 0.01494017389 0.249498205 0.9682600048
0.01251249886 0.007652894497 -0.07456848145 0.4468262214 -0.3480851974 -0.8241256113
-0.01700569954 0.05850212021 -0.07211096344 0.808262873 -0.04853301179 0.586818264
-0.01451061344 0.0444598821 -0.07515031433 0.707218413 -0.001605790038 0.7069933081
-0.01145955862 0.03435306658 -0.07765512521 0.5937498975 -0.01406437571 0.8045267259
-0.005317519128 0.05889043617 -0.08043710327 -0.2071609691 0.03909005338 -0.977525601
-0.01125449196 0.02928078047 -0.07779104996 0.5889352791 -0.01719585745 0.8079972398
-0.009229097366 0.02019624519 -0.07896857707 0.4133670649 0.04387966869 0.9095065939
-0.00610481295 0.01932683229 -0.08013417816 0.3463272979 0.05467443128 0.9365191452
0.003439037621 0.00961831224 -0.07931505203 -0.1675386581 0.2648198494 0.9496321632
-0.0005405834466 0.02463345242 -0.08115991592 -0.04790714261 -0.03034501549 -0.998390748
0.008792498271 0.009754728635 -0.0775772349 0.33520231 -0.2972942382 -0.8940109324
-0.0007756945491 0.05918932152 -0.0810685997 -0.1058552419 0.008473766678 -0.9943454445
0.007120262623 0.04491102982 -0.07989762878 0.1385200511 -0.01362722614 -0.9902658704
-0.01474574025 0.04950354258 -0.07491344706 0.709881974 -0.001665350227 0.7043186846
-0.005690339497 0.02936447144 -0.08031605639 0.2551439807 0.01764013584 0.9667421449
-0.01118076324 0.03935778046 -0.07782720439 0.5943577606 -0.005257482523 0.8041835682
-0.008940487226 0.02457600975 -0.07914602661 0.3889768562 0.01310503564 0.9211543103
-0.01451666419 0.05440485001 -0.07513330968 0.7083350637 -0.02602161452 0.7053965644
0.003795273701 0.03889368693 -0.08078495534 -0.0729330904 0.008599280401 0.9972997627
-0.01154123783 0.04457810484 -0.07758690207 0.593713376 0.004683258179 0.8046629694
-0.008988332987 0.03446275711 -0.07911349106 0.4168635674 -0.02818944846 0.9085318493
-0.008868076801 0.02983502102 -0.07918399429 0.4078563014 -0.004873669527 0.9130331236
-0.00542607674 0.02435993719 -0.08040752506 0.2196900179 0.00939761189 0.9755244645
0.004608150291 0.01440305424 -0.08007828217 -0.1324222896 0.1860386408 0.9735779175
0.008552172661 0.01339157867 -0.07861442566 0.3055126067 -0.2215727968 -0.9260494279
-0.0116460371 0.04999913661 -0.07751067734 0.5897353163 0.0155742181 0.8074464072
0.004118783832 0.02010311127 -0.08067147064 0.1953636206 -0.05481202707 -0.9791979868
0.00798463583 0.01672891426 -0.07935273743 0.1994492114 -0.1296919561 -0.9712878094
-0.01164664555 0.05468940201 -0.07752250671 0.5855456824 0.006078922222 0.8106166174
-0.009003801823 0.04479776573 -0.07910260391 0.4037782554 0.01894255422 0.9146607569
-0.01133652639 0.05928878307 -0.07770949936 -0.5861369502 0.03856381852 -0.809293709
-0.00574032712 0.04464357322 -0.08029404122 0.2472127913 0.01122623523 0.9688961799
-0.0007003949761 0.03420009995 -0.08111411743 0.04331635945 -0.03194253139 0.9985506335
-0.005513362726 0.05459486453 -0.08033632406 0.2705684274 -0.01278188121 0.9626158889
0.002820348263 0.02729874229 -0.0809953537 -0.06260829391 -0.01483506126 0.9979279145
0.008557909966 0.02740824699 -0.07932550812 0.1901746241 0.008193464216 -0.981716089
-0.008529862881 0.05909953117 -0.07932246399 -0.3849430594 0.03388989436 -0.922317904
-0.001191417096 0.0495334034 -0.08111852074 0.09231621277 0.03847001557 0.9949863189
