# .PCD v0.7 - Point Cloud Data file format
VERSION 0.7
FIELDS x y z normal_x normal_y normal_z
SIZE 4 4 4 4 4 4
TYPE F F F F F F
COUNT 1 1 1 1 1 1
WIDTH 310
HEIGHT 1
VIEWPOINT 0 0 0 1 0 0 0
POINTS 310
DATA ascii
0.02016874695 0.002389409304 0 0.9831332412 0.1078277734 -0.1477233946
-0.02026581552 0.01897678651 -0.05712584432 0.9912629168 -0.03658656844 -0.1267251068
-0.01681294518 -0.01185980911 -0.03766854324 0.8147451458 0.5796121572 0.0154949836
-0.01104869022 -0.01601337051 -0.001616942924 0.5300609191 0.7786736434 -0.3357123457
-0.02048340956 0.0498495814 -0.06214947701 0.9957201555 0.01108676197 0.09175214269
-0.02052074348 -0.0007469365398 -0.04284839757 0.9991886286 0.04026308097 0.0009842993849
-0.01988684209 -0.005184347524 -0.03300953632 0.9691276918 0.2456752411 -0.02086127778
-0.01854686324 0.008911139488 -0.03202813848 0.9194821032 -0.392491738 0.02242537491
0.01608596643 -0.005526043124 -0.00189470442 0.9634447819 -0.2387431377 -0.1215560217
-0.008759658813 -0.01859127617 -0.007021726926 -0.3762625218 -0.9195830518 0.1131084678
0.01655510288 0.003952546305 -0.002067529599 0.984943795 0.1513308359 -0.08357451002
0.01808108521 -0.0002654899226 -0.001496815205 0.9660805572 -0.1219840318 -0.2276142634
0.01559824276 0.01338791752 -3.231113032e-05 0.8120531636 0.4618448392 -0.3567478157
-0.007282376448 0.01926403936 -0.0378038063 -0.4867431423 0.8001518214 0.3504827757
0.01435010783 0.009588812796 -0.001923434481 0.8327388123 0.5078772745 -0.2204693733
-0.006406608661 0.03964466286 -0.04108420563 -0.3094236747 -0.01232425849 0.9508444153
-0.007260004997 -0.01926540311 -0.03781523005 0.49659639 0.8669371695 0.04256723716
-0.01092153041 -0.01745506223 -0.0325197862 -0.615724865 -0.7879000311 0.009819961145
-0.02052326414 -0.0007238545219 -0.01312547514 0.9992324416 0.02478478139 -0.03033549504
-0.01493198442 0.01403921089 -0.007314594126 0.7207906795 -0.6914171688 -0.04902137306
0.01607261467 -0.005576506178 -0.01122896417 0.9691231779 -0.2385389137 -0.06244559807
0.01690617561 -0.00237456131 -0.002196872234 0.9755833987 -0.2030512409 -0.08370917327
-0.00999148035 0.01788447952 -0.01215945371 0.4901337212 -0.8712325288 -0.02688523913
-0.02042931881 0.04413513107 -0.06257049484 0.9992588721 -0.01380931354 0.03593062039
-0.0186226325 -0.008623888493 -0.04174718857 0.9054029015 0.4218313204 0.0479991996
-0.01158537579 -0.01697638003 -0.007450523376 -0.546213025 -0.8322623393 0.09481945978
0.01406277315 -0.01021225103 -0.001984630992 0.889262041 -0.4412878496 -0.1203247951
-0.008965428034 0.01848591105 -0.0021334246 -0.4074426209 0.9051141375 0.1214862496
0.01559826374 -0.01338791752 -3.231871873e-05 0.8246574725 -0.4794954201 -0.3000403226
-0.02026946779 0.03939979553 -0.05730063907 0.9807712668 -0.02762606357 -0.193195556
-0.005671878576 0.05868425315 -0.04090278081 0.2287534275 -0.09794686442 -0.9685444136
-0.01499136864 0.01367662959 -0.001864086043 0.7188156856 -0.6893136366 -0.09028134094
-0.00801177597 -0.01895468521 -0.02378118324 0.5435951918 0.8393454063 -0.001885824869
0.003592220386 0.01857747142 0 0.2499549117 0.9536661472 0.1674617026
0.01008419651 0.0142578302 -0.001893456472 0.6311611117 0.773986081 -0.05080548721
-0.02007197935 0.004261307586 -0.03781550668 0.9790668703 -0.202922544 0.01582733824
-0.01993164078 -0.0007160754154 -0.001612791896 0.9850579383 0.02001376203 -0.1710564456
0.01009744225 -0.0146211771 -0.001842877352 -0.5138139036 0.8234267166 0.2407565467
-0.02042463069 0.0190719543 -0.06245254008 0.985744724 -0.001212062556 0.1682434845
0.01019930363 0.01789061737 -0.001381078601 0.5628297672 0.8166821708 0.1274868033
0.005705687881 0.01615294027 -0.002171155423 0.3329949988 0.942098303 0.0395615768
0.01701113915 -0.0005971052349 -0.007535329223 0.9818473485 -0.07235301084 -0.1753306194
-0.01409097878 -0.01497121541 -0.02757275581 -0.6814695218 -0.7317993806 0.008304063677
0.004992531538 -0.0164198822 -0.001736924338 -0.3451519766 0.9341045071 -0.09120790993
-0.01621935329 -0.01129254999 -0.001732247704 0.7935837657 0.6011847051 -0.09381768029
0.004318377495 -0.01912238216 0 -0.2961888065 0.9297264309 -0.2188171718
-0.01486775706 0.01412279352 -0.02276763725 0.6931175958 -0.7208241466 0.0007403711192
-0.01966940832 -0.005769619981 -0.007184472919 0.9685179759 0.245241028 -0.04277579345
0.01403604349 0.009473991195 -0.007451577584 0.8768336919 0.4658349081 -0.1189979629
-0.004315293233 -0.01971029409 -0.00129890426 0.1279604502 0.9577945834 -0.2574017465
0.0164502667 0.004424702474 -0.006864617143 0.9785953504 0.1727107616 -0.1119023367
-0.005763503528 0.05422238693 -0.0409449688 -0.2916430368 0.02544793465 0.9561886538
-0.001432315588 -0.02054926682 -0.01004967022 0.2410068344 0.9701898075 -0.02544490305
0.01691004372 -0.002382458687 -0.005581201553 0.9710782823 -0.2085048204 -0.1163301749
-0.01937408566 -0.0005709128454 -0.05732975101 0.9417890295 0.2665404174 0.2049137129
0.01607901753 -0.005553462717 -0.006965767596 0.9724732266 -0.2249467461 -0.06078474362
-0.01862755235 0.00868199873 -0.007633674224 0.9177613231 -0.3935930314 -0.0529025462
-0.01429190554 -0.01475499671 -0.007450319018 -0.6939492195 -0.7190271321 0.03787431977
-0.01714663919 -0.005867442886 -0.05768201001 0.8332462542 0.4562270103 0.3123421121
0.004086686611 0.05934973717 -0.04046026993 0.02159294924 -0.03430530141 -0.9991781077
-0.001344441712 0.01924506426 -0.001507526994 0.1157679576 0.9600096626 0.2549102345
-0.009873947334 0.01795189896 -0.007520095634 0.4770579969 -0.8772228966 -0.05381131201
-0.01132657299 -0.01500277271 -0.05220641251 -0.6223615522 -0.7434128355 -0.2449560252
0.01691296482 0.002388420939 -0.008136239529 0.9801471605 0.1435251366 -0.1367921014
-0.00627479744 -0.017092659 0 0.3274014183 0.907461512 -0.2632905533
0.01355071375 -0.0102552344 -0.007688394176 0.8651448656 -0.4858880183 -0.12424651
-0.002115463495 -0.01728790092 -1.421085472e-17 0.09099537949 0.9320590375 -0.3506933013
-0.00626174593 0.02949479508 -0.04103381872 -0.2863060176 0.009597715692 0.9580901566
-0.001104396582 -0.01989637566 -0.002003273567 -0.01733861304 -0.9654847876 0.2598816987
-0.01329170195 0.02444807752 -0.07632939911 0.7270921728 0.002797725868 0.6865341542
-0.01909335041 0.03472793516 -0.06814051819 0.9388265399 0.01173453805 0.344190396
0.01465898895 -0.008737440109 -0.01152450466 0.9071351422 -0.4202803581 -0.02168534737
0.009955227852 -0.01485015249 -0.007133641481 -0.4939090395 0.8339246582 0.24621845
-0.004793828964 0.01905660343 -0.0009786176085 -0.2155670794 0.9524654095 0.2152683857
-0.01741775576 0.01095149549 -0.01292883046 0.8883885664 -0.4585748526 -0.02179127605
0.009933843613 0.01380022748 -0.00684527572 0.7164251213 0.6743876251 -0.1787075173
0.009991306305 0.01799879265 -0.007987769604 0.8433803736 0.4715239827 0.2576328379
-0.008964844386 -0.01848594475 -0.002133658171 -0.3641130736 -0.9121420256 0.1881982856
-0.018282763 -0.009360309839 -0.002297715902 0.8454209525 0.4866123822 -0.2201631271
-0.01479149977 -0.01433701134 -0.03736850357 -0.6918548049 -0.7219118014 -0.01342684005
-0.01104445515 0.01601360016 -0.001618658361 -0.5871589249 0.7752702615 0.2328098333
-0.01897839779 0.03419927809 -0.05274127494 0.9045488404 -0.0105608363 -0.4262392099
-0.01907859887 0.04957369741 -0.05302056291 0.9336830048 0.02733761384 -0.3570555998
0.01521019618 0.00768571806 -0.01117304802 0.9090809299 0.414341237 -0.04351094444
0.01636782217 0.004784851909 -0.01134549856 0.9746843888 0.2232318976 0.01256431703
0.01691371059 0.00239639318 -0.01156097984 0.9948936592 0.09975651181 -0.01533770897
0.01700410811 -0.0007987977266 -0.01159665616 0.9919276179 -0.04402714702 -0.1189168244
-0.01445850549 -0.01445376941 -0.001959037353 0.6760772644 0.6962117395 -0.2412648885
-0.02026676665 0.02965030882 -0.05727381049 0.9896078755 0.01504546621 -0.1430031004
-0.0164170839 0.0106098086 -0.001754817228 0.8181193218 -0.5599292086 -0.1309963993
-0.01863065116 0.009003488064 -0.04217458725 0.9224181556 -0.3631360056 -0.1314419558
-0.002173921049 0.02045040894 -0.007283876419 -0.1101603813 0.9933368778 0.03386056041
-0.01930210853 -0.005741994813 -0.001874333043 0.9289457552 0.3498700052 -0.1210403378
-0.01853023696 0.00863354671 -0.002194926992 0.9168602029 -0.3743330584 -0.1387160042
-0.01957708442 0.004302341923 -0.001760106869 0.9599166933 -0.2634185465 -0.09576330891
-0.002251121879 -0.02044549751 -0.007252561808 0.09623775479 0.9804230038 -0.1717819204
-0.01161081982 0.01694642067 -0.005839159012 0.6196301523 -0.7765141743 -0.1143862379
-0.02032315421 0.05877868891 -0.05774516106 0.9909084243 -0.07154889574 -0.1139352897
-0.01692656326 -0.01163237333 -0.007574337641 0.8003665418 0.5977810268 -0.04551090863
-0.01744283549 0.01089505196 -0.00814426136 0.8583516917 -0.5097241257 -0.05842678387
-0.01848273087 -0.008293021202 -0.0465833168 0.9047915674 0.4153014378 0.09421748912
-0.02006920492 0.00415573221 -0.007253697835 0.9795045035 -0.1948907799 -0.05087741732
-0.01950057435 -0.005454216987 -0.04709736729 0.9339025585 0.3453004432 0.09270175363
-0.006501283169 -0.01939667416 -0.04258441734 -0.4814249083 -0.8705533863 -0.1018177743
-0.001149925793 0.02907470735 -0.04010547193 -0.08442876659 0.02757586796 0.9960478678
-0.02051806211 -0.0007195754399 -0.007603603482 0.9988012254 0.02349102938 -0.04294512486
-0.01828423627 -0.009415571849 -0.007781674067 0.8944156358 0.4455899783 -0.03834372949
-0.02007082812 0.004486335993 -0.04266899776 0.984558712 -0.169390164 -0.04417142645
-0.01851799552 -0.00891199859 -0.03204281489 0.9078074169 0.4193393151 -0.006342921058
-0.008551966667 -0.01869789569 -0.01196951485 -0.4279836294 -0.9037063037 0.01203867369
-0.01828011131 0.05054227448 -0.07001965332 0.9288470019 0.004712454361 0.3704335836
-0.01146101856 -0.01706943639 -0.01233633804 -0.6375420246 -0.7704154224 -0.000493847847
-0.01501199754 0.01396496985 -0.01239361 0.7210243174 -0.6929078333 0.001633487807
-0.01895454979 0.02961557685 -0.05267823452 0.9028331206 0.01752797419 -0.4296337119
-0.0168920927 -0.01169295136 -0.01236233409 0.8069183238 0.5906578931 -0.002464154522
-0.01432688618 -0.01473060878 -0.0126959947 -0.691263665 -0.7223829044 0.01781810455
-0.00981738313 0.01798589102 -0.01714037673 -0.6012106697 0.7990474078 -0.008304863264
-0.01861250909 0.008726697683 -0.01239437548 0.9205321107 -0.3901438859 -0.02020845148
-0.02005263182 0.004289558851 -0.01236057678 0.9818568927 -0.1895827953 0.003925058033
-0.01864231682 0.0007650892138 -0.06160230637 0.8936215112 0.3058073723 0.3285155183
-0.01900913254 0.03956265799 -0.05282763259 0.9056943348 -0.0110945341 -0.4237861292
-0.01120766417 -0.01725902049 -0.02229027621 -0.6255241461 -0.7800749661 -0.01423340837
-0.01972740119 -0.005592978733 -0.01234992116 0.9701159121 0.2426382371 0.001342793032
-0.01938855362 0.004581582785 -0.06206792498 0.9509683559 0.183403169 0.249043096
-0.01904456096 0.04494388241 -0.05292586814 0.9354699584 0.02731480834 -0.3523490572
-0.01825602023 -0.009464443525 -0.01255385939 0.8938984023 0.4480699301 -0.01337849204
-0.0200956568 -0.0009709447111 -0.05229650116 0.9754502105 0.1911339333 0.1093833001
-0.01701235938 0.01496302295 -0.04699877071 0.8680441958 -0.3712973922 -0.3296020642
-0.01985920105 -0.005275276971 -0.02277601242 0.9703674073 0.2416182951 -0.002773850478
-0.008337020238 -0.01880613899 -0.01698192819 0.4579542779 0.888722255 -0.02122811576
-0.01133513864 -0.01716363144 -0.01728197797 -0.6320548727 -0.7747498385 -0.0164111414
-0.001474654313 0.03423770414 -0.04012152263 -0.09469041984 0.02530325618 0.9951851434
-0.01507968464 0.01389003677 -0.01753759041 0.7184015054 -0.6955863675 -0.007673490782
-0.005437375943 0.04919351069 -0.04084418742 -0.297535995 0.00903464727 0.9546678516
-0.01678002167 -0.01186693573 -0.01759116227 0.8076225573 0.5896827113 0.004483850342
-0.01085001859 0.04960332246 -0.04318222289 -0.5835168275 -0.01723793296 0.8119180782
-0.01856088066 -0.008818345547 -0.02209699186 0.9056919665 0.4238547519 -0.008319323659
-0.01425115379 -0.01480971797 -0.01759189622 -0.6821877107 -0.7311521648 0.006036492624
-0.00995653019 0.01791601944 -0.02187130775 0.5905585845 -0.806980072 0.004870478658
-0.01738742956 0.01100878684 -0.01777247238 0.8878961872 -0.4599918927 -0.006915156547
-0.0185972875 0.008771924178 -0.01721125364 0.9203666393 -0.3909827934 0.007596350564
-0.02002353389 0.004425748825 -0.0175384228 0.9670817103 -0.2544142368 0.005134373794
-0.02042345153 0.02979977714 -0.06261502202 0.9943817495 0.01550601514 0.1047115072
-0.01966114203 -0.005832714498 -0.01752137836 0.9500116679 0.3122127714 0.001008076687
-0.01822746849 -0.009513895671 -0.01738277817 0.8924427355 0.4511357479 0.004743491996
-0.008135595322 -0.01889859867 -0.02121662426 0.5467734776 0.8372609881 0.005727307498
-0.02052708647 -0.0007275723219 -0.01792075348 0.9987233674 0.04537429619 -0.02219929382
-0.01701225948 0.02957928371 -0.07214858246 0.7995945621 -0.006470437009 0.6005053453
-0.008055739403 0.01895204544 -0.02376072693 -0.5747341134 0.8183384368 -0.001703449946
-0.01417164977 -0.01488994487 -0.02255023893 -0.6823890963 -0.7306836089 -0.0211325547
-0.01920687453 0.01923775482 -0.06779731242 0.9408336647 0.0305223475 0.3374913357
-0.007875262419 0.01902834829 -0.02721792094 0.5720440911 -0.8201965717 -0.00656822286
-0.0173515873 0.01106696987 -0.02267823029 0.8848692528 -0.4658335555 0.002346076579
-0.01858187962 0.008817703565 -0.0220869894 0.9190647868 -0.3939781343 0.01005720459
-0.01998863924 0.004564396051 -0.02278809562 0.9801682692 -0.1981502642 0.002576225956
-0.01681751537 -0.01182732201 -0.02293469906 0.8064012388 0.5913657872 -0.001883560598
-0.007845155557 -0.01903016154 -0.02723222669 -0.5431697231 -0.8396226362 0.0006932776999
-0.01100455252 0.01735976664 -0.02739980125 0.6173712184 -0.7866688132 -0.002226453703
-0.01894783306 -0.005112849057 -0.05223971558 0.9279568122 0.3334457318 0.1664635055
-0.02052907477 -0.0007313324213 -0.02277557479 0.9994331721 0.03349303468 0.003398682922
-0.01107648595 -0.01735577138 -0.0273651708 -0.6206296538 -0.7841012804 0.002003734379
-0.01479228528 0.01419975927 -0.02778297509 0.6850117523 -0.7276667411 -0.03549666382
-0.00760040013 0.01914414787 -0.03246219381 0.6369125369 -0.7688605079 -0.05653264286
-0.017315286 0.01112589645 -0.02764668846 0.8441450729 -0.5360711122 0.006845331136
-0.01856522338 0.008864094734 -0.02702489281 0.9167609682 -0.3984124154 0.02858101588
-0.01853732713 -0.008864937941 -0.0270386254 0.904922448 0.425499603 0.008090172299
-0.01678255653 -0.01189027135 -0.02791153908 0.8087551152 0.5875927734 -0.02549306405
-0.007592460314 -0.01914462789 -0.03246607018 0.5409913062 0.841006161 0.006086364552
-0.01087398688 0.01745771535 -0.03254339027 0.6071850119 -0.7943457865 -0.0184697833
-0.0205326803 -0.0007389966514 -0.032672806 0.9989277752 0.02808897128 0.03680094668
-0.02002631505 0.004419378757 -0.02794626331 0.9791050745 -0.2022252834 -0.02140532446
-0.02053086578 -0.0007351396084 -0.0276919952 0.998977808 0.02718748921 0.03611342626
-0.0198931143 -0.00515711485 -0.02801346376 0.9690489236 0.2460877277 -0.01962177403
-0.01369074011 -0.01452924824 -0.04751336861 -0.6629965071 -0.7346317055 -0.1440551594
-0.01386402178 0.01830082321 -0.04480922699 0.7220654029 -0.4840027887 -0.4943307136
0.004364612818 0.05450557518 -0.040516716 -0.108502106 0.0007054620605 -0.9940959689
0.004658244928 0.04886325455 -0.04057559586 -0.09227403541 0.01017886328 -0.9956816224
0.004880909443 0.04403501765 -0.04061945216 -0.08833789366 0.009652117794 -0.9960438008
0.005080118815 0.03921360906 -0.04065865072 -0.08521846081 0.004866315421 -0.9963504067
0.005291246414 0.03440194448 -0.04071077474 -0.09192815798 0.005076376201 -0.9957527023
0.005486283779 0.02959527334 -0.04076184464 -0.09614656513 0.003783863554 -0.9953599954
0.005651940823 0.02479148483 -0.04080522029 -0.1026094832 0.003739591139 -0.9947146874
-0.01817668104 0.05451668262 -0.07022126579 0.9357080929 0.003349262909 0.3527593335
0.005747171402 0.02159025002 -0.04083015442 -0.1052336707 0.004171651357 -0.9944387723
-0.006763536771 0.0203883063 -0.04098513667 -0.5466627869 0.7037094603 0.4538202209
-0.01471650558 0.01427772617 -0.03286504894 0.7090124289 -0.7038467985 -0.04360114574
-0.01891715399 0.01462719138 -0.06792803701 0.9242001441 0.08304034524 0.3727712365
-0.01400923014 -0.01505357234 -0.03266239134 -0.6832915658 -0.7300227636 0.01339405333
-0.0003685599715 0.05864641953 -0.04002530479 -0.05017364039 0.03524959797 0.9981182654
-0.0002497046242 0.05463769658 -0.04001373672 -0.03964856682 0.01209616616 0.9991404676
-0.0001084106813 0.0498412056 -0.04000577799 -0.03821727836 -0.02865991633 0.9988583728
-0.001507848952 0.04488384056 -0.04011442248 -0.03486915077 -0.03187099505 0.9988835678
-0.001150541629 0.03969942365 -0.04009710584 -0.03137520385 -0.003782592967 0.9995005195
-0.001072309544 0.02434895484 -0.04010364024 0.04856608317 0.04656171867 0.9977341038
-0.001027707934 0.02120155621 -0.04010258675 -0.05088504199 -0.1166248005 -0.9918716492
-0.0172785066 0.01118560187 -0.03268079376 0.8357479267 -0.549108026 -0.00240392973
-0.01674159431 -0.01195425447 -0.03295691299 0.811934776 0.5833639389 -0.02117626973
-0.01074070772 0.01755708504 -0.03775937525 0.676800704 -0.6890384 -0.2591657586
-0.0200240051 0.004442666749 -0.03293797032 0.9787070381 -0.2040218228 -0.02253063446
-0.0116826807 -0.01690272255 -0.03761418762 -0.6077107268 -0.7938241917 -0.02303964435
-0.006488688469 0.04434627406 -0.04111229388 0.3000872333 -0.006790490254 -0.9538875938
-0.00633403643 0.03495427132 -0.04105916659 -0.2996165642 -0.01482302682 0.9539445436
-0.01909213093 0.02963091523 -0.06816741616 0.9425988646 0.01084083046 0.3337511901
-0.006201624235 0.02404611651 -0.04101238569 -0.3195469232 0.4551822015 0.8310829846
-0.01305639553 0.01592332077 -0.03741656494 0.6682311921 -0.737863745 -0.09499561878
-0.01530997868 0.01371573181 -0.03743677368 0.7234492709 -0.6815217917 -0.1102234092
-0.01788147799 0.05891734823 -0.05038353984 0.8617914635 -0.08642258483 -0.4998465867
-0.01724122365 0.01124612172 -0.03778361638 0.8376370517 -0.5375804437 -0.09680617878
-0.01852492778 0.008958910306 -0.03710080846 0.8974357722 -0.4409186745 0.01413355083
-0.01849878661 -0.008959683895 -0.03711452802 0.9083870625 0.418107936 -0.004324174887
-0.01114183776 0.05877520879 -0.04338392448 0.5855446301 -0.08902637801 -0.8057367996
-0.01107092539 0.05485162184 -0.04333368852 0.5792939917 0.004592373894 -0.8151057486
-0.01563846412 0.0243666256 -0.04740336666 0.7641477441 -0.0525871626 -0.6428940935
-0.01105095272 0.04422180519 -0.04331232185 -0.5877022133 0.03260681726 0.8084200047
-0.01057665691 0.029680163 -0.04299814453 -0.5019112017 -0.02966245242 0.8644103681
-0.01083794234 0.03926461877 -0.04316656367 -0.5994070942 0.0177718641 0.800247022
-0.01078391827 0.03461702813 -0.04312695228 -0.5030853121 -0.03448641102 0.8635484099
-0.01082976359 0.02436407939 -0.0431421429 -0.6324857374 0.2400425176 0.7364383081
-0.01119002469 0.01916295624 -0.04274683677 0.6360059471 -0.5482691122 -0.54304458
-0.0129991436 0.01596840382 -0.04003237534 0.716232153 -0.6489390942 -0.2566896084
-0.01865837669 -0.00380441618 -0.05618355179 0.9133029669 0.3428010279 0.219920772
-0.02053440221 -0.000742906087 -0.03772108714 0.9995117756 0.0278888176 0.01408631869
-0.01993043232 -0.005023382396 -0.03783379793 0.9684267485 0.2491715501 0.007948039924
-0.01569287332 0.05856446584 -0.04743307877 0.7677173426 -0.04744145177 -0.6390300388
-0.01186241932 -0.01666454697 -0.04202677841 -0.5795415361 -0.8101235944 -0.08849502715
-0.01536676264 0.01424374933 -0.04257700119 0.7945518261 -0.56642254 -0.2187530613
-0.02044779825 0.05845391178 -0.06245180798 0.9949432612 -0.07171064651 0.07032417952
-0.02025637881 0.02430830733 -0.05719791381 0.989580284 -0.005588408355 -0.1438736643
-0.01689782608 -0.01150428772 -0.04269110966 0.807881974 0.585792219 0.06460798956
-0.01454034487 -0.01442501163 -0.04267710241 -0.7021996823 -0.7093425264 -0.06122733367
-0.004552320004 -0.01956768799 -0.04627176285 0.415850908 0.9037533971 0.1014781727
-0.01750575002 0.01129632505 -0.0427934583 0.8834091872 -0.4263606717 -0.1944345278
-0.01982249784 -0.005235278934 -0.04237593031 0.9665713811 0.2530052815 0.04157033455
-0.01062645864 -0.01695041037 -0.04655165672 -0.5616518908 -0.8194552276 -0.1141940607
-0.01546815761 0.05442195257 -0.04715488434 0.7659564808 -0.02050620056 -0.6425653004
-0.01540478913 0.04976245022 -0.04708022944 0.7641440907 0.01499403759 -0.6448712953
-0.01777414385 0.04960443624 -0.05019660441 0.8676354652 0.02882966203 -0.496364332
-0.01523888715 0.04450774689 -0.04688325017 0.7613840481 0.01489289066 -0.6481300279
-0.01493524647 0.005461593628 -0.07129882813 0.7835374103 0.2883747737 0.5503717985
-0.01539951236 0.03918005048 -0.04707406792 0.7594576782 -0.01084729261 -0.6504662722
-0.01571296933 0.03431626027 -0.04749677022 0.7561186002 -0.01278432285 -0.6543097306
-0.01567496325 0.02971849887 -0.04744978129 0.7579534583 0.02250554313 -0.6519202831
-0.0160711777 0.01912513645 -0.04765241183 0.8056562481 -0.2814495971 -0.5212524669
-0.01648860836 -0.0111990993 -0.04770526409 0.7929104773 0.5926901804 0.1414613909
-0.007076782703 -0.01795248985 -0.05027486801 -0.4612413479 -0.8654107026 -0.1957568258
-0.0190922006 0.009792481846 -0.04712258911 0.943402919 -0.2843929823 -0.1706211123
-0.02031732383 0.004680643375 -0.04789454181 0.9861396656 -0.1500290334 -0.07085089372
-0.020038087 0.009814288881 -0.0518500256 0.9770126331 -0.1310627509 -0.1681334888
-0.01767130661 0.03959201431 -0.05003544521 0.8626426599 0.01720476006 -0.5055211543
-0.01838522085 0.01335620117 -0.04870413589 0.928724797 -0.258403583 -0.2658906536
-0.02044829011 -0.0005630905256 -0.04786493063 0.9907677769 0.1253325541 0.05168136156
-0.01782939339 0.05425100581 -0.05028373464 0.8705947237 -0.03398049639 -0.4908259904
-0.01772368685 0.04497445424 -0.05011753209 0.8678247901 0.0262262799 -0.4961777061
-0.01614423954 -0.01030486453 -0.05208932447 0.7779343521 0.5838301424 0.2322940134
-0.01915482352 0.05888769786 -0.05323973635 0.940428396 -0.06427535821 -0.3338609145
-0.01911595281 0.05422094684 -0.05312480079 0.9364704996 -0.02428230546 -0.3499048056
-0.01893099022 0.02428103193 -0.05261660926 0.904528947 -0.02204656103 -0.4258419111
-0.01896849187 0.01895401912 -0.05253414239 0.8970464185 -0.1208831013 -0.4250823437
-0.01938713604 0.01437916586 -0.05225335693 0.9487251495 -0.1162793317 -0.2939382719
-0.01024421883 -0.01401930666 -0.05660288811 -0.5815358939 -0.7464388579 -0.3234888491
-0.02052839923 0.004525210977 -0.05242889166 0.9999344436 -0.001689353896 0.01132495363
-0.01481263371 -0.009698171234 -0.0570210022 0.7360130627 0.6008024474 0.3119634447
-0.01695310092 0.058772892 -0.0720957222 0.8874661409 -0.01314070896 0.4606855441
-0.01251120663 -0.01162618351 -0.0580069046 0.6739226413 0.6437955419 0.362430095
-0.02033734216 0.05430337779 -0.0578209148 0.9894037577 -0.04812862532 -0.1369811657
-0.02032311143 0.04964472156 -0.05769203652 0.9881498041 0.02882704863 -0.1507612882
-0.0203311409 0.04470099602 -0.05773533859 0.9891603452 0.02847545917 -0.1440519339
-0.02027838919 0.03424099265 -0.05735069784 0.9844659736 -0.03490396807 -0.1720710897
-0.02038797463 0.01441002284 -0.05701000553 0.9937425632 -0.01470410369 -0.1107226602
-0.02052704896 0.00985158062 -0.05689630424 0.9995249297 0.01430175163 -0.02730155445
-0.02031169923 0.004548097293 -0.05700351206 0.9882355583 0.1049652803 0.1112329596
-0.009942367554 -0.01019594065 -0.06317854818 -0.6075861516 -0.6396310078 -0.4708622328
-0.013805583 -0.008519899368 -0.06087583923 0.7121889334 0.5681572959 0.4122914143
-0.01745374527 -0.001074582183 -0.06269195786 0.8418823025 0.3620951849 0.4001515535
-0.0153253952 -0.005102486849 -0.06251969147 0.7514276384 0.5029682595 0.4270590523
-0.02046446228 0.05453395398 -0.06230858994 0.9959063996 0.02946452513 0.08545340778
-0.02039844322 0.03904708142 -0.06282620621 0.9936159747 -0.01509216669 0.1118012579
-0.02041199176 0.03441647127 -0.06271332762 0.9937424587 -0.001491746141 0.111685722
-0.02043272336 0.02442910083 -0.06251994101 0.9860077901 0.004701107834 0.1666329424
-0.02034215037 0.01449170102 -0.06245572705 0.9841708301 0.05564021941 0.1682615319
-0.02002120484 0.009922104836 -0.06261812931 0.9711260996 0.1017526581 0.2157788111
-0.00997943306 -0.007082402229 -0.06686251831 -0.6296911722 -0.5533891276 -0.5452059254
-0.01544894568 -0.0007758565148 -0.06661385854 0.7714357739 0.4086741708 0.4877215075
-0.01346891117 -0.003897696495 -0.06659379578 0.7197162584 0.4797053689 0.501887703
-0.01962651205 0.05883322906 -0.06666864777 0.9677228573 -0.043038868 0.2483145731
-0.01968302949 0.05488029099 -0.06649247996 0.9632223976 -0.01979353176 0.267975426
-0.01939403047 0.04937931188 -0.06721589067 0.954680374 0.02844901414 0.2962702097
-0.01923997331 0.04461683989 -0.0676082716 0.9580416162 -0.01875145443 0.2860151124
-0.01874896049 0.006141453505 -0.06520493698 0.9004938214 0.2164973604 0.377146882
-0.01694893789 0.004121305744 -0.06754748662 0.8258384057 0.3013997552 0.4766016316
-0.01212400723 -0.00235304904 -0.06928569794 0.7073609577 0.4442765005 0.5497807441
-0.01902505684 0.03940779813 -0.06829585902 0.9364560506 -0.02261289344 0.3500553132
-0.01927076612 0.02430181503 -0.06769697353 0.9451444853 -0.005579672 0.326604913
-0.0187197024 0.01000108496 -0.06708630625 0.8799868088 0.1762351094 0.4410945506
-0.01325122547 0.0007829546928 -0.07046375275 0.7422172761 0.3966981006 0.5401334391
-0.01762731361 0.01083028984 -0.06963278961 0.8789304191 0.1690225138 0.4459963096
-0.01533060322 0.00920863409 -0.07220191803 0.7751865486 0.2025275789 0.5983881638
-0.01303346062 0.003925005913 -0.07249156189 0.7891739321 0.3230789869 0.5223260219
-0.01614428647 0.05418383535 -0.07338267008 0.8899805739 -0.001652431231 0.4559954469
-0.01634758441 0.04936872101 -0.07308915456 0.8883189439 0.001559109202 0.4592243712
-0.01652645429 0.04458297094 -0.07282680003 0.8830945661 -0.004212271195 0.4691761333
-0.01668677584 0.03982268524 -0.07259165192 0.8198179619 0.03547542506 0.5715242808
-0.01684295527 0.03508345668 -0.07237435659 0.8013792563 0.03010410082 0.5973985526
-0.01715330569 0.02409807078 -0.07196014659 0.8593843296 -0.01680323985 0.5110540336
-0.01717672857 0.01942045975 -0.07187708791 0.8546574715 0.02316038487 0.5186754313
-0.01661001333 0.01477893194 -0.07218404134 0.7993446321 0.1046730136 0.5916854902
-0.01193904877 0.03331520081 -0.07736858368 0.7202943827 -0.009159061686 0.6936080405
-0.0126883049 0.02925855382 -0.07680341848 0.7294505765 -0.01092973945 0.6839461947
-0.01342212868 0.01969526609 -0.07617480469 0.7338092167 0.02115185264 0.6790262386
-0.01220994186 0.0166032753 -0.07691400909 0.7253508417 0.08852252175 0.6826638408
