# .PCD v0.7 - Point Cloud Data file format
VERSION 0.7
FIELDS x y z normal_x normal_y normal_z
SIZE 4 4 4 4 4 4
TYPE F F F F F F
COUNT 1 1 1 1 1 1
WIDTH 559
HEIGHT 1
VIEWPOINT 0 0 0 1 0 0 0
POINTS 559
DATA ascii
-0.01372489643 0.01528873444 -0.0002351154685 0.6106073198 -0.6811358657 -0.4039958336
-0.01968689728 0.005902191162 -0.02894386816 0.9564454026 -0.2917429248 0.009912498371
-0.02048112774 0.01830386639 -0.06240484619 0.9933250508 0.01124176304 0.1147996787
0.002140152335 -0.01824944496 0 -0.107389523 0.7784624463 0.6184365044
0.01095069695 -0.0163423214 0 -0.4241767196 0.6468156766 0.633800908
0.01094962311 0.01556313467 0 0.4526888161 0.6543159535 -0.6057585895
-0.005364324093 0.03895367813 -0.0407299099 -0.2445288334 0.005221658955 0.9696279616
0.01470121193 0.008659020424 -0.002222356081 0.8766116171 0.4422695358 -0.1896041415
0.01166136503 0.0124724946 -0.0002632403374 0.7062540352 0.6362677167 -0.3104329726
-0.01857513428 0.03715913391 -0.06945132828 0.9123524779 0.01608649624 0.4090894532
0.0158388381 0.006317314625 -0.002644120544 0.9302233551 0.3656432915 -0.03145620747
0.01233342457 0.01177574825 -0.005530427456 0.7114512402 0.7027354386 0.000190202735
0.008539092064 0.01476294518 -0.004911111116 0.6418091638 0.7667062609 0.01557262926
-0.0197313056 0.005736572504 -0.002473781139 0.9578088367 -0.2626479704 -0.116697369
-0.005161908627 0.02488372517 -0.04067690849 -0.2259230825 -0.01026916514 0.9740910148
0.005474295616 0.01614157867 -0.002082467496 0.3587812735 0.7853867557 -0.5044240694
-0.006275502682 0.01783719921 0 0.225837003 -0.5303366572 -0.8171540113
0.01674274874 0.003166843414 -0.002979266226 0.9265806215 0.3526544185 -0.1307027655
0.006493460178 -0.01615131569 0 -0.3033481538 0.6733423539 0.6742328767
-0.01896315384 0.007928589582 -0.00513356185 0.9203843794 -0.3896106854 -0.03310752092
0.01703846264 0 -0.003088912845 0.9645923223 -0.08252027475 -0.2505036049
0.01072164011 0.01325014639 -0.002409911931 -0.6131065979 -0.7599710786 0.2157411861
-0.01148188353 -0.01705382347 -0.01151658201 -0.5715104509 -0.820593196 0.001615931932
-0.01862648201 -0.008696415583 -0.03591407649 0.8987708194 0.4383414516 -0.008233224934
0.008595822334 0.0147287035 -0.002439373016 0.545000461 0.7625779556 -0.3484958523
0.01674228907 -0.00316683805 -0.002979095697 0.9287529909 -0.3476498258 -0.1286758739
-0.01643081856 0.01234807968 -0.005414880753 0.8028723678 -0.5957731258 -0.02122130146
0.006493460178 0.01615131569 0 0.3008858095 0.7962944846 -0.524769305
-0.001432315588 -0.02054926682 -0.01004967022 0.05502919533 0.9982654505 -0.02092553453
0.004537735224 0.05127985191 -0.04055157661 0.114931163 -0.001035860194 0.9933729183
0.005474295616 -0.01614157867 -0.002082467496 -0.3274723803 0.7675334717 0.5510482827
-0.01139830971 -0.01711636066 -0.01480008841 -0.5672149082 -0.8234088971 0.01627992889
-0.008555359125 0.05120095444 -0.04192806816 -0.4031011338 0.005290619295 0.9151401451
0.01509971476 -0.007879957795 -0.002370101303 0.9091816348 -0.4065419987 -0.09006863079
-0.01162133026 0.03997669411 -0.04364362812 -0.58496336 -0.01226806971 0.8109669303
0.01066776228 0.01329208183 -0.005731028318 0.7690718351 0.627184474 0.1231590354
0.01237611294 -0.01171882534 -0.0005264806747 0.6777834515 -0.6087180867 -0.4123977253
-0.0185269928 0.0154324913 -0.0691062355 0.9046136301 0.0707681176 0.4203166114
0.006496356487 0.01923352432 0 0.3248491598 0.6616205852 -0.6758189288
-0.01163511848 -0.01615290642 -0.04776703262 -0.5706332953 -0.7965487679 -0.1997190594
-0.02039037704 -2.215206623e-07 -0.0507407093 0.9870083362 0.1430486628 0.07315479678
0.01019930363 0.01789061737 -0.001381078601 0.5194144763 0.6428762217 -0.5629553849
0.01235481453 0.01174722624 -0.003023129344 -0.6697729172 -0.7300371024 0.135831029
-0.008176743507 -0.01887995911 -0.02036435699 0.4740418331 0.8805016488 0.001089495013
0.01001595243 -0.01374311415 -0.002420829972 0.5756304577 -0.7875568352 -0.2200086533
-0.01966546186 -0.005994013468 -0.00509648641 0.9421726645 0.3321352327 -0.04468621095
0.008633486748 -0.01470596981 -0.0007983102798 -0.5612695184 0.6540736978 0.5071135234
-0.01603988457 -0.01284234142 -0.04186088562 0.7819820271 0.6224106552 0.03330293609
0.01019900417 -0.0178906002 -0.00138096714 -0.3568300119 0.7231982764 0.5913176774
0.004037927628 0.06015786743 -0.04045030594 0.0995399009 -0.004075653451 0.9950252244
-0.02050380135 0.003000650823 -0.04718087482 0.9941600478 -0.1038616033 -0.02930130999
-0.01527370834 0.01379635715 -0.001964212 -0.6489800038 0.6945056434 0.3106233505
0.001595721006 0.02053529739 -0.001421030045 0.1598205754 0.9528265699 0.2580288963
-0.00828763175 0.03402178192 -0.04179489708 -0.3870669528 -0.01792368736 0.9218773864
0.01674335861 0.003174718142 -0.005518211126 0.9736780201 0.2274161895 0.01526400916
0.006496356487 -0.01923352432 0 0.288955878 -0.6512586667 -0.7016884277
0.002140152335 0.01824944496 0 0.1074772162 0.7785226379 -0.6183454942
-0.01895845032 0.007948792458 -0.007489032269 0.9241420337 -0.3818613822 0.01197440698
-0.01611367798 0.05747748566 -0.04776672745 0.7619245427 -0.01411453516 -0.6475119853
-0.007601672649 0.01914401627 -0.03245877075 0.4575872129 -0.8891647229 -0.0001953218546
0.01367311001 0.01023693848 -0.005200540066 0.7897449417 0.5984195127 -0.1348963081
-0.01325122547 0.0007829546928 -0.07046375275 0.6920002626 0.3816610689 0.6127564484
0.01704169655 0 -0.005630956173 0.9994956551 -0.03171885091 0.001532938924
-0.01033935547 -0.01542998314 0 0.4853212305 0.6731070946 -0.5580234246
-0.01971910715 -0.005870909572 -0.02398603249 0.9678158608 0.2510434805 -0.01759632153
0.01674249935 -0.003174708128 -0.0055178864 0.9767809314 -0.2138581024 0.012795474
-0.01972357607 -0.005830521822 -0.01749129438 0.9695336106 0.2449582793 -0.0001389576831
-0.0194672184 0.009034840584 -0.04778057766 0.9454919255 -0.2738020764 -0.1762879515
-0.01303904438 0.0159382143 -0.0382848587 0.7033186113 -0.7042581234 -0.09676480015
-0.0112552433 -0.01688478851 -0.04444888496 -0.5240129164 -0.846920896 -0.09019678133
0.01617506218 -0.005547422886 -0.005303442478 0.9446619955 -0.3277886645 -0.01297326504
0.01508961034 -0.007905868769 -0.005739239931 0.9000432297 -0.4356829443 -0.01012702568
-0.01102854443 0.01734340954 -0.02654657364 0.5526228588 -0.8334303907 0.001326569519
0.01298283482 -0.01103743815 -0.008313027859 0.7527622765 -0.6573665488 -0.03490237331
0.01322654819 -0.01074987507 -0.005310502529 0.7613347629 -0.6381753936 -0.1144619841
0.005183370829 0.03680642509 -0.04068252945 0.1337578313 -0.003451429055 0.9910080374
-0.00211570406 0.01804096985 -7.105427358e-18 0.1133792039 -0.8807606333 -0.459788933
-0.006208533287 -0.01943169594 -0.04361922455 -0.3944180864 -0.9143973618 -0.09116928171
0.01657497787 0.003976851583 -0.008006073475 0.9672727822 0.2537209812 -0.003004749682
-0.0152387991 0.01384432173 -0.005125821829 0.7271064637 -0.6856219149 -0.03519630973
-0.01971857071 0.00579094696 -0.01110494208 0.9645392 -0.2639267506 0.002608061297
-0.01054603195 -0.01762997055 -0.04133045578 -0.5169308027 -0.8546463459 -0.04860214686
-0.01954171562 0.03037565804 -0.05412985039 0.9550803212 -0.0004011191074 -0.2963467885
-0.01922146988 -0.005287683487 -0.05053533936 0.9308359492 0.3350868095 0.1458124338
0.01704494762 0 -0.008187060595 0.9996024454 -0.02584024709 -0.01127975037
-0.01852688503 -0.008888401985 -0.02953131914 0.8974649553 0.4410710364 0.00360484386
-0.009788943291 -0.01773534012 -0.04524227905 -0.4776249208 -0.8702274456 -0.1207419894
-0.0187554512 0.02470141315 -0.06908494568 0.9172304454 -0.002451633209 0.3983494692
0.01617006588 -0.005561177492 -0.007850154161 0.9621734773 -0.2722344214 -0.0105175744
-0.0138070507 0.05144325256 -0.0453360405 -0.7027635786 -0.01163519282 0.7113283173
0.009608630657 -0.01402772021 -0.005323076606 0.7059246194 -0.7077017797 -0.02878580672
-0.01802788591 0.01820077801 -0.05041003323 0.8697708955 -0.1515366597 -0.4696117867
-0.02034819555 0.002864943266 -0.002992859721 0.9785753563 -0.1388611976 -0.1520126306
-0.02014702415 0.03992693138 -0.06483243942 0.9788535488 0.008535071138 0.2043841545
-0.00211570406 -0.01804096985 -7.105427358e-18 -0.1134739486 -0.8793295656 0.462496679
0.001598321199 -0.02053546143 -0.001422025442 -0.1596881649 0.9532812255 -0.2564265883
-0.003312155247 0.02027600765 -0.001957235217 -0.2098899654 0.9039226726 0.3726526592
0.005380700111 0.01617728806 -0.004519686699 0.431835278 0.8494904607 -0.3031241494
-0.008829890251 0.01855589294 -0.005383093357 -0.5321094271 0.8466624218 -0.004722403645
-0.01685703135 -0.01175489116 -0.01720647383 0.8102113922 0.5858343747 0.01885697219
0.01231191874 0.01180442572 -0.008051374435 0.7161789871 0.6975588592 -0.02234493959
-0.01991886044 0.01838898706 -0.06549725342 0.9740599963 0.01789482089 0.2255812471
0.0136537509 0.01027045059 -0.008574681282 0.8067984777 0.5907396223 -0.0101447032
0.01467057896 0.008715915203 -0.008971189976 0.8791266581 0.476585766 0.001525339464
0.01494356855 -0.008191296736 -0.008793416659 0.8897537157 -0.4564325634 -0.002764122889
-0.01633327866 0.01439246464 -0.04518400955 0.8069333156 -0.4349875393 -0.3995553339
-0.02056498432 -1.196563244e-08 -0.01709820557 0.9998126836 -0.0005308725439 0.01934724405
0.005380700111 -0.01617728806 -0.004519686699 -0.4475571354 0.8450757383 0.2924715492
-0.01396930838 -0.015094347 -0.03522854233 -0.6871940623 -0.7264726258 -0.001358181665
-0.02055214818 0.04250343068 -0.05977849706 0.9999916464 -0.003293188827 -0.002421158294
-0.006275502682 -0.01783719921 0 0.2260833139 0.5293207339 -0.8177443952
-0.003334835887 -0.02027457142 -0.00194835639 0.2101829972 0.9025816802 -0.3757251897
-0.02049098969 0.04313352966 -0.06225974274 0.9952297522 0.0136742012 0.09659584122
-0.009032930374 0.01845105743 -0.0005149664879 0.4251110333 -0.8122828877 -0.3993458647
-0.01350887012 0.02751582241 -0.04509245872 -0.6947097947 0.00103261893 0.7192893958
0.009991306305 0.01799879265 -0.007987769604 0.8604148127 0.2302403166 0.4546160431
-0.01033935547 0.01542998314 0 -0.4542755274 0.7340635219 0.5047618161
-0.007592597008 -0.01914456558 -0.03246323776 -0.4519282585 -0.8920542193 -0.0003450075861
-0.009779295921 0.01398363113 -0.0002192658633 -0.4750736142 0.6185179128 0.6258918857
0.01062713814 0.0133237009 -0.008235149384 0.8182581482 0.5556131362 0.1474708305
0.01582436895 0.006369734883 -0.01113098025 0.9297914181 0.3677515297 -0.01570768289
-0.01135834932 0.01711855221 -0.01481773996 0.5647674082 -0.82515696 -0.01240023993
0.01657270622 0.003990091085 -0.01142635632 0.9631869979 0.266921676 -0.03199415524
-0.01549453211 0.05207982254 -0.04708565426 0.7519212115 0.02183756886 -0.6588911991
-0.0194598341 0.009192478657 -0.06478074646 0.9454155996 0.1413182034 0.2936298851
0.01691371059 0.00239639318 -0.01156097984 0.99326144 0.115894869 0.0003020127985
0.00495031023 0.04242685699 -0.04063297272 -0.1298636595 0.00271130144 -0.9915281533
-0.005240781784 0.03112736893 -0.04069756126 -0.210530414 -0.008135992344 0.9775534514
0.01704930687 0 -0.01161449432 0.9990586596 -0.02705647937 -0.03390783853
0.01691371059 -0.00239639318 -0.01156097984 0.99007889 -0.1373518318 -0.0296355515
0.0165691061 -0.003990048766 -0.011424932 0.9699997454 -0.2423456191 -0.01921184046
0.01616293812 -0.005579612732 -0.01126464081 0.9628810383 -0.2670132958 -0.03954751615
-0.01523693347 0.02743602037 -0.04678384209 0.7356279802 -0.001447732862 -0.677384218
0.01521019618 -0.00768571806 -0.01117304802 0.9092816719 -0.4153174691 -0.02680001862
0.01064209175 -0.01332429695 -0.008241024017 0.8540045558 -0.4697907504 0.2235461237
-0.008675325632 0.05749583054 -0.04199257374 0.3973279286 -0.005706479492 -0.9176589526
-0.009779255867 -0.01398363304 -0.0002192816436 0.4853212305 0.6731070946 -0.5580234246
-0.003133517027 0.04866654968 -0.04024167633 -0.1865341943 0.005759343721 0.9824315876
-0.01520502901 0.01389258337 -0.008310600281 0.7301610473 -0.6832747797 -0.0006483931328
0.009992507935 -0.0179988575 -0.007988241673 0.944783529 -0.1146887481 0.3069699895
-0.00903278923 -0.01845106506 -0.000515021801 -0.5696183525 -0.7005501976 0.4298422422
-0.02054968596 -2.041459084e-09 -0.002908688068 0.9713659904 -0.0001881740245 -0.2375880412
-0.002550568581 0.02039225101 -0.005499937773 0.2359002203 -0.9469756149 -0.2181473606
-0.008931676865 0.01850333786 -0.002942653656 0.4594462119 -0.8324758245 -0.3096662397
-0.01541666961 0.04588267326 -0.04699142933 0.7443656348 0.001508313521 -0.6677705644
-0.01081026506 0.01750704479 -0.03513915634 0.5364089932 -0.8439074593 0.009251607053
-0.02048218727 0.03672013092 -0.06271652412 0.9905308116 -0.003290956988 0.1372511601
-0.01172374725 0.01686942863 -0.001823112786 -0.5223808776 0.7958908942 0.3060651945
-0.01430779409 0.01016937304 0 0.468929213 -0.4020977656 -0.786398614
0.01465898895 0.008737440109 -0.01152450466 0.8751745939 0.4831543567 -0.02512564114
-0.01430687714 -0.009442565918 0 0.5799717601 0.38749158 -0.7165773042
-0.01430975914 -0.01162318325 0 0.4122936979 0.3819018892 -0.8271425836
0.000529982388 0.02444833565 -0.04002824783 -0.03752601118 0.01198026787 -0.9992238346
-0.01852917671 0.03950832367 -0.06953898621 0.9074824696 0.00639269393 0.4200413085
-0.01172865915 -0.01686916256 -0.001821140647 -0.5075653187 -0.7931223636 0.3366516947
-0.01154249907 0.01699300194 -0.008268841743 0.5880146968 -0.8088498599 0.0007876839151
-0.01149834085 0.02762028122 -0.04353971672 -0.578959394 0.001362371889 0.8153552379
-0.01992016729 0.01235168044 -0.0531103363 0.9662041867 -0.108361483 -0.2338958286
-0.008930871964 -0.01850338459 -0.002942976356 -0.4839089693 -0.8191889704 0.3078336242
-0.01415830159 -0.01490339231 -0.02338129807 -0.6977188141 -0.7161864823 -0.01629045776
-0.02047212315 0.03980980682 -0.06279532623 0.9897527969 -0.0002134042456 0.1427913007
-0.002614435077 -0.02038819504 -0.005474336386 -0.2010282021 -0.9671858754 0.1553677712
-0.008250562072 0.03091480398 -0.04177653885 -0.3843290256 -0.01879104384 0.9230049278
-0.01368644094 0.01532907534 -0.002609370351 -0.6289996177 0.689129018 0.3598064444
-0.02024833043 -0.003242622773 -0.0441463356 0.9761687033 0.2134217508 0.03931690463
-0.01647887039 0.01228413963 -0.000693385303 0.7941607077 -0.5657146101 -0.2219814188
-0.01261205673 -0.01604504585 -0.04371746826 -0.6215204312 -0.7780558285 -0.09133171057
-0.01337569571 0.01890859795 -0.07619396591 0.7294505201 0.04693072059 0.682421751
-0.0178393383 0.01007091951 -0.0001436423063 0.8256400827 -0.4955630629 -0.2696955775
-0.0164549036 0.01231603098 -0.003048326135 0.8015935014 -0.5843848631 -0.1262623867
-0.0181911424 0.006465030511 0 0.8384161945 -0.3749003885 -0.395610899
-0.01698164463 -0.01154324245 -0.0004902546108 0.8043130202 0.4722589499 -0.3606273005
-0.01818839741 0.002873051286 0 0.7688813399 -0.06414466194 -0.6361658177
-0.01896938705 0.007901817799 -0.00201214546 0.8856162795 -0.3859557933 -0.2583058866
-0.01125039864 -0.01722704315 -0.02061130905 -0.5536796722 -0.8327255658 0.002636798668
-0.02049640179 0.03056040192 -0.06258028984 0.9936219047 -0.0003744248719 0.1127624508
-0.01431174541 0.01475567794 -0.01431413174 0.6961195627 -0.7175873318 0.02204485543
-0.01818773842 0 0 0.7794343958 0.0200779324 -0.6261620392
-0.01818839741 -0.002873051286 0 0.7619714596 0.02938669955 -0.6469435189
-0.01973352385 -0.005736535788 -0.002472857714 0.9610371566 0.2325144823 -0.1494810998
-0.02043498898 0.002993369699 -0.04461770058 0.9902874744 -0.1383849307 -0.01342866639
-0.0205679245 -6.854534149e-09 -0.02357033491 0.9999763622 -0.0004569943219 0.006860476869
-0.01819037342 -0.005746507883 0 0.7629699703 0.2201865097 -0.6077785167
-0.0195672617 0.03649276924 -0.05422548103 0.956987653 0.006427402483 -0.2900574434
-0.01443580818 -0.01461381936 -0.005460701585 0.7119391176 0.7022026639 -0.007356060062
-0.01434824038 0.01471637774 -0.01187837553 0.6905741139 -0.723259463 -0.001772685266
-0.002859593272 0.03603231812 -0.04020295906 -0.1240832498 -0.003311154894 0.9922662865
-0.01165934658 0.04307856369 -0.04367553139 -0.5851835692 -0.01767658529 0.8107081649
-0.01819366837 -0.0086207757 0 0.8033014931 0.3851530292 -0.4542728864
-0.01447995877 -0.01456272769 -0.002286838025 -0.6255503153 -0.6475729519 0.4351276537
-0.01358285999 0.0154377327 -0.009004387856 0.6539863853 -0.756433513 -0.01049515587
-0.001988784671 0.02047933578 -0.008176955223 0 0 1
-0.01163347483 0.01693097496 -0.005033479691 0.5709323533 -0.8093907734 -0.1375602556
-0.007197636604 -0.01928606892 -0.03871611977 0.4241486147 0.9052712835 0.02412168796
-0.01177139282 0.05085970783 -0.04376356697 -0.5842310957 0.01283748226 0.8114858137
-0.01789607143 0.01009456158 -0.002454529613 0.8480574568 -0.5030781198 -0.1664660784
-0.01992768097 0.005007826805 -0.0008427894115 0.9487791771 -0.1908953213 -0.2517479878
-0.01164703798 -0.01693023872 -0.005027904749 -0.5733353478 -0.8022339177 0.1664551598
-0.01305062675 -0.01593762016 -0.03827883911 -0.6763138677 -0.7363461317 -0.01984758418
-0.0203477602 0.002857737064 -0.0006707385778 0.9477227173 -0.1492691144 -0.2820290458
-0.0197022686 -0.005943446875 -0.03562738609 0.9548579199 0.2969421897 -0.008466918076
-0.0205471735 -4.172325134e-10 -0.0005890495181 0.9342296717 -0.0001222403555 -0.3566719859
-0.02034947205 -0.002864924133 -0.002992328286 0.9792130333 0.1239804696 -0.1605324846
-0.02034807491 -0.002857732415 -0.000670609951 0.9446892317 0.154597686 -0.289243515
-0.01992887688 -0.005007806778 -0.0008423009515 0.9523349393 0.1852552373 -0.2423606001
-0.01696310568 -0.01157301068 -0.002838941872 0.7943076843 0.5699183699 -0.2104004618
-0.008828418732 -0.01855597878 -0.005383694172 0.4995729447 0.8662713675 0.0008892471191
-0.002068939924 -0.02047423172 -0.008144246101 0.05502919533 0.9982654505 -0.02092553453
-0.008727424145 0.01860879898 -0.007839850664 -0.5297695506 0.8481412011 -0.0008521989353
-0.01675990534 0.0120587945 -0.04147098541 0.8244709094 -0.5576088645 -0.09654052942
-0.01526119709 0.03049807501 -0.04681078053 0.7367659075 -0.001514494237 -0.6761462148
-0.01363484669 0.01538319778 -0.005794733763 0.6528483265 -0.757486729 0.001708219819
-0.01347069931 0.0213850069 -0.04504858971 0.7162654225 -0.07757605831 -0.6935025592
-0.02054202938 0.01215950012 -0.05959488869 0.9982765268 0.01227111676 0.05738811486
-0.02055172825 0.03047006607 -0.05982115555 0.9991247107 -0.001693285662 -0.0417964753
-0.008725278854 -0.01860892487 -0.007840743303 0.4954146577 0.8686566104 -0.0001012216711
-0.01315377045 0.02604208565 -0.07644446564 -0.562700202 -0.01083809358 -0.8265899941
-0.01017826653 -0.01018772316 -0.06303772354 0.5951528321 0.6370516593 0.4898553765
-0.01788107443 0.01012906218 -0.00559120214 0.872499083 -0.4885460919 0.008250231654
-0.01966297658 0.005994054159 -0.005097538948 0.9467588814 -0.3202740513 -0.03274374031
-0.01863059521 -0.008659963965 -0.005274229765 0.9047363345 0.4255169582 -0.01968459351
-0.01517506886 0.01392921257 -0.01071636963 0.747855457 -0.6637272111 0.01335682195
-0.01710986265 -0.01136086019 -0.005654106776 0.8392201583 0.5437723204 -0.00460319222
-0.0155507377 0.01850944646 -0.04681027985 0.7950183798 -0.1730671435 -0.581372118
-0.0195567503 0.01819194698 -0.05396092796 0.9580568614 -0.07811227281 -0.2757272622
-0.01760455577 -0.008850934982 -0.0502931455 0.850368927 0.4991926842 0.1663711273
-0.01156478643 -0.01699178696 -0.008259456158 -0.5750712147 -0.8180961293 -0.003438200838
-0.008589870453 0.01867982197 -0.01113788176 -0.4941843052 0.8693570523 -0.0004337784958
-0.01640658283 0.01238033009 -0.007796300888 0.8155216986 -0.5786837439 0.007034463321
-0.008451166153 0.01875143909 -0.01446347237 -0.4890944047 0.8722308349 -0.0001841998883
-0.0203487792 0.002874610245 -0.006107851982 0.9890026206 -0.1478161012 0.004921038259
-0.02055305624 -4.217028618e-09 -0.006020301819 0.9999877078 -0.0003110284038 0.004948480487
-0.01268908978 0.01833775425 -0.0436926899 0.6637010844 -0.520996371 -0.5367156156
-0.02035134506 -0.002874571323 -0.006106758118 0.9944485381 0.1052163888 0.001271474989
-0.0169203043 -0.01164242482 -0.008367476463 0.8167886044 0.576927807 -0.003268205459
-0.01438799691 -0.01466544795 -0.008660031199 0.7092322052 0.7047519137 -0.01773187012
-0.01569842339 -0.006927749634 -0.05974527359 0.7735578857 0.5179925672 0.3650916293
-0.008586821556 -0.01868000317 -0.01113918114 0.4903623356 0.871518662 -4.123523718e-05
-0.0195377388 0.03774895859 -0.06700268555 0.9576336984 0.004685314072 0.2879509463
-0.0194970506 0.01183508205 -0.05099436442 0.953515013 -0.1992958037 -0.2260316406
-0.01392849954 -0.0151150624 -0.02046620178 -0.6985910716 -0.7155211272 -0.0001767356591
-0.01870437908 -0.003045243979 -0.05705243492 0.8950806943 0.3660693855 0.2546050977
-0.01145079803 0.01705552197 -0.01152999115 0.5816005813 -0.8134545755 -0.005693637895
-0.01870673466 -0.00680418849 -0.04995445251 0.9105766389 0.3922966754 0.1302056185
-0.01798265171 0.03345174885 -0.05063337421 0.8647534487 -0.001369665158 -0.5021947799
-0.01808383179 0.009723522091 -0.008814498043 0.8762206486 -0.4817444221 0.01263672366
-0.01369074011 -0.01452924824 -0.04751336861 -0.6519386945 -0.7457849116 -0.1370430744
-0.01972407484 0.005771247149 -0.007945262194 0.9614022505 -0.2745310877 0.01839550472
-0.01972950697 -0.005771157503 -0.007942918897 0.9694733887 0.2446348662 0.01658706869
-0.01861806297 -0.00868961668 -0.008425102949 0.9016765137 0.4324018285 0.002850154967
-0.01061332703 -0.01623484039 -0.05010783005 -0.5478565701 -0.8083494049 -0.2154632642
-0.01802126694 0.06010860825 -0.07052547455 0.8787873714 -0.03094956061 0.4762088622
-0.01957982731 0.03955998611 -0.0542810955 0.9578155705 -0.002383733958 -0.2873737128
-0.01672196261 0.01193289439 -0.01163684368 0.804667952 -0.5937226345 -0.001708856333
-0.02038464038 0.002642638365 -0.008967959404 0.9906103309 -0.1366087011 -0.005406943275
-0.008634174188 0.03684771729 -0.04194505437 -0.4539640884 -0.002394727683 0.8910167629
-0.01187914085 0.05711521912 -0.04384234333 0.6069828436 0.000381778941 -0.7947148431
-0.008092095057 0.04209766515 -0.04171773402 -0.397021105 0.006439706824 0.9177868883
-0.017119174 0.01515354419 -0.04737812996 0.8501625536 -0.30448282 -0.4295507476
-0.02055645227 -6.437301636e-09 -0.009155065298 0.9997217178 -0.0003493414464 -0.02358738753
9.921725467e-05 0.04267183113 -0.04000528717 -0.02437418167 0.008608458358 -0.999665841
0.0005686249733 0.0220784893 -0.04003030586 -0.04135152208 0.08870823363 -0.9951989253
-0.02038392512 -0.002642629544 -0.008968279839 0.994565909 0.1039715663 -0.005344724003
-0.01689762926 -0.01168279839 -0.01155926657 0.8155554344 0.5786788093 -0.0004112379136
-0.01967605019 0.01251448599 -0.06528350067 0.95968268 0.08457697182 0.2680594888
-0.0143316679 0.01474346638 -0.02968569056 0.686897936 -0.7264710168 -0.02027528483
-0.02035151005 -0.00294696486 -0.02943426704 0.9951056458 0.09881668829 0.0001257064274
-0.01528804731 0.0335644455 -0.04684059048 0.7380804397 -0.001471837533 -0.6747111221
-0.008447205544 -0.01875167465 -0.01446520185 0.4833075282 0.8754505846 0.0003272701574
-0.01837725792 0.009161876583 -0.01154178905 0.8827591314 -0.469814862 -0.003211132741
-0.02031980387 0.00313089633 -0.01110087776 0.9902166907 -0.1395097155 0.002818656491
-0.02032348887 -0.003130841573 -0.01109925652 0.9826886516 0.1852314774 0.003509112963
-0.01416205144 0.01490318894 -0.02337952614 0.6948531432 -0.7189071195 0.01875267659
-0.00997943306 -0.007082402229 -0.06686251831 -0.5772660729 -0.5885479931 -0.5660169086
-0.02057331991 7.405877113e-09 -0.03854668331 0.9998884509 4.050342022e-05 0.01493600091
-0.01860543442 -0.00871949625 -0.01160004473 0.9160843365 0.4009850144 -0.0007118413342
-0.01084034204 -0.01750536156 -0.03512395668 -0.5362016089 -0.8438895022 -0.01839409272
-0.01430403447 -0.01475606155 -0.01431753993 -0.7006140468 -0.7133806001 -0.01510221172
-0.00831127739 0.01882366753 -0.0178174839 -0.4854878844 0.8742433803 -0.0001613935708
-0.0166973025 0.01196829255 -0.014319767 0.8119126769 -0.5836597902 0.01179213223
-0.01841264661 -0.008780065219 -0.04459483465 0.8894287188 0.4521288301 0.06705277853
-0.009128713608 -0.01177403545 -0.06181835556 -0.5530219589 -0.6931728089 -0.4622533611
0.0004236121476 0.02998364353 -0.04002257729 0.01470439403 0.01088819475 0.9998326
-0.01073111153 -0.01757303333 -0.03862758827 -0.5328120149 -0.8461302691 -0.01322590415
-0.01951572323 0.02427809715 -0.05405480766 0.9539063696 -0.0004920583946 -0.3001039751
-0.02055901527 -8.136034012e-09 -0.01152101135 0.9999881707 -0.0005093133509 -0.004837253557
-0.01615063477 0.05418165207 -0.07337802887 0.8384149646 -0.004723197865 0.5450119618
-0.01670457077 -0.01196797625 -0.01431652927 0.815927669 0.5778435172 0.01894488235
-0.008299453259 -0.0188243742 -0.01782278156 0.4779925129 0.8783635301 0.0008164362404
-0.01846251806 0.009076319377 -0.02323295212 0.899999024 -0.4357483383 0.01118671294
-0.002988721371 0.04233924866 -0.04021958542 -0.1758797969 -2.305910925e-05 0.9844116499
-0.01698612213 -0.002307765245 -0.06260661697 0.8264163169 0.3978430292 0.3984432145
-0.01126512909 0.01718210888 -0.01813292217 0.5524492491 -0.8335054557 -0.008275418889
-0.01426119661 0.01480850458 -0.01758451653 0.696435219 -0.7176162024 0.002229776037
-0.01860492516 0.008749230862 -0.01479429626 0.8988305468 -0.4382194443 -0.008207723961
-0.00264532268 0.02189791489 -0.04017537117 0.1199494955 -0.13144382 -0.9840399589
-0.01903562355 0.01819003391 -0.05248708725 0.9224703859 -0.087880888 -0.3759326224
-0.01971251392 0.005810810924 -0.01428941345 0.9676235596 -0.2523800258 -0.002994918087
0.004846209049 0.04483909798 -0.04061269188 0.1263993072 -0.002233547505 0.9919769284
-0.02035561275 0.002899034321 -0.01399619222 0.9948774453 -0.1002945229 0.01264426453
-0.02056159401 -9.834766388e-09 -0.01390224552 0.9998831629 -0.0005255239309 0.01527692249
-0.02044009972 0.01525050735 -0.06239826393 0.9911536261 0.02523434017 0.1302985709
-0.02035473585 -0.002899024785 -0.01399659061 0.9950357486 0.09875068136 0.01233539267
-0.01394467354 0.05924295807 -0.04544579315 -0.6803245473 0.001806151341 0.7329087584
-0.0174212904 0.01207569671 -0.04457460499 0.8506282911 -0.453002917 -0.2668705071
-0.0185927062 -0.008749609232 -0.01479982114 0.8985941852 0.438567744 -0.01366836642
-0.01425258255 -0.01480894089 -0.01758840656 -0.6982798673 -0.7157358387 0.01128876
-0.01131404257 -0.01717941761 -0.0181108036 -0.5572814889 -0.8301293845 0.01795959789
-0.02043961398 0.0540330925 -0.06261244837 0.9947986665 0.004038046018 0.1017806828
-0.01538941638 0.01543366559 -0.04454351425 0.7565569334 -0.4778388856 -0.4464208843
-0.008205599785 0.01887823105 -0.02035123634 -0.4830400501 0.8755981969 -0.0003279801919
0.005677376747 0.02399104691 -0.04081188011 0.1502085492 -0.001274408835 0.9886535124
-0.007076782703 -0.01795248985 -0.05027486801 -0.395245392 -0.8981168646 -0.1927879085
-0.01685080624 0.01175516677 -0.01720932436 0.8096345704 -0.5865711512 0.02064332565
-0.008447076082 0.0449337635 -0.04187242603 -0.3989530574 0.01918450444 0.9167706435
-0.008095235825 0.01893343353 -0.02290554333 -0.4799947282 0.8772713549 0.0001754187345
-0.01946434307 0.06044395256 -0.05400800323 0.9458269265 -0.06118395737 -0.3188541179
0.005456500053 0.03039610386 -0.04075404549 0.1423933782 -0.003222470234 0.9898049007
-0.01119471931 0.01723011398 -0.02063692093 0.5552666677 -0.8316701953 -0.001901049232
-0.01394114049 0.01511441962 -0.02046035957 0.6959214749 -0.718116033 0.001632154372
-0.01859473705 0.008779502153 -0.01801834249 0.8988735769 -0.437893907 -0.01658972466
-0.01970640898 0.005830833197 -0.01749923706 0.9697658727 -0.2440359918 -0.0007660346274
-0.01970875072 -0.005922464252 -0.03226354742 0.9686625158 0.2479075918 0.01532176535
-0.02035835028 0.002908938169 -0.01719475508 0.9948612536 -0.1012147043 0.002582582642
-0.01870038795 -0.008529791832 -0.01769927597 0.9170437288 0.3983040283 -0.01961378434
-0.007450413465 0.0192033205 -0.03511689186 -0.4500679544 0.8929903461 -0.002660482275
0.0002756856829 0.03632065582 -0.04001469421 -0.02309801549 0.01806785727 -0.9995699246
-0.008053111553 -0.01893596172 -0.02292503738 0.4684874889 0.8834697569 0.0008132419667
-0.01677010155 0.03349346352 -0.04866368484 0.8114272112 -0.001124423786 -0.5844524075
-0.0111237998 0.01727846527 -0.02315901089 0.5504024414 -0.8347842725 0.01386978416
-0.005549173355 0.04838524055 -0.04077857018 -0.2493087115 0.001465273377 0.9684229548
-0.01837109121 -0.009222952207 -0.03831497955 0.8912879912 0.4529532674 0.02095362099
-0.01682225132 0.0117966454 -0.02047447252 0.8072126595 -0.5902606428 -0.0003096683264
-0.007920594454 0.01900918293 -0.02634954739 -0.4719724762 0.8816130638 -0.0006224902525
-0.01796286678 0.0303948555 -0.05059566498 0.8637293685 -0.001138345869 -0.503954643
-0.01685874939 0.01176890659 -0.03855418396 0.7874634133 -0.615699529 -0.0285563084
-0.01856961107 -0.008802263498 -0.02046166992 0.89889986 0.4381539445 0.0004031656778
-0.01683452702 -0.01179614067 -0.02046872473 0.8076449394 0.5896448029 -0.005353334329
-0.01372254515 0.04601051712 -0.04526865005 -0.7016088001 -0.003218777709 0.7125550723
-0.01118629694 -0.01727500916 -0.02312975979 -0.5481857609 -0.8362251793 -0.0148263612
-0.01870124118 0.008559087753 -0.02094102669 0.9179815675 -0.396227501 -0.01770901427
-0.01970025396 0.005851018429 -0.02073521328 0.9688220373 -0.2474941205 -0.01142454937
-0.02036111116 0.002918922126 -0.02041918707 0.9895538193 -0.1441123737 0.003855178341
-0.02056669664 -1.002848148e-08 -0.0203208065 0.9999781369 -0.0004844669137 0.006594765997
-0.01681547451 0.03963017082 -0.04874537468 0.8142849061 0.001100119632 -0.580464367
-0.01972156763 -0.005850627422 -0.02072512531 0.9685498152 0.2488154861 0.001452390235
-0.002921533704 0.03918352509 -0.04021093369 -0.1787680511 0.003923503851 0.983883423
-0.01679345655 0.01183847213 -0.02376702166 0.8051467858 -0.5927679053 -0.01910140656
-0.02048648071 0.04907041073 -0.06212401485 0.9970141978 -0.01329990678 0.07606445805
-0.01843490918 -0.009077170054 -0.02324617513 0.9006195355 0.4344388387 0.01213868804
-0.01681183434 -0.01183773518 -0.02375822163 0.803955461 0.5943780202 -0.01924540749
-0.01110020304 -0.01733943272 -0.02651226807 -0.5495270731 -0.8353394281 -0.01510085532
-0.007738977432 0.01908596706 -0.029828578 -0.4635083723 0.8860900959 -0.002081061389
-0.0003925618231 0.05944938278 -0.04002805328 0.03433138037 -0.07061370323 -0.9969127651
-0.02051281071 0.02136017132 -0.06242292595 0.9942857757 0.002831248615 0.1067135427
-0.01410277534 0.01495763946 -0.02673039818 0.6898629501 -0.7237428687 -0.01689290247
-0.01560588169 0.0117035675 -0.07279447174 0.8038513015 0.1879846901 0.5643446123
-0.01896459961 0.02123423195 -0.05255956459 0.916829742 -0.01873337876 -0.3988386701
-0.0196940484 0.005871371984 -0.02399816084 0.9688247989 -0.2474096237 -0.01292235418
0.005326477289 0.03360053635 -0.04071999931 0.1380334878 -0.003737992142 0.9904205085
-0.02036389303 0.002928988755 -0.02367030001 0.9947592794 -0.1016123245 -0.01135392599
-0.0140105772 -0.01505276752 -0.03265863609 -0.6860027557 -0.7275247486 0.01039034548
-0.02035274601 -0.002929081976 -0.0236756959 0.9952171039 0.09714039725 -0.01032759646
-0.01952061081 0.006114717245 -0.06290016556 0.9419617475 0.1717569781 0.2884572874
-0.02051919746 0.003019298792 -0.05331354332 0.9925878221 0.09727546882 0.07284846328
-0.01399977732 0.01505328488 -0.03266408205 0.6845799155 -0.7288622919 -0.01049279683
-0.01410452223 -0.01495757127 -0.02672954988 -0.6948694046 -0.7189885564 0.01455906322
-0.007719342709 -0.01908715248 -0.02983807182 0.4556697345 0.8901481236 0.001187881675
-0.0003212709427 0.05704132843 -0.04001986122 -0.02152613806 0.02313845395 0.9995004939
-0.01093472052 0.01740881062 -0.02996354294 0.5475445337 -0.8366607031 -0.0139230594
-0.01695317014 0.01162198861 -0.02671730677 0.8058669699 -0.5919309754 -0.01400525819
-0.01851481819 -0.008919886112 -0.0328817358 0.8942425685 0.4474570014 -0.01060474409
-0.01856824589 0.008856300354 -0.02619590855 0.8979720694 -0.4397707468 0.01574334149
-0.01092161465 -0.01745500946 -0.0325170784 -0.5392505203 -0.8420848385 0.01009956166
-0.01854128075 -0.008857116699 -0.02620910549 0.8995685079 0.4366316061 0.01137278396
-0.01697396278 -0.01162118244 -0.02670715714 0.8073674962 0.589809626 -0.01680271326
-0.01100225496 -0.01740505028 -0.02993050289 -0.5457436829 -0.8378290756 0.01436219625
-0.01845158577 -0.009000854015 -0.04141000557 0.8849732214 0.4642818163 0.03556392066
-0.01656327756 0.01216048082 -0.02912972832 0.8060485456 -0.5916536886 0.01522020976
-0.01968936062 0.005886745453 -0.02646268749 0.9684267487 -0.2492949691 -0.001284839561
-0.02036483717 0.002939154088 -0.02694985151 0.9947989513 -0.1009400946 -0.01364345367
-0.008361368299 0.03946849537 -0.04183145332 -0.3912397069 0.002805384121 0.920284533
-0.01942479038 0.05499275112 -0.05386505413 0.9523916569 0.00925107825 -0.3047368526
-0.02056916285 -3.635883331e-09 -0.0268473978 0.9998827317 -0.003835285202 -0.01482610413
-0.008500610471 0.04806399536 -0.04189869976 -0.4029323558 0.01677812509 0.9150759592
-0.0203520422 -0.002939269304 -0.02695618153 0.9949908034 0.09956646266 -0.008934237388
-0.01978885142 -0.005642538706 -0.02696312714 0.9677094401 0.2514223249 -0.01803480219
-0.01677026939 -0.01191076255 -0.02958302259 0.8075104176 0.5898527298 -0.0008261931849
-0.02020266596 0.05789632161 -0.05680445226 0.9916206898 -0.02123133932 -0.1274269903
-0.0205635767 0.003010786831 -0.05064363956 0.9995041454 0.03118322457 0.004366893995
-0.01433961423 -0.01474309826 -0.02968175888 -0.6895615842 -0.7239538202 0.01989190331
-0.01395428944 0.01509507561 -0.03523622322 0.6890201082 -0.7247409754 -0.001345017496
0.004182739973 0.05773394775 -0.04047986221 0.1021205665 -2.983554856e-05 0.9947720287
-0.02056481934 0.01520211101 -0.05960582829 0.999734755 -0.004321092204 0.02262184341
0.004366071224 0.05450513268 -0.04051704788 -0.1081957147 0.002510878457 -0.9941264421
0.004697769403 0.04805790329 -0.04058345604 -0.1206308197 0.001379959152 -0.9926964798
0.005047199726 0.04001636887 -0.04065160942 0.1299379886 -0.002458945095 0.9915190733
-0.01647389126 -0.01138516331 -0.04771456337 0.801678138 0.5771424401 0.1556237989
0.005573460102 0.02719298649 -0.04078467178 0.147728785 -0.002243650547 0.9890253647
0.005747171402 0.02159025002 -0.04083015442 -0.152374201 0.003307158831 -0.9883173405
-0.01964041011 -0.006150550048 -0.02924371783 0.9557414927 0.2940045061 0.01093386646
-0.003210039973 0.05183916664 -0.04025570488 -0.1870078516 -0.006733219496 0.9823353436
-0.005617435932 0.05154088211 -0.04079838943 -0.234749699 0.005744342105 0.9720388785
-0.007446148396 -0.0192035799 -0.03511904335 0.4455925438 0.8952298842 0.003277097407
-0.0001538006961 0.05143807602 -0.04000819778 0.009708967351 5.734877863e-06 0.9999528668
-8.571567386e-05 0.04904277039 -0.0400045681 0.004877404979 -0.01495304251 0.9998763011
2.653048374e-06 0.04585386467 -0.04000123596 0.01066490039 -0.01916716238 0.999759411
-0.01989618731 0.03070664787 -0.06570432091 0.9739149826 0.01243591236 0.2265721844
-0.01864724731 0.003065401673 -0.06342560387 0.905144482 0.2516989935 0.3425800394
0.0001910304874 0.0394943161 -0.04001018143 -0.02824115826 0.003518218307 -0.9995949475
-0.008613467336 0.05434477329 -0.0419594202 -0.4067552396 -0.01112408461 0.9134694465
-0.01182360721 0.05398375607 -0.04380182457 -0.5895149242 0.001684303344 0.8077557287
0.0003532058895 0.03315053749 -0.04001882553 -0.00974299392 0.02718463516 -0.9995829479
0.0004869235903 0.02681966686 -0.04002595139 0.0380131549 0.01521758028 0.999161361
-0.00576739049 0.0578718586 -0.04084174728 0.2411295146 -0.01134450333 -0.9704266378
-0.01672331905 0.01194451213 -0.03212244511 0.8053998833 -0.5923783013 0.02046890818
-0.01902116871 0.03342909241 -0.05270212173 0.9171871066 -0.001557958606 -0.3984537417
-0.02036506081 0.002946836591 -0.02942745304 0.994947564 -0.1003663267 -0.002438322049
-0.02057041168 -3.725290298e-10 -0.03015285254 0.9999960135 0.002342299131 -0.001576928569
-0.01656235186 -0.01220301469 -0.03248472277 0.8077459038 0.5891916754 0.01999311241
-0.01477894783 -0.01435020828 -0.03823064423 -0.694285844 -0.7196945285 -0.002636760698
-0.003344528675 0.05740822601 -0.04028807449 -0.1989776648 0.01071895271 0.9799454031
-0.02035025454 -0.002965130508 -0.03528386593 0.995022521 0.09902880409 0.01111209675
-0.01464837217 -0.0144071455 -0.04174932098 -0.6877921852 -0.7244187246 -0.04646957515
-0.00328879106 0.05501847076 -0.0402720089 -0.1892627804 -0.008885404257 0.9818862712
-0.003060795665 0.04549991226 -0.0402291069 -0.1864098317 -0.001234540327 0.9824712976
-0.002802881002 0.03288525963 -0.04019565773 -0.1696824198 0.01756233682 0.9853422962
-0.02037427711 0.002985968053 -0.04206967354 0.9953207232 -0.09359883491 -0.02399825243
-0.0198012886 0.01532522559 -0.06553723717 0.9670040163 0.05591687394 0.2485488597
-0.00275137949 0.02974197865 -0.04018902588 -0.1660347872 0.01443805175 0.9860141947
-0.01855788469 0.008997658014 -0.04135252953 0.9063221935 -0.4192600916 -0.05292501498
-0.002716001272 0.0273866787 -0.04018447113 -0.1672274474 -0.002246587042 0.9859157843
-0.005199135542 0.02800383949 -0.04068665504 -0.2073718225 -0.01311774178 0.9781742442
-0.002683863044 0.02503334236 -0.04018033218 -0.1571877214 -0.005906495274 0.987551079
-0.00722623682 0.01928432465 -0.03870147896 0.4558606042 -0.8663424905 -0.2040632224
-0.02037365977 -0.002736042261 -0.04178365072 0.993968938 0.1092338445 0.00968078214
-0.02054565668 0.02129873466 -0.05968360519 0.9988851129 -0.001433760055 -0.04718554295
-0.01854374599 0.008919027567 -0.03286695051 0.8951951561 -0.4453632457 -0.01664968133
-0.01968382215 0.005922932744 -0.03227628708 0.9570681528 -0.2897765382 0.007078764385
-0.02036528587 0.00295457536 -0.03192324018 0.9946257427 -0.1029072783 0.01138964815
-0.02035097456 -0.00295471698 -0.03193055582 0.9941146869 0.1082301628 0.004713920508
-0.00582841301 0.06025298309 -0.04085911179 -0.2492243918 0.04284229621 0.9674976694
-0.005690025568 0.05470297432 -0.04081951904 -0.2364542805 -0.01293645418 0.9715564942
-0.005421553612 0.04209221458 -0.04074489403 -0.2391690646 0.003757862733 0.9709706674
-0.005311567307 0.03581991577 -0.04071609497 -0.2433386806 0.008408882521 0.9699049321
-0.005274785995 0.03347236252 -0.04070646286 -0.2330000538 0.004459176362 0.9724664985
-0.01941319466 -0.00328106761 -0.05336691793 0.9420037748 0.2931024938 0.1634619726
-0.005129089832 0.02176664257 -0.04066831398 0.1874392088 -0.2113441833 -0.9592706496
-0.01877536074 0.009271272659 -0.04439803823 0.9096399096 -0.3749152165 -0.1788681508
-0.01071747303 0.01757380009 -0.03863462448 0.589352811 -0.7867032903 -0.1837422029
-0.01307374668 0.01590842724 -0.03654827118 0.6846827856 -0.7280547906 -0.03384826373
-0.01376971483 0.04911253548 -0.04530626678 -0.7027510783 -0.006742766797 0.7114038635
-0.01669510031 0.01198758316 -0.03551698589 0.7949563234 -0.6061900493 -0.02404304555
-0.02057135582 2.11596489e-09 -0.03265016747 0.9987670257 0.04954520785 -0.003114611538
-0.01672032213 -0.01198657298 -0.03550395298 0.7966676668 0.604417356 -0.0005370499155
-0.01308738804 -0.0159077282 -0.03654125977 -0.6740137259 -0.738718118 -0.001019516367
-0.01796831856 0.05798457336 -0.05066481018 0.8630609472 -0.001865980793 -0.5050963468
-0.008724075079 0.05986388206 -0.04201856995 0.4059026338 -0.03281726721 -0.9133269288
-0.008217193127 0.02781185293 -0.04175987911 -0.382909913 -0.004651961783 0.9237739755
-0.01578814602 0.05905489349 -0.07378910065 0.8289011941 -0.01080016803 0.5592907712
-0.008187512636 0.02471252108 -0.0417449131 -0.3795668216 0.04329974591 0.9241505072
-0.01720606613 0.02175508499 -0.07189031982 0.8105982393 0.008089531771 0.5855467991
-0.01513260937 0.002334658384 -0.06929211426 0.7428790392 0.3668008123 0.5599891939
-0.008161510706 0.02161640549 -0.04173163319 0.4222451245 -0.3697986292 -0.8276219117
-0.008712599277 0.0192613554 -0.04142631531 -0.5337010215 0.5283644185 0.660298615
-0.014760499 0.01435106564 -0.03824028015 0.6953405092 -0.7184728229 -0.01727365094
-0.01865269025 0.008695660909 -0.03590041987 0.9002108506 -0.4352858442 -0.012110259
-0.01967962837 0.005943879843 -0.03563920689 0.9555263463 -0.2947713857 -0.008901214412
-0.01363755131 0.03982504272 -0.04520087051 -0.7007059996 0.001135710178 0.7134492359
-0.02036474276 0.002964981318 -0.03527630138 0.9948671415 -0.1004688186 0.01205766336
-0.0205723052 4.649162292e-09 -0.03516620159 0.9999737145 0.002382607932 0.006847874975
-0.006794033051 -0.01936165237 -0.04154961014 -0.4041150194 -0.9111333435 -0.08079035545
-0.01129192924 0.01812097613 -0.04210504023 0.6108059574 -0.5979059693 -0.5190612048
-0.01927962875 0.008263941765 -0.04527049637 0.9427474947 -0.2978080647 -0.1501250076
-0.0129991436 0.01596840382 -0.04003237534 0.6753251179 -0.7128740035 -0.189067819
-0.0183971653 0.009222159704 -0.03830119705 0.8987313154 -0.4384806034 0.004096713917
-0.01687944031 -0.01176808898 -0.03854329554 0.7944656191 0.6069705347 -0.02027683662
-0.02056578684 3.859400749e-09 -0.04196342564 0.9999177662 0.01165828315 -0.005342781412
-0.01777490298 0.05503825887 -0.05033512179 0.8634933164 0.005625741796 -0.5043289041
-0.01294123745 -0.01598552132 -0.04093050194 -0.6533508932 -0.7551657291 -0.05345401687
-0.01192287683 0.05946869278 -0.04387415314 0.602429267 -0.04889631984 -0.7966731627
-0.01149192492 0.04802341715 -0.04356166331 -0.5819883956 -0.002791817452 0.8131922977
-0.01193171628 0.04590578842 -0.0438754247 -0.5882519689 -0.003423277986 0.8086704535
-0.01684746806 0.0002572248578 -0.06513930003 0.8346507632 0.3501945612 0.4251139527
-0.01158651948 0.03688033199 -0.04361395073 -0.5855064933 -0.001316364081 0.8106666476
-0.01155475092 0.03378906727 -0.04358657455 -0.5840388157 -0.002402784112 0.8117221744
-0.01152509785 0.03070255804 -0.04356197262 -0.5802545704 0.001242568449 0.8144342144
-0.01147395086 0.02454184484 -0.04352007961 -0.5777107833 0.00121910589 0.8162406291
-0.01145021105 0.02146692944 -0.04350397015 -0.5809619428 0.1287786088 0.8036785993
-0.01975107447 0.005712975661 -0.03870786794 0.9682129481 -0.2490339038 -0.02336240197
-0.02036317348 0.0029754951 -0.03866061783 0.9947308015 -0.1012370035 -0.01617719717
-0.02034952784 -0.002975639462 -0.03866789436 0.9947615872 0.1021130533 -0.004723242377
-0.01977167066 -0.005712590853 -0.03869690323 0.9673287432 0.2535227325 -0.001151774739
-0.01220994186 0.0166032753 -0.07691400909 -0.5421642207 -0.01173654526 -0.8401905804
-0.01665585804 -0.01205203152 -0.04066445732 0.790469021 0.6119474187 0.02605923308
-0.004552320004 -0.01956768799 -0.04627176285 -0.3488525123 -0.926567557 -0.1406217872
-0.01961551094 0.006227345785 -0.04105856705 0.9606809981 -0.2762346758 -0.02804324833
-0.01552635336 0.05441106987 -0.04712397575 0.7539738428 -0.0002067323445 -0.6569044083
-0.01987593269 0.03379982281 -0.06578043365 0.9732858157 0.006028775086 0.2295177006
-0.02055383062 0.018248878 -0.05964278412 0.9992491363 -0.005982074988 -0.03828026133
-0.01960263952 -0.00622760121 -0.04106557719 0.9515500676 0.3068883595 0.01928739784
-0.01390140152 0.05689820862 -0.04541128159 -0.6816887138 0.0075045367 0.7316038405
-0.01384635544 0.05377840996 -0.04536738586 0.6947965665 0.005943166684 -0.7191817642
-0.02048962307 0.03363727188 -0.06264525604 0.9936623663 0.003225529909 0.1123596807
-0.02013972855 -0.00300449717 -0.04738561344 0.9752770873 0.2111152634 0.06530657367
-0.01367849588 0.04291483116 -0.04523352242 -0.7001235276 0.007571523653 0.7139815951
-0.01359969664 0.03674071503 -0.045170681 -0.6629436483 0.0003864771318 0.7486691992
-0.01356491899 0.03366141891 -0.04514294815 -0.697355641 0.0009569304603 0.7167246293
-0.01353320646 0.03058672428 -0.04511765862 -0.6959058431 0.001057942838 0.7181322568
-0.01863265228 0.03403365135 -0.06934223938 0.911516167 0.01642441999 0.4109361455
-0.01348830462 0.02444869804 -0.04506929207 -0.6937058279 0.0007628687912 0.7202580388
-0.01428344917 0.0180326074 -0.04516244761 0.7460434847 -0.3373702545 -0.5741083785
-0.01699832058 -0.01132513285 -0.04393475342 0.8342309742 0.54370036 0.0919162674
-0.01432429028 -0.0144607439 -0.04453266525 -0.6764445672 -0.7313821468 -0.08661929884
-0.008842819214 -0.0178204937 -0.04752450943 -0.4600737158 -0.8725859692 -0.1640911404
-0.01505117416 0.05913816452 -0.04661694717 0.7379923514 -0.04602079834 -0.6732379783
-0.01811224794 0.04882034683 -0.05087595844 0.8635638251 -0.001209144629 -0.5042380964
-0.01501690483 0.05679582405 -0.04657580757 0.7411012317 -0.01526854748 -0.6712196628
-0.01545429349 0.04897771645 -0.04703705311 0.747359669 0.01998092329 -0.6641191819
-0.01538164639 0.04279423428 -0.04694876766 0.7441676291 0.0009458902637 -0.6679922493
-0.01531749296 0.03663557243 -0.04687328053 0.7395427343 -0.001581039132 -0.673107751
-0.01763076258 0.06011069775 -0.05011252594 0.8579851037 -0.03256774317 -0.5126411063
-0.01521524692 0.0243778429 -0.04675976563 0.734293553 -0.02224183687 -0.678467596
-0.0151965735 0.02132307768 -0.04673829746 0.7474493074 -0.06384185485 -0.6612440929
-0.01984492207 0.005993505239 -0.04408671761 0.9689200233 -0.2403235394 -0.05863944805
-0.020463027 0.05979773712 -0.05883073044 0.9929939891 -0.0396455808 -0.1113156121
-0.01955648851 -0.005999342918 -0.04424577332 0.936354209 0.3475546535 0.04946269509
-0.0161356678 0.05903734589 -0.04779616928 0.7656129067 -0.038157903 -0.6421688653
-0.01769566409 -0.003317879438 -0.05975652059 0.8640012394 0.3911891191 0.3169746541
-0.01609118652 0.05591994095 -0.0477387085 0.7694000903 -0.0003706696315 -0.6387670652
-0.01785877927 -0.009321118991 -0.04722516886 0.8619916548 0.491804811 0.1228756072
-0.01669725704 0.02127655506 -0.04854442215 0.8162844295 -0.04333777469 -0.5760221935
-0.01836493111 0.01208145595 -0.04753918934 0.8867601705 -0.3609725194 -0.288713076
-0.02055464077 -4.243850708e-08 -0.04454941177 0.9994620949 0.03149036459 0.009158482953
-0.01527804565 -0.01294322586 -0.04750650024 0.7545414099 0.6411606433 0.1399295904
-0.01212400723 -0.00235304904 -0.06928569794 -0.6231343344 -0.5032495288 -0.5987015226
-0.01693323994 0.05197781944 -0.04894857216 0.8172243582 0.01715741342 -0.5760642079
-0.01690039253 0.04888046265 -0.0488927536 0.8150597792 0.008111915032 -0.5793200783
-0.01686982346 0.04579038239 -0.04884029198 0.8125077131 -0.0006733416073 -0.5829500517
-0.01684152126 0.04270710754 -0.04879117203 0.8216815138 0.006008215378 -0.5699152492
-0.0167916708 0.03655910873 -0.04870288467 0.8128659542 -0.001140552312 -0.5824496885
-0.01675075912 0.03043277645 -0.04862776184 0.8101744652 -0.001257963898 -0.5861874729
-0.02054631042 0.05748866653 -0.05961291122 0.9988322394 -0.02853694632 -0.03898461503
-0.01673313236 0.02737663841 -0.04859538269 0.809125231 -0.001258998448 -0.5876348999
-0.02041748142 0.006025140524 -0.05073431587 0.9914922338 -0.1124931703 -0.06548615795
-0.01671397877 0.0243248415 -0.04856834602 0.8082662795 -0.001162938858 -0.588815989
-0.01686588001 0.01822072411 -0.04842134285 0.8220604453 -0.2081294048 -0.5299988445
-0.02013020277 0.00600928998 -0.04739724636 0.9783560223 -0.1815925553 -0.09921510733
-0.02052903461 -1.207143068e-07 -0.04716459751 0.9964603691 0.08268635527 0.01515584085
-0.0195474968 -0.005267760038 -0.0477227726 0.9501719405 0.298115519 0.09110664586
-0.01907517815 -0.006777626991 -0.04711812973 0.9206891715 0.3818468253 0.0807740768
-0.01485498714 -0.01249083614 -0.05068466059 0.7204460022 0.6655753556 0.1948512356
-0.01052012253 -0.008626063347 -0.06467956543 0.6003162147 0.6345037235 0.4868526134
-0.01265654278 -0.01461697483 -0.05074435043 -0.6227493854 -0.7520803306 -0.2157739079
-0.01486865902 -0.009998692513 -0.05662588501 0.7211209866 0.6082625938 0.3316641972
-0.008892713547 -0.01635341835 -0.05285955811 -0.4886293603 -0.8280014975 -0.2750543008
-0.01814427233 0.05191420174 -0.05093546486 0.8654957698 -0.004999372569 -0.5008912843
-0.01808227348 0.04573383713 -0.05082014084 0.8629782721 -0.0009941542719 -0.5052400553
-0.01805433702 0.04265419769 -0.05076799297 0.8643994973 0.001679584823 -0.5028028321
