# .PCD v0.7 - Point Cloud Data file format
VERSION 0.7
FIELDS x y z normal_x normal_y normal_z
SIZE 4 4 4 4 4 4
TYPE F F F F F F
COUNT 1 1 1 1 1 1
WIDTH 553
HEIGHT 1
VIEWPOINT 0 0 0 1 0 0 0
POINTS 553
DATA ascii
-0.01784832191 0.05580320358 -0.05031449509 0.8664546847 0.007102412633 -0.4992052034
-0.01864613342 -0.008623198986 -0.001367647827 0.9173267056 0.3660824234 -0.156509982
-0.01747288704 -0.01082086563 -0.001848004341 0.6519606945 0.6322686594 -0.418549394
-0.01351731682 0.01550648785 -0.01305097866 0.6391643103 -0.7690083909 0.00975085219
-0.00876167202 0.01859111595 -0.007018722057 0.498871108 -0.8666755233 0.001074650953
-0.01161081982 0.01694642067 -0.005839159012 0.548703356 -0.8358626059 -0.01607268236
-0.0177739563 0.04960382462 -0.05019631195 0.8628176597 0.009249130475 -0.5054306478
-0.01519655418 0.01390469456 -0.009109820366 0.7533522005 -0.6575490041 0.009474654726
-0.01695726871 0.01158295631 -0.003623593092 0.8226949984 -0.568477545 -0.002494074453
-0.01505117416 0.05913816452 -0.04661694717 0.7323347889 -0.03622223274 -0.6799806665
-0.02032237625 0.01745210648 -0.05707391357 0.9829477841 -0.02534373044 -0.1821300331
-0.01816930771 -0.009614631653 -0.02721932411 0.8817422019 0.4716799066 0.006982487967
-0.01831702995 0.009367085457 -0.003059690237 0.9007927598 -0.4319053708 -0.04505723721
-0.01915284538 0.05110959625 -0.05301710892 0.9252084216 -0.01049929398 -0.3793140407
-0.01885708427 -0.008223981857 -0.03947599983 0.9120175659 0.4100535922 0.008944889704
-0.01925097704 0.007189356565 -0.003451138735 0.9403888913 -0.3357311352 -0.05434462202
-0.01953555298 -0.006463536501 -0.00333232367 0.9416365177 0.326391201 -0.08239813379
0.005145956993 0.03760808945 -0.04067273331 -0.513828636 -0.01349853592 -0.8577866415
-0.01874814224 -0.008399200281 -0.003400611083 0.914404391 0.3926356168 -0.09849813232
-0.01498878479 -0.01412947464 -0.02381020164 0.7411000972 0.6712942718 -0.01160373139
-0.01334647274 -0.01006631947 -0.05932950974 0.6926856563 0.6100832394 0.3846882147
-0.0164516468 -0.01232649708 -0.003833263397 0.7826428064 0.6224307534 -0.007084834405
-0.01443810606 -0.0146130352 -0.005457602501 -0.7047951026 -0.709398651 0.004173411251
-0.01162655449 -0.01694556618 -0.005832657814 0.5719148903 0.8201516035 -0.01626977423
-0.01241540909 0.04690007782 -0.04422455597 -0.5942394537 0.008243392136 0.8042459314
-0.01496451378 -0.01415500927 -0.02547834015 0.7397282668 0.6728822455 -0.005619159217
-0.008658788681 0.01864423752 -0.00948547411 0.496129657 -0.8682484416 8.426633245e-05
-0.01360890341 0.01541041279 -0.007396476746 0.6459709845 -0.7633286372 0.007132944246
-0.0180631218 -0.008326838493 -0.04944355774 0.874134001 0.4623738712 0.1486611972
-0.01523038864 0.01385634136 -0.005919014931 0.7566495237 -0.6536256323 -0.01596969101
-0.02055809069 0.001497320116 -0.04541352081 0.9995283082 -0.02970949644 -0.007778620765
-0.02044467545 -0.002158708811 -0.007632498741 0.9958179592 0.09132696238 -0.002445001416
-0.02013895321 0.04147938919 -0.06487710571 0.9817369115 -0.0007593135215 0.1902421092
-0.01694511318 0.01160291815 -0.005198871374 0.8230384619 -0.5679262547 0.008213364668
-0.01858951187 -0.008757167339 -0.01560293055 0.9015696496 0.4325634806 -0.007810391884
-0.01830687428 0.009391067028 -0.005411175251 0.8867057875 -0.4623301675 -0.001913774933
-4.203698318e-05 0.04744748878 -0.04000223923 0.07580429113 0.0009473633334 -0.9971222653
-0.01914039103 0.007496566455 -0.01162644704 0.9370799861 -0.3489968793 -0.0090707141
-0.0199716301 0.05949944305 -0.0655486145 0.9705930857 -0.01870730243 0.2399981226
-0.01516053391 -0.01394168997 -0.01152444029 0.750225244 0.6611819206 -0.0007423720729
-0.02057594681 -0.0007426070571 -0.03769612885 0.9985873399 0.05222577413 -0.009787399846
-0.01105246449 0.01732710075 -0.0256959095 0.5206139412 -0.8536585142 -0.01510845322
-0.0161356678 0.05903734589 -0.04779616928 0.7829804684 -0.02339585771 -0.6216061614
-0.0199238205 0.005024735451 -0.003947201729 0.9767602223 -0.2143344818 0.0004449620627
-0.02042941284 0.009890808105 -0.06054949951 0.994650257 0.05778097614 0.08562841289
-0.01232588387 0.03914722443 -0.04413487625 -0.5835956078 0.009791052248 0.8119854074
-0.02052131081 0.02967955017 -0.0589206543 0.9961544966 0.001971508933 -0.08759184895
-0.0202524147 0.003585073948 -0.003809103012 0.9811909098 -0.1927092181 -0.01129406085
-0.02049794197 0.001432954103 -0.00370585835 0.9981810028 -0.06028295481 -0.0008068629911
-0.01474719334 0.01436433792 -0.03910554886 0.7386238149 -0.6738811254 -0.01786305807
-0.01757412338 -0.006860458851 -0.05503744507 0.8563209153 0.4548252218 0.2446395462
-0.01740431881 0.01097997904 -0.01534125805 0.8261763981 -0.563392886 0.004584243062
-0.01953000832 -0.006490933895 -0.007242673874 0.9464031051 0.3229037195 0.007372286692
-0.02054943466 -0.0007162849903 -0.003684211016 0.99869849 0.05050315818 -0.007124405843
-0.02029079247 0.02506726265 -0.05718536758 0.9786392404 -0.006049893646 -0.2054960726
-0.01959008598 0.04186428452 -0.05432553482 0.9533986575 0.01706540953 -0.3012304296
-0.01907304319 0.007722528934 -0.039643411 0.9227249072 -0.3843253394 -0.02954283406
-0.02044205666 -0.002149644136 -0.003729342461 0.9966665883 0.08147447008 0.004197903763
-0.01851927567 -0.008905993144 -0.005582167308 0.9030370603 0.4294603527 -0.009374068657
-0.01745142555 -0.01085803986 -0.004986200333 0.8598365332 0.5105670798 0.001547000474
-0.02052036285 0.001467511922 -0.02604881382 0.9974270444 -0.07126693477 -0.007766279818
-0.01643752861 -0.01234780979 -0.005412074566 0.7778814611 0.6284107704 -0.0005797312389
-0.01100718212 0.04702812576 -0.04321243286 -0.5090529808 0.006681869187 0.8607092514
-0.008346400261 0.01880553246 -0.01697536087 0.4868587249 -0.8734806024 0.0004682331487
-0.01350393105 -0.01550715733 -0.0130568552 -0.6428744647 -0.7659642419 -0.003347055292
-0.00825402387 0.05149665578 -0.04179602814 -0.4097483541 -0.008764846962 0.9121564908
-0.02051260281 0.02128142166 -0.05880035782 0.9960888516 -0.008454410276 -0.0879518199
-0.01158543015 -0.01697633934 -0.007448409081 0.5583305488 0.8296134838 -0.002909616703
-0.00865619278 -0.01864439106 -0.009486567497 -0.4928254011 -0.8701280847 0.0004900755317
-0.005617435932 0.05154088211 -0.04079838943 -0.291723612 0.00317130545 0.9564974004
-0.01521350384 0.01388047218 -0.007511380196 0.7542987711 -0.6564944844 0.00695384288
-0.01710289001 0.01138031292 -0.007234110514 0.822588374 -0.5685630694 0.009187112884
-0.01877324677 0.01928297615 -0.0689950943 0.9040629255 0.0144058584 0.4271565262
-0.01821067047 0.009613328934 -0.0271989727 0.8809533129 -0.4731393982 0.00776983221
-0.01990003586 0.005128941536 -0.02307940674 0.9705739551 -0.240557053 0.01088585987
-0.01924701786 0.007207622528 -0.005795294523 0.9466598329 -0.3221297459 -0.008221167164
-0.01115219975 0.05562317657 -0.04331024933 -0.5292387336 -0.002210423615 0.8484700802
-0.01697745132 0.05586021042 -0.04902299881 0.8297666449 0.005850852735 -0.5580798174
-0.01791057014 -0.004580283761 -0.05752455139 0.8602855894 0.4118311487 0.3005059228
-0.01992188072 0.005033236027 -0.005507922649 0.9722896658 -0.2337784199 -0.0006754402003
-0.01602571869 0.05125958252 -0.0476603508 0.7808979212 -0.01271411242 -0.6245292531
-0.02025103188 0.003591132164 -0.005367808819 0.9810424195 -0.1937837143 0.001908710148
-0.02055065918 -0.0007174891233 -0.005240196228 0.9978815611 0.06501107219 0.002439350488
-0.0181572876 0.009716543198 -0.03729383469 0.878522242 -0.4776389167 0.007728882291
-0.01071897936 0.02149815941 -0.04301764297 -0.520566867 0.0431412934 0.8527303007
-0.02009417629 -0.004312074184 -0.005434597015 0.9822673027 0.1874772496 -0.001796338197
-0.01432019043 0.04751521397 -0.0458572216 -0.7061355333 -0.002201060936 0.7080732758
-0.01994441032 -0.004497595549 -0.04489168167 0.9728209233 0.2252902613 0.05351401091
-0.0163330555 0.01247817039 -0.01502101612 0.8137559891 -0.5812044389 -0.001609451482
-0.01953223228 -0.006479942322 -0.005673904419 0.9471917979 0.3205367192 -0.009160224619
-0.01728797913 -0.01119504023 -0.03351680946 0.8460699899 0.5330637179 0.002940191813
-0.01958169556 0.003813824177 -0.06103767776 0.9460292388 0.193259963 0.2601523902
-0.02050621319 0.001442629069 -0.00996430397 0.9981015686 -0.06142108361 -0.004550734362
-0.02057091522 -0.0007374110818 -0.03098273659 0.9981796196 0.06031057249 -0.000286153926
-0.02004917717 0.04341786194 -0.05588627243 0.975004164 -0.0002053363476 -0.2221864936
-0.01743521786 -0.01088611174 -0.007355945349 0.8581957607 0.5133195949 -0.001740611604
-0.01154414272 -0.01700723457 -0.009070503235 -0.5463374705 -0.837514182 -0.009239222924
-0.01618652725 0.0007741087675 -0.06677544403 0.8042591281 0.3541128928 0.4772539304
-0.007875405312 0.01902828789 -0.02721518326 0.4708753102 -0.8821957423 0.002667312704
-0.01765051651 0.03728979874 -0.05000286484 0.8579838309 -0.008538931694 -0.5136057171
-0.01343777752 0.01558992577 -0.0179617157 0.635392575 -0.7720219013 -0.01607667495
-0.0132862916 -0.01571860361 -0.02545928955 -0.6349984806 -0.7725133699 0.0001511935593
-0.01145079803 0.01705552197 -0.01152999115 -0.5455123884 0.8380629802 0.008165490327
-0.01356981277 0.01545141888 -0.009809897423 0.6437131117 -0.7651947413 -0.01050893319
-0.0182966671 0.009415167809 -0.007774346828 0.8857530303 -0.4640748884 -0.008721656191
-0.01886898804 -0.008201863289 -0.03691491318 0.9002222237 0.4354003846 0.0051432514
-0.01635167313 -0.01247741413 -0.01501264954 0.7963357197 0.6048532112 0.00141927701
-0.01691648674 -0.01133825397 -0.04484713745 0.8331454377 0.545586255 0.09057769088
-0.02024964333 0.003597212791 -0.006932298183 0.9794966627 -0.2014540389 0.00159934181
-0.02048417854 0.009834738731 -0.0551333847 0.994639143 -0.0584125984 -0.08532844507
-0.02055250454 -0.0007193042934 -0.00758571291 0.9986991857 0.05091397311 -0.002775574458
-0.0168624649 0.04501873398 -0.04882759476 0.82238347 -0.01097186647 -0.5688277827
-0.02009473228 -0.004319348693 -0.006999108791 0.9820821146 0.1883245735 0.006969596004
-0.01419469309 0.01906087589 -0.04551108551 0.7218018309 -0.2327641 -0.6517844664
-0.01640198994 -0.01240145636 -0.009385989189 0.7901930943 0.6128576068 -0.0006538244962
-0.02025728989 0.003652765751 -0.02127889252 0.9799565578 -0.198766672 0.01330243986
-0.01519194984 -0.01390490246 -0.009111793518 0.7500688907 0.661356965 0.001903704455
-0.01310828686 0.01587877846 -0.03481984329 0.625788602 -0.7799115912 0.01124880396
-0.01355975342 -0.01545192051 -0.009814208984 -0.6433239813 -0.7655618864 0.007018060944
-0.00834023571 -0.01880590057 -0.01697809792 -0.4803905289 -0.8770541485 -0.0009799792831
-0.01259060001 0.05782157898 -0.04436595535 0.6178320829 -0.01593782813 -0.7861485248
-0.01097297287 0.01760592842 -0.04110625839 0.5812502661 -0.7409574002 -0.3363484193
-0.02021145916 0.00761268568 -0.06066960716 0.9831669898 0.1069684435 0.1481229971
-0.01148188353 -0.01705382347 -0.01151658201 0.546178856 0.8376185773 -0.009152939817
-0.01110990524 0.05327361679 -0.04328197861 -0.5264737768 0.008040285839 0.8501533486
-0.01989062309 0.05578788757 -0.05541653252 0.9642982742 0.006104051115 -0.2647481424
-0.008552063942 -0.01869784546 -0.01196719837 -0.4876928255 -0.8730148995 -0.0008325789603
-0.008485988617 0.01873345947 -0.01362856293 0.489594071 -0.8719496099 0.001234292745
-0.02054808235 0.003760298967 -0.04977522659 0.9983924211 -0.04863053996 -0.02911432841
-0.01354361725 0.015478899 -0.01142723083 0.6414461141 -0.7671678093 0.0006596296676
-0.01828982925 0.009431316376 -0.009357740402 0.8846002972 -0.4663477208 -0.001455122916
-0.02038021088 -0.0007524449825 -0.04986746979 0.9894412971 0.1318270205 0.06022919759
-0.01933584849 0.006992453098 -0.00942767938 0.9432696736 -0.3319397981 0.007635008337
-0.01991699696 0.005054630995 -0.009436045647 0.971879538 -0.2354575927 0.003144163259
-0.02056962204 0.03895182037 -0.06089176178 0.9999569873 -0.003938683421 0.008397037085
-0.01221066284 0.02527422333 -0.04401168823 -0.5892367437 0.01054287507 0.8078916435
-0.02025191021 0.003606327891 -0.009288928509 0.9819405137 -0.1891874847 0.0009607717959
-0.005747450352 0.05707875824 -0.04083605194 -0.297228715 0.003767449616 0.9547988779
-0.02036729813 0.05741569901 -0.05789884949 0.9912299326 -0.005575873968 -0.132030793
-0.01741892815 -0.01091432571 -0.00973769474 0.8474004571 0.5308508487 -0.01048054066
-0.01588736439 0.03967835426 -0.04749475479 0.7787325935 0.001904372869 -0.6273531072
0.005326477289 0.03360053635 -0.04071999931 -0.2532864725 3.318952711e-07 -0.9673913184
-0.008482256889 -0.01873368073 -0.01363018227 -0.4845503786 -0.8747626886 -0.00108129306
-0.0133790226 0.01564638901 -0.02127189255 0.6322818516 -0.7746898406 0.008678187374
-0.008416343689 0.01876941872 -0.01529838181 0.4889586107 -0.8723069265 0.0003209151966
-0.02055435944 -0.000721128583 -0.00994299984 0.9989891619 0.04455277386 -0.005975340587
-0.01638051414 -0.01243387604 -0.01178749084 0.801490417 0.5980003496 -0.002948435523
-0.02044062042 0.04523587418 -0.06295592499 0.9960255662 -0.008254074408 0.08868450674
-0.008412154198 -0.01876966858 -0.01530022144 -0.4837285832 -0.8752180578 9.559648488e-05
-0.02056069374 0.007562431812 -0.05507751656 0.9990667581 -0.02454170435 -0.03554317967
-0.01141928864 -0.01710066223 -0.01397585011 -0.5406886403 -0.8411107569 0.01372912552
-0.01347765493 0.01554809332 -0.01549968004 0.6387003147 -0.7694459336 0.003855292166
-0.0151305685 0.01397859764 -0.01394909954 0.7525918884 -0.6582332912 -0.0182861657
-0.02051861572 0.001485637009 -0.03772700119 0.9972741856 -0.07314596386 -0.009688480564
-0.01634951019 0.01245627499 -0.01340424633 0.8111461258 -0.5848250377 0.004651649638
-0.02006027031 0.05319033432 -0.06527251434 0.9733095963 -0.00485617075 0.2294446497
-0.01827261257 0.009471969128 -0.01334381628 0.8756875495 -0.4826927832 0.01337881743
-0.01710797024 0.009297669411 -0.06994961166 0.8467554425 0.2068364737 0.4901264059
-0.01627853394 -0.01258782101 -0.0231911869 0.8139225266 0.5809479906 0.005436263757
-0.01736447144 -0.01104743576 -0.0210334568 0.8398997903 0.5427412003 0.0005759589615
-0.01128853226 0.01716615295 -0.01730063057 -0.5352838969 0.8446478189 -0.006419634408
-0.01991404724 0.005067559719 -0.01180971241 0.9749390891 -0.2224610795 0.002200165421
-0.0205498085 0.04969885635 -0.05936811829 0.9995468898 0.007594243163 -0.02912632024
0.00012306723 0.0418769455 -0.04000655746 -0.06797343018 -0.002477366956 0.9976840559
-0.02025297356 0.003615503788 -0.01165805817 0.9868360083 -0.1616982297 -0.002894011677
0.005747171402 0.02159025002 -0.04083015442 0 0 1
-0.0181594677 -0.009631677628 -0.02888382339 0.880877443 0.4733421646 0.001457963232
-0.01848012352 0.05112883759 -0.05161582947 0.8974081251 -0.005778774475 -0.4411635328
-0.02050830078 0.001445070654 -0.01154372263 0.998553956 -0.05375818598 0.0002332134732
0.004983086824 0.04162324715 -0.04063929367 -0.2222291037 -0.00139363706 -0.9749934786
-0.01490502834 0.0142069025 -0.02884182549 0.7398705449 -0.6726033929 0.01400901671
-0.02055560303 -0.000722350955 -0.01152252674 0.9986727382 0.05150496089 -3.224218343e-05
0.005627047777 0.02559187794 -0.04079870224 -0.2531183788 6.11479809e-06 -0.9674353137
-0.02044731712 -0.00216785574 -0.01157099438 0.9975958905 0.06928443349 -0.00145138176
-0.01922723675 0.007281834126 -0.0153105731 0.9425136423 -0.3340403646 0.009223277066
-0.01952328491 -0.006524158955 -0.01198476791 0.9462550346 0.323231565 -0.01107992863
-0.01918573856 0.007422773361 -0.03337228775 0.940062657 -0.3409986241 0.001462643186
-0.01502498341 -0.01409139299 -0.02132229424 0.7421078392 0.6702707368 -0.00361861348
-0.01802126694 0.06010860825 -0.07052547455 0.9071272783 -0.002337424645 0.420849899
-0.01848261134 -0.008982841492 -0.01351506074 0.9017513685 0.4321622878 -0.008956919305
-0.01740369987 -0.01095197392 -0.01293297482 0.8383352087 0.5451141077 0.006684866095
-0.01989517021 0.005155777454 -0.02800980568 0.9737428481 -0.2275347039 -0.007268034985
-0.007506171227 0.01918317223 -0.03422532272 -0.455115166 0.8904066995 -0.006789345262
-0.01609118652 0.05591994095 -0.0477387085 0.7824035522 0.003517377409 -0.6227618402
-0.0192050333 0.007357886553 -0.02505740166 0.9412640546 -0.3374973304 0.01084118961
-0.01636612129 -0.01245560169 -0.01339686775 0.7989830345 0.6013531239 -0.0007287056465
-0.01947986412 -0.006684916973 -0.03490065002 0.9397474565 0.3417539365 0.008886217559
-0.02057349586 0.03587134933 -0.06082025146 0.9999871261 0.002746819442 0.004266453481
-0.01623289871 0.01261144638 -0.0248623848 0.8097362502 -0.5867885063 0.00254048026
-0.01137733078 -0.0171320591 -0.01562432671 -0.5384386689 -0.8424693054 0.01814577768
-0.01991206932 0.005076223373 -0.01340035725 0.9709103046 -0.2393984794 0.004642043065
-0.02045476532 -0.002213111162 -0.03104255295 0.9949724567 0.100123791 0.002244314691
-0.01884643745 -0.006794931412 -0.04899562073 0.9234510755 0.3629065528 0.1246472828
-0.01632988167 -0.01251030922 -0.01744938374 0.7956269101 0.6057813363 -0.002606254636
-0.01708015442 -0.01131201172 -0.04302236938 0.8318888214 0.5519147721 0.05788845443
-0.020253685 0.003621652365 -0.0132456255 0.9815582937 -0.1911423234 0.002815705123
-0.02055685043 -0.0007235780954 -0.01310817528 0.9982521614 0.05908978573 -0.001009734271
0.005078536034 0.03921310043 -0.04065760422 -0.549757731 -0.01536361434 -0.8351828522
-0.0195210247 -0.006535319805 -0.01357771111 0.9466829891 0.3219029241 0.01303171955
-0.0200938158 -0.004386171579 -0.02135753441 0.9816406311 0.1905389161 0.008751734796
-0.02051658821 0.001454933494 -0.01792354679 0.9981049626 -0.0612669222 -0.005731311079
-0.0195377388 0.03774895859 -0.06700268555 0.946496665 0.007929664093 0.3226161551
-0.01739201069 -0.01098042011 -0.01534681845 0.8427194143 0.5383249849 0.005495406197
-0.02055873203 -0.0007254284322 -0.01549912977 0.9989253146 0.04609141208 0.004878277055
-0.0134467001 -0.01556288719 -0.01632607269 -0.6409366217 -0.7675936174 0.0005343324214
-0.01224255466 0.02988861465 -0.04404732895 -0.5931366008 0.00204634459 0.8050992394
-0.02049800682 0.001506916314 -0.05155801392 0.9958162077 0.07721208057 0.04887100513
-0.01133519745 -0.01716358757 -0.01727965736 -0.5412444417 -0.8408641508 -0.001390790265
-0.008217707157 -0.01886140347 -0.0195159111 -0.4745223993 -0.880241076 -0.002034886979
-0.01611430168 0.01278257751 -0.03752535248 0.8024573045 -0.596706666 0.00185183815
-0.01508392048 0.01402846336 -0.01720876122 0.7476000789 -0.6639812928 0.01493200451
-0.01630824184 0.01251119041 -0.01745928192 0.8163179937 -0.5775757023 -0.005589390231
-0.02052863789 0.01752072144 -0.06145990944 0.997622807 0.0198532023 0.06598928143
-0.01826220703 0.00949654007 -0.01575305939 0.8786065331 -0.4775418662 -0.00207989094
-0.01951875877 -0.006546524525 -0.01517693806 0.9450717085 0.3268094285 0.005921418798
-0.01129288769 -0.01719524765 -0.01894194984 -0.5383481923 -0.8427218902 -0.001019608076
-0.01703535652 0.06053667831 -0.04911946869 0.8319378204 -0.02511040719 -0.5543003972
0.005487371922 0.02959516716 -0.04076213074 -0.2542754365 -3.803706917e-05 -0.9671318426
-0.01628449821 0.05096903992 -0.0731816864 0.8449585306 -0.002433543575 0.534826289
-0.01117111397 0.01724620724 -0.02147639275 -0.5318251488 0.8468155997 0.008084016759
-0.00776145649 -0.01906807518 -0.02896580696 -0.4570966971 -0.8894131542 -0.002617357885
-0.01341104507 0.01561796761 -0.01961213493 0.6336631519 -0.7734795325 -0.0141570754
-0.007348473072 0.03331306839 -0.04139627075 -0.3767298938 0.00585775376 0.9263046334
-0.01222588778 0.0275804491 -0.04402891159 -0.5905216677 0.009785555456 0.8069624544
-0.01248517036 0.05156998444 -0.04428187943 -0.6339604159 -0.005029040791 0.7733491449
-0.01738744545 0.01100876045 -0.01777025604 0.8187591378 -0.574115197 -0.005021437893
-0.01825523376 0.009513009071 -0.01736781502 0.8838706774 -0.4677237288 -0.002671931759
-0.01097934628 0.01917351723 -0.04286060715 -0.5912323118 0.4064938935 0.6965680642
-0.01920877266 0.007345078707 -0.02341597843 0.9420344896 -0.3355113613 -0.001773914511
-0.01931693713 0.007052685579 -0.01741213735 0.9453991993 -0.3258700293 0.005392400412
-0.02045089531 -0.002186435938 -0.01956667709 0.9971605272 0.07523303597 -0.003297455683
-0.01990709019 0.005098037481 -0.01740543461 0.9709734331 -0.2391574143 0.003784621051
-0.02025656319 0.003646492481 -0.01965918159 0.9862039101 -0.1655016792 -0.003322939331
-0.01484989452 0.0101669693 -0.07326380157 -0.5385908229 -0.008027797555 -0.8425292161
-0.009189213753 0.03162561607 -0.04217424011 -0.4774259309 -0.008852856877 0.8786273996
-0.01738025856 -0.0110090189 -0.01777356148 0.8370916365 0.5470224754 -0.006633520893
-0.02019195366 0.02987749863 -0.06458378601 0.9833323482 -0.0003982793755 0.1818167603
-0.01116486835 -0.01729104424 -0.02397167206 -0.5195303568 -0.8542268372 0.01961425482
-0.01862685966 0.01131549072 -0.04738844299 0.9004187684 -0.3574090337 -0.2480016614
-0.002889908791 0.03760737991 -0.0402068615 -0.1223993295 -0.002147740266 0.99247861
-0.01338880634 -0.01561908722 -0.01962236404 -0.6387306107 -0.7694146953 0.004922765022
-0.0132121315 -0.0157905941 -0.0296817379 -0.6319905279 -0.7748157309 0.01576565508
-0.01122906208 -0.01724300861 -0.02144957829 0.5308665738 0.8474041822 -0.009318411715
-0.008094447136 -0.01891723824 -0.02206889153 -0.4690331914 -0.8831778467 -0.002180933361
-0.01348353386 0.02368236542 -0.04506380844 -0.6577767859 -0.0001797146504 0.7532128966
-0.008055739403 0.01895204544 -0.02376072693 0.475695525 -0.8796012227 0.003931480296
-0.0130690074 -0.01592267418 -0.03741004944 -0.6223801626 -0.7827131447 -0.001751105447
-0.01502063179 0.01409159184 -0.02132433128 0.7454666197 -0.6665390069 -0.002295920142
-0.02028975296 0.0212579689 -0.05713563919 0.9776639463 -0.005328334298 -0.2101066801
-0.01628329086 0.01254439163 -0.01991091537 0.8134092437 -0.5816850971 -0.002801795489
-0.01079349136 0.02997434998 -0.04306492615 -0.5281970327 -0.004601446052 0.8491093695
-0.01737554741 0.01102807426 -0.01939868355 0.844031118 -0.5362911672 -0.001804400349
-0.01824822998 0.009529543877 -0.01898913956 0.8763591507 -0.4816353131 0.004697246092
-0.0191228447 0.007561302185 -0.01965788587 0.9269678819 -0.3749821185 -0.01090672804
-0.01426991081 0.04364526367 -0.04580749512 -0.7037467544 -0.009886560329 0.7103821237
-0.02025583839 0.003640244961 -0.01804610252 0.9823629776 -0.1869213707 -0.004835441315
-0.007965783596 0.01899007797 -0.02548391151 0.4738526161 -0.8805974485 0.003439758971
-0.02008068085 -0.004471523881 -0.03966422272 0.9754892337 0.2199878582 -0.00510854144
-0.01110009098 0.01729463005 -0.02400215721 0.5226669754 -0.8523946775 -0.0155739084
-0.02054073715 0.005274304867 -0.05154001617 0.9989374283 -0.03965875797 -0.0234775911
-0.01334570217 0.0156749897 -0.02293930054 0.6306865461 -0.7759393364 0.01235422367
-0.01823766899 0.009554483891 -0.02143452168 0.8751403175 -0.4838622308 -0.002601213426
-0.01929369545 0.007126601537 -0.02721052615 0.9406819714 -0.3391109924 0.01100743134
-0.02032586288 0.04732050705 -0.05762393761 0.9893780141 -0.004541121761 -0.1452946092
-0.01494013691 -0.01418065453 -0.02715376854 0.7385773814 0.6740271109 0.01381685279
-0.01481660366 -0.01431061745 -0.03564422226 0.734498982 0.6785498118 -0.009022107739
-0.0167973423 0.03732617569 -0.04871309662 0.8184618471 -0.009040212545 -0.5744897558
-0.01791102219 -0.0007669239044 -0.06204513931 0.8641240256 0.357059429 0.3546804655
-0.02051758194 0.001457426608 -0.01953503323 0.9979472 -0.06314038048 -0.01070880203
-0.01791987228 0.003848884344 -0.0657095108 0.8696788226 0.2746874036 0.4101287307
-0.02056189156 -0.0007285354733 -0.01951391792 0.99863534 0.05219172532 0.001865882644
-0.01147084522 -0.01469915009 -0.05320046234 -0.5500744569 -0.7814996679 -0.2944084933
-0.02009429264 -0.00437862289 -0.01973633575 0.9833936538 0.1814447283 -0.003838261841
-0.01629328346 -0.01256555557 -0.02154185104 0.8085143098 0.5884693704 -0.002900170327
-0.01333042431 -0.01567576218 -0.02294648933 -0.6363881798 -0.7713154111 -0.009089617195
-0.01329543114 0.01571814108 -0.02545491982 0.6289776948 -0.7774220792 0.001403633997
-0.0162497673 0.01258899975 -0.02320487785 0.8045108719 -0.593884153 0.007991854591
0.004230034351 0.0569262886 -0.04048949051 -0.2222255157 -0.001388799269 -0.9749943033
-0.0173455801 0.01107672119 -0.02350041199 0.8213479712 -0.5704220548 0.002487886183
-0.01502810192 0.05757590866 -0.04658927536 0.7282848389 -0.002247324365 -0.6852708537
-0.008829195499 0.04933620071 -0.04204517746 -0.4095151357 0.01525447968 0.9121757805
-0.0192124958 0.00733232522 -0.02178147602 0.9450621501 -0.3267883179 -0.008180938382
-0.01781992912 0.05347490692 -0.05026835442 0.8652100185 -0.0003253597746 -0.5014095312
-0.01950959587 -0.006591797829 -0.02163866997 0.9397140009 0.3418162186 -0.009963389447
-0.01735254097 -0.01107646894 -0.02349707508 0.8466830618 0.5320775206 0.004615722265
-0.0111218214 -0.01732325554 -0.02566289902 -0.5263231575 -0.8499040099 0.02543831588
-0.007536354542 0.04580892563 -0.0414792099 -0.3836137606 0.000357186036 0.9234935598
-0.0184465313 0.04343544006 -0.0696975975 0.8954871498 0.000374328159 0.44508721
-0.02056105614 0.01366765976 -0.05869304276 0.9999081683 -0.003738396579 -0.0130261029
-0.007845286369 -0.01903010178 -0.0272295208 -0.4597858438 -0.8880254856 -0.002777550594
-0.02052008343 0.001463705838 -0.02359379339 0.9973789083 -0.07227624878 -0.003384851099
-0.0204415493 -0.002240754366 -0.04288965225 0.9935481643 0.1120117433 0.01775991768
-0.02009333706 -0.004393751621 -0.02298548412 0.9763444153 0.2158849026 0.0120536921
-0.008712599277 0.0192613554 -0.04142631531 0.5941906519 -0.5455993383 -0.5909812444
-0.02054333305 0.02516213989 -0.06155043411 0.9984978719 -0.00454038069 0.05460205756
-0.01891728401 -0.008086815834 -0.02355776024 0.9214132437 0.3885333798 -0.006280690621
-0.013805583 -0.008519899368 -0.06087583923 0.708201762 0.5789364587 0.4040827156
0.0005431573689 0.02365829468 -0.04002894974 -0.04731493695 -0.001431700843 0.9988789952
-0.01818886375 -0.009580760956 -0.02391193581 0.8835668 0.4682255895 -0.00863176315
-0.01095656872 0.01739248085 -0.02910625648 -0.5169068904 0.8559543128 -0.01222624281
-0.02032413673 0.005259029865 -0.04815681839 0.988285841 -0.1341494473 -0.07276690423
-0.01324486446 0.01576154518 -0.02798532867 0.6268332439 -0.7789896915 -0.01597325796
-0.01620896816 0.01264524841 -0.02736227894 0.8078756462 -0.5893498006 0.001937207474
-0.01949167061 -0.006649602413 -0.02987257385 0.9416402517 0.3366205614 0.0004837636903
-0.003190294981 0.05104525375 -0.04025208664 -0.1401695867 0.01470780272 0.9900182663
-0.01732745552 0.01110614109 -0.02598099518 0.822331871 -0.5690009864 -0.002858557104
-0.01989698029 0.005142331839 -0.02553787899 0.9711865444 -0.2383205302 -0.0001442404633
-0.02009261513 -0.00440518564 -0.02544117403 0.9764875425 0.2155607571 0.002374730601
-0.007564315796 0.04737702942 -0.04149132156 -0.3902300337 0.01279606739 0.9206284709
0.005545851231 0.02799361229 -0.04077744293 -0.2537614624 -1.735036735e-05 -0.9672668297
-0.0195033226 -0.006614752769 -0.02491065598 0.9406769898 0.3392232521 0.00737469616
-0.01891133881 -0.008100976944 -0.02520191002 0.917139685 0.3985492873 0.003641937969
-0.018402565 0.04187453079 -0.05144193649 0.8941083635 0.0093071563 -0.4477539628
-0.01817910767 -0.009597659111 -0.02556206512 0.889712263 0.4564910814 -0.005289772607
-0.01734054375 -0.01110566616 -0.02597462654 0.8459689885 0.5331385423 -0.009988249684
-0.01915824636 0.01386725171 -0.05120199331 0.9357809076 -0.1646879866 -0.3117562512
-0.01663606453 0.04140592194 -0.07266603088 0.8549273172 -0.00314379648 0.5187382759
-0.01087946796 0.03770653534 -0.04312341309 -0.4988825066 -0.006771773672 0.8666431721
-0.01324190044 -0.01576169586 -0.02798677254 -0.6293946588 -0.777034763 0.008907337667
-0.007434443951 0.03955079651 -0.04143467331 -0.3820113103 -0.00110560611 0.9241569869
-0.0173153038 0.01112586784 -0.0276442585 0.819412159 -0.5731102441 -0.01040969113
-0.02056701469 -0.000733574748 -0.02602552795 0.9989211733 0.04614260548 -0.005229666189
-0.01839374542 0.04579836273 -0.06979938507 0.8920945126 0.01888402062 0.4514540668
-0.02045309258 -0.002201581001 -0.02608224487 0.995551657 0.0937790164 -0.009077130585
-0.01491565228 -0.01420641327 -0.02883659744 0.7374043693 0.6753269506 0.012973277
-0.01990001583 0.005196493387 -0.03552240181 0.9707173179 -0.2401975508 -0.003609069319
-0.01949751377 -0.006632127047 -0.02738443089 0.9384184733 0.3454941813 0.002130631633
-0.01092896843 0.04158448792 -0.0431583519 -0.5010307857 0.0005085083694 0.8654293115
-0.01733249855 -0.01112524319 -0.0276357975 0.8452505426 0.5342867522 -0.009443868166
-0.01097545815 -0.01742165184 -0.03079002953 -0.5311412023 -0.8472331027 -0.009224585779
0.004321698666 0.05531188583 -0.04050808334 -0.2220400636 -0.001377957704 -0.9750365693
-0.007076782703 -0.01795248985 -0.05027486801 -0.4335854409 -0.869888667 -0.2351539337
-0.01628902817 0.01899977875 -0.04786997986 0.8106808059 -0.1580512221 -0.5637521106
0.004410443783 0.05369837952 -0.04052601242 -0.2225823103 -0.001409736387 -0.9749128822
0.004537735224 0.05127985191 -0.04055157661 -0.2223284312 -0.001395967259 -0.9749708303
0.004736327171 0.04725281906 -0.04059109497 -0.2226395819 -0.001412517581 -0.9748998007
0.005220784664 0.03600476074 -0.04069232559 -0.5577101362 -0.01543101519 -0.829892335
-0.01484153557 -0.01428438759 -0.03393063354 0.7355403842 0.6773442236 -0.01360683885
0.005425628185 0.03119704056 -0.04074596024 -0.2531346166 7.54245233e-06 -0.9674310652
-0.01701547432 0.05897566605 -0.0490864563 0.8296523158 -0.01577337667 -0.5580575557
0.005701726913 0.02319069862 -0.04081825638 -0.2535672663 -8.788972676e-06 -0.9673177562
-0.01085454416 0.01747400284 -0.03340467072 -0.5206038481 0.853798214 0.0004930887907
-0.01783660507 0.01159704971 -0.06950649261 0.861478867 0.13898708 0.4884022455
-0.0148659606 0.01424587107 -0.03138230515 0.7380636459 -0.6747255851 -0.002727544256
-0.01730309868 0.01114568043 -0.02931481171 0.8394255041 -0.5434026101 0.008855865591
-0.0192814579 -0.002277921915 -0.05581472778 0.9401994681 0.2800277417 0.193931493
7.536727935e-05 0.04346671677 -0.04000401688 0.07032864322 0.002351064892 -0.9975211048
-0.007260222912 -0.01926533127 -0.0378120842 0.4350961961 0.9001959773 0.0183984372
-0.0202602272 0.003678123474 -0.02782610703 0.9820131734 -0.1887239144 -0.005780266873
-0.02056830978 -0.0007348479629 -0.02767075157 0.9985740951 0.05236268882 -0.01038871651
-0.01925295067 -0.00676153326 -0.04527995682 0.9314867502 0.357345296 0.06809385934
-0.02040049934 0.05146895599 -0.06316481018 0.9953887269 -0.002056311939 0.09590127135
-0.02045364761 -0.002205407619 -0.02772848892 0.9954655873 0.09447617498 -0.01106873649
-0.0170619812 -0.01060565424 -0.04738201523 0.8214978985 0.5524570132 0.1411823335
-0.0188963604 -0.008136656761 -0.02934433937 0.9143042987 0.405026744 0.0009930161343
-0.003152034283 0.04945895767 -0.04024507141 -0.1378062751 0.001161900797 0.9904585203
-0.01732064819 -0.01114504242 -0.02930608177 0.8378525395 0.5458657782 0.005802944944
-0.01621889877 -0.01267784595 -0.02985988998 0.8110299846 0.5849839751 -0.004910495784
-0.01122686577 0.05954801178 -0.0433597908 0.538866889 -0.02524135881 -0.8420126779
-0.01471356678 0.0297575531 -0.04622191238 -0.706569541 -0.0007991208975 0.7076431623
-0.02045702934 -0.002228725672 -0.03776012802 0.9953242827 0.09603455414 -0.01034101528
-0.01487870646 -0.01424528265 -0.03137592793 0.7359520338 0.6770228141 -0.003835766563
0.0004719811976 0.02761032104 -0.04002515411 0.04988930169 0.001631697237 -0.9987534206
-0.01318222904 -0.01581962204 -0.03138433075 -0.6292636822 -0.7771885775 0.002265674987
-0.01089456654 -0.01747176743 -0.03338466454 0.5209868867 0.8535623246 0.002005464084
-0.01977874756 0.009804048538 -0.05023503876 0.9671760214 -0.1803872728 -0.1789719963
-0.007507555008 -0.0191830883 -0.03422463608 0.4504926155 0.8927518422 0.00710996133
-0.01597566938 0.04738895988 -0.04760044479 0.7829609316 -0.000318170035 -0.6220707985
-0.0003445581198 0.05784345627 -0.0400225563 -0.08827609223 0.002171524243 0.9960936783
-0.0002011518478 0.0530368309 -0.0400107193 -0.08126235775 -0.0002582012954 0.9966927122
-0.0001538006961 0.05143807602 -0.04000819778 0.07997424915 -0.0002913446045 -0.9967968873
-0.01722870064 0.01126645088 -0.03949767303 0.8362979077 -0.5476812766 -0.02551526448
-0.01027153301 -0.0176766758 -0.04322496414 -0.5520547509 -0.8310088265 -0.06826333014
-0.01849777222 0.01361166668 -0.04922714615 0.9060623985 -0.2501092956 -0.3413154995
-0.0001079212576 0.04984074402 -0.04000575256 -0.07853930855 4.764502357e-06 0.9969110176
-0.0147915554 -0.01433696938 -0.03736579132 0.7328879444 0.6803385921 0.003828981723
-0.01991749573 0.005228496552 -0.0414633255 0.9722012793 -0.2331035218 -0.02207760531
-0.01900464439 -0.004547406793 -0.05331024361 0.9272112603 0.3290179923 0.1789593236
2.5869973e-05 0.04505754852 -0.04000137711 -0.07177222124 -0.002307693446 0.997418379
0.0001910304874 0.0394943161 -0.04001018143 0.06486811826 0.002567447163 -0.9978905428
0.000334716022 0.03394264984 -0.04001784134 -0.05770207711 -0.002401727717 0.9983309582
0.0003892970234 0.03156670666 -0.04002074814 0.05528809164 0.0021880846 -0.9984680462
-0.01658262825 0.04299261475 -0.07274440765 0.8528201178 -0.002961028841 0.5221963988
-0.01616984367 0.01270200443 -0.03156254959 0.8001377346 -0.5997923282 -0.005363642068
-0.02009140205 -0.00442439568 -0.0295669136 0.978446629 0.206300669 -0.009067977707
-0.00545185113 0.04366339684 -0.0407528286 -0.2645738791 -0.001563493569 0.9643641522
-0.01075855064 -0.01755603409 -0.03774744797 -0.5055481881 -0.8627967701 0.001662217896
0.0004403260052 0.02919229889 -0.04002346802 -0.0514790793 -0.001074414082 0.9986734952
-0.01314266682 0.01584926891 -0.03309945679 0.6265256315 -0.7793605902 0.007918555302
-0.007278524399 0.02709248543 -0.04136384964 -0.3725232204 0.01123288788 0.9279548871
-0.01729084015 0.0111655817 -0.03099277115 0.8176977064 -0.5756253925 0.005086104442
-0.02049478912 0.03132891464 -0.06259574509 0.9971307165 -0.007463008459 0.07533019088
-0.003250146151 0.05342778206 -0.0402630558 -0.1418993161 0.002032463408 0.9898790094
-0.0205483017 0.001503984988 -0.04977218819 0.9988871831 0.04197902907 0.02149782507
-0.01818859673 0.009656006813 -0.03137309265 0.8720085555 -0.4894866057 -0.001985422891
-0.0205198698 0.001472633153 -0.02934849834 0.9964676765 -0.08386662496 0.004308016315
-0.007384741783 -0.0192240715 -0.03601345062 -0.4446138171 -0.8956646699 -0.01016625709
-0.02023612022 -0.002254367828 -0.04820086288 0.9827619052 0.1736421527 0.0634621186
-0.02010827637 0.0469283371 -0.06504689026 0.9791536966 -0.006337715885 0.2030218507
-0.02056960869 -0.0007361267209 -0.02932311821 0.9981761651 0.06035527138 0.001258844647
-0.02045420456 -0.002209250927 -0.02938188744 0.9955157883 0.09387883012 0.01162241739
-0.01815203094 -0.009657163143 -0.03139157963 0.8829239965 0.4694803134 -0.005783756398
-0.016203825 -0.01270060062 -0.03154545784 0.802217299 0.5969955411 -0.006612794455
-0.01849703026 0.04107733154 -0.06960054779 0.8889380158 -0.01141165292 0.4578853331
-0.01315219021 -0.01584878254 -0.03309466553 -0.6300341463 -0.7765380443 -0.006755755498
-0.003344528675 0.05740822601 -0.04028807449 -0.1470625041 0.0149149582 0.989014744
-0.003060795665 0.04549991226 -0.0402291069 -0.133317513 0.0006395555347 0.9910731717
-0.003006175756 0.04312877274 -0.04022183228 -0.1309406341 0.0138590696 0.9912933353
-0.002971266985 0.04154972458 -0.04021733856 -0.1280127957 -3.735228772e-05 0.9917725156
-0.002937673807 0.03997187424 -0.0402130127 -0.130793555 -0.008629590178 0.9913720675
-0.02056307602 0.007576124191 -0.05686031723 0.99895911 0.02753277423 0.03636815739
-0.002816406965 0.03367153549 -0.04019739914 -0.1180889285 -0.01282930876 0.9929201447
-0.01832515717 0.02962247658 -0.05126330566 0.8860229225 0.006124307258 -0.4636009854
-0.002776479959 0.03131316948 -0.04019225883 -0.1223733558 -0.002095408637 0.9924819248
-0.0183727932 -0.00830344677 -0.04751614761 0.8874919807 0.4446844631 0.1208871891
-0.02053757858 0.03580927277 -0.05902857971 0.9966559999 0.001775256396 -0.08169251041
-0.01668235302 -0.01063780594 -0.04935152626 0.815776635 0.5570489952 0.1555792364
-0.0027391541 0.0289566021 -0.04018745041 -0.1172035983 0.01144799023 0.9930419226
-0.002716001272 0.0273866787 -0.04018447113 -0.1118417067 0.001926742329 0.9937241671
-0.002694144249 0.02581754112 -0.04018165588 -0.109984621 -0.01280012286 0.9938508641
-0.02029972458 0.03577133942 -0.05736611176 0.9930654931 -0.001677578559 -0.1175504666
-0.02004085159 0.04187902832 -0.05585479736 0.9752362207 0.0069864715 -0.22105543
-0.002636333466 0.02111438751 -0.04017421341 0.1209082721 0.02189934875 -0.9924220918
-0.01841433716 0.04341257858 -0.05146851349 0.8960184215 -0.001175106366 -0.4440153235
-0.007282569408 0.01926396942 -0.03780072021 0.4725025796 -0.8777544612 -0.07929954599
-0.01935092831 -0.004534033537 -0.05134131813 0.9473590179 0.2922783388 0.1307067862
-0.01078717709 0.01752365494 -0.0360088768 0.5117586213 -0.8590267608 -0.01327168793
-0.01482665634 0.01428507614 -0.0339382019 0.7372484367 -0.6754906951 -0.01330651486
-0.01615406799 0.01272489071 -0.03325621033 0.7986968248 -0.6016716639 0.008636599098
-0.01727233982 0.01119561195 -0.03352480507 0.8169239671 -0.5767378322 0.002950392397
-0.01958290672 0.03308903885 -0.06686846161 0.9506498129 -0.003330171695 0.310248035
-0.01930690384 0.0007620183825 -0.05939001083 0.9394560085 0.243826432 0.2407718406
-0.0091254673 0.02543421745 -0.04214018631 -0.4686788237 -0.004412295798 0.883357624
-0.01918991375 0.007409673691 -0.03169445133 0.9402880943 -0.3401819801 -0.01159828357
-0.02030490589 0.03961094093 -0.05744571495 0.9908392759 -0.01054915308 -0.1346337429
-0.01989972687 0.00517372942 -0.03132857132 0.9693906513 -0.2454488476 0.006052142258
-0.02026171494 0.003690967083 -0.03114223289 0.9798122133 -0.1996777424 0.009840010922
-0.01930771351 0.03725693512 -0.05349894333 0.9298612811 -0.01050656554 -0.3677602616
-0.019435709 0.009797416687 -0.04867538834 0.949852931 -0.2472903126 -0.191381584
-0.0205442028 0.0591645813 -0.0614991684 0.9993393362 -0.03418855989 0.01233019019
-0.01992079926 -0.002264882326 -0.05189115524 0.9704422388 0.2104484913 0.1181240603
-0.0205196209 0.001475210667 -0.03100919724 0.9964932377 -0.08357796616 0.003993836247
-0.02009025764 -0.004432151437 -0.03123055363 0.9762360817 0.2161872249 0.01503983366
-0.01948775291 -0.006661321163 -0.03154109764 0.943899039 0.3299774235 -0.01301937843
-0.01618868256 -0.01272345734 -0.03323860931 0.8008304701 0.5988009782 0.01038974183
-0.01312201309 -0.01587807655 -0.0348128624 -0.6273490937 -0.7786683334 -0.01042790762
-0.01081316566 -0.01752219772 -0.03599566269 -0.5104042838 -0.8598572957 0.01152814508
-0.01792279625 0.01361292362 -0.04779572678 0.8646049563 -0.3430246726 -0.367140768
-0.005807871819 0.05945897102 -0.04085327721 -0.290264466 0.01348698084 0.9568514206
-0.01613821983 0.01274787998 -0.03495758057 0.804355222 -0.594140105 0.003195676252
-0.005708768845 0.05549432755 -0.04082493973 -0.3035995708 -0.002197408478 0.952797183
-0.02056106949 -0.0007466133833 -0.04282320404 0.9978403606 0.06378779853 0.01567582753
-0.005170663834 0.02566335678 -0.04067919922 -0.2474977909 -0.008282379167 0.9688530568
-0.005671282291 0.05391162109 -0.04081409836 -0.3015177333 -0.01226888004 0.9533816293
-0.02026138306 0.003730257988 -0.04127407074 0.9814010521 -0.1919091019 0.004782427192
-0.005532382011 0.04759714508 -0.04077391434 -0.2868929386 0.005139124403 0.9579488667
-0.005499267101 0.04602252197 -0.04076524353 -0.2673477665 -0.009865196212 0.9635496093
-0.01634827995 0.04936767197 -0.07308813477 0.8474502578 -0.002629321348 0.5308682955
-0.005406685829 0.04130695343 -0.04074100113 -0.2661186741 0.00435202338 0.9639304494
-0.005378071308 0.0397376976 -0.04073350906 -0.2602456937 -0.008705069721 0.9655031852
-0.0157517662 -0.003861868382 -0.06335691833 0.7658880051 0.4607194847 0.44850097
-0.005251746655 0.03190870857 -0.04070043182 -0.2527447435 -0.009518779954 0.9674861691
-0.01478917885 -0.01298703194 -0.0495422554 0.7360327952 0.6521847752 0.1814131841
-0.005219405413 0.02956515312 -0.0406919632 -0.2503004667 -0.001290164455 0.968167347
-0.005189277172 0.02722340202 -0.0406840744 -0.2523333663 0.004408227987 0.9676303218
-0.01908985901 0.04339561462 -0.05286298752 0.9265549402 0.002450168599 -0.3761514846
-0.007169904232 0.01930467987 -0.0396022377 0.4810619557 -0.7842062179 -0.3919183621
-0.01074078178 0.01755703163 -0.03775658035 0.5106531821 -0.8592280507 -0.03099168616
-0.01305639553 0.01592332077 -0.03741656494 0.6223240893 -0.7827587111 0.00123619414
-0.01989984131 0.0051828022 -0.03300006866 0.9698112447 -0.2437297881 0.007870206299
-0.02045561028 -0.002218935728 -0.03354836082 0.9955139937 0.09457837775 -0.002611296484
-0.01948381805 -0.006673092365 -0.03321708679 0.9399029573 0.3414205302 0.003801621498
-0.01946690178 -0.00527389431 -0.04864078522 0.94418801 0.3132168117 0.102001131
-0.01888122368 -0.008172715187 -0.03353079605 0.9203930908 0.3907864573 -0.01274767616
-0.01814203835 -0.009682879448 -0.03391553116 0.8788292498 0.477129727 -0.002524531753
-0.007135050297 -0.01930680656 -0.03962015533 -0.4265704367 -0.9041898814 -0.02187054876
-0.007824149609 0.05998144531 -0.04160243607 0.4066899818 -0.004182682087 -0.9135566561
-0.008598472595 0.05355793381 -0.04195135689 -0.4131779182 -0.008846663068 0.9106073492
-0.007411437988 0.03798958206 -0.04142451477 -0.3758288759 -0.003874545887 0.9266809828
-0.007378912449 0.03565018272 -0.04141003799 -0.3786947397 -0.001640198911 0.9255201802
-0.007329518795 0.03175643539 -0.04138759232 -0.3720568299 -0.001620561942 0.9282085375
-0.01218144274 0.02143569946 -0.04399029732 -0.6004480555 0.07980093849 0.7956720071
-0.007263477325 0.02553964806 -0.0413567009 -0.3722308116 -0.0009084408913 0.9281397511
-0.007249403954 0.02398763657 -0.04134993362 -0.3663859503 -0.003792362129 0.9304552399
-0.01932047033 0.03955753613 -0.05353870583 0.9308047338 0.004598270461 -0.3654878979
-0.01725601959 0.01128543663 -0.04120109558 0.8203609536 -0.5669431192 -0.07472218893
-0.01069416428 0.01759056854 -0.03951266861 0.5291098228 -0.8345435817 -0.153557174
-0.01725372696 0.01122582436 -0.03607222366 0.8180873506 -0.5750882366 -0.002570387246
-0.02037952518 -0.002247238159 -0.04551346016 0.9918563587 0.1239654325 0.02921532489
-0.01864647102 0.03325325394 -0.06931613159 0.8946463764 -0.01622796815 0.4464801386
-0.01816628456 0.009699145317 -0.03559225464 0.8796636793 -0.4753310571 -0.01588072558
-0.01918029881 0.007435966015 -0.03505835915 0.9327619615 -0.3603666938 0.009537777434
-0.02008549547 -0.004451729655 -0.03542426395 0.9757177543 0.2190135584 0.002815158029
-0.01814824677 0.009734021187 -0.03900333405 0.8706727715 -0.4918624237 0.0005301424371
-0.01919312859 0.0557616806 -0.05312342834 0.9275924627 0.008835578421 -0.3734891642
-0.01887512016 -0.008187255859 -0.03521898651 0.9158954548 0.4013669586 0.006330917265
-0.01990614414 0.05890435219 -0.05550449562 0.9658433543 -0.0087216201 -0.2589798222
-0.01726821327 -0.01122529411 -0.03606469727 0.8421673077 0.5391363853 -0.009283526846
-0.01675531769 0.0311973629 -0.04863633347 0.813623876 -0.007788033467 -0.5813394318
-0.01070367241 -0.01759003258 -0.03950772858 -0.5102491708 -0.8598504028 -0.0174088629
-0.006794033051 -0.01936165237 -0.04154961014 0.05095924513 0.9985127415 -0.01937680036
-0.009092784405 0.02157166862 -0.04212272644 -0.5475524485 0.1179622145 0.8284148913
-0.02037330627 0.05538406944 -0.06330924225 0.9944946756 -0.005308549988 0.1046525653
-0.009624000549 0.05974631882 -0.04243470383 0.4950253611 -0.01789328948 -0.8686942627
-0.02008261299 -0.004463576913 -0.03796195412 0.9806424569 0.1956863834 -0.006871036813
-0.009346566677 0.04328212929 -0.04225829887 -0.4822112465 -0.002915488032 0.8760501205
-0.009288544655 0.0393886528 -0.04222730255 -0.47800944 -0.004683279661 0.8783422124
-0.009266923904 0.03783365631 -0.04221575165 -0.4737334594 0.005230785018 0.8806527399
-0.009207328796 0.03317593765 -0.042183918 -0.4725599947 0.00604145694 0.8812777951
-0.009140100479 0.0269806881 -0.04214800262 -0.4638957028 5.956780078e-05 0.8858898201
-0.01383299065 0.05299941254 -0.0453567276 -0.6643901923 -0.008651243506 0.7473358204
-0.009111701965 0.02388858223 -0.04213283157 -0.4646972929 0.004737779975 0.8854569326
-0.0129991436 0.01596840382 -0.04003237534 0.6217052937 -0.7647159584 -0.1693872215
-0.01724124336 0.01124608994 -0.03778095245 0.8149181068 -0.5794190614 -0.01349186698
-0.01926746559 0.007202529907 -0.03726848729 0.9420572301 -0.3353831789 0.006804297468
-0.01947389793 -0.006702762127 -0.03744144249 0.9376991432 0.3474420468 0.002083513152
-0.01812860489 -0.00971745491 -0.03730889511 0.8793108017 0.4762476284 0.0008428897697
-0.01725495338 -0.01124558735 -0.03777375412 0.8412058676 0.5406813267 -0.006032517269
-0.01301244259 -0.01596772003 -0.04002539063 -0.6217910024 -0.7830672124 -0.01347925136
-0.01054603195 -0.01762997055 -0.04133045578 0.5511310302 0.8329561742 0.04938217787
-0.006208533287 -0.01943169594 -0.04361922455 0.05095085005 0.9985131211 -0.0193793137
-0.01119628143 0.05797651291 -0.04333955765 0.5526949777 -0.005349411264 -0.8333664532
-0.01108289528 0.05170967102 -0.04326382065 -0.5282441545 -0.001068483394 0.8490918511
-0.0202131176 0.0237234726 -0.06446665955 0.9858468563 0.01082412738 0.1672985781
-0.01104415464 0.04936722755 -0.04323761368 0.5136767028 -0.006563918869 -0.8579587169
-0.01098370743 0.04547086334 -0.04319632721 -0.5053092699 0.002260453485 0.862935358
-0.01421539307 0.03901418686 -0.04575354767 -0.6880242938 0.004935032158 0.7256708735
-0.01927962875 0.008263941765 -0.04527049637 0.9337302496 -0.3254958493 -0.1489975605
-0.01096111107 0.04391513824 -0.04318072891 -0.5104972976 -0.00259703654 0.8598754355
-0.01089857101 0.0392566452 -0.04313698578 -0.50020728 0.009891355736 0.8658492006
-0.02001058388 0.03573968887 -0.05574039078 0.9762351903 0.009507987899 -0.2165050838
-0.0108525486 0.03538388634 -0.04310406494 -0.5186116411 -0.004618779645 0.8549974459
-0.01082676125 0.03306369019 -0.04308603668 -0.5294363272 0.005908706767 0.8483291004
-0.01077079391 0.02766011333 -0.04305052185 -0.5145037706 -0.001957263002 0.8574858827
-0.01074973202 0.0253477211 -0.04303715897 -0.5250196264 0.001656931017 0.8510885068
-0.01724163246 -0.011265975 -0.03949081039 0.8331350636 0.5529948398 0.009092466372
-0.02017728043 0.01758985329 -0.06440871429 0.9841034165 0.03153381752 0.1747743804
-0.01073677921 0.02380727196 -0.04302893829 -0.525040026 -0.001102273923 0.8510768215
-0.01192346859 0.01758348274 -0.04234825516 0.5781954149 -0.6945727805 -0.4280872747
-0.01328791523 0.01598180199 -0.04161384964 0.6332282813 -0.6920019589 -0.3466341482
-0.01493742514 0.01439365673 -0.04159446526 0.7421448278 -0.6384890729 -0.2038449368
-0.01684831429 0.04347711182 -0.04880303574 0.8219746231 -0.001887776488 -0.5695209876
-0.01609335136 0.01281736088 -0.04010748291 0.8126285013 -0.5790071666 -0.06622401306
-0.01616329527 -0.01067505026 -0.05141304207 0.791522162 0.5785538014 0.196896333
-0.02026023102 0.003717055798 -0.0378663559 0.9822829779 -0.187205964 -0.008606879304
-0.01163511848 -0.01615290642 -0.04776703262 -0.5596345737 -0.8118116755 -0.1666461745
-0.01812184143 -0.009734863281 -0.03901734543 0.8783829291 0.4778929887 0.007856282478
-0.01611857033 -0.01281630993 -0.04009410477 0.7994703459 0.6005293997 0.0145466881
-0.02057639503 0.03356529617 -0.06077057648 0.9998631366 0.002517091323 0.01635152336
-0.01470201111 -0.01439186859 -0.04085412598 0.7249041464 0.6877927902 0.03814519921
-0.0200771904 0.0516205101 -0.06521070099 0.972575604 0.008009308483 0.232449017
-0.0126188879 0.05938937378 -0.04438851547 0.6100164107 -0.02571126455 -0.7919715333
-0.01428944588 0.04519196129 -0.04582684898 -0.7043960925 0.009314805083 0.7097459963
