# .PCD v0.7 - Point Cloud Data file format
VERSION 0.7
FIELDS x y z normal_x normal_y normal_z
SIZE 4 4 4 4 4 4
TYPE F F F F F F
COUNT 1 1 1 1 1 1
WIDTH 468
HEIGHT 1
VIEWPOINT 0 0 0 1 0 0 0
POINTS 468
DATA ascii
0.01492128001 -0.0086557303 -0.001464097793 0.8718004071 -0.4632293811 -0.1593191474
0.01543489552 0.007162493388 -0.01183269374 0.8895101204 0.4566800349 -0.01466599824
0.01146593618 0.01256885338 -0.008564344883 0.8439271438 0.5268064409 0.1013012824
-0.01926863518 0.007333940506 -0.04147898102 0.9362655186 -0.3401548914 -0.08775835286
-0.01249559956 0.01628635216 -0.0213552227 0.6139475676 -0.7891178991 0.01900856326
0.01699261411 -0.0007908637524 -0.001384625634 0.8993509258 -0.1123362947 -0.4225499606
-0.006964541674 -0.01933422947 -0.04058488274 0.4485231081 0.8928055369 0.041536668
0.01479859982 0.01116734409 -0.0007457067586 0.8266049446 0.5526171445 -0.1064826614
-0.0001542912672 0.05143855031 -0.04000822322 0.005103484042 -2.366050364e-05 0.9999869769
-0.01430975914 0.01162318325 0 0.6764958444 -0.6205983804 -0.3964984525
0.02016874695 0.002389409304 0 0.8401112068 0.3136625763 -0.4425256471
0.006496356487 0.01923352432 0 0.2582699387 0.8034955921 -0.5363687838
-0.01691431639 0.05120490985 -0.04893993335 0.821254337 -0.008450589493 -0.5704996946
-0.002115944624 0.01879403877 0 0.08219480726 -0.9114001691 -0.4032291475
0.006496356487 -0.01923352432 0 -0.2294348873 0.8307611235 0.5071445436
0.0167423439 0.003161613405 -0.001293017358 0.8876222158 0.06419984061 -0.4560758517
-0.01569842339 -0.006927749634 -0.05974527359 0.7720030485 0.5119216697 0.3767592032
0.001869359851 -0.01977335072 -0.0007110127211 -0.2558481487 0.9582535108 -0.1276398599
0.01637495963 -0.004757198135 -0.005380844156 0.9612445952 -0.2631027133 -0.08237590923
0.001958675226 0.01901139577 -0.0004736766815 0.2545988626 0.9593309957 0.1219157904
0.0201684761 -0.0007964697679 0 0.8993509258 -0.1123362947 -0.4225499606
-0.0163171839 -0.01245814201 -0.02933306095 0.7875957282 0.6158702017 0.01992143474
0.002139906168 -0.01748764992 0 -0.2437228899 0.9691298843 0.0372346646
-0.002742079735 0.02036301994 -0.00460907793 0.1757596311 -0.9576544715 -0.2280492606
-0.02020877806 0.003670149485 -0.02538357608 0.9754780115 -0.2200968301 0.0001853993577
-0.01290990124 -0.01593709736 -0.001819681355 0.5573165836 0.6979267591 -0.4497737927
0.01699781439 -0.0007941543526 -0.005616245455 0.9895248665 -0.003879445065 -0.1443103891
0.01547077024 0.007288814127 -0.001456992688 0.8494577109 0.5192368723 -0.09388646252
-0.01934367879 0.04339972242 -0.05361019516 0.9330688068 -0.001038985469 -0.3596964308
-0.0100593257 0.01470680714 -0.0001096329316 -0.5192006115 0.6909877337 0.5029579276
-0.01115219975 0.05562317657 -0.04331024933 0.5134090674 -0.01776157092 -0.8579601716
0.0106994168 -0.01633895651 -0.0004603223801 -0.5688366583 0.8190006041 0.07525202055
0.0002953624626 0.03552798716 -0.04001574326 0.03454763972 -0.004948671537 0.9993908001
0.01638018751 -0.004737627804 -0.001160447501 0.9407143853 -0.2034573482 -0.2714066189
-0.01970018997 0.04735696106 -0.06642388763 0.9427830999 0.0277469484 0.3322501068
0.01555250502 -0.01259820509 -1.615935937e-05 0.8316253486 -0.4669384987 -0.3006122386
0.01094962311 0.01556313467 0 0.5550496922 0.6965107025 -0.4547446322
-0.01914775085 0.007667421341 -0.06496533203 0.9311403021 0.1743306721 0.320291359
-0.01704794827 -0.008387072277 -0.0535643219 0.809884422 0.5301749117 0.2510015657
0.01142558784 0.01263660431 -0.001507091498 0.6770172609 0.7118297372 -0.1869386361
0.01142733879 -0.01263667355 -0.001507750106 -0.596974761 0.7549590457 0.2714000258
-0.0198012886 0.01532522559 -0.06553723717 0.9621795265 0.04279892074 0.2690331041
-0.02031516043 0.04732228406 -0.05763251177 0.9819616576 -0.02197407325 -0.1877989432
-0.009445692698 -0.01745564906 -0.0008821897507 0.3863871214 0.7732660517 -0.5027570047
-0.02002809715 0.05555135536 -0.06537260437 0.9661498164 -0.006528457003 0.2578990336
-0.01431089465 -0.01235033417 0 0.6549598823 0.6323099082 -0.4137773949
0.01019930363 0.01789061737 -0.001381078601 0.7084422121 0.7044481537 -0.04315589051
-0.02051954492 -0.0007207902273 -0.009171278159 0.9968744084 0.07898384232 0.001722344268
-0.008999223232 0.01846846199 -0.001323141098 -0.3535639594 0.8372655835 0.4171077429
-0.0184351387 0.01466440201 -0.06915624237 0.8912043222 0.1069207935 0.4408205984
0.006934272099 0.01557382927 -0.001480523658 0.5509528005 0.8344236229 -0.01371966442
-0.01503963804 0.05835703659 -0.04660311127 0.7233320042 -0.06755822915 -0.6871875271
-0.00627479744 0.017092659 0 -0.2837451656 0.8206087409 0.4960745663
0.01555476311 0.006895109926 -0.005553248031 0.9192827676 0.3911546191 -0.04378649556
0.01674335893 0.003174723943 -0.005520077705 0.9638087296 0.2328085196 -0.1298958274
-0.009779255867 -0.01398363304 -0.0002192816436 0.5072366489 0.6990315606 -0.5040494612
0.006934272099 -0.01557382927 -0.001480523658 -0.5516389192 0.8214040811 -0.1448787022
-0.01519504229 0.0139047931 -0.009112523397 0.7854153853 -0.6187025396 0.01816149893
0.008539092064 -0.01476294518 -0.004911111116 0.7210044177 -0.6927373627 0.01635775141
0.0116671505 0.01238229408 -0.005611759663 0.7649495743 0.6398069739 -0.07415648888
0.01367311001 0.01023693848 -0.005200540066 0.8186542505 0.5678840936 -0.08551534582
0.01461744356 -0.008682892005 -0.005559673309 0.8610933117 -0.5000263329 -0.09215191267
0.0136537509 0.01027045059 -0.008574681282 0.7915760102 0.6022256419 -0.1035939009
-0.01927619438 -0.007181365871 -0.02142672806 0.9402282575 0.3405438631 -0.0008373623225
-0.008299453259 -0.0188243742 -0.01782278156 0.5140251055 0.8577675087 0.003618294835
-0.001750627756 -0.02051174927 -0.00909695816 0.2702530094 0.9626377393 0.01708489731
0.01167131329 -0.01238245945 -0.005613365173 -0.6904058873 0.7148358039 0.1111282334
-0.01624473604 0.003873723427 -0.06860219065 0.8038035569 0.290728001 0.5190154827
0.01636470795 -0.004788801908 -0.01220198488 0.9761533848 -0.2159499435 -0.02214026265
-0.02030240695 0.04346236971 -0.05754069604 0.9831979693 -0.01111081821 -0.1822040143
-0.004300172806 0.01971125158 -0.001304823478 0.2239008599 -0.9090010572 -0.3515472699
-0.002115463495 0.01728790092 -1.421085472e-17 0.08219480726 -0.9114001691 -0.4032291475
0.008539092064 0.01476294518 -0.004911111116 0.7358756576 0.6747403543 -0.05667866376
-0.01877023602 0.02315131855 -0.0690512352 0.9407142352 -0.007365393352 0.3391201537
-0.00627479744 -0.017092659 0 0.3070536768 0.814142659 -0.4928384831
-0.008658788681 0.01864423752 -0.00948547411 -0.3783544925 0.9254341824 0.02048052935
-0.002115463495 -0.01728790092 -1.421085472e-17 0.1250521871 0.8921204543 -0.4341463412
-0.01835663859 0.0473778801 -0.06987121073 0.8987110778 -0.001175537666 0.4385396411
-0.007928595384 -0.01899236488 -0.02550401878 0.5025127821 0.8645627534 0.00348559124
-0.002115944624 -0.01879403877 0 0.1250521871 0.8921204543 -0.4341463412
-0.02054167318 0.02745997763 -0.0615884819 0.9956745568 0.00539033338 0.09275301225
-0.01369362354 -0.01256653849 -0.05372343191 -0.6782583437 -0.68405604 -0.2683895553
0.005380700111 0.01617728806 -0.004519686699 0.5509528005 0.8344236229 -0.01371966442
0.01544179551 0.007144760052 -0.009271915277 0.8758353214 0.481530946 -0.03225581817
0.01636864567 -0.004776901841 -0.00963331008 0.9775692301 -0.2102736748 0.0119742209
0.01674389076 0.003187932253 -0.009779616356 0.983301577 0.1819834169 0.0002113631984
-0.01531002315 0.0358675855 -0.04686498769 0.7516228977 0.01794839643 -0.6593488263
-0.01430687714 0.009442565918 0 0.7354484209 -0.4848784404 -0.4732953816
-0.01820341682 -0.009555555344 -0.02145073318 0.9018386116 0.4319306293 0.01109279842
0.01700272846 -0.0007974681457 -0.009880540053 0.9942593166 -0.1039449805 -0.02537424776
0.0146042099 -0.008711450418 -0.008945306619 0.84613225 -0.531729419 -0.03638736708
-0.01413365078 -0.01448258352 -0.0455127449 0.6796552816 0.7247287317 0.1133003253
0.005380700111 -0.01617728806 -0.004519686699 -0.5516389192 0.8214040811 -0.1448787022
-0.01896136284 -0.007935329755 -0.005918813229 0.9072690433 0.4049958212 -0.1133193184
-0.004315293233 -0.01971029409 -0.00129890426 0.2358215912 0.8435150998 -0.4825665275
-0.01475782871 -0.0007777063251 -0.06765770721 0.7607045963 0.3909249992 0.5181758024
0.009991306305 0.01799879265 -0.007987769604 0.8056875374 0.538342256 0.2470935195
-0.02009257671 -0.0005399899738 -0.05305598777 0.9727620035 0.195990034 0.1237820308
0.01147341299 -0.0125691514 -0.0085672822 0.8446252821 -0.5206983593 0.1244240792
0.005256561041 0.03520329094 -0.04070169258 -0.1374598264 0.001887215355 -0.9905055449
0.009992507935 -0.0179988575 -0.007988241673 -0.5969504226 0.8017210552 -0.02989218367
-0.01578814602 0.05905489349 -0.07378910065 0.865503616 -0.002754459726 0.5008951025
-0.01314307308 0.01558172973 -0.00151668029 -0.5743848178 0.6867459538 0.445490826
0.0167428112 0.003195901275 -0.01235213947 0.9915694033 0.1246564518 -0.03536788722
-0.02020793025 0.00363863794 -0.01726498159 0.9758231802 -0.2180484315 0.014966711
0.01700476201 -0.000799463431 -0.01245617421 0.9940415312 -0.1074790755 -0.0181571643
-0.01818883642 0.003591387987 0 0.8765927562 -0.2574566213 -0.4065725372
0.01507176828 -0.007951621532 -0.01168845844 0.912326191 -0.4068507708 -0.04618843428
-0.02000496912 0.007624851227 -0.06170316124 0.9699697244 0.1232007005 0.2097148566
-0.01077079391 0.02766011333 -0.04305052185 -0.5273395664 -0.01762558187 0.8494717892
-0.01430687714 -0.009442565918 0 0.7015707324 0.5405505563 -0.4643313511
-0.01225631285 0.03168710423 -0.07712974167 0.7168827778 -0.02336399396 0.6968021288
-0.00279556632 -0.02035962677 -0.004587795258 0.1692118098 0.9512751256 -0.2577653951
-0.008794085026 -0.01857360363 -0.006201604843 -0.3990551951 -0.9053145497 0.1454665503
-0.002359057426 0.02042148209 -0.006390797615 -0.2065354486 0.9497194984 0.2353210207
-0.01701320616 0.05923676173 -0.04909525108 0.824604759 -0.001856150524 -0.5657062366
-0.00882979997 0.01855593936 -0.005385269006 -0.4217254141 0.8962485872 0.1374268719
-0.01527370834 0.01379635715 -0.001964212 0.7018519382 -0.643049452 -0.3064168062
-0.01707385788 0.01141037254 -0.001700170434 0.7394197984 -0.6191500667 -0.2644079361
-0.01824383354 0.008484953308 -0.0009118723392 0.8376439924 -0.4256114054 -0.3423557705
-0.008181208324 0.01990257683 -0.04118238297 0.5596685964 -0.5889066869 -0.5830608684
-0.01818784841 -0.0007182522615 0 0.9498780015 0.03708334193 -0.3104136081
-0.0003685599715 0.05864641953 -0.04002530479 -0.01253161871 0.04447129919 0.9989320608
-0.01818982442 -0.005028120518 0 0.8798786694 0.2835068812 -0.3813625251
-0.01825521326 -0.008990008593 -0.001140589595 0.8222051881 0.4668815449 -0.3255767984
-0.01655948121 -0.01209207521 -0.001775635898 0.7266283248 0.6039575291 -0.3274852373
-0.008896810532 -0.01852087021 -0.00375440526 -0.3736815822 -0.8910678935 0.2576045115
-0.002433303833 -0.02041676331 -0.006360877514 0.2081245353 0.9576468776 -0.1989890339
-0.001988784671 0.02047933578 -0.008176955223 0.274947332 -0.9613469537 -0.01469691331
-0.01326743031 0.05853325844 -0.04490570927 -0.6471997876 0.04022467362 0.7612584388
-0.01828982035 0.009431337039 -0.009359766483 0.8975903062 -0.4406000539 0.01425603853
-0.01242039509 0.01632115593 -0.005822648525 0.6366472375 -0.7631380114 -0.1109083877
-0.01925360537 0.007177231073 -0.001895006597 0.8738790514 -0.42586043 -0.234474514
-0.01495665614 0.01415540504 -0.02548453903 0.7731486545 -0.6341111609 -0.01200806638
-0.02020750936 0.003577439586 -0.001501728574 0.9712111977 -0.152624479 -0.1829059266
-0.0181601181 0.01284527016 -0.04765811539 0.9019373517 -0.2920387886 -0.3181546158
-0.0205121727 -0.0007147498131 -0.001376108487 0.9722461978 0.03593957748 -0.2311832123
-0.01990778478 -0.005013553262 -0.001625319074 0.9154864577 0.2892533773 -0.279673076
-0.01896931171 -0.007901819706 -0.002012176692 0.8859998181 0.3792193339 -0.2668276954
-0.01931618023 0.05578666496 -0.06768015289 0.9348548963 -0.009989230985 0.3548894731
-0.01242746353 -0.01632076035 -0.005819726086 -0.6213241212 -0.7717459999 0.1355154902
-0.01230042915 0.01643794308 -0.02979634399 0.6258086945 -0.7797281359 -0.01968532311
-0.019221735 0.007300678372 -0.01772562361 0.9080486778 -0.4188482062 -0.00371200131
-0.0152387991 0.01384432173 -0.005125821829 0.7229153651 -0.6639797943 -0.1911130754
-0.01640363479 0.00698352015 -0.06991633606 0.8180517052 0.2235804421 0.5299086653
-0.01684058914 0.01175568695 -0.005558609247 0.8026998737 -0.5860752266 -0.1104026334
-0.01684295527 0.03508345668 -0.07237435659 0.8003240246 -0.009809690256 0.5994874691
-0.01638428756 -0.01235236767 -0.005434398038 0.7822679502 0.6130208377 -0.1107352995
-0.0192308801 0.007269354741 -0.01371121661 0.9100589365 -0.4144788086 -0.0002218816726
-0.01830687428 0.009391067028 -0.005411175251 0.8816243467 -0.4415092949 -0.1667574697
-0.01924701468 0.007207637707 -0.005797234535 0.9014189164 -0.4108902129 -0.1364300925
-0.01989388514 -0.004502410591 -0.04578725243 0.959270468 0.2770171807 0.05533218604
-0.02020638148 0.003592542542 -0.005388721678 0.9804074655 -0.1681966129 -0.1025236606
-0.02051584265 -0.0007177570264 -0.005256936073 0.9894840142 0.05484635439 -0.1338404387
-0.01967727068 0.01590838676 -0.05387129635 0.9728739289 -0.07127111373 -0.2200834995
-0.01990686162 -0.005034707361 -0.005516292625 0.9762564694 0.1966188657 -0.09090834685
-0.01829823017 -0.009391333103 -0.00541481638 0.8599221757 0.4905428365 -0.1410729501
-0.00865619278 -0.01864439106 -0.009486567497 0.3677635986 0.9298843487 0.00806433987
-0.01274056377 0.01608055267 -0.009845658302 0.6456059097 -0.7635360759 -0.01434120536
-0.01668677584 0.03982268524 -0.07259165192 0.8928038578 -0.01083839647 0.4503152237
-0.01945891094 0.0596636343 -0.05398660946 0.9566194718 -0.01170681766 -0.2911050266
-0.01632999134 -0.01240758026 -0.009416412055 0.7863501383 0.6175476634 0.01698068117
-0.01865837669 -0.00380441618 -0.05618355179 0.9142727893 0.3374860378 0.2240724012
-0.008452373886 0.05546855621 -0.04188935699 -0.4383630992 -0.006512562317 0.8987743765
-0.01918251324 -0.007422923644 -0.0333764747 0.93434754 0.3563263065 0.005122289668
-0.01274519711 -0.01608027096 -0.009843701172 -0.6313155444 -0.7752476673 0.02077829854
-0.008485890706 0.0187335097 -0.0136309131 -0.5215739847 0.8532060423 0.0001667382639
-0.01860445499 0.03559540939 -0.06939561844 0.9084687278 0.009051985253 0.417854798
-0.01701684608 0.01150904694 -0.009596186447 0.8010890382 -0.5985080588 0.006667565723
-0.01827486738 -0.009431799571 -0.009366261323 0.8982197007 0.4395094724 0.005726516554
-0.008482158343 -0.01873373159 -0.01363253403 0.5209044892 0.8536130988 0.001786237376
-0.01245439124 0.01630365491 -0.01351829958 0.6376470175 -0.7703040557 -0.006159776186
-0.01923992014 0.007238318801 -0.009733613729 0.9105408686 -0.4134182369 -0.0008294481195
-0.01268761635 -0.0007850471735 -0.06987472534 0.7137857889 0.4040793968 0.5720399362
-0.02020669651 0.003607759277 -0.009308765888 0.9788407403 -0.2044563623 -0.008270497899
-0.0002739810124 0.05543812943 -0.04001524544 -0.004568374469 0.02181793568 0.9997515229
-0.0199059302 -0.005056045016 -0.009440983454 0.9685328913 0.2488789108 -0.001823787574
-0.01895334435 -0.007969131708 -0.009859478474 0.9276174697 0.3734508391 -0.007765353762
-0.02037780952 -0.0007523958683 -0.04899480057 0.9844235856 0.1582118538 0.076676029
-0.01246494055 -0.01630304384 -0.01351373219 -0.6288593129 -0.7775190649 -0.000261343519
-0.015141716 0.01396622705 -0.01313930988 0.7811872851 -0.6241570181 0.01320766366
-0.01720297105 0.01117639337 -0.01348108101 0.8106268743 -0.5854174174 0.01305826061
-0.01993518957 0.02376774311 -0.0655598704 0.9543002982 0.005951867834 0.298790087
-0.01759471618 0.03576278771 -0.05000709152 0.8519382404 0.00277687393 -0.5236349144
0.0005431573689 0.02365829468 -0.04002894974 0.03549459818 -0.02082146692 0.9991529413
-0.01631098775 -0.01246034772 -0.01342151873 0.7879250957 0.6151823077 0.02692158678
-0.00831127739 0.01882366753 -0.0178174839 -0.5166526691 0.8561907771 -0.002715270647
-0.01177632904 0.0341308403 -0.07749108124 0.7168827778 -0.02336399396 0.6968021288
-0.005380426645 -0.01949969196 -0.0449454937 -0.4254208255 -0.8983095952 -0.109804337
-0.01215351524 0.01653010349 -0.0172377491 0.6248830334 -0.780459592 0.02010024326
-0.02054433187 0.02363206418 -0.06152753003 0.995500601 0.01790145934 0.09304886411
-0.01715875626 0.0114824959 -0.04147097492 0.8305060428 -0.532753176 -0.1625846439
0.0001910304874 0.0394943161 -0.04001018143 0.02382867701 -0.003500768626 0.9997099273
-0.02020731099 0.003623127964 -0.01326867983 0.9820678646 -0.1885270093 0.0005254625225
-0.02052326414 -0.0007238545219 -0.01312547514 0.9970563137 0.07479897357 0.01684698426
-0.0199044075 -0.005077607552 -0.01340602313 0.968025855 0.2508288778 -0.003289081378
-0.02051521428 0.003774249739 -0.0533207088 0.9991197391 0.02986954126 0.02945432699
-0.01894524447 -0.00800328064 -0.0138405962 0.9268741179 0.3753243359 -0.006001040538
-0.0205384922 0.03559428864 -0.06156447906 0.9988316518 -0.001105286445 0.04831262549
-0.0109502511 0.04313801575 -0.04317318535 -0.4975483742 0.006091715812 0.867414841
0.005360617161 0.03279925156 -0.04072893906 -0.1415734133 0.002830704298 -0.9899237121
-0.01825129318 -0.009472630978 -0.01335334444 0.9001252086 0.4353428484 0.01584970622
-0.02035647615 0.0114267834 -0.06151145681 0.9904077377 0.07386466528 0.1167755299
-0.01334647274 -0.01006631947 -0.05932950974 0.6617436962 0.6357538188 0.3973818849
-0.01626630616 -0.0121210928 -0.04520816326 0.7862978117 0.610363343 0.09587669614
-0.01217398586 -0.01652894211 -0.01722855988 -0.6227509205 -0.782126558 -0.02143217749
-0.0184465313 0.04343544006 -0.0696975975 0.9012339491 -0.001397636155 0.4333306077
-0.01508359845 0.01402851073 -0.01721114635 0.7757915879 -0.6309499498 -0.007040812348
-0.0162567637 -0.0125166446 -0.01748227513 0.7923030949 0.609983367 -0.01327018565
-0.01917208958 0.007455876112 -0.03760297108 0.9270405382 -0.3730993922 -0.0373186831
-0.008170166016 0.01889652634 -0.02120079803 -0.5113142703 0.8593925566 -0.001466496557
-0.01804431629 0.05930746841 -0.07048026657 0.8937429353 -0.027264274 0.4477501813
-0.0128412571 0.02371054236 -0.04453340912 -0.6434184443 0.04448981499 0.7642207547
-0.02053298442 -0.0007396432658 -0.0335078392 0.9969132511 0.07696206939 0.01551804387
-0.01744305539 0.01082347929 -0.01754324937 0.8515935516 -0.5241999892 -0.001671561688
-0.01289793873 0.03139217758 -0.04459224637 -0.6284944282 -0.0009960068979 0.7778134492
-0.01822746849 -0.009513895671 -0.01738277817 0.9016432647 0.4322777831 0.01324165826
-0.008135595322 -0.01889859867 -0.02121662426 0.5073324235 0.8617482685 0.001932304935
-0.02052668349 -0.0007269488871 -0.01711608378 0.9970859479 0.07230128303 0.02433386637
-0.02049252923 -0.000749126941 -0.04544985835 0.9921939605 0.1219477462 0.02607473919
-0.0200950036 -0.004367361665 -0.01731778431 0.9681042426 0.2504371221 0.007444680917
-0.01731362752 0.01102668272 -0.03725618635 0.8136285878 -0.5805860391 -0.0304692036
-0.007719342709 -0.01908715248 -0.02983807182 0.4926154139 0.870235214 0.004552608696
-0.01922608948 -0.007300586343 -0.01772360897 0.9359504591 0.352008081 0.009330002775
-0.01989119784 0.03147968165 -0.06572304662 0.9582210891 0.0005246810656 0.2860280913
-0.01250740643 -0.01628564625 -0.02134978065 -0.6167542357 -0.7869104149 -0.01965226908
-0.00796564277 0.0189901371 -0.02548660723 -0.5061391984 0.8624418354 -0.004146371294
-0.01391304684 -0.007749094725 -0.06172470856 0.6818229029 0.5768261373 0.4498768014
-0.01502063179 0.01409159184 -0.02132433128 0.7320929447 -0.6811990697 0.002783473266
-0.01714145252 0.01127477387 -0.02160700526 0.8222836632 -0.5688579279 -0.01581881992
-0.02050686264 0.04363485718 -0.061959397 0.9982895023 0.01168467365 0.05728471032
-0.01516700045 0.03946677272 -0.046710687 0.7569784423 -0.001010095511 -0.6534390695
-0.01623582241 -0.01257053511 -0.02156915447 0.7908755494 0.6116674735 -0.01946194424
-0.007322482347 -0.01924470139 -0.03691276741 0.4786507725 0.8779940431 0.004460738434
-0.01194960842 0.01668354626 -0.02560102882 0.6168522575 -0.7870003288 -0.01112541437
-0.01926971474 0.00718149662 -0.02142981911 0.9300138182 -0.3675237201 -0.0007830485227
-0.02020855692 0.003654315843 -0.02130451881 0.9873089712 -0.1588027878 0.001634002064
-0.02052848286 -0.000730074048 -0.02115057394 0.9973682999 0.0712009596 -0.01367105233
-0.01739625849 0.01088961846 -0.02547570528 0.8467237077 -0.5320324851 0.0006306403997
-0.02009381517 -0.00438618203 -0.02135978476 0.9676348674 0.2521228639 0.01080855991
-0.008307580948 0.0355769043 -0.04180470276 -0.4223849488 -0.01560214539 0.9062822563
-0.01198757153 -0.01668142338 -0.02558295746 -0.6121327892 -0.7907423955 -0.004462327363
-0.02029857111 0.0191690731 -0.05733237696 0.9863853412 -0.02265534083 -0.1628824551
-0.01601358564 -0.01284282834 -0.0254423027 0.793321804 0.6088017834 -0.0009507660053
-0.01950634079 0.00766008358 -0.04549117203 0.9529022429 -0.2848058295 -0.1042255004
-0.007738977432 0.01908596706 -0.029828578 -0.4974961715 0.8674639681 0.001955360459
-0.01914779854 0.007508769035 -0.02541597862 0.906180157 -0.4228868438 -0.002059201893
-0.02026164818 0.02735889784 -0.05723922157 0.9777572779 -0.002456658502 -0.2097252259
-0.01201583409 -0.01666759849 -0.03366921425 -0.6026294725 -0.7976536564 0.02421493918
-0.01914735413 -0.007508812714 -0.02541618233 0.9339050329 0.3573926318 0.009586249578
-0.01935999203 0.05262673378 -0.06754376602 0.935596701 0.02244146683 0.3523566285
-0.01919561291 0.007390154362 -0.02919285011 0.9278334429 -0.37263483 0.01638248307
-0.01817909304 -0.009597683907 -0.02556444168 0.9028357254 0.4298350957 -0.01137731871
-0.02052996667 -0.0007332288027 -0.02522446314 0.9962143808 0.08689527648 0.002473556958
-0.01219538244 -0.0165203584 -0.04045624415 -0.6070907782 -0.79415232 -0.02762027677
-0.02009261513 -0.00440518564 -0.02544117403 0.9673439124 0.2534646968 0.001184340549
-0.01232815418 -0.01643640251 -0.02978276939 -0.6074516165 -0.794107625 0.01989003655
-0.007553921938 0.01916359425 -0.03334204674 -0.5328579477 0.8454070556 0.03673306239
-0.01489202547 0.01421987247 -0.02968737698 0.716205767 -0.6977514576 -0.0138637187
-0.01724155481 0.01115009403 -0.02934610912 0.8103060306 -0.5859653838 0.006978949883
-0.007550076008 -0.01916382694 -0.03334393692 0.485343877 0.8742925329 0.007340837099
0.004086686611 0.05934973717 -0.04046026993 0.1020907623 -0.001193541879 0.9947743723
0.0043207256 0.05531218465 -0.04050786209 0.1065805868 -0.0004947251475 0.9943039444
-0.0198670311 0.04357015381 -0.0658412796 0.9501629162 0.0122047618 0.3115148094
-0.02051041317 0.01523290229 -0.06144833851 0.996797202 0.0004852780324 0.07996938494
-0.01553327727 -0.01219357347 -0.04912329578 0.7686743513 0.6179884786 0.1650150961
0.004537735224 0.05127985191 -0.04055157661 0.1148656174 0.0002765866384 0.9933810011
0.004735361576 0.04725307592 -0.04059087499 0.1217538601 0.0002315252155 0.9925602974
-0.02008357525 -0.004459621787 -0.03711476326 0.9797997312 0.1991756691 0.01793152376
7.476816078e-05 0.04346707026 -0.04000398382 0.0153917827 -0.001548968263 0.9998803397
0.004916091204 0.04323081589 -0.04062632179 0.1271592197 -0.0001159270369 0.9918823113
0.005080118815 0.03921360906 -0.04065865072 -0.1327937382 0.001999058919 -0.9911416785
0.005456500053 0.03039610386 -0.04075404549 -0.1425657277 0.002654084039 -0.9897817785
-0.01369982004 -0.004668262005 -0.06552886963 0.6810879256 0.5294842704 0.5057327802
-0.003904447913 0.02339506102 -0.04042511845 -0.187908962 0.1638026114 0.9684311677
0.005573460102 0.02719298649 -0.04078467178 -0.1470568639 0.0008710971149 -0.9891276561
-0.0119171133 -0.01241515684 -0.05744739723 -0.6295701427 -0.6871265136 -0.3626273428
-0.01842656898 0.04495228195 -0.05149605179 0.8937133532 0.01724877718 -0.4483067275
-0.01208586431 -0.01538969874 -0.04928828144 -0.5988634081 -0.7753791195 -0.2003742484
0.005700641632 0.02319078128 -0.04081797155 -0.1491756768 0.001355215823 -0.9888097799
-0.01085454416 0.01747400284 -0.03340467072 0.5523988679 -0.8335692664 0.004215314934
-0.01929988035 0.03572561328 -0.05347415479 0.9170710084 0.01037888263 -0.398588816
-0.02020943069 0.003686140961 -0.0295091237 0.9867965939 -0.1613280582 -0.01434363461
-0.02047722403 0.05140869586 -0.06220092901 0.9961971897 -0.01163378764 0.08634705709
-0.01927683862 0.031138436 -0.05340581767 0.9164544128 -0.01649032402 -0.3997991726
-0.02053146807 -0.0007364196512 -0.02934496477 0.9960410734 0.08888461008 -0.001306214307
-0.02009118303 -0.004424410741 -0.02956945483 0.9665422789 0.2562184547 -0.01217072227
-0.01992919 0.01915634886 -0.06550036367 0.9609255195 0.01601219511 0.2763435463
-0.01919499063 -0.007390212774 -0.02919316292 0.9337700374 0.3578733391 -0.0004363786761
-0.02055134137 0.01137779824 -0.0577851963 0.9997216336 -0.001486725335 -0.02354665592
-0.01815740967 -0.009640147209 -0.02971829891 0.9022259157 0.4311158128 -0.01129394078
-0.01935953681 -0.0007601961096 -0.05726220258 0.9278468659 0.2859411446 0.2394532422
-4.203698318e-05 0.04744748878 -0.04000223923 0.01455977617 -0.00103247459 0.9998934678
-0.01526780176 0.03126447646 -0.04681811333 0.7492805615 -0.01627159392 -0.6620527738
0.0003892970234 0.03156670666 -0.04002074814 0.04227703958 -0.002999984561 0.9991014223
-0.02025248671 0.05972861576 -0.05713711643 0.9811480312 0.01688620517 -0.1925185625
0.0004713910619 0.0276105442 -0.0400251236 0.04140372724 -0.007762140577 0.9991123463
0.0005809175968 0.0212887249 -0.04003096008 -0.03249158384 -0.006872166671 -0.999448383
-0.007338612556 0.0192437191 -0.03690459061 0.5431707617 -0.8205846536 -0.1777817478
-0.020124268 0.01134237893 -0.05357807456 0.980501257 -0.1252583035 -0.1514187652
-0.01605490315 -0.01278875995 -0.03755602837 0.7867970483 0.6171456145 -0.009038547487
-0.01312547684 0.01586402369 -0.03395965004 0.6309671438 -0.7745612366 -0.04399266008
-0.01483977747 0.01427198792 -0.03308494186 0.7119128444 -0.7020899202 0.01580651546
-0.01705231585 0.01141605922 -0.03327668326 0.8067789504 -0.5907879285 0.008794817361
-0.0161214041 -0.01272903184 -0.03327324268 0.787513309 0.6159208506 0.02154748052
-0.004999630372 0.05930724462 -0.04066858292 0.2897305941 0.01518373522 -0.9569877936
-0.02046985579 0.01517897868 -0.05786268425 0.9957261048 -0.04787282651 -0.07897921696
-0.01883594195 0.01029645856 -0.04668580755 0.928186919 -0.2919107106 -0.2307751728
-0.004508268714 0.05565497907 -0.04055119705 0.2778046568 -0.01114701422 -0.9605729107
-0.004161397219 0.05124381104 -0.04047065201 -0.2595168971 0.0157191551 0.9656106298
-0.004558360434 0.04739158096 -0.04055847702 -0.2554171606 0.01647033673 0.9666906445
-0.003984709549 0.04334287109 -0.04043426437 -0.2488929083 -0.01923891986 0.9683399115
-0.004395680285 0.03951627197 -0.04052453766 -0.2634033799 -0.00898554821 0.964643934
-0.01717170525 0.02331647968 -0.07193571472 0.8236199044 0.003723701811 0.5671299561
-0.004072252353 0.0351413943 -0.04045699501 -0.2393898087 0.01696580085 0.970775299
-0.004008630872 0.0312202692 -0.04044491005 -0.2351202251 0.0196483813 0.9717676784
-0.00395303909 0.02730530961 -0.04043434779 -0.2269865062 -0.009318184833 0.9738533244
-0.003878884315 0.021051054 -0.04042026138 0.2204014841 -0.2269319752 -0.9486438027
-0.01076397943 0.01754034328 -0.03688272858 -0.5829403251 0.8039963135 0.1173477961
-0.01303346062 0.003925005913 -0.07249156189 0.708888482 0.3348840883 0.6207493596
-0.01918531704 0.007422804356 -0.03337503274 0.9278649356 -0.3726552962 0.0139531862
-0.0181453743 -0.009674294472 -0.03307295799 0.9021447066 0.4312592843 0.01226206076
-0.01192743278 -0.01673089504 -0.03714080238 -0.5945382485 -0.8040373471 -0.00694374899
-0.01305639553 0.01592332077 -0.03741656494 0.6614879655 -0.7420511506 -0.1085990856
-0.01812859472 -0.009717481931 -0.03731152344 0.9001569793 0.4354494922 0.01005745458
-0.01477376334 0.01433783468 -0.03737772115 0.7210221548 -0.6923899259 -0.02689317528
-0.02021013133 0.003702295502 -0.03367710495 0.9869813163 -0.1602792287 -0.01335852489
-0.02008740711 -0.004443873584 -0.03374147129 0.9664063745 0.2568102819 -0.01035366537
-0.0150812788 -0.01148838139 -0.05292276382 0.7199400979 0.6471638642 0.2507293129
-0.008707667828 0.05907420731 -0.04200982952 -0.4813361962 0.0522442981 0.8749777137
-0.01938617592 0.0041243155 -0.0618854393 0.931367185 0.2074167396 0.2992214279
-0.008746443558 0.05165087738 -0.04201425705 -0.4628968597 -0.01742194052 0.8862409228
-0.008487109184 0.04728118006 -0.04189203835 -0.4577998065 0.01395180052 0.8889458276
-0.008421485066 0.04337091541 -0.0418600626 -0.4584946279 0.01590478608 0.8885548458
-0.01147084522 -0.01469915009 -0.05320046234 -0.5874842392 -0.7617077854 -0.2732462596
-0.01756364844 0.03117183537 -0.04994883389 0.8619970094 -0.01781120497 -0.506600352
-0.008361805518 0.03947015444 -0.04183113162 -0.4257536582 0.0007979685541 0.9048387623
-0.008259675026 0.03169137033 -0.04178105736 -0.418114442 -0.0146154546 0.908276776
-0.008026449966 0.02735741196 -0.04167924347 -0.4062759398 0.0211152797 0.9135064344
-0.008364335442 0.02361811295 -0.04181848755 -0.4594427775 0.1981771613 0.8658164626
-0.01807015419 -0.009762464046 -0.04161852074 0.8821373819 0.4691212729 0.0419388926
-0.01105665379 0.0185364399 -0.04176836777 0.5952321735 -0.6072108713 -0.5263018311
-0.01343214989 0.01597438685 -0.04153810374 0.7187443206 -0.6549046355 -0.2334663144
-0.0203283418 0.05119534047 -0.05773330731 0.9819891072 -0.008744702651 -0.1887350618
-0.02024607876 0.003503550359 -0.03739116396 0.9944155184 -0.1050277931 0.01034115323
-0.02005278619 -0.004479916811 -0.04139137777 0.9631767963 0.2672640034 0.02933277359
-0.02053440221 -0.000742906087 -0.03772108714 0.9968216697 0.07962537636 -0.002521577502
-0.0191699028 -0.007455981493 -0.03760412407 0.9312746632 0.3639106228 -0.01722092406
-0.01040878248 -0.01765332317 -0.04227770996 -0.5301608404 -0.8447594842 -0.07287590176
-0.01024977779 -0.007854232788 -0.06577104187 0.6242667995 0.6085423754 0.4898644102
-0.0112115736 0.05876226234 -0.04334967422 -0.5032392152 0.03729822558 0.8633418412
-0.01108319124 0.05171025467 -0.04326399231 -0.5226299978 -0.01466580296 0.8524334576
-0.01100747522 0.04702865601 -0.04321260325 -0.5265627376 0.01492138927 0.850005315
-0.01089886157 0.03925708771 -0.04313715363 -0.5323396879 0.000447242487 0.8465307181
-0.01336066771 0.02365107346 -0.07627186584 0.7367934571 0.01910858061 0.6758478111
-0.0108525486 0.03538388634 -0.04310406494 -0.5314369884 -0.0002993929066 0.8470977734
-0.01080998961 0.0315188446 -0.04307539495 -0.5306807607 -0.0007445624453 0.8475714577
-0.01073705101 0.02380753644 -0.04302911123 -0.4998756056 0.0273914379 0.8656639579
-0.01939599005 0.05111637497 -0.05377322642 0.9313178361 -0.009317816401 -0.3640882673
-0.01493742514 0.01439365673 -0.04159446526 0.7948377726 -0.5660946686 -0.2185629004
-0.0159547499 -0.0128454512 -0.0416184686 0.7733949827 0.6336536174 0.01852819208
-0.01321159887 0.05540562057 -0.04486118412 -0.6480879725 0.01817930774 0.7613484699
-0.01314636946 0.05150721232 -0.04480916659 -0.6450745628 -0.004339475941 0.7641073075
-0.0130859859 0.0476191597 -0.0447605896 -0.6462356036 -0.0178378799 0.7629294559
-0.02025515874 0.02354587407 -0.05718780772 0.9769112469 0.01441356672 -0.2131587784
-0.02028270213 0.03577391773 -0.05737876977 0.9788676876 0.01266380803 -0.2041021267
-0.01303350862 0.04374168905 -0.0447146244 -0.6507601624 -0.02017409857 0.7590152942
-0.01297704315 0.03910071309 -0.0446641496 -0.6588660032 0.01020582659 0.7521910867
-0.0129349997 0.03524237347 -0.0446261673 -0.6326186398 0.01704504502 0.7742758701
-0.01286737895 0.02754813576 -0.04456068516 -0.6288147263 -0.01424369295 0.7774246955
-0.01312481101 0.01909418265 -0.04433899307 0.7437330759 -0.4207724879 -0.5194339469
-0.0198651371 0.03534879303 -0.06582121468 0.9559429397 -0.01200208841 0.2933070845
-0.01958319378 -0.004523348987 -0.04945068169 0.9460048071 0.3048592786 0.1101622673
-0.01919089775 -0.007335824299 -0.04152131424 0.9372531771 0.3483420743 0.01463835091
-0.02019383979 0.003919042766 -0.04152759027 0.9899090848 -0.1405686194 -0.01790159484
-0.01242550516 -0.01606897354 -0.04469513702 -0.5706024001 -0.8139671947 -0.1089509384
-0.009788943291 -0.01773534012 -0.04524227905 -0.4778308313 -0.8678833133 -0.1358537861
-0.02027042177 0.03117925135 -0.05729822074 0.9776734774 -0.0147733067 -0.2096099259
-0.01600347137 0.01516817506 -0.04536969757 0.802315792 -0.4073743353 -0.4362745934
-0.02052646097 -0.0007462351024 -0.04198517863 0.9956090713 0.09330449666 0.007539769665
-0.007959800959 -0.01788649178 -0.04889968872 -0.4853387496 -0.8577338211 -0.1695257804
-0.01648622131 -0.0003880743533 -0.06520658112 0.8094669402 0.3647802518 0.4601072056
-0.01499484825 0.05523666954 -0.0465492382 0.7524511027 -0.01833499261 -0.658392866
-0.01494279289 0.05134778849 -0.04648615265 0.7284526056 0.00238702987 -0.6850920402
-0.01489464188 0.04746972084 -0.04642729568 0.7234974353 0.01799968438 -0.6900923651
-0.01485092258 0.04360305532 -0.04637323507 0.7122037395 -0.007920615863 -0.7019281283
-0.01523693347 0.02743602037 -0.04678384209 0.7482512725 -0.001009518936 -0.6634146623
-0.01521036084 0.02361402702 -0.04675434113 0.7578529431 -0.01880052015 -0.6521544733
-0.01535993894 0.01902400589 -0.04662765567 0.7952817157 -0.2690249708 -0.5432794472
-0.01783045883 0.01161653099 -0.04504417038 0.8785775555 -0.4048200892 -0.2534209428
-0.01891179514 -0.007521482348 -0.04547286606 0.9294669035 0.3620265132 0.07090894847
-0.01782336617 -0.00980525732 -0.04521318626 0.875222859 0.4771734283 0.07931246033
-0.01707949924 0.05565991735 -0.04918326187 0.8233125205 -0.002133992302 -0.5675843018
-0.01686955468 0.0473368721 -0.04887414996 0.8174752194 -0.01177531531 -0.5758433881
-0.01926985645 0.05895778084 -0.0678246727 0.9349645609 -0.04918713074 0.3513145257
-0.01622524548 -0.004365105549 -0.06185364532 0.7795716298 0.4779340795 0.4047802981
-0.01711594122 0.04332826649 -0.04929411871 0.8150305663 0.003882132232 -0.5794049577
-0.02048030758 0.05839307086 -0.06151452255 0.9948813185 -0.09126163283 0.04338751418
-0.01737715203 0.03971880777 -0.04969615773 0.820404064 0.009203469235 -0.5717101258
-0.01852533976 0.05578230794 -0.05171618271 0.8970099132 0.008737036257 -0.4419240657
-0.0203527902 0.003746528149 -0.04553061295 0.9906659284 -0.1288417599 -0.04450639508
-0.0175412124 0.02735386308 -0.04990608597 0.8607607785 -0.02685535592 -0.5083007693
-0.01752058856 0.02354278819 -0.04987002097 0.8618087308 -0.03039594234 -0.5063218327
-0.01745233863 0.01940905952 -0.0496128164 0.8493216192 -0.1002426526 -0.5182703905
-0.01791437085 0.01590945752 -0.04928094228 0.8716926689 -0.2220419385 -0.4368629859
-0.01787153212 -0.008585419893 -0.04955549685 0.8538807074 0.4898287427 0.1759418663
-0.008892713547 -0.01635341835 -0.05285955811 -0.5637560592 -0.7885258351 -0.2457765512
-0.01926974996 0.01132347043 -0.04965509733 0.9359938882 -0.2276933342 -0.2684607734
-0.02004772806 0.007527572036 -0.04919564438 0.973081513 -0.1935890453 -0.1250425948
-0.02049207338 0.003757973631 -0.04893319066 0.9950515406 -0.09504956083 -0.02894844747
-0.01884643745 -0.006794931412 -0.04899562073 0.9148062918 0.3841323853 0.1247868547
-0.0185660305 0.05967384529 -0.05180607796 0.8947446321 0.01465184536 -0.4463377272
-0.01848027865 0.0511294899 -0.05161615245 0.8982149022 -0.007835841336 -0.4394867337
-0.01844583988 0.04726529312 -0.05153927803 0.9002861969 -0.0111972271 -0.4351544391
-0.01763761648 -0.001790158908 -0.06160577774 0.8555918049 0.3678157015 0.3642447984
-0.01877263927 0.01513957787 -0.05084296227 0.9133381655 -0.2311186378 -0.3352574692
-0.009165417671 -0.01483448315 -0.05631788635 -0.5694602101 -0.7459729489 -0.3453106263
-0.0155805982 0.01170226892 -0.07281107585 0.7762932128 0.142850677 0.6139727452
-0.01943062083 0.05577022362 -0.05388468234 0.9510905588 0.00882000927 -0.3087862634
-0.01924265258 0.02351670297 -0.05331452306 0.9138229468 -0.007112153622 -0.4060505376
-0.01936865234 0.04725186253 -0.05368811035 0.9329922072 -0.01439847136 -0.3596084334
-0.01932047033 0.03955753613 -0.05353870583 0.9160030122 0.02054244366 -0.4006450919
-0.01925836134 0.02732408476 -0.05335681438 0.9154018143 -0.02019899307 -0.4020342263
-0.02023693943 0.05582825406 -0.05702085304 0.9821173096 0.01040528604 -0.1879822336
-0.01924565363 0.01971354818 -0.0532686491 0.926870284 -0.01957317619 -0.3748711345
-0.02013956038 0.003795639396 -0.05799790446 0.9738291434 0.1495838926 0.1711182587
-0.02046282832 0.007551205794 -0.05336196327 0.9936862207 -0.0743349254 -0.08403578757
-0.01916322517 -0.004291732391 -0.05292259471 0.9206801404 0.3498347605 0.173100316
-0.01846453476 -0.005320089817 -0.05451424408 0.8963217459 0.3861412931 0.2179500619
-0.01585553312 -0.008442136049 -0.05694495392 0.7897374301 0.5390469225 0.2928194098
-0.01815560468 0.05531254959 -0.07026239777 0.8944696464 -0.01484729436 0.4468820981
-0.02029248873 0.0396126461 -0.05745521418 0.9899540502 0.01142519787 -0.140927085
-0.0176099453 -0.004841862122 -0.05800370026 0.8517248807 0.4356035059 0.2912289705
-0.009128713608 -0.01177403545 -0.06181835556 -0.5435627575 -0.7015796714 -0.4607879049
-0.02051121759 0.007584360719 -0.05778814888 0.9954834988 0.04139296043 0.08543551082
-0.01017826653 -0.01018772316 -0.06303772354 -0.6089329754 -0.633718503 -0.4770759797
-0.02049056435 0.0552593441 -0.0614023482 0.998418255 -0.03445720443 0.04442622101
-0.01869577789 8.371770382e-07 -0.06066334534 0.9101196487 0.2991018799 0.2867408072
-0.02049247217 0.04751465225 -0.06207492924 0.9968196905 0.002397927373 0.07965396754
-0.02051235924 0.03931152649 -0.06202944565 0.9942187854 0.0004982233416 0.107372057
-0.02053701242 0.03129599126 -0.06166025798 0.9949642636 -0.01896419938 0.09841988304
-0.02053582605 0.01904728572 -0.06147302373 0.9944175714 -0.01011940449 0.1050299541
-0.01800676107 0.003460725486 -0.06519678497 0.8880760938 0.2682151712 0.3733382829
-0.01998316765 0.05870867729 -0.06551262283 0.9671398838 -0.03230717252 0.2521838454
-0.01990443897 0.05128205109 -0.0657708416 0.9656117927 0.003974854443 0.2599578163
-0.01983609581 0.03922916031 -0.06593153254 0.953366047 -0.01592504535 0.3013960408
-0.0199146657 0.02761932802 -0.06563545036 0.9598581404 0.01569265339 0.2800465872
-0.0193990008 0.01150497437 -0.06575461451 0.934696261 0.1080325375 0.338632353
-0.01837148094 0.008472220421 -0.06729380798 0.9060390258 0.1662375749 0.3891765055
-0.01826001072 0.0513356781 -0.0700587616 0.8971132618 -0.004065817098 0.4417819198
-0.01852879969 0.03950905101 -0.06953976695 0.9300702936 -0.005061076396 0.3673467498
-0.01867189344 0.03169494883 -0.06926745351 0.9367410278 0.01113933873 0.3498459117
-0.01873126475 0.02702930705 -0.06914009349 0.9390075765 -0.01407704842 0.3436082187
-0.01875760905 0.01928410339 -0.06900547028 0.937838826 0.03475945399 0.3453261022
-0.01861884689 0.0162005806 -0.06905622864 0.9195168642 0.0701979048 0.3867311606
-0.0167720108 0.01555026293 -0.0720885849 0.812846817 0.1095983287 0.5720736477
-0.01780436897 0.01159718895 -0.06952731069 0.8515384875 0.1602827193 0.4991909997
-0.01604995473 0.05579986064 -0.07350098419 0.8688707819 -0.0046290371 0.4950173091
-0.01625155926 0.05177135086 -0.07322999954 0.8676665896 -0.01619118463 0.496882818
-0.01640928268 0.04777046458 -0.07299865977 0.8833446952 -0.001872748492 0.4687202176
-0.01655488491 0.04378732109 -0.07278509903 0.8960562726 -0.01172469277 0.4437856329
-0.01696845341 0.03114834976 -0.07220740891 0.7999004574 -0.03499701828 0.5991113978
-0.01707621257 0.02722722944 -0.07206284078 0.8454009402 0.01709801499 0.5338585096
-0.01717672857 0.01942045975 -0.07187708791 0.8256544397 0.05362117388 0.5616222181
-0.01337902737 0.008643060684 -0.07418926239 0.7650903509 0.2266325633 0.6027225201
-0.01293594265 0.02764769999 -0.07661377462 0.7327876926 -0.0175169939 0.6802318373
-0.01342212868 0.01969526609 -0.07617480469 0.7344008492 0.02620676682 0.6782098481
-0.01220994186 0.0166032753 -0.07691400909 0.7288410906 0.06400303272 0.6816848806
