# .PCD v0.7 - Point Cloud Data file format
VERSION 0.7
FIELDS x y z normal_x normal_y normal_z
SIZE 4 4 4 4 4 4
TYPE F F F F F F
COUNT 1 1 1 1 1 1
WIDTH 555
HEIGHT 1
VIEWPOINT 0 0 0 1 0 0 0
POINTS 555
DATA ascii
-0.01953962072 0.001562009076 -0.0591936086 0.9584992269 0.2005789616 0.2026013626
-0.01805639458 0.009812858264 -0.0009762446421 0.8795805726 -0.472600549 -0.05465105172
-0.001212439537 0.0248886385 -0.08115636063 -0.1662343104 0.003521412382 -0.9860799936
-0.01897490692 0.007881836891 -0.0003151989579 0.909270039 -0.4155710067 -0.02299422861
-0.01561257935 0.01339944792 -0.02406687737 0.7621071751 -0.6474468016 0.002300613663
-0.01151296115 -0.01702007818 -0.0302295742 -0.5535967935 -0.8325334893 0.02045921412
-0.00512509656 -0.01992854881 -0.00985076046 -0.3610000792 -0.9325554189 0.004396990275
-0.01662131691 0.03087365595 -0.04844460932 0.7804513852 -0.002220416395 -0.6252125279
-0.01954253197 0.006436346054 -0.0005445852876 0.9603886772 -0.278256943 -0.01505531167
-0.008243817806 0.03397997093 -0.07946230698 0.4156723139 0.008884272773 0.9094710535
-0.01565202618 0.01335410166 -0.02703895092 0.7644059497 -0.6447278404 0.003091247137
-0.02049448872 0.001425777614 -0.0009294261038 0.9943959228 -0.0988960938 -0.03736724935
-0.0184749198 0.006664497852 -0.06613272667 0.8744204117 0.2295747867 0.427415911
-0.01876259804 0.003783584197 -0.06364963913 0.9041330282 0.245440771 0.3497174506
-0.02041519737 -0.002139525751 -0.0008973661661 0.9939762883 0.1041592686 -0.03408790255
-0.0197365551 -0.00571787405 -0.0006230300367 0.9631931089 0.2683085055 -0.01641891598
-0.005194056034 -0.01913035393 -0.04774647522 -0.3349713145 -0.9224624563 -0.1919823827
-0.0135461483 0.009383939743 -0.07428385162 0.6593442279 0.2463412843 0.7103387648
-0.01541169262 0.01363037539 -0.008931396961 0.7478604109 -0.6638544576 -0.001436990133
-0.01854839897 -0.008845534643 -0.0006581962196 0.9033111682 0.4282701854 -0.02477057942
-0.01980126042 0.03668079503 -0.0660753479 0.9626317414 -0.003071235824 0.2707964141
-0.01194649601 0.01671756172 -0.006098468781 0.6024695179 -0.7981407102 0.001373550422
-0.007167485476 0.05206544495 -0.07986803436 0.3622784465 0.0009833421739 0.9320693967
-0.0153012991 0.01376053333 -0.0003931748867 0.7443842484 -0.6670463356 -0.03068023701
-0.01871377611 -0.008500213504 -0.01166363931 0.9064487439 0.4221489067 0.01187329912
-0.01067319298 0.01760348892 -0.03884613991 0.6229178729 -0.7724244921 -0.1238294296
-0.007006521225 0.003410446405 -0.07605586243 0.3367878289 0.4084750364 0.8483643692
-0.009378922939 0.01829339981 -0.006699141502 0.4581525355 -0.8888481361 0.006726447836
-0.01452840567 -0.01451112795 -0.0008676062524 0.71683965 0.6963090604 -0.03598066961
-0.01507612133 0.0276083622 -0.04659519768 0.755482041 -0.0004954631195 -0.6551691692
-0.01179256153 -0.01682347679 -0.0005700672269 -0.5872707212 -0.8090303172 0.02414634218
-0.01649588776 0.01226293659 -0.0008694299459 0.8177671927 -0.57465338 -0.032098464
-0.01659326744 0.01214746094 -0.009368456841 0.8177685869 -0.575544341 0.001802738018
-0.005122617006 0.0370233593 -0.08052540588 0.2037768105 0.02786103773 0.9786208531
-0.01955209541 0.006420040846 -0.002855312824 0.9561796466 -0.2927797811 0.0006951423273
-0.01205936003 -0.01665624619 -0.009236395359 -0.6024856239 -0.7981234633 -0.003163909552
-0.01440876865 0.01871695805 -0.07520230103 0.7062493009 0.04086026687 0.7067831093
-0.02009552002 0.004272473454 -0.003070649147 0.9746709864 -0.2236264406 -0.002771867686
-0.01987771149 -0.005337598133 -0.03942866135 0.9603389125 0.2787940805 0.004799364222
-0.009223342419 -0.01836329079 -0.003506866336 0.412933876 0.9107608594 0.0005205900775
-0.02042274412 -0.002127013544 -0.006249297142 0.9943844941 0.1054432019 0.009011612533
-0.02049806499 0.001422193974 -0.003230147958 0.9951433479 -0.09831393616 -0.004907865859
-0.01515287256 0.03315652084 -0.04667990494 0.7630010764 -0.002803992038 -0.6463911316
-0.02041844241 -0.002134145796 -0.003198595961 0.9944351926 0.1052937517 -0.003445816402
-0.01912246577 -0.007598047256 -0.03318861453 0.9354985162 0.3532525674 0.007426296467
-0.01974436378 -0.005703418255 -0.002931504965 0.9656445916 0.2598299489 -0.004349753877
-0.02050280428 0.001417443231 -0.006280168533 0.9958574266 -0.08898880598 0.01868095847
-0.01674517727 0.04263482857 -0.048649683 0.7860965684 -0.008509897582 -0.6180451171
-0.0146723423 -0.01437237072 -0.009425734282 0.7231110772 0.690590186 -0.01398445936
-0.01402850914 0.01503507614 -0.01453147745 0.6641565048 -0.7475615745 0.006915885691
-0.02026421213 0.03633239937 -0.05713096714 0.9912262915 -0.01013410166 -0.1317867176
-0.01866962194 -0.008578792095 -0.003274760664 0.903956801 0.4274702592 -0.01145772145
-0.005558488528 0.03077253215 -0.08043070475 0.2263393258 0.008119160997 0.9740146759
-0.01699558163 -0.01152342701 -0.001068667322 0.8162997099 0.5767995161 -0.03093706302
-0.01179102421 0.01682355881 -0.0005694633722 -0.6005406808 0.7990383915 0.0298083802
-0.01840753136 0.01266416054 -0.04815338974 0.8806328211 -0.3370765908 -0.3329642718
-0.0187457242 -0.008443500996 -0.01767098188 0.9073514949 0.4203146697 -0.006988787652
-0.01375640011 0.01526167679 -0.001342383742 -0.6403527385 0.7673771247 0.03287428701
-0.01950425673 -0.002695653319 -0.05385715866 0.939371413 0.2996884513 0.1666378725
-0.00920828867 0.02539051723 -0.04218442917 0.5447954525 0.001990839844 -0.8385666053
-0.01952686691 0.04297569656 -0.05414410934 0.9488656237 0.00900656386 -0.3155517548
-0.01185788584 0.01677797413 -0.002947254419 0.6035473339 -0.7973172846 -0.003970304887
-0.007304828405 -0.01925052452 -0.03646355438 -0.4678958632 -0.8837834866 -0.0004581433898
-0.0153312459 0.0137248106 -0.002737465322 0.7429929242 -0.6692910712 -0.003313091279
-0.009733407974 0.04896376801 -0.0787067337 0.5209074075 0.012831987 0.8535167326
-0.011865839 -0.01677754593 -0.002950313449 -0.5904324107 -0.8070858268 -0.001427071729
-0.01652262592 0.01223122978 -0.003203030229 0.8194518937 -0.5731389655 -0.003212503927
-0.01716212988 0.04010350227 -0.0719123497 0.814859984 0.003425742095 0.5796477126
-0.01196294689 -0.01671667862 -0.006104637861 -0.5959642645 -0.8029553071 -0.009453580557
-0.01655806828 0.01218920183 -0.006296336174 0.8163769817 -0.5774381139 0.009687536815
-0.01793775082 0.01002590919 -0.003756074905 0.8663895109 -0.4991161168 -0.01588449961
-0.0171082139 -0.01137660885 -0.0125926187 0.8251432093 0.5648456743 -0.009383409634
-0.009107600212 0.01841594315 -0.001098068595 -0.4322445657 0.8999796962 0.05657898687
-0.01055922318 0.01766697407 -0.03587443542 0.5229553451 -0.8523525291 0.003587932429
-0.01456792951 -0.01447302628 -0.003217584372 0.7171890833 0.6968705119 -0.003362795619
-0.003892110825 -0.02018876266 -0.0006797192097 -0.3258145631 -0.9451392691 0.02359306099
-0.01380499649 0.01522120762 -0.003697834611 0.6643330895 -0.7473864036 -0.008666600231
-0.01933111649 0.007043045902 -0.03296094055 0.9285005549 -0.371320129 -0.002842781038
-0.01704849911 -0.01145444846 -0.006482850313 0.8226618599 0.5684700731 0.008321072542
-0.01900054073 0.007835310221 -0.005700913906 0.9146427602 -0.4041620857 0.009034914227
-0.01132161283 -0.01714186954 -0.0242001791 -0.5600461076 -0.8279403483 -0.0293791938
-0.01966117907 0.03062749386 -0.06661920929 0.9492556869 -0.01828042903 0.3139736722
-0.01409141588 0.01498268938 -0.01758056259 0.6717545535 -0.7405684368 0.01744162473
-0.004457520247 -0.02010291481 -0.003288228869 -0.3327459777 -0.9427901556 0.02066003084
-0.01956473541 0.006398427248 -0.005918447256 0.955959237 -0.2933075161 0.0106131161
-0.003390334368 0.05541853333 -0.08090198898 -0.2483458829 0.002448682584 -0.9686683263
-0.02009929752 0.004258215129 -0.006124579906 0.9755508387 -0.2197738087 0.0001846295092
-0.01424054813 0.03352262783 -0.07544096565 0.7033538718 -0.01511055169 0.7106792542
-0.02042701721 -0.002119929443 -0.009279464722 0.9945202353 0.1045032255 -0.002928734997
-0.0197547164 -0.005684255362 -0.005991707087 0.9663909639 0.2568600941 0.01055447226
-0.02047295523 0.004056265354 -0.04849140549 0.9924519062 -0.1147047806 -0.04338233785
-0.01280637789 0.01613460732 -0.03649336815 0.6668975305 -0.7451432205 0.003043826099
-0.0187892278 -0.008314264933 -0.005874473413 0.9064143524 0.4223748002 -0.003542579399
-0.01978299761 -0.005627577424 -0.01504980779 0.9669430479 0.254631585 -0.01356089887
-0.02012084627 0.004202033222 -0.01814372587 0.9748755481 -0.2227461736 -0.001344572086
-0.01950353432 0.0125068562 -0.05144270611 0.9488169852 -0.1981527148 -0.2459305394
-0.009107299805 -0.01841596031 -0.001097951889 0.3918036718 0.9187056423 -0.04969733966
-0.01388842525 0.0129844862 -0.07492059479 0.6955158221 0.1397773286 0.7047836829
-0.01935978651 0.006953015447 -0.02672354794 0.9417665055 -0.3353390941 0.02497080409
-0.003884186029 0.02018926239 -0.0006766855717 -0.3240092811 0.9452765215 0.03834427756
-0.01156541467 -0.01414939237 -0.05424190712 -0.5836170799 -0.752448502 -0.3053069863
-0.01976295916 0.04275430934 -0.06620860672 0.9613061018 0.01169813919 0.275233959
-0.009224303246 0.01836323452 -0.003507230878 -0.4595462028 0.8881456322 0.003824061921
-0.01798089075 0.009965775251 -0.009122950912 0.8681574369 -0.4962617263 0.005192661023
-0.0205641222 0.00404190594 -0.05131279373 0.9996015078 -0.02753465578 -0.006218384839
-0.01537102747 0.01367745543 -0.005844902039 0.7429542657 -0.6691984301 0.01387156185
-0.01782019361 0.01023704116 -0.006522158941 0.8669199651 -0.4984163023 -0.005564506122
-0.01311006165 -0.002026183128 -0.06861708832 0.636150843 0.4822082317 0.6023182932
-0.006905531406 0.01940020943 -0.03037294579 -0.4209202541 0.9070945546 0.002368261967
-0.02056219864 0.03078373098 -0.05988472366 0.9977620281 0.00190668754 -0.06683786215
-0.01462031698 -0.01442252398 -0.006332427979 0.7198655239 0.6941080212 -0.002771707138
-0.01398107243 0.01507457924 -0.01223222256 0.6537037776 -0.7567504984 -0.0002331409081
-0.006103381634 -0.01964035702 -0.02102621651 -0.3835711138 -0.9234871203 0.00668874941
-0.00981055069 -0.01749602699 -0.04665177917 -0.457517177 -0.8743554926 -0.1618039103
-0.01386940765 0.01516756868 -0.006819843531 0.6691067295 -0.7431533826 -0.004385703266
-0.02013724995 -0.002707265556 -0.04840713978 0.973730029 0.2173341976 0.06793877553
-0.01901505184 0.007808970213 -0.008749922991 0.9165064388 -0.4000148301 -0.002020729991
-0.0195736866 0.006377035618 -0.008959445477 0.9557066524 -0.2941320229 -0.01054265932
-0.01707164979 0.0218042779 -0.07204925728 0.8202366972 0.006079394236 0.5719919593
-0.02055884266 0.04024022961 -0.06005848694 0.9970524471 0.008866911043 -0.07620889423
-0.02010471439 0.004244033277 -0.009158590317 0.9749851973 -0.2222583108 -0.002260146372
-0.02050751305 0.001412724435 -0.009309651613 0.9959957254 -0.08899953557 0.008461545118
-0.01976499939 -0.00566522193 -0.009031188726 0.9667095747 0.255876137 2.614660084e-05
-0.0185972662 0.04004494667 -0.06938973045 0.9116217502 0.009076229887 0.4109299292
-0.01869764805 -0.008528844357 -0.008630883217 0.9056381045 0.4238874508 0.01179206511
-0.0154928112 0.01353712654 -0.0150431366 0.7535191996 -0.6574184113 0.003138222024
-0.01707845592 -0.01141539884 -0.009547911882 0.8250762986 0.5648488328 -0.01396057372
-0.009377089977 -0.01829350662 -0.006698463202 -0.4219849539 -0.9066012422 -0.001698929171
-0.01495662546 -0.01409121323 -0.02682407379 0.7071276484 0.7070725222 0.004351697004
-0.02047378413 0.01272735341 -0.05689275742 0.9943813777 -0.03348747293 -0.1004204404
-0.00483869791 0.02001247406 -0.006600298643 0.3528207414 -0.9356698753 -0.00627765375
-0.01444700368 0.01466376686 -0.03621519089 0.6880464049 -0.7256636229 0.002109757323
-0.0203417573 0.004018777251 -0.05682811546 0.9846445935 0.126169071 0.120649865
-0.01500503659 -0.01404319477 -0.02978893328 0.7101647702 0.7037108005 0.02138009474
-0.0120344758 0.01665757751 -0.00922730875 0.6093594163 -0.7928935149 0.0009877952908
-0.007410013437 -0.01912012672 -0.04240743065 0.4300647381 0.8998836027 0.07248325814
-0.01740219164 0.01233749104 -0.04492026234 0.8660365076 -0.4319666534 -0.251764926
-0.01393337154 0.01511430216 -0.009920161247 0.6599909579 -0.7512386637 -0.007239176237
-0.01580764818 0.01317520761 -0.03876403046 0.7781078421 -0.6280909346 -0.007068516171
-0.01800434589 0.009932106972 -0.01216093898 0.8691158912 -0.4945684229 0.006296244835
-0.01417632914 -0.01305423641 -0.05125899315 0.7073397309 0.6711504924 0.2218727599
-0.01843536301 -0.005542910957 -0.05403983765 0.8845537383 0.41570354 0.2115543687
-0.01902946854 0.007782804728 -0.01177873087 0.9177209207 -0.39710624 -0.009744017469
-0.01842566681 0.05758238506 -0.05151170635 0.8795833807 -0.01584551557 -0.4754808051
-0.007322808027 0.0192494297 -0.03646849251 0.4367039319 -0.8996020487 -0.002414492937
-0.01958141708 0.00635580945 -0.01197997952 0.956579139 -0.2908916963 -0.01839488538
-0.01912439156 -0.007524580479 -0.04179423523 0.9344470761 0.3546275856 0.03237186189
-0.01944926414 0.02797466431 -0.05388262787 0.943806832 0.009401115951 -0.3303638644
-0.02011012554 0.004229944289 -0.01217269325 0.9750164563 -0.2219573239 -0.008823625936
-0.01856012392 0.01628767037 -0.05089112854 0.9009212037 -0.1444085605 -0.4092519423
-0.02051219034 0.00140803656 -0.01231926084 0.9957585734 -0.09159852923 -0.008635565127
-0.02043017928 -0.00211290439 -0.01228936752 0.9945034762 0.1037930121 -0.01377847516
-0.01977501822 -0.005646318316 -0.01205054641 0.9666736897 0.2556438448 -0.01371868678
-0.009305435181 0.02821578121 -0.04223632431 0.5491329376 0.001764391701 -0.8357331535
-0.01921220207 0.05979704285 -0.06801008606 0.9300529054 -0.04727613109 0.3643714596
-0.004840617895 -0.02001235199 -0.006601012945 0.3478316494 0.9374792109 -0.01207778336
-0.01914289951 -0.007542376995 -0.03965969276 0.9356548881 0.3526674835 0.01325052726
-0.001634831488 -0.005571537256 -0.07166943359 -0.1693093147 -0.6196680451 -0.7663849358
-0.009532394886 0.01822408485 -0.00986734724 0.4666594683 -0.8844023199 -0.007840736662
-0.01719490242 -0.01126179647 -0.02161067677 0.8268901387 0.5623281707 -0.006302926993
-0.01545238495 0.01358359814 -0.01199729013 0.7507434737 -0.6605890829 0.002510030086
-0.01662823296 0.01210599947 -0.01242007208 0.8192172221 -0.5734803572 -0.001850092222
-0.009882730007 0.01805460167 -0.01767938805 0.4708491236 -0.8821578765 0.009928930888
-0.02016346773 0.006675773382 -0.06025686264 0.9789517044 0.1159225412 0.1679747746
-0.01496581523 -0.01408044052 -0.01207700443 0.7260722484 0.6876180221 0.000738744505
-0.009529695511 -0.0182242403 -0.009866374493 -0.4189541489 -0.9078349753 0.0176940307
-0.01726347637 0.03335609341 -0.07176967239 0.8171954896 -0.01225596679 0.5762302692
-0.005132400036 0.019928092 -0.009853355408 0.3611233002 -0.9325059177 -0.004761886564
-0.01212726164 0.01659772015 -0.01233639383 0.6139226222 -0.7893657027 0.0008951767299
-0.0180251317 0.009898732662 -0.01517837572 0.8695307708 -0.4937159775 -0.01267959983
-0.01904379177 0.007756808043 -0.01478799391 0.917718818 -0.3969756198 -0.01423124587
-0.01852974129 -0.008990344524 -0.03374071121 0.9086545062 0.41751355 -0.005424384124
-0.02025302076 0.0309146781 -0.05703922844 0.9835628399 0.009668445158 -0.1803071298
-0.01958909893 0.006334718943 -0.01498115587 0.9568840846 -0.2898982847 -0.01821628524
-0.01136993837 -0.01675444722 -0.04485556698 -0.560380538 -0.8224580542 -0.0976545023
-0.01496620083 0.0518399264 -0.07468863297 0.7105491793 0.006496412541 0.7036175527
-0.02011550236 0.004215945125 -0.01516752625 0.9751506193 -0.2213703083 -0.008743929078
-0.0205168376 0.001403378695 -0.01530964565 0.9957815534 -0.09136171475 -0.008493233998
-0.01964551878 0.05438998127 -0.05456599617 0.9657263145 -0.004463408023 -0.2595241097
-0.02024274762 0.02483999761 -0.05695402718 0.9832570323 -0.001207982681 -0.182220057
-0.007704797745 -0.01034358406 -0.06485292816 -0.3866316546 -0.7265497233 -0.5680153724
-0.011719558 -0.01678975868 -0.04204014874 -0.5755669407 -0.8162427263 -0.04970421153
-0.02043282159 -0.002105929732 -0.01527989451 0.9945298265 0.1035755903 -0.01351004508
-0.01427779531 0.01482748079 -0.02661436176 0.6735686697 -0.7391244962 -0.0004757396227
-0.008373657862 -0.01126550198 -0.0630829277 -0.4146822355 -0.7345795013 -0.5370582835
-0.01872980022 -0.008471767783 -0.01467679071 0.9066106308 0.4219080577 -0.007124246924
-0.01177790165 -0.01684099674 -0.03913966465 -0.5630565229 -0.826100327 -0.0229260072
-0.00802080822 -0.007552314758 -0.06774068451 -0.3933677793 -0.6532602556 -0.6469256747
-0.02054722913 0.0006808413267 -0.04216367806 0.9998562973 -0.0168112612 -0.002183174008
-0.01215510035 -0.01659623623 -0.01234629869 -0.6066259501 -0.7949858984 0.001542050386
-0.01709880562 -0.008007079506 -0.0543077446 0.8455400355 0.477433246 0.2389969538
-0.02024526405 0.01878150749 -0.05688942051 0.9849140578 -0.02001085749 -0.171883287
-0.02027997255 0.04313309956 -0.05726656151 0.9918724868 0.01034926907 -0.1268142836
-0.009646800995 0.01817241287 -0.01222909164 0.4827434172 -0.8757565276 -0.003049185245
-0.01692243099 0.05519134903 -0.04894064903 0.8072257151 0.002534776568 -0.5902374266
-0.01666297054 0.01206480742 -0.0154518466 0.8206739843 -0.57137157 -0.005361013027
-0.01961119795 0.04886826134 -0.05442794895 0.9633621541 0.0005036469023 -0.2682034794
-0.02027237002 0.03972867584 -0.05719614855 0.9914204194 -0.002581469106 -0.1306862199
-0.0171392765 -0.01133801818 -0.01561815667 0.8261969071 0.5631362466 -0.01662042216
-0.01292592208 0.05480914179 -0.07657661438 0.6394249246 0.008219254808 0.7688096056
-0.01941619349 0.006665337205 -0.06355599689 0.9361094166 0.1685056436 0.3087150924
-0.01476003885 -0.01428616285 -0.0147870903 0.7284817424 0.6849101432 0.01457555067
-0.01909859562 -0.007654441357 -0.0266417408 0.9328488549 0.3602645875 -0.001562327292
-0.009643456459 -0.01817260551 -0.012227911 -0.4244201879 -0.9054653036 0.0002968646904
-0.02037958972 0.03067842674 -0.06330701955 0.9913421333 -0.0112887178 0.1308179635
-0.02023810863 0.01281417763 -0.06289047766 0.980437536 0.06371896337 0.1862313932
-0.01926896286 0.004671553135 -0.0628307724 0.9334120041 0.2021388352 0.2964488522
-0.005346126556 0.01986554718 -0.01227499866 -0.3662131687 0.9305049894 0.006955550744
-0.01500750685 0.02207269669 -0.04652455139 0.7607529706 -0.03064839071 -0.6483175101
-0.01298064327 0.03064025879 -0.04466075325 -0.6267797823 0.004876537201 0.7791811881
-0.02039152288 0.05509834766 -0.06319100571 0.9911002866 0.01238313873 0.132540106
-0.009752563953 0.01812150669 -0.01457408333 0.477348016 -0.8787046608 0.004121970698
-0.01222705746 0.01653786373 -0.01542704725 0.6181230479 -0.7860813136 0.0002571660471
-0.01804571009 0.00986556983 -0.0181768322 0.8704726449 -0.4920540099 -0.01265803035
-0.01003804493 -0.01169336224 -0.06103443909 -0.5076371263 -0.7226879227 -0.4690700527
-0.01905802441 0.007730974674 -0.0177783556 0.9173714301 -0.3980320134 0.0004189862813
-0.01711216164 0.01573202801 -0.04771055222 0.8532402178 -0.2869889696 -0.4354520204
-0.02052296162 0.001394155905 -0.02123422861 0.9949195969 -0.1006492191 -0.002174936905
-0.01959673214 0.006313760519 -0.01796361256 0.961326825 -0.2754070735 -0.001295897248
-0.02052053404 0.0013987519 -0.01828112221 0.9957985127 -0.09148528552 0.003970471562
-0.0195949893 0.04611755276 -0.05436447048 0.9623151781 0.01437722279 -0.2715562436
-0.01960669661 0.01594700956 -0.06640619659 0.9451911569 0.05907230201 0.3211294756
-0.02043521754 -0.002098999977 -0.01825178973 0.9945902294 0.1038674334 -0.001353487723
-0.01569115543 0.06046603775 -0.04730906677 0.8012980853 -0.01580456665 -0.5980565142
-0.004663166285 0.04262505531 -0.08062458801 -0.3315051428 0.008784470131 -0.943412515
-0.01979046631 -0.005608962893 -0.01803019571 0.9671898195 0.25405014 -0.001542509408
-0.01375371981 0.05737062263 -0.04529351234 -0.6857107057 0.0208364869 0.7275758853
-0.01224950314 -0.01653667068 -0.01543481016 -0.6105451496 -0.7919611604 0.005669268986
-0.01856073952 -0.008931406498 -0.03950378227 0.9079161523 0.4186485654 0.02053385191
-0.01468901761 -0.005411678235 -0.06332768186 0.7130718132 0.5214224066 0.4686654063
-0.009756542683 -0.01812127781 -0.01457544613 -0.4365338305 -0.8996727179 -0.005216843826
-0.005337034225 -0.01986611366 -0.01227183342 0.365798144 0.9306705363 -0.00663858008
-0.0144934721 0.03998916789 -0.07514723097 0.7063470624 0.01282338696 0.7077495236
-0.02056154299 0.03347939301 -0.05992963696 0.9973590895 -0.008469621086 -0.07213260101
-0.005558455467 0.01980341148 -0.01468080473 -0.3717883626 0.9283041657 0.004978881409
-0.01553297997 0.01349095058 -0.01806959152 0.7550769757 -0.6556151856 -0.005243015536
-0.01669748783 0.01202387571 -0.01846443176 0.8223563284 -0.568802365 -0.01392618993
-0.009788905621 0.03953214645 -0.04249686432 0.5658248382 0.00187923894 -0.8245233295
-0.01835157919 -0.008171050668 -0.04797984695 0.8889557736 0.4362019403 0.1395904717
-0.01653334522 0.02192816639 -0.04832713509 0.775405116 -0.02378981152 -0.6310158087
-0.01716774797 -0.01129976821 -0.01862380409 0.8296345173 0.5581934458 -0.01125365384
-0.02025863934 0.03362120533 -0.05708328342 0.9843183498 -0.01059942932 -0.176082476
-0.003024383068 0.006196567535 -0.07832984924 -0.1899469087 -0.3416389996 -0.920436291
-0.0148096683 -0.01423697257 -0.01782421637 0.7313605314 0.6818159548 0.01545240717
-0.01576905203 0.01321957541 -0.03585608482 0.7683944046 -0.6399418865 0.006664904265
-0.005547588348 -0.01980408669 -0.01467710304 0.3707464335 0.9287196287 -0.005189731848
-0.01232334089 0.01647855568 -0.01849615669 0.6231902583 -0.782057942 -0.004390597589
-0.01767394753 -0.005265467167 -0.05722752304 0.857869667 0.4268388974 0.2861261787
-0.01155949163 0.02152593327 -0.07758977699 0.571464605 0.009596660761 0.8205705999
-0.01856520462 0.04274957371 -0.06945312119 0.9098087277 -0.001734560569 0.4150241804
-0.01806616259 0.00983261013 -0.02115696716 0.8719326041 -0.489576574 0.006950693118
-0.01907217121 0.007705299377 -0.02075044346 0.9180498475 -0.3963755505 0.008420240478
-0.01866637955 -0.00282611084 -0.05743543777 0.8986451703 0.3510336278 0.2630822115
-0.01960431957 0.006292928696 -0.02092797279 0.9615072613 -0.2747515835 0.003918400584
-0.01979754982 -0.005634680748 -0.0359736969 0.9486750335 0.3162233875 -0.004295347386
-0.02012615728 0.004188205481 -0.02110191536 0.9750623445 -0.2219271311 -0.001331471828
-0.009658665657 0.03669986916 -0.04242502403 0.5620868408 0.002872328689 -0.8270732332
-0.02043755976 -0.002092112213 -0.02120574506 0.994622378 0.1035599316 -0.001290610612
-0.01979788971 -0.005590461373 -0.0209925046 0.9674799606 0.25294316 -0.00151116
-0.02000811291 0.009450838566 -0.05119668007 0.9750497789 -0.1601317178 -0.1537392648
-0.01876154995 -0.008415407538 -0.02064684248 0.9088270233 0.4169897171 0.01237002539
-0.007507716179 0.01917605591 -0.03948249817 -0.6255134706 0.7252097552 0.2877563361
-0.0145873127 0.04299268023 -0.0750471255 0.7138596682 0.02169516035 0.6999526371
-0.01233264208 -0.01647806358 -0.01849929142 -0.6154388295 -0.7881207825 0.01003390864
-0.02038207293 -0.002753494382 -0.03283533001 0.9902357074 0.1391331996 0.008671593187
-0.01438432932 0.0147262826 -0.03254393768 0.6789876967 -0.7340481548 0.01220713926
-0.0142955792 0.0308185792 -0.07539006424 0.7034548702 0.01071923762 0.7106590909
-0.009905518055 -0.01805329037 -0.01768703365 -0.4439485099 -0.896031466 -0.006110032001
-0.01128710723 0.01614818096 -0.07747802544 0.5643931106 0.09615351494 0.8198871375
-0.01937046671 0.006930161119 -0.02964085245 0.9428244422 -0.3324020141 0.02430991919
-0.005839747667 0.01972109318 -0.01786800098 -0.3793829469 0.9252240313 0.00539179776
-0.003614140272 0.01166771603 -0.07987065125 0.2137220014 0.2126422577 0.9534705954
-0.01415392351 0.01493063545 -0.02061031342 0.6756871225 -0.7370617176 0.01367248914
-0.01152464032 0.01883087683 -0.07754609489 0.5671353405 0.04827178638 0.8222088179
-0.01511578703 0.03038047791 -0.04663636017 0.7481032845 -0.00744731776 -0.6635405136
-0.01557289982 0.01344506073 -0.0210772953 0.7579558579 -0.6522865665 -0.00501524641
-0.005782534122 -0.01757859993 -0.05298869324 -0.2909132227 -0.911813163 -0.2897693092
-0.01673179245 0.01198319626 -0.02145846081 0.8238534091 -0.5666353089 -0.01378357446
-0.01422327542 0.01604793167 -0.07514164734 0.7032275966 0.09523010038 0.7045581419
-0.01485895109 -0.01418809152 -0.02084232903 0.7210878024 0.692842255 0.001411002257
-0.005826532602 -0.01972191334 -0.01786362743 0.3775697133 0.9259657967 -0.005334326653
-0.01001202679 0.01798814201 -0.02076395416 0.4991314248 -0.8665252787 0.001327424802
-0.001430620372 0.02209986877 -0.08113679123 -0.1677302969 -0.009863262448 -0.9857835785
-0.01551311398 -0.008833804131 -0.05719639397 0.7422626166 0.5817061632 0.3326622125
-0.006564883709 0.05986605835 -0.08009247589 -0.3388749071 0.02578871667 -0.9404779314
-0.01241900063 0.01641963291 -0.02154541492 0.627580231 -0.7785388759 -0.004502489979
-0.01869178057 0.03062633801 -0.06920063591 0.885526397 -0.01608741606 0.4643104513
-0.01808649445 0.009799845457 -0.02411939764 0.8851876247 -0.4651027151 0.01106044897
-0.01908623219 0.00767977643 -0.02370487499 0.918657581 -0.3950358758 0.003860798724
-0.007014707088 -0.01934636116 -0.03265467072 -0.4583791104 -0.8886861837 0.01120080079
-0.01344765759 -0.01023734379 -0.0588818779 -0.635693745 -0.655915524 -0.4070236944
-0.01961186123 0.006272220135 -0.02387485123 0.9620065104 -0.2729423585 0.006778122913
-0.02013089371 0.004174460173 -0.02404252386 0.9673673455 -0.2533654714 0.002521276153
-0.02052537537 0.001389586866 -0.02417002249 0.9958583433 -0.09055474222 -0.008123965877
-0.02043988832 -0.002085264862 -0.02414238294 0.994660655 0.1031918917 -0.001270779187
-0.01822767067 0.03956689453 -0.05109133244 0.8700040778 -0.006614918561 -0.4930001495
-0.01980526924 -0.00557206893 -0.02393734598 0.9659085554 0.2588768047 0.00186079311
-0.01679269409 0.01216858419 -0.04214314143 0.8366406825 -0.5378190133 -0.1038415968
-0.009084696134 0.02186172549 -0.0421231486 0.6294976824 -0.2750581536 -0.7266881587
-0.01877728128 -0.008387481093 -0.02360499096 0.9068903761 0.4213662955 0.0005391597807
0.0004781394154 0.0362100029 -0.0811869545 -0.09398444116 0.04167414187 -0.994701056
0.001411039591 0.03842593765 -0.08112361908 0.123642219 -0.02363790782 -0.9920452868
-0.01640769768 -0.007452533484 -0.05738204384 0.7819927679 0.5236137542 0.3381064142
-0.01241239452 -0.016419981 -0.02154326916 -0.624369921 -0.7810937713 0.007397446636
-0.0100320549 -0.01798699284 -0.02077049255 -0.446530841 -0.8947568931 0.004506691646
-0.006118922472 0.01963939571 -0.02103120995 0.3900252315 -0.920796493 -0.003759962982
-0.01421604586 0.01487890291 -0.02362137222 0.6701004552 -0.7422694543 -0.001198783239
-0.0187010835 -0.008440526485 -0.04263287989 0.904172373 0.4242459992 0.04987636665
-0.01451247168 0.04572512245 -0.07511697261 0.7212240374 -0.008000792956 0.6926556686
-0.01676589203 0.01194276047 -0.02443455982 0.8155335573 -0.5786559002 -0.007897218594
-0.01722189569 -0.01122405028 -0.02457979965 0.8328758749 0.5534466322 -0.00382130609
-0.01773560286 -0.002689861059 -0.06044037819 0.8682471129 0.3764638074 0.3231438575
-0.01490793347 -0.01413950825 -0.02384207535 0.7132850273 0.7008735943 -0.0008214188225
-0.0200624876 0.0127859424 -0.05401992607 0.9782329735 -0.1160360714 -0.1720345307
-0.02033908176 0.06030978012 -0.0577116375 0.9947047734 -0.03473603889 -0.0967254945
-0.002606433868 0.06051457596 -0.08100479126 0.2368408778 -0.01245844606 0.9714685717
-0.01014048195 0.01792211628 -0.02382845306 0.507305943 -0.8617647808 0.001463849854
-0.02044535542 0.04283124733 -0.06287410545 0.9961532374 0.01268569003 0.08670525289
-0.01306416702 0.05134505653 -0.07647233582 0.6432034288 -0.01195528022 0.7656019987
-0.01251051998 0.01636126518 -0.0245743618 0.6318531797 -0.7750362278 -0.008966879697
-0.01818649673 0.009622280121 -0.02738180962 0.8855355815 -0.4645571657 -0.003657018081
-0.02013702011 0.00416076684 -0.02696679163 0.9682550537 -0.2499419438 0.003343008812
-0.01497393475 -0.0140861948 -0.03607101974 0.7164276202 0.6976601505 0.001333979346
-0.02052777481 0.001385043964 -0.02708909607 0.9947860858 -0.101899557 -0.004138083464
-0.02044220352 -0.002078456571 -0.0270622975 0.9911594896 0.1326390096 -0.003123979062
-0.01981260681 -0.005553781748 -0.0268653183 0.9648727609 0.2626985952 0.003162792025
-0.01977008772 0.04869309902 -0.06619422531 0.9600149912 -0.002886134868 0.2799337189
-0.01849096743 -0.009057502747 -0.02718283971 0.9096391176 0.4153675929 -0.005141835187
-0.01569124889 0.01330901384 -0.02999411869 0.7654168553 -0.6434984976 0.006835297387
-0.006396045923 0.01955829811 -0.02417117691 0.3998093343 -0.916587283 -0.004499865669
-0.01679979324 0.01190256023 -0.02739333725 0.8249026494 -0.5652094932 -0.008593481741
-0.02040649748 0.009407995701 -0.0540808897 0.9872244394 -0.09233573675 -0.1298538331
-0.01724873304 -0.01118652225 -0.02753177834 0.8372070738 0.5468649194 -0.004803706561
-0.006367854595 -0.01956003571 -0.02416241074 -0.4258217753 -0.9047756102 -0.007543926919
-0.0124985795 -0.0116482439 -0.05798522949 -0.6166515612 -0.6865428251 -0.3852269478
-0.01293742847 0.02784469891 -0.04461935043 -0.6233120953 0.0007488198873 0.7819728071
-0.01503989315 0.02483921432 -0.04655789757 0.7491917173 0.0008524135332 -0.6623526584
-0.0181743803 0.03407168388 -0.05099197292 0.8679049546 0.01199328033 -0.4965854922
-0.01026812363 0.0178565073 -0.02687354183 0.5153639463 -0.8569671143 0.002714399297
-0.01864279842 -0.008189529777 -0.04522197247 0.9163214907 0.3916622944 0.08340007688
-0.01258627605 0.0163040514 -0.0275801487 0.6354708114 -0.77208512 -0.007836794855
-0.01686702633 0.01182283306 -0.03326130676 0.826107133 -0.5634809764 -0.006016150628
-0.02014195013 0.004147168219 -0.02987446356 0.9697001144 -0.2441879924 0.007342514418
-0.016656106 0.03432416916 -0.04849853134 0.7730956996 -0.0004673174526 -0.634289225
-0.01019400978 0.04876549911 -0.04274579493 -0.5779588416 -0.001446651549 0.8160646326
-0.0205287509 0.001380535796 -0.02999160194 0.9962818253 -0.08603938775 0.004443914602
-0.02031506793 0.05478322347 -0.05755231921 0.9932355371 0.004422828343 -0.1160327816
-0.001829066575 -0.01121351051 -0.06594945526 -0.1716172573 -0.7558552766 -0.6318467518
-0.02044450601 -0.002071685791 -0.0299660724 0.9906653959 0.1361603679 -0.006513651451
-0.0198199029 -0.005535596371 -0.02977700853 0.9629147291 0.2696766899 0.008349095
-0.01910935211 -0.007629286528 -0.02956170177 0.9336151679 0.3582704974 0.002229099471
-0.01535743809 0.04569974327 -0.04692289352 0.7657318622 -0.002127791018 -0.6431564256
-0.01142038679 -0.01708063126 -0.02722475481 -0.5665601888 -0.82401818 0.001895121283
-0.01286290312 0.01607956791 -0.03942790604 0.6890171249 -0.7169850576 -0.1057725329
-0.01541305399 0.0485001545 -0.04698786163 0.7816366829 -0.005073497372 -0.62371336
-0.006671182871 0.0194777832 -0.02728863144 -0.4106928526 0.9117591834 0.005154845292
-0.01970746009 0.02193629805 -0.06649264018 0.9637049467 1.360821321e-05 0.2669696154
-0.01433387184 0.01477661228 -0.02958829975 0.6765183511 -0.7363072048 0.01321441571
-0.01683350182 0.0118625865 -0.03033539009 0.8263880533 -0.5630319186 -0.008822928733
-0.01854682446 -0.008960755825 -0.03662995911 0.90973242 0.4151588095 0.005485145528
-0.01812923861 0.009727474213 -0.03072199345 0.8859148273 -0.4634111685 -0.02012480331
-0.01443214591 0.04846606382 -0.07519111379 0.6924323795 -0.008075734697 0.7214375803
-0.01169279146 -0.01690022135 -0.03618668747 -0.5595346798 -0.82879525 -0.004401775162
-0.01851256943 -0.009020087719 -0.0308363266 0.9087378197 0.4173509851 -0.0037054327
-0.01727541971 -0.01114920473 -0.03046720695 0.8405826721 0.5416539122 -0.005640108022
-0.006604443312 -0.01948188305 -0.02726848507 -0.4461016565 -0.8949088911 0.01146249037
-0.01036948204 0.01779275036 -0.02989230156 0.5190615434 -0.854726526 -0.004204752747
-0.01266005659 0.01624725246 -0.03056793213 -0.6417231158 0.7669355554 -0.001138656255
-0.01133318949 0.03101354599 -0.07773301697 0.5623206074 0.009899736746 0.8268600424
-0.01132388616 0.009428360462 -0.07602907181 0.562372331 0.2436169599 0.7901823449
-0.0144003032 0.02475452232 -0.07529124324 0.7095358649 -0.001720295609 0.7046672243
-0.02014685392 0.004133642793 -0.03276649618 0.9721401895 -0.2335519668 0.01992311938
-0.02054486879 0.0006880818208 -0.03288300133 0.9993327951 -0.03647101892 0.001956872315
-0.01982716036 -0.005517509103 -0.03267299271 0.9615028623 0.2747139618 0.006669703194
-0.01573025513 0.01326417398 -0.03293297005 0.7665272952 -0.6421686819 0.007435704123
-0.01593030548 -0.01164072418 -0.0495315361 0.7732888365 0.6084150639 0.1784810506
-0.01968464088 0.05993988609 -0.05471974754 0.967486075 -0.04246357526 -0.2493341922
-0.01814755821 0.009695353508 -0.03363054085 0.8874830928 -0.4604011933 -0.02011221683
-0.01730196142 -0.01111208987 -0.03338666821 0.841089375 0.540888384 -0.002901591582
-0.01505308318 -0.01399544954 -0.03273722029 0.7133369463 0.7005569219 0.01924578759
-0.01451795673 0.01460122299 -0.03986640167 0.6932489703 -0.7077200309 -0.1361551433
-0.02053362751 0.00402923739 -0.05409331417 0.9969015196 0.05265701824 0.05843456692
-0.02054566479 0.05800251007 -0.06050642395 0.9998129944 -0.01796045999 0.007169251935
-0.004900902748 0.03981850624 -0.08057317734 -0.3322779564 0.0139719415 -0.9430780161
-0.006839434385 -0.01940425777 -0.03035358524 -0.4541390552 -0.8908475977 0.01217686854
-0.0104617424 0.01772984791 -0.0328909874 0.5135538436 -0.8579143232 -0.01566728406
-0.02055783701 0.04295421314 -0.06011680412 0.9995164131 0.00793912979 -0.03006509745
-0.01273341846 0.01619077492 -0.03353880882 -0.6446471695 0.7644797804 -0.0008319966953
-0.0194422039 0.00673804388 -0.03644813538 0.9289548915 -0.3701566529 -0.005182848032
-0.02028668356 0.04586353493 -0.05732734108 0.9919725083 0.01341949566 -0.1257396511
-0.01188485813 0.0009440905094 -0.07176109467 0.592902047 0.4253930214 0.6837455228
-0.02015173197 0.004120187879 -0.0356434536 0.9740565845 -0.2259619577 0.01244844623
-0.01419110711 -0.01069676717 -0.05668663915 0.6922000012 0.6414188011 0.3308188023
-0.02054602019 0.0006858545641 -0.03575489744 0.9994246872 -0.03151660581 0.01252989102
-0.01472399306 -0.008149806142 -0.05983955002 0.6904279958 0.593954806 0.4129489933
-0.02038419342 -0.002744561493 -0.03570913506 0.9872312656 0.159271255 0.002663732826
-0.01160312915 -0.01695998144 -0.03321649075 -0.5540044112 -0.8325075068 -0.003219241
-0.005440667391 0.006840632677 -0.07796459579 0.2528079314 0.3235007077 0.9118308187
-0.007062666893 0.01934342957 -0.03266836929 -0.4279420891 0.9037959689 0.004291269027
-0.01689661217 0.01178343487 -0.03617059708 0.8125885768 -0.5828002245 -0.006610833647
-0.005970389605 0.02182354259 -0.08031430435 0.2386165115 0.0226059846 0.9708507248
-0.01816578388 0.009663400412 -0.03652390385 0.8881531502 -0.4593863093 -0.01217376856
-0.02037796068 0.02180441999 -0.0633494339 0.9864129056 -0.006451854696 0.1641583177
-0.01125385094 0.0337371769 -0.07778364754 0.5635782666 -0.004473427633 0.8260505589
-0.02028643417 -0.002714656293 -0.045630373 0.9817113292 0.1867334575 0.03706051865
-0.01913549995 -0.007566997766 -0.03679349518 0.9358796593 0.3522537043 -0.006825764416
-0.02054306126 0.06007258797 -0.06056859207 0.9978145531 -0.06463784482 0.01371373742
-0.0001436247248 0.03334173775 -0.08119617844 -0.1205270514 0.02852401747 -0.9923001614
-0.01732836294 -0.01107517099 -0.03629073238 0.8554833999 0.5178203175 0.003204877347
-0.0151032939 -0.01384619164 -0.04218593693 0.7123359403 0.7003171856 0.04618817659
-0.004296978951 0.01301386738 -0.07997515869 0.2220017768 0.1706011788 0.9600054421
-0.007166981697 0.01930573654 -0.03419219589 -0.4300978015 0.9027765155 0.003231738913
-0.005596773624 -0.01039591789 -0.06589873505 -0.2985176734 -0.7336039507 -0.6105017953
-0.01525732565 0.04011391449 -0.04680496979 0.7567922924 0.009096258494 -0.6535921391
-0.02015847588 0.004103456656 -0.03921875191 0.9744818663 -0.2242679666 -0.009432463167
-0.02054708354 0.0006836383045 -0.03861234411 0.999509141 -0.02989394883 0.00937170981
-0.01166500282 0.04874151993 -0.07757489395 0.560855987 0.006726068083 0.8278860561
-0.02036802864 -0.002870964718 -0.03899070969 0.9861028641 0.1661073306 0.003081582033
-0.01494033146 -0.01366649933 -0.04530364532 0.7096352383 0.6986238765 0.09133732906
-0.004069385052 0.04898540115 -0.08075366211 0.2796507303 -0.001852242729 0.9601000147
-0.007131051064 -0.01930792809 -0.0341821022 -0.4665390653 -0.8844327756 0.01095289625
-0.01692367458 0.01174432993 -0.03906430817 0.8112814015 -0.5837607306 -0.03234033048
-0.01818274689 0.009631643534 -0.03940232372 0.8897053182 -0.4551355596 -0.03572210956
-0.008839488506 -0.01456144905 -0.05723864937 -0.4451430579 -0.7923043132 -0.4172547582
-0.01940324306 0.006851224303 -0.03972951698 0.9285043603 -0.369385627 -0.03786702323
-0.01735453558 -0.0110384438 -0.03917993355 0.8423353608 0.5387136655 0.01608498065
-0.01515593743 -0.01388855648 -0.03931340981 0.7173499559 0.6966664241 0.008058180317
-0.01876347885 0.0004009707332 -0.06078738785 0.9093551083 0.2884152538 0.2998164911
-0.01502660418 -0.0109272213 -0.05427955532 0.7193218642 0.6330587042 0.2860292515
-0.02038012161 -0.002587401915 -0.04240374908 0.9868713679 0.1614997313 0.001655282202
-0.01588774967 0.01313988209 -0.04094949722 0.8067157491 -0.5809622976 -0.1081319055
-0.01832972813 0.009595894337 -0.04230090809 0.9015835269 -0.4190894423 -0.1072901828
-0.01949586582 0.006827033162 -0.04260179234 0.9517626866 -0.2941770328 -0.08722191058
-0.008497968674 0.009490694523 -0.07770981979 0.4094734733 0.2503160309 0.8773102982
-0.02020340395 0.004086264253 -0.04278390884 0.9768928515 -0.2087055335 -0.04606904472
-0.02055831671 0.0187018671 -0.05972814846 0.9981345001 -0.007266684071 -0.06061942725
-0.01979293728 -0.005456019402 -0.04267765236 0.9594805582 0.2804027804 0.02777299371
-0.01731042624 -0.01100444031 -0.0420363636 0.8394114249 0.5419469505 0.04101173741
-0.02055017757 0.0006779582401 -0.04569649442 0.9999476152 0.01007760126 -0.001791334547
-0.01444693995 0.02139547968 -0.07524508095 0.7019849393 0.01556722676 0.7120216334
-0.007510100126 -0.0191759119 -0.03948312378 -0.4598287669 -0.8875710397 -0.02784159656
-0.004409254551 0.04544384193 -0.08067968369 0.3275592538 0.002244596058 0.9448279722
-0.01149394544 0.01796443176 -0.04223062388 0.6225922039 -0.5412478434 -0.5651811388
-0.0141608127 0.01550253646 -0.04242700831 0.7361303813 -0.5789324364 -0.3506412637
-0.01082265568 0.06017575073 -0.04312745285 -0.5922112553 -0.004876528067 0.8057679868
-0.01069376993 0.05803202248 -0.04304952431 0.5899091164 0.003685773095 -0.8074612371
-0.004030138969 -0.01764713287 -0.05406519318 -0.2395823579 -0.9110648141 -0.3355014132
-0.01052957344 0.05517680931 -0.04295004463 0.58851066 0.001783865825 -0.8084874897
-0.01037452793 0.05232515907 -0.04285585403 0.5825363384 0.002990253726 -0.8127991589
-0.01002672911 0.04521045876 -0.04264338875 0.5739224076 0.0016834368 -0.8189079534
-0.01700565338 0.06010940552 -0.04907484818 0.8062501779 -0.002130752364 -0.5915708838
-0.009903455734 0.04236989594 -0.0425675602 0.5701917408 0.001485101824 -0.8215103001
-0.0190792675 -0.0006709554791 -0.05863380814 0.9230406059 0.2874944453 0.2556227371
-0.009530604362 0.033870327 -0.04235661125 0.5583746678 0.002861850566 -0.829583956
-0.01369330072 -0.007470281363 -0.06243945885 0.6638031133 0.5832704849 0.4681463107
-0.009412868023 0.03104234123 -0.04229371643 0.5528109934 0.002946138861 -0.8333014615
-0.00849966979 -0.0160189085 -0.05429914093 -0.445732646 -0.8359410112 -0.3201953062
-0.01517099984 0.01587997119 -0.04460965856 0.7848884033 -0.4663217316 -0.4080370534
-0.01866278521 0.009784239769 -0.04499595388 0.9154034292 -0.3659793473 -0.1676176576
-0.01975418949 0.00679914391 -0.04550151539 0.9622044484 -0.2553653447 -0.09461046612
-0.02033195925 0.004071302116 -0.04564357758 0.9836009157 -0.1692224875 -0.06239381656
-0.01966683483 -0.005440698028 -0.04547638512 0.9539452229 0.2930028883 0.06432588289
-0.01460840098 0.01911048253 -0.04592125956 0.740159938 -0.2017154151 -0.6414625145
-0.02038056755 0.01863779799 -0.06314164162 0.9913068855 0.006313507371 0.1314184097
-0.01713397741 -0.01097534537 -0.044846632 0.8286997043 0.5541035744 0.07890519009
-0.01962777185 0.0516256485 -0.0544950552 0.9647254997 -0.002404376693 -0.2632468978
-0.01383816147 0.05949806976 -0.04536085129 0.6771002004 -0.02402989193 -0.7354983908
-0.01971445351 0.05755950623 -0.05480485306 0.9658312786 -0.01885441523 -0.2584849168
-0.01364579439 0.05453846359 -0.04520744324 -0.6746299314 -0.002234396925 0.738152737
-0.01354343891 0.05171139145 -0.04512581825 -0.6687541098 -0.005632291801 0.7434623177
-0.01344662619 0.04888912964 -0.04504861259 -0.6518637808 -0.002869320252 0.7583306523
-0.00698176384 0.01156350136 -0.07891683197 0.3615256815 0.2182944431 0.9064473055
-0.01335533047 0.04607141113 -0.04497580719 -0.6606282095 -0.01209461551 0.7506158065
-0.01326952839 0.04325796318 -0.04490738297 -0.6566540479 -0.01396838727 0.7540625607
-0.01317024994 0.03974694824 -0.04482821147 -0.6565213652 0.01261313509 0.7542019662
-0.01309627438 0.03694184113 -0.04476921844 -0.6450031326 -0.005129808064 0.7641627078
-0.01306835556 0.03553995514 -0.04474324036 -0.6462056291 0.01097273564 0.763084454
-0.02056125641 0.02809255886 -0.05984329033 0.9997429126 0.008426798664 -0.02104988807
-0.01302894354 0.0334389019 -0.04470637703 -0.6423046851 0.001985377168 0.7664468343
-0.01289928532 0.02505195332 -0.04458215904 -0.6332093357 0.006846315394 0.7739502989
-0.01286620235 0.02226175308 -0.04454916954 -0.656365961 0.06874633454 0.7513039775
-0.01288301086 0.02016805267 -0.04453676605 -0.6826377505 0.201264596 0.702494316
-0.01955356916 0.009266521136 -0.04851378886 0.951385728 -0.2400966088 -0.1929217849
-0.01641910934 0.01442965984 -0.04539471436 0.8583429119 -0.3772091377 -0.3477940654
-0.01921305656 0.008847823143 -0.04607710648 0.9406851931 -0.2984547405 -0.161357167
-0.01563721323 0.05834638023 -0.04724712563 0.7953631392 0.002534795415 -0.6061279169
-0.01555205441 0.05482170486 -0.04714901733 0.79296928 0.01145780124 -0.609153872
-0.01547240019 0.0513059864 -0.04705685997 0.7869164848 -0.001319444116 -0.6170581051
-0.01974952583 0.03344989319 -0.06627519226 0.9624902263 -0.01380241564 0.2709650486
-0.01530553389 0.04290443611 -0.04686193466 0.7673082896 0.0004469610996 -0.6412782461
-0.01988618135 -0.002700893879 -0.05115048885 0.9599978771 0.2577267565 0.1094577314
-0.01521279716 0.03732787132 -0.04675197601 0.7668141541 0.008120363791 -0.641817819
-0.01518169212 0.0352409668 -0.04671470642 0.7608276582 0.0001683924873 -0.6489539631
-0.005247389793 -0.004824487209 -0.07153036499 0.2812859487 0.5970932694 0.7512375408
-0.01987141085 0.05501343536 -0.06587973213 0.9687654474 0.00486891585 0.2479310419
-0.01589259243 0.01718458939 -0.04670700836 0.8247932704 -0.2557844995 -0.5042721002
-0.01905650139 0.01019868469 -0.04745550156 0.9280675431 -0.3170129207 -0.1954314291
-0.01934557915 -0.002017595768 -0.05591177368 0.9320680934 0.2990902723 0.2044360006
-0.02009135199 0.006769651771 -0.04840333176 0.9742921288 -0.199442402 -0.1047739286
-0.02052485085 0.0006756895085 -0.04850117938 0.998418374 0.05243528461 0.02028032057
-0.008482158979 0.02781084442 -0.07935849762 0.4308499472 0.0004988063031 0.9024234451
-0.01943564844 -0.005427364349 -0.04823904991 0.9400085418 0.3247523816 0.1044979997
-0.02036306953 0.05991226196 -0.06333553314 0.9926058702 -0.04684744303 0.1119772457
-0.01687125731 0.05510650253 -0.07232106781 0.8253514424 0.01818506212 0.5643264126
-0.01679452562 -0.01095216203 -0.04760740662 0.8149178612 0.5665347035 0.1222591892
-0.006673504353 -0.01910293579 -0.0451641674 -0.3605197057 -0.9227050437 -0.136531843
-0.016640028 0.01917391491 -0.04833016586 0.8065003404 -0.1506172607 -0.5717268944
-0.01696903801 0.05799914169 -0.04901593781 0.8065716649 -0.01349078415 -0.5909823585
-0.01687846565 0.05239031219 -0.04886925125 0.7978701725 0.001473216099 -0.6028275188
-0.02056014188 0.02473424753 -0.05979704475 0.9979091308 -0.0001745999189 -0.06463231527
-0.01682733663 0.04889829254 -0.04878564326 0.7871541717 -0.005844324349 -0.6167285901
-0.01678001118 0.04541497421 -0.04870763397 0.7889241996 -0.01132254022 -0.6143862038
-0.01671292114 0.03985987091 -0.04859552574 0.7967846423 -0.003212619454 -0.604254841
-0.01668323517 0.03708976555 -0.04854514694 0.7760337505 0.003906842425 -0.6306792804
-0.01658384705 0.02742911339 -0.0483945713 0.7762362102 -0.008561975446 -0.6303840405
-0.01655718136 0.02467721844 -0.04835896492 0.7747241915 -0.0113895453 -0.63219673
-0.01424426246 -0.01378497529 -0.04842517757 -0.6970468876 -0.7018348431 -0.1468110673
-0.01183583355 -0.01597731352 -0.04785670853 -0.5906535926 -0.7899925438 -0.1644387858
-0.01845243835 0.05967919922 -0.0515702095 0.881364934 -0.0397427715 -0.4707614738
-0.01680976359 -0.002465871493 -0.0628033371 0.8124228189 0.4241460504 0.4000866047
-0.01839151239 0.05479277229 -0.05143691254 0.8877501417 -0.0008170381587 -0.4603249051
-0.02056778908 0.009372718573 -0.05689496613 0.9996699185 -0.00270165707 -0.02554907286
-0.01036194515 -0.002037570715 -0.07094863129 0.480488087 0.5218310888 0.704857087
-0.01835919714 0.05201019764 -0.05136594677 0.8778855584 -0.004913188291 -0.478845285
-0.01832871008 0.04923428631 -0.05129878712 0.8760053025 0.006731312112 -0.4822544965
-0.01821808243 0.04606850433 -0.05106605301 0.8733913048 0.003016230304 -0.4870097854
-0.01833764801 0.04271734085 -0.05131520462 0.8796354546 -0.01323286565 -0.4754643606
-0.0181999979 0.03681701469 -0.05103977299 0.8691587748 0.001361021092 -0.4945312647
-0.002729274273 -0.008357674122 -0.06897923279 -0.195371751 -0.6946794447 -0.6922790969
-0.01806484718 0.03093252296 -0.05078092728 0.8658780312 0.004953367322 -0.500230646
-0.01428944931 0.000940005827 -0.0693800354 0.7046014256 0.3978614398 0.5875739151
-0.01820533981 0.02762353745 -0.0510554451 0.8729330427 -0.0112747112 -0.4877097332
-0.02037549019 0.05784606743 -0.06327212048 0.9902667996 -0.02388015487 0.1371182112
-0.01974413427 0.0454640185 -0.06627464167 0.9606981279 -0.002449406347 0.2775844151
-0.02038625908 0.02799584707 -0.06326450284 0.9912851895 0.01180631951 0.1312032161
-0.01810132551 0.02449382544 -0.05085421371 0.8626926489 -0.008917412799 -0.5056499513
-0.02055370283 0.006715734005 -0.05410447598 0.9987625609 -0.02851997038 -0.04074258435
-0.01808516979 0.02176469851 -0.05082324123 0.8703300027 -0.02525075146 -0.4918211931
-0.01775337715 -0.008292710495 -0.05108205032 0.8597026802 0.4752717189 0.1871579408
-0.018894207 0.0135657444 -0.05025086021 0.918823491 -0.2227580385 -0.3257947953
-0.0181501379 0.01903346014 -0.05081468773 0.8901509252 -0.08078495804 -0.4484474561
-0.02039131117 0.00674109292 -0.05127807331 0.9869203511 -0.1309028459 -0.09408860459
-0.02042387486 0.0006735332608 -0.05127641233 0.9898162449 0.1250438654 0.06802817841
-0.01934037685 -0.004734628916 -0.05102448082 0.9410180487 0.3102017458 0.1351292301
-0.01884113693 -0.006097655535 -0.05090946579 0.9128708213 0.3807971928 0.1471745952
-0.01954037056 0.0247021843 -0.05414385147 0.9567745697 -0.01314061397 -0.2905335557
-0.01657105573 -0.01023239772 -0.0510938797 0.7958620807 0.5655794591 0.2161560179
-0.01838389683 0.05501356316 -0.06978933525 0.9006594371 0.001935387031 0.4345213834
-0.009036959171 -0.0174968338 -0.04864440346 -0.4359055161 -0.8750927386 -0.2102357719
-0.01538386917 -0.01163329506 -0.05153167534 0.7552921746 0.6141834399 0.2287191139
-0.008312964916 0.01626265097 -0.07915037918 0.4107212687 0.1151874851 0.9044555726
-0.01271070671 -0.01449841166 -0.05092728806 0.6137272425 0.752536866 0.2388035535
-0.02020481269 0.0006716576616 -0.05401509666 0.9794867001 0.1645973258 0.1162476865
-0.01086268282 -0.01597566891 -0.05050777054 -0.5181939437 -0.818810549 -0.2470310133
-0.01960349388 0.03966477509 -0.05438046494 0.9606824645 -0.0144036944 -0.2772755596
