# .PCD v0.7 - Point Cloud Data file format
VERSION 0.7
FIELDS x y z normal_x normal_y normal_z
SIZE 4 4 4 4 4 4
TYPE F F F F F F
COUNT 1 1 1 1 1 1
WIDTH 555
HEIGHT 1
VIEWPOINT 0 0 0 1 0 0 0
POINTS 555
DATA ascii
-0.01925595665 0.05567418289 -0.06787730408 0.9338288524 -0.000955625817 0.3577188299
-0.02057164669 9.685754776e-09 -0.04146203899 0.9999456619 0.009590608092 -0.004085777107
-0.01501384513 -0.01403191694 -0.0151288681 0.7207320506 0.693055903 -0.01479278761
-0.01875364923 -0.008429432988 -0.01916116476 0.906676646 0.4218260241 0.0005147309478
-0.01839989662 0.009240460396 -0.009279187202 0.8949812633 -0.4461027274 -0.0009459793299
-0.00563839674 0.02938968468 -0.08041075134 -0.3443264571 0.00289402895 -0.9388455227
-0.01904736137 0.007750329494 -0.01553791714 0.9293439545 -0.3691519148 -0.006832137022
-0.02039930391 0.05372761536 -0.06315198517 0.9892389409 0.008099706976 0.1460846076
-0.01813383102 0.00971942234 -0.03145107174 0.8801655948 -0.4745781623 -0.009170259645
-0.01979714489 0.005549511194 -0.02758981514 0.9689151894 -0.2473692575 -0.003436017164
-0.01901866722 0.007802407265 -0.009509618759 0.9205167043 -0.3906988541 -0.001844606445
-0.01805442937 0.03569726817 -0.05075173442 0.880716238 -0.01599482964 -0.473374137
-0.01089519691 -0.004078459144 -0.06893564606 0.5259659313 0.5659210771 0.6348961912
-0.01754681587 -0.01069281864 -0.008961444855 0.8714278309 0.4905236854 0.0002228578587
-0.02048488235 0.002072644234 -0.02925464249 0.9915763318 -0.1292715045 -0.008078145454
-0.01660488701 -0.01214700127 -0.009372757435 0.8074958498 0.5898621701 0.003615631615
-0.005878498077 -0.007591396809 -0.06879336548 0.2697129188 0.6728684872 0.6888417383
-0.02057715034 9.983778e-09 -0.03933298683 0.9999895822 0.004563844849 8.288621792e-05
-0.01961988449 0.0598144989 -0.06668838501 0.9548503451 -0.02679342266 0.2958765469
-0.01198713589 -0.01670151711 -0.00689036417 0.5950542848 0.8035990963 0.01178518735
-0.01987541962 0.05361283493 -0.05530754852 0.9703272347 -0.01569223658 -0.2412857463
-0.01517455864 -0.004726815224 -0.06341785049 0.7347580124 0.4902332406 0.468830495
-0.009957688332 0.04411174011 -0.07857975006 0.502404518 0.01055694151 0.8645682456
-0.004762087345 0.02003383636 -0.0057826581 -0.05501993931 0.9982659348 -0.02092677044
-0.01438977194 0.01804816628 -0.07519076538 0.7053019893 0.04978544807 0.7071566397
-0.01253067207 0.01634685898 -0.02532841492 0.5981867136 -0.8012977692 -0.00972320741
-0.009357237816 -0.01311982918 -0.05948176956 -0.4436632814 -0.7768503819 -0.4468404378
-0.009417432785 0.0182760067 -0.007494121075 0.5250445955 -0.851064433 -0.004183746865
-0.0144003191 0.05189212036 -0.07529840851 0.7025650406 0.005950410946 0.7115946573
-0.0120344758 0.01665757751 -0.00922730875 0.5732302911 -0.8193906276 -0.002456181311
-0.0132881422 0.01601869202 -0.04171984863 0.6344243842 -0.7036275145 -0.3200219079
-0.009567707062 -0.01820698738 -0.01065544987 0.5289182394 0.8486597606 -0.004701782493
-0.01391743565 0.01512757301 -0.009147738457 0.6664541935 -0.7455459788 3.887225466e-05
-0.01783636475 -0.007459691048 -0.05278644562 0.8720759675 0.4457207348 0.2020310212
-0.0154218998 0.01361864185 -0.009700428009 0.7660503563 -0.6427718124 -0.003353918149
-0.02058190727 0.002025608301 -0.04921681213 0.9999682206 0.007740766473 0.001907448655
-0.01593030548 -0.01164072418 -0.0495315361 0.7646619369 0.6168695745 0.1864512007
-0.01758044147 0.01066515398 -0.01125039482 0.8511006633 -0.5249519088 0.007290713806
-0.01322868061 0.04185275841 -0.04487480736 -0.6907008218 -0.0007601510086 0.7231402333
-0.01863031006 0.005999888897 -0.06546981812 0.905107728 0.2093697167 0.3700598904
-0.02047219658 -0.002049340487 -0.03930456543 0.9949322 0.1005371995 0.001479530991
-0.02047019958 0.002096581936 -0.01900422859 0.9907285695 -0.1358506407 0.001226811606
-0.01352641535 0.03763556862 -0.07612559509 -0.6538867613 0.00287833513 -0.7565869537
-0.019025877 0.00778932476 -0.01102400208 0.9259758629 -0.3775698654 0.003114171575
-0.01012178802 -0.01793780708 -0.02306903267 0.552574685 0.8334610495 -0.001973939936
-0.01957949066 0.006361098766 -0.01122729588 0.9526763207 -0.3036477456 -0.01434832926
-0.01779117393 -0.0103323369 -0.03929714203 0.8619951982 0.5069163932 -0.0002204079769
-0.007114824295 0.01932458305 -0.03343028259 -0.4315280862 0.902070552 0.007227038929
-0.01994285011 0.004941359043 -0.01136067581 0.9700679397 -0.2427204351 -0.007415038614
-0.01428649807 -0.007923767567 -0.06091984431 0.6854514991 0.5868728437 0.4309715858
-0.01672128868 -0.01201307964 -0.01922037125 0.7889379085 0.6143473666 -0.01242134135
-0.01701038265 -0.01024244261 -0.04907546234 0.8150319089 0.5546714358 0.167518912
-0.02027470398 0.003525551319 -0.01148253727 0.9869794198 -0.1607752932 -0.00478853048
-0.02056043434 -7.9870224e-09 -0.01158743191 0.9996276322 -0.02675919411 -0.005342523864
-0.02054607391 0.01001911736 -0.05896990204 0.997981906 0.0344580324 0.05333628462
-0.02011959839 -0.004233291745 -0.01142558718 0.9746526498 0.2235416546 -0.00901892162
-0.02048757935 0.002049236536 -0.039308815 0.9949382151 -0.100479134 -0.001375377832
-0.01902545929 -0.007789335251 -0.01102384949 0.922821198 0.3852284011 0.0003398792539
-0.01290818787 0.02574980927 -0.04459093094 -0.6783929563 0.0007389414209 0.7346988844
-0.02039367104 0.03403521347 -0.06337038422 0.9902556504 0.001583793545 0.1392524269
-0.01417713261 -0.01489292431 -0.02286330795 -0.7023071381 -0.7118651391 -0.003564747739
-0.01209046459 0.03570986176 -0.0772545929 0.6075216461 -0.005149897959 0.794286427
-0.01756242561 -0.0106657815 -0.01124381495 0.8736189637 0.4866034402 0.002645416052
-0.02055140305 0.04366968155 -0.05943427277 0.9993748698 -0.007144462036 -0.03462407073
-0.02057538509 6.347894669e-09 -0.03504719734 0.9997007665 -0.02437821592 0.002019891306
-0.01812606812 0.004005905151 -0.06536885071 0.8785551888 0.2636143673 0.398306723
-0.0204605999 0.002110492945 -0.01305013371 0.9925651119 -0.1216008085 0.005267069722
-0.01467015982 -0.01437310791 -0.009424264431 0.7174475148 0.6966121419 0.0007663963785
-0.005011408329 -0.0161313343 -0.05717375183 -0.2510050758 -0.8814350156 -0.4000859472
-0.01578699875 -0.01320809937 -0.03658726501 0.783063584 0.6219393538 0.001692239492
-0.01977872658 0.004674962759 -0.06086233139 0.9628308972 0.1615946448 0.2164343645
-0.01412271881 0.01495662165 -0.01909781456 0.7017667631 -0.712406304 -0.0008173771262
-0.01205936003 -0.01665624619 -0.009236395359 -0.5939884754 -0.8044718473 -0.001654683833
-0.009415382385 -0.01827612686 -0.007493366718 -0.5221000833 -0.8528732183 0.004333194911
-0.004769209385 -0.02003338814 -0.005785277843 0.055045777 0.9982645623 0.02092429533
-0.01765318871 -0.01027875233 -0.04426486206 0.84842512 0.5231856138 0.08032203444
-0.0192189579 0.021631567 -0.05319800377 0.9365654153 -0.001444029535 -0.3504898538
-0.02047376919 0.002091410041 -0.02121782494 0.9938267158 -0.1109078703 -0.002811285696
-0.01763119125 0.03805149841 -0.07124748993 0.8527292118 0.007015857604 0.5223061067
-0.009494167328 0.01824135017 -0.00907820034 -0.5291479859 0.8485145214 0.005051338033
-0.01169445992 -0.01026222229 -0.0613539772 -0.5639462103 -0.6766303042 -0.4734301463
-0.01347013855 0.04959411621 -0.04506736374 -0.6446174855 0.02083452698 0.764221316
-0.01745241356 -0.008841893196 -0.05129481125 0.8492848017 0.495007986 0.1835277072
-0.01544224548 0.01359525394 -0.01123335361 0.7630703064 -0.6463080717 -0.003095806529
-0.01383816147 0.05949806976 -0.04536085129 0.6620306157 -0.04775785623 -0.7479536423
-0.01661952019 0.0121163311 -0.01165967941 0.8220224731 -0.5694550297 -0.000151534316
-0.01929715157 0.05157068253 -0.06775439453 0.9361896942 -0.0005954089744 0.3514946685
-0.01814893977 0.009680470149 -0.01321833611 0.8826098569 -0.4700936025 0.003441710046
-0.02018965244 -2.329945564e-07 -0.05331495667 0.9812374774 0.1619379507 0.1046380094
-0.01903664112 0.007769785643 -0.01328576517 0.928977309 -0.3701231158 -0.003168367247
-0.02046421242 0.002105257392 -0.01529100657 0.9935216334 -0.1133843872 -0.007664510395
-0.01958334351 0.006350520134 -0.01273266315 0.9498246112 -0.3127177681 0.00638791205
-0.01773751831 -0.01040973091 -0.03278733063 0.8622095505 0.5065204716 0.005630531792
-0.01994471931 0.004933174133 -0.0128634119 0.9697385857 -0.2440046546 0.008294812664
-0.01997204638 0.04005822659 -0.06549078751 0.9714271727 -0.0007214255493 0.2373367389
-0.009172879219 0.05947064209 -0.07902493286 -0.4347091401 0.01946784221 -0.9003604648
-0.02027822876 0.003519692659 -0.01298414803 0.9867474432 -0.1622288025 0.00336139041
-0.02029776716 0.04997121334 -0.05742571545 0.9870448847 0.0151195595 -0.1597303806
-0.01854726553 0.04410458565 -0.06948620605 0.9137183286 0.009617423398 0.4062343179
-0.02024687672 0.02753727913 -0.05698932838 0.9796788916 -0.01087051915 -0.2002775601
-0.02056223297 -9.000301361e-09 -0.01308691835 0.9996444582 -0.02662773313 0.001386000295
-0.02045285988 -0.002110546827 -0.01304732513 0.9945665717 0.1039181632 0.006192727052
-0.01654313787 -0.004269739469 -0.06136215337 0.8080333786 0.44487549 0.3862225492
-0.02012217617 -0.004226266623 -0.0129276638 0.9746207099 0.2236528706 0.009688407641
-0.0172577877 0.01436708927 -0.04702882385 0.8561819 -0.3505098309 -0.3795990154
-0.0201362052 -0.004188021004 -0.02110529089 0.9802397069 0.197720129 0.006071869547
-0.0195917244 -0.006350345135 -0.01273570442 0.9459102637 0.3243256142 0.008165112615
-0.02045820808 0.006021612167 -0.0575512886 0.9913279599 0.0811039756 0.1033973941
-0.01903613949 -0.007769798517 -0.01328558445 0.9202260435 0.3913810349 0.002216838275
-0.01840746307 -0.00920213747 -0.01305966568 0.8895033662 0.4569027768 0.004859432439
-0.01285376692 -0.00610862565 -0.06508177948 0.6200279964 0.5748913354 0.5339150084
-0.01469604683 -0.01434815645 -0.01096306705 -0.7050002809 -0.7090358096 -0.01558283212
-0.01657303047 0.01577261448 -0.04686698914 0.8092229119 -0.3189144505 -0.493408403
-0.02040694809 0.004063726664 -0.0470704689 0.9892142883 -0.1388113104 -0.04676015396
-0.007510930538 0.01290361118 -0.07900262451 0.3704954673 0.169389676 0.9132580393
-0.00949168396 -0.01824149323 -0.009077299118 0.5254973535 0.8507799626 -0.005097710403
-0.007856099129 0.04157754135 -0.07961399078 0.3664465967 -0.01062815592 0.9303783822
-0.004912026405 -0.01999131584 -0.007416748047 0.3267649199 0.9450961701 -0.004232779031
-0.01443833733 0.02206661415 -0.07525359726 0.707613009 -0.005269317593 0.706580543
-0.02045161438 0.002016728878 -0.05337600327 0.9935467893 0.09239961325 0.06578061281
-0.01815668297 0.009679356337 -0.0350790844 0.8819118448 -0.4713406454 0.008336308117
-0.005060968399 0.01994899559 -0.009043996811 -0.05491907128 0.9982712947 -0.02093603875
-0.01657634735 -0.0102322216 -0.05109511566 0.8049523009 0.5580617908 0.2015411395
-0.01262426376 0.04978686523 -0.07681993357 0.594650097 -0.007947346209 0.8039453351
-0.01882396507 -0.008297898531 -0.03310320282 0.9107893657 0.412817536 0.006664333697
-0.01210007858 0.01661285019 -0.01156034279 0.577201872 -0.8164349882 -0.01648966452
-0.01573025513 0.01326417398 -0.03293297005 0.7614464977 -0.6482235646 0.00233267737
-0.01812004137 0.009743599653 -0.02926185036 0.8794115338 -0.4759702785 -0.009362061842
-0.01663694572 0.01209566784 -0.01318046474 0.7999823077 -0.6000101439 0.004016785667
-0.01996034431 0.04208504868 -0.06553636932 0.9726221478 0.0007546810274 0.2323910242
-0.01975415993 0.0276487484 -0.05478849411 0.9516421598 -0.003699894074 -0.3071864425
-0.01004424477 0.01797158241 -0.02153255653 -0.5468605933 0.837214877 0.003839427425
-0.006984820843 0.0006832087636 -0.074635849 0.3619526908 0.4646347121 0.8081490172
-0.02055429935 0.008026974678 -0.05757921982 0.9979776956 0.03199880319 0.05492354379
-0.02037549019 0.05784606743 -0.06327212048 0.9919016138 0.01125793775 0.1265086849
-0.007461082697 0.04785132217 -0.07975932312 -0.3514755682 -0.006249724235 -0.9361761938
-0.01994750881 0.004920948267 -0.01510801411 0.9695198034 -0.2447743471 0.01081063306
-0.01424808073 -8.171796799e-07 -0.06881553268 0.6904401347 0.4185233576 0.5900259482
-0.02041940928 0.04962765789 -0.06304056644 0.9925336195 -0.0003322564435 0.1219709137
-0.0202834959 0.003510941982 -0.01522703838 0.984869111 -0.1732820807 -0.002480853839
-0.01439690876 0.01471373463 -0.03328081512 0.7150159148 -0.6990619958 -0.008035390757
-0.02056491947 -1.05202198e-08 -0.01532666969 0.9998463303 -0.01746894391 -0.00146688626
-0.01050517178 -0.01771301079 -0.0336443634 -0.4966373623 -0.867775962 0.01778229853
-0.02053994465 0.02005841255 -0.05904641533 0.9955846054 -0.0008012278756 -0.09386507068
-0.02045503139 -0.00210532105 -0.01528774309 0.9946150628 0.103633542 -0.0009827229191
-0.0190651083 0.007718117714 -0.01926664448 0.926382891 -0.3765801104 -0.001469560857
-0.0175779686 -0.01063886261 -0.01351629066 0.8690685713 0.4946891281 0.001576361371
-0.02054572487 0.05795518684 -0.0612074852 0.9996229105 -0.002259352715 0.02736662427
-0.01665328979 -0.01209502411 -0.01318631554 0.7999498494 0.6000436364 -0.005279473896
-0.02030153084 0.003473521471 -0.02482995605 0.9894404041 -0.1447287799 0.007827326514
-0.01765857697 -0.0105232091 -0.0232430563 0.8467434133 0.5320014231 0.0002788788694
-0.006518060207 0.006138891697 -0.07740576935 0.3029250136 0.335701116 0.8919311615
-0.01286290312 0.01607956791 -0.03942790604 0.6246566398 -0.7729684204 -0.1110130776
-0.01448077234 -0.01456515853 -0.0129184138 0.7064026263 0.7076359994 0.01570419825
-0.01290041828 0.007387978554 -0.0741706543 0.6275122632 0.2786942848 0.7270198451
-0.01451825714 0.04776979446 -0.07517912292 0.7032637685 0.004710623491 0.7109134139
-0.01445950508 0.01465129709 -0.03694749069 0.7180258498 -0.6959792641 0.00719325866
-0.01974906158 0.02561728859 -0.05476211166 0.9520511423 -0.0006594386176 -0.3059382088
-0.01213124752 -0.01661118698 -0.01157149982 0.597238959 0.8017563549 -0.02218948341
-0.01961616135 -0.006277254581 -0.02314230156 0.950392723 0.3110026914 0.005567579246
-0.01930417442 -0.006112928867 -0.04750382614 0.9376300482 0.3358434916 0.08977216619
-0.009683356285 0.01815535164 -0.01301210165 -0.5368127333 0.8436843773 0.005362910435
-0.01215444469 0.0165825901 -0.01311244488 0.5805718081 -0.8142033561 0.003044765302
-0.0154928112 0.01353712654 -0.0150431366 0.7492699191 -0.6622599952 -0.002507410764
-0.0164859066 0.002008978367 -0.06713527679 0.7906932475 0.3360344107 0.5117470695
-0.01669033623 0.03778171158 -0.04855727005 0.8212136283 -0.002858195134 -0.5706137113
-0.0145873518 -0.01446467304 -0.01900354576 0.711839132 0.7023220483 -0.005365699427
-0.02054654694 0.03350805664 -0.05923274803 0.9977587629 -0.007229227158 -0.0665220962
-0.01873379326 -0.008464679003 -0.01542767859 0.905719693 0.4238589475 -0.003928142236
-0.01819174004 0.04750927734 -0.0702131958 0.8811057506 -0.004489623035 0.4728979801
-0.0175900135 -0.01062093258 -0.01502542496 0.8709001569 0.4914581932 -0.001327025398
-0.01472325993 0.01456797838 -0.04136650276 0.742720032 -0.6493772567 -0.1633282967
-0.02046781158 0.002100043535 -0.0175225811 0.9924350878 -0.1218640129 -0.01489157011
-0.01961270142 -0.006287602425 -0.02166901588 0.9507581004 0.3096888492 -0.01232279365
-0.01667253685 -0.01207435513 -0.01470276546 0.8005511134 0.599256296 -0.003131530663
-0.005909802914 0.01970059204 -0.01866176605 -0.1460288345 0.9891993173 -0.01266057784
-0.01507717228 -0.006089291096 -0.06200513458 0.718262912 0.5352355031 0.4445462242
-0.01971784592 0.0006706238389 -0.05738230133 0.9617488127 0.2075271166 0.1788063676
-0.01772684669 0.02997879791 -0.07108840179 0.8570551036 -0.000895164489 0.5152239785
-0.01217895317 -0.01658128548 -0.01312109756 -0.5953266933 -0.8033796411 0.0129336966
-0.009972006798 -0.01801990795 -0.01923234463 0.5456271422 0.8380186697 -0.003966232468
-0.005195929527 -0.01990768242 -0.01065992451 0.9677559705 0.2393306932 -0.0785442602
-0.01782963435 -0.003816405137 -0.05883752696 0.8684831509 0.3936694397 0.3012663089
-0.01477176571 0.03754502296 -0.07492530823 0.7086910856 -0.007464877077 0.7054794262
-0.01222705746 0.01653786373 -0.01542704725 0.5835580597 -0.8120512842 -0.005718642244
-0.01070809078 -0.01758729553 -0.03958874512 -0.502026541 -0.8647821308 -0.01100991924
-0.007730244398 0.04366304398 -0.07966016006 0.3597493513 -0.01218290832 0.9329694427
-0.01404428673 0.01502193737 -0.01529621601 0.6952030034 -0.7187353474 -0.01059643831
-0.01263296938 0.008732329845 -0.07483251572 0.6122678081 0.2510732338 0.7497268586
-0.006671182871 0.0194777832 -0.02728863144 -0.4108727172 0.9116329264 0.0104411576
-0.017902071 0.01011664359 -0.01713229624 0.8747822155 -0.4844624403 0.007226304115
-0.01680227852 -0.01190246344 -0.02739411545 0.7960045792 0.605229029 -0.00863321341
-0.01624177901 0.04944827652 -0.07318744151 0.7938870253 -0.004693008242 0.6080471747
-0.009850298882 0.0180712719 -0.01690568542 -0.5419580777 0.8403969841 0.003788289196
-0.02004635715 0.02394922829 -0.06520711899 0.9735559461 -0.0005604472894 0.2284480373
-0.01146494484 -0.0006767910123 -0.07113097382 0.5594363772 0.4630236468 0.6874882125
-0.01971773211 0.005835782687 -0.0192411569 0.9656033055 -0.2598660371 -0.008938635292
-0.01447839959 0.03193158531 -0.07521081797 0.7077012029 0.01697148754 0.7063079895
-0.01972241879 -0.003377512217 -0.05111252785 0.9622311948 0.2457921254 0.1170357164
-0.01905447769 0.00773741293 -0.01703307915 0.9276795375 -0.3733763739 0.0008712724941
-0.01500750685 0.02207269669 -0.04652455139 0.7140083954 -0.01524875138 -0.6999710615
-0.01777621841 -0.0103078289 -0.04144264221 0.8606311331 0.5088652731 0.01924023537
-0.02046915245 -0.002059334517 -0.0350168457 0.9949181964 0.1004913214 0.006267114479
-0.01977255917 0.005613878727 -0.01728180122 0.9683041994 -0.2497603851 0.002593713537
-0.01849658775 -0.006089847565 -0.05293404388 0.8962730331 0.3962884468 0.1991233713
-0.01507667875 -0.008146992207 -0.05920939827 0.7326651239 0.5653218945 0.3789630218
-0.01673611259 -0.01199283218 -0.02071651649 0.7957434664 0.6056161589 -0.004626419968
-0.01737830734 -0.01025488377 -0.04703885269 0.8340386851 0.5382285372 0.1212003031
-0.02040178776 0.03201864147 -0.06333506393 0.9908331395 -0.0008722603496 0.1350885959
-0.007940481663 -0.01315784264 -0.06062875748 -0.3865884583 -0.7940094054 -0.4691464888
-0.02028874016 0.003502227545 -0.0174605999 0.98816136 -0.1532706308 -0.006726093076
-0.005757061481 -0.01974237823 -0.01707002449 0.955466979 -0.2807554047 -0.09088044194
-0.02056721401 -1.114606857e-08 -0.01755700684 0.9996634543 -0.02546174641 -0.004967646828
-0.0204567337 -0.002100120306 -0.01751872253 0.9946252081 0.1032139437 -0.008220532117
-0.01960226059 -0.006318829536 -0.0172228756 0.9503243889 0.3112580087 -0.00141699684
-0.01422123623 -0.01485438919 -0.02511194134 -0.7045989412 -0.7095912823 0.004532565514
-0.01680775642 0.04750351715 -0.04875348282 0.8289557136 -0.01173369747 -0.5591911527
-0.02056212711 0.03409872818 -0.06132811737 0.999281782 0.006070241569 0.03740417594
-0.01874175549 -0.008450545788 -0.01692475414 0.9064317793 0.4222459927 0.009473711811
-0.01927688217 0.05362035751 -0.06781476593 0.9349617328 -0.0006694373308 0.3547479528
-0.007374643803 0.01923069954 -0.03722570419 -0.4407119584 0.8976281017 0.006063064094
-0.01762782669 -0.01056741333 -0.01952520752 0.8698662993 0.4932732498 -0.003757976361
-0.01522574043 -0.008834953308 -0.05783810425 0.7345534253 0.5810139973 0.3505053499
-0.01963501358 -0.006220866919 -0.03117081261 0.9518957288 0.3064214688 -0.0006363285825
-0.01980675125 0.005526818037 -0.03122185373 0.9671222892 -0.2543089565 -0.001196800379
-0.01911064911 0.007635458469 -0.02883494759 0.9281838449 -0.3720111858 0.009078973034
-0.01669895935 -0.01204357529 -0.01696696663 0.7901277834 0.6129420339 -0.0003858093979
-0.0122264967 -0.01655148506 -0.0146654501 -0.6070948603 -0.7945672501 -0.009935575775
-0.005407309771 -0.0198454113 -0.01307462692 0.6377458814 0.7694057485 -0.03598589861
-0.006103381634 -0.01964035702 -0.02102621651 0.0549917263 0.9982674374 0.02092925038
-0.01664097404 0.006010041714 -0.06924633026 0.8047545877 0.2660138925 0.5306662441
-0.01260965109 -0.01627632141 -0.02907208729 -0.6058467392 -0.7955812345 -0.0004773329113
-0.009785216331 0.01810472298 -0.015353055 -0.5402167939 0.8415190524 0.00339117719
-0.01434882832 0.008034765244 -0.07301803207 0.6904306938 0.2517102806 0.6781942138
-0.02049170208 0.002044250488 -0.04144110107 0.9954961655 -0.09355196554 -0.01534321308
-0.01552296925 0.01350245857 -0.01731535149 0.7515559756 -0.659661096 -0.003294537821
-0.008199100494 0.01558981419 -0.07912652588 0.3991037294 0.09874779658 0.9115728637
-0.01818697103 0.009615784963 -0.01921770795 0.8765291003 -0.4812457681 -0.009962281071
-0.02002403069 0.01794850063 -0.06512984467 0.9726670607 0.02539103643 0.230811794
-0.01235264301 -0.01646349716 -0.01926269341 -0.6151175014 -0.7882814319 0.0155834409
-0.02056790733 -9.626150131e-09 -0.0190375576 0.9996786962 -0.02528627827 0.001763071688
-0.01805612437 0.00986747996 -0.03912975566 0.8838626687 -0.466782483 -0.0300149367
-0.02013240337 -0.004198386312 -0.01888900661 0.9801774605 0.198013611 0.006538795531
-0.01960749149 -0.006303184748 -0.01945038891 0.950501462 0.31050077 -0.01167230013
-0.01878511238 -0.008373578906 -0.02507761192 0.908395593 0.4180428218 0.007592484694
-0.01429318714 0.01481466293 -0.02736039925 0.7106884201 -0.7034584573 -0.00825642154
-0.0147973094 -0.01424923086 -0.01706734276 0.7139018914 0.7002111215 -0.006962381562
-0.006649618149 -0.01607418633 -0.05606738281 -0.3234809046 -0.8717588413 -0.3679628064
-0.00461751008 0.004115222454 -0.07712480545 0.2116687327 0.3973633011 0.892915872
-0.01752799416 0.01569824409 -0.04852198029 0.8570466107 -0.2682450129 -0.4399042169
-0.02045725346 0.01199925971 -0.06103395748 0.9945791159 0.0376987536 0.09690813234
-0.01229257536 -0.01650724316 -0.01697002983 -0.605237578 -0.7960370647 -0.003530698034
-0.005629048347 0.01978275299 -0.01548066139 -0.228733942 0.9734763627 -0.004955314079
-0.01984925461 0.0494783287 -0.05520266724 0.970624355 -0.002285422769 -0.2405891482
-0.01962989998 -0.006236157894 -0.02899363708 0.9524364826 0.3046725828 0.006274070324
-0.01229934883 0.01649333382 -0.01773139191 0.5866855103 -0.8096481408 -0.01643167925
-0.02048546505 0.002067593694 -0.03142397881 0.9934106087 -0.1142604276 -0.008939641924
-0.01942346191 -0.0006712735295 -0.05731867218 0.9385702999 0.2730206413 0.2110581001
-0.01554299068 0.0134794426 -0.01882383156 0.7510039273 -0.6602823496 0.004507768627
-0.02046092033 -0.002086371422 -0.02341734886 0.9944517065 0.1050169953 -0.006101981918
-0.0198386631 0.005354987621 -0.02125211716 0.9676764568 -0.251858009 0.01303143625
-0.02030056572 0.003479211092 -0.02336522293 0.9895091582 -0.1443751233 -0.005239243555
-0.02056894016 -7.390975952e-09 -0.02124955177 0.9998708079 -0.01603996214 -0.001042678713
-0.005617591381 -0.01978346443 -0.01547678566 0.002237938846 0.9996701869 0.02558337372
-0.005769692421 0.01974159431 -0.01707423592 -0.1337489427 0.9909193154 -0.01378878621
-0.01683712673 0.04959568024 -0.04880172348 0.8325360126 -0.01485565309 -0.5537717015
-0.01964134789 0.05775024605 -0.06662248611 0.9577655769 -0.01234587481 0.2872850137
-0.005472972393 0.03215650558 -0.08045037842 -0.3373898707 0.005495082418 -0.9413489678
-0.01507612133 0.0276083622 -0.04659519768 0.7175612831 -0.01283337984 -0.6963771315
-0.006958021641 0.01938124275 -0.03113972092 -0.4244581607 0.9054122554 0.007994844323
-0.00994748497 0.01802131653 -0.01922422123 -0.5444380611 0.8387897778 0.00434812723
-0.01412981129 -0.002022769451 -0.06740293884 0.6875496116 0.4618081932 0.5603648136
-0.01683868027 -0.01185274601 -0.03106789207 0.7972519679 0.6036077564 0.006853903995
-0.01234733295 0.01646377754 -0.01926092148 0.5892716195 -0.8079264963 -0.003706088582
-0.01557289982 0.01344506073 -0.0210772953 0.7523869933 -0.6587210103 -0.0006655571231
-0.01588774967 0.01313988209 -0.04094949722 0.7512073917 -0.6570022813 -0.06352524703
-0.01055611134 -0.0176814518 -0.03513660431 -0.5050940848 -0.8629300658 -0.01522061117
-0.002758563519 0.05977662849 -0.08099436569 -0.2312639921 0.01572829646 -0.9727638905
-0.01672324181 0.01199333572 -0.02071222305 0.8068138342 -0.5907358361 0.009088941151
-0.01806499195 0.009833233833 -0.02115665722 0.8767903317 -0.4808704083 -0.001537764041
-0.01910369873 0.007648075104 -0.02737450981 0.9290223339 -0.3699594458 -0.00689286873
-0.01764015579 -0.01054968929 -0.02101589584 0.8572768125 0.5147465908 0.01060254286
-0.01285856342 0.02156450081 -0.04454144669 0.6709334515 -0.03366574504 -0.7407529421
-0.01907569695 0.007698899746 -0.02149123001 0.9269521243 -0.3751493503 -0.004766992248
-0.01486147404 -0.01418733788 -0.02084499264 0.7130308991 0.7011302184 0.001831337199
-0.02025863934 0.03362120533 -0.05708328342 0.980753444 -0.001474719256 -0.195244737
-0.01930183792 0.03796293831 -0.05343729019 0.937957076 0.004106625823 -0.3467270672
-0.01239516163 0.01643431664 -0.02078553009 0.592858341 -0.805258428 0.008823353589
-0.0205409832 0.01804794121 -0.05902681732 0.9948594324 -0.01266122019 -0.1004709079
-0.0141695013 0.01491766262 -0.02136538506 0.703339253 -0.7107255883 -0.01352897822
-0.01674886799 0.01196294832 -0.0229487133 0.8074373446 -0.5898396972 0.01157869463
-0.02015992069 -0.004123371243 -0.03492878723 0.9805331948 0.1962553854 0.006203036405
-0.02017468452 0.01198153162 -0.0630442009 0.9782585301 0.07171598583 0.1945946188
-0.009485796928 0.05384673691 -0.0788471756 0.4450920098 -0.004188382839 0.8954750473
-0.01794609451 0.01004908435 -0.02309053167 0.8770840424 -0.4803353227 -0.001249159517
-0.01908272743 0.00768613863 -0.02296842766 0.9280920531 -0.3723274106 0.004176165522
-0.01754287338 0.002006886721 -0.06525504303 0.8413195184 0.3203852984 0.4353558642
-0.01934037685 -0.004734628916 -0.05102448082 0.9354821906 0.3240440299 0.1409558008
-0.01978380871 0.005576982975 -0.02319682217 0.9678913605 -0.2510436138 0.0127835184
-0.01647330475 0.05376340675 -0.07290475845 0.8007365746 -0.003202182831 0.5990080836
-0.02047732544 0.002086258411 -0.02342274094 0.9918598202 -0.1261912247 -0.01702562406
-0.01449511814 -0.01461410046 -0.03913631821 0.7209012221 0.6928794046 0.01481751122
-0.02056996918 -5.185604095e-09 -0.02345290184 0.9996958992 -0.02423302323 -0.00456833809
-0.01903512573 0.01557072926 -0.05170210266 0.923068383 -0.1413443535 -0.3577241032
-0.02013999271 -0.004177696586 -0.02331287861 0.9801806274 0.1979842487 -0.006940821154
-0.02023914814 0.02214553165 -0.05692183304 0.9792544247 0.005537391705 -0.2025589025
-0.01675826073 -0.01196258211 -0.02295178127 0.792864852 0.6093962605 -0.001234577033
-0.01901501846 -0.002016548157 -0.05723128891 0.9259302401 0.3005585493 0.2287307344
-0.01559485531 -0.01343309975 -0.02183087349 0.7778133046 0.6284929359 -0.001758631413
-0.012392519 -0.01643445587 -0.02078466225 -0.6125214617 -0.790414372 -0.007910720389
-0.005896003723 -0.01970144844 -0.01865723038 0.9754976841 -0.2005052403 -0.09056443496
-0.01775553226 -0.01038383532 -0.03496534729 0.8548304403 0.5186223946 0.01719680616
-0.006118922472 0.01963939571 -0.02103120995 0.6017479671 0.7952831448 -0.07364851477
-0.01909323215 0.007667070389 -0.02517565727 0.9273881452 -0.374095742 -0.001898434031
-0.01420056248 0.01489179707 -0.02287089539 0.7063157995 -0.7078808185 0.004768467531
-0.01560268879 0.01341081715 -0.02332169914 0.7539178616 -0.6569395439 -0.006188187864
-0.02056694126 0.02201510429 -0.0611476059 0.9996461683 0.0007281149945 0.02658962429
-0.01433789635 -0.01475242519 -0.03106183815 0.712315302 0.7018574736 -0.001731234068
-0.02055864716 0.0476792984 -0.06092617798 0.999996771 -0.002012684055 -0.001551496674
-0.01912103844 0.007616602659 -0.03101762772 0.9284726091 -0.3713007107 0.008625333328
-0.01071654892 0.01893545341 -0.04252248764 -0.5522656714 0.481215622 0.6807599821
-0.01822454516 0.009551878929 -0.02514478111 0.8782432323 -0.4782131647 -0.0009969891729
-0.02046351242 -0.002077860117 -0.02706892586 0.9947546514 0.1021909928 0.004492725202
-0.01979103756 0.005563212276 -0.0253976469 0.9686928386 -0.248219717 -0.004599628958
-0.02057065201 -3.695487976e-09 -0.02491616344 0.9997087023 -0.02407081214 0.001762554519
-0.02009450722 -0.00440057079 -0.02525081698 0.9802384537 0.1976915343 -0.00711555031
-0.01962133026 -0.006261792898 -0.02534375858 0.9514768224 0.3077194682 -0.0007650875016
-0.01561431694 -0.01341031075 -0.02332546425 0.7733547373 0.6339590569 -0.004285373588
-0.006308503628 -0.01957964134 -0.02338321686 0.05503004773 0.9982653938 0.02092599763
-0.01245208454 -0.01639107513 -0.02305814648 -0.6088612448 -0.793254376 0.005956476379
-0.0009050496221 0.008996404648 -0.07948417664 -0.1462617616 -0.2852811424 -0.94721812
-0.01006202984 -0.01797056198 -0.02153831482 0.5504033136 0.8348958771 -0.002250931686
-0.02026733828 0.03768982029 -0.05715625 0.9814465824 -0.001588863205 -0.1917291879
-0.01010847092 0.01793857002 -0.023064785 -0.548792862 0.835951526 0.003382408936
-0.01424696636 0.01485315371 -0.02512008667 0.709094397 -0.7051101159 -0.002204691879
-0.02048700619 0.002054218531 -0.03716887665 0.9953562469 -0.09581248051 0.009268780591
-0.02036306953 0.05991226196 -0.06333553314 0.9867327877 -0.003206679207 0.1623210488
-0.01520996761 0.002012480021 -0.0689853363 0.7235883946 0.3724091204 0.5811465239
-0.0156224699 0.01338807869 -0.02481205559 0.7556449625 -0.6549688069 0.004068495418
-0.01677439117 0.01193268108 -0.0251763916 0.8090496289 -0.5877387753 0.001352800193
-0.01577191639 -0.00608533287 -0.06074536896 0.780348214 0.4937764068 0.383720634
-0.02030297184 0.003465019226 -0.02701880646 0.9872038615 -0.1591504832 0.009982959699
-0.01041567802 0.01776125431 -0.03139378548 0.497177112 -0.8676490595 -0.0001696815602
-0.0144603467 0.04982871056 -0.07523763275 0.71018128 0.007147305024 0.7039825748
-0.02048321438 0.002077725053 -0.02707516289 0.991393284 -0.1307120393 0.007329338836
-0.02034309196 -0.002032105446 -0.04705213547 0.9862607485 0.157024812 0.05131222449
-0.004363274574 0.007542373657 -0.07852342224 0.2055525124 0.3057813304 0.9296482897
-0.02019552104 -0.003927447955 -0.02722809601 0.9858626135 0.1673887572 0.007477387464
-0.0195112381 0.02193256187 -0.06714340973 0.9484608443 -0.001867644399 0.316888843
-0.01938189697 0.04206303787 -0.06750511169 0.9434493901 -0.002274126858 0.3315087883
-0.01678032303 -0.01193245029 -0.02517828369 0.7953710757 0.6061035951 0.004825340499
-0.01956766701 -0.006137233257 -0.04332916641 0.9492486522 0.3122854796 0.03748033471
-0.0156337204 -0.01338758945 -0.02481564522 0.7789106023 0.627134293 0.0009231510232
-0.006327016354 0.01957849884 -0.02338903236 0.9961279666 1.058267981e-06 -0.08791515373
-0.01020440292 0.01788926029 -0.02535338306 -0.5520114276 0.8338291401 0.003514087233
-0.01565202618 0.01335410166 -0.02703895092 0.7570823542 -0.6533193617 0.0003472923494
-0.01679979324 0.01190256023 -0.02739333725 0.8110646838 -0.5848246402 -0.01241848801
-0.003614140272 0.01166771603 -0.07987065125 0.1964771885 0.2484801343 0.9485011003
-0.0196264801 -0.006246389389 -0.02753692818 0.9510205138 0.3090204966 -0.008143407073
-0.009254105568 0.05806010818 -0.0789787674 0.4362124429 0.001847815167 0.899841814
-0.01768911171 -0.0104793148 -0.02693485641 0.8574041419 0.5146350933 0.002976263783
-0.01566271353 -0.01335363865 -0.02704228401 0.7804735282 0.6251633533 -0.005643891244
-0.007072879076 -0.01932714462 -0.03341838646 0.4260700332 0.9046382665 -0.009691940827
-0.01655353514 -0.01221764088 -0.03920555369 0.7901755471 0.6125967642 0.01864964402
-0.01251140785 -0.01634787178 -0.02532236099 -0.6011327863 -0.7990959753 0.009219301913
-0.01021104765 -0.01788887978 -0.02535546017 0.5559657461 0.8312004775 -0.002802743616
-0.01256777763 0.01631829262 -0.02683104324 0.6016887498 -0.7986564397 0.01088759594
-0.0205622673 0.006034061909 -0.05549407005 0.9992489737 0.02555038826 0.02913187547
-0.01980099583 0.005540414095 -0.02904578876 0.9666311014 -0.2561132152 0.005507709588
-0.02046732616 -0.002044414759 -0.04143456268 0.9945632881 0.1041133585 0.002067506899
-0.01301555634 -0.008855540276 -0.06160826492 0.6369585689 0.6155225916 0.4641289915
-0.01426973534 -0.006095443249 -0.06324699402 0.7032355626 0.5378046102 0.4650010158
-0.01686039448 -0.01182308817 -0.03325936699 0.7996696343 0.600437557 0.001793363167
-0.01974458122 0.01415900517 -0.05325814438 0.9562748353 -0.1388496003 -0.2574086788
-0.01931539345 0.04001511383 -0.05347642899 0.9398014074 0.00191639249 -0.3417157327
-0.02030440903 0.003456548452 -0.02919958687 0.9872248772 -0.1593318713 0.0006297623748
-0.02057269192 6.556510925e-10 -0.0292814188 0.9999015675 -0.01398847067 -0.001085312077
-0.02046505928 -0.002072779655 -0.02924850655 0.9950694194 0.09917297167 0.001253899916
-0.02015001202 -0.004150386095 -0.02915240192 0.9803941524 0.1969726884 0.005391285227
-0.01870487213 -0.008568531831 -0.02919676399 0.9011626741 0.4334214499 -0.007188988202
-0.01770732212 -0.0104531374 -0.02913656902 0.8531263347 0.5216792817 0.005117027597
-0.01255079746 -0.01631918335 -0.0268257885 -0.6045102713 -0.7965256007 -0.01069108676
-0.007507894993 -0.01914509106 -0.04095919037 -0.4361580265 -0.8996438497 -0.02017720537
-0.01300415659 0.03203917789 -0.0446830368 0.6801823934 -0.0008719648819 -0.733042394
-0.01846008205 -0.002015364766 -0.05919911385 0.893716612 0.3408071087 0.2917552606
-0.02030583858 0.003448115587 -0.0313705492 0.9873186584 -0.1584920995 -0.009062069658
-0.01029993439 0.01784015656 -0.02763243866 0.4846954983 -0.8744872848 -0.01850034399
-0.01262321949 0.01627561092 -0.02907619095 0.6030275527 -0.7977187102 0.001621729941
-0.01568147087 0.01332025433 -0.02925739288 0.7585224405 -0.6516305958 -0.004612368654
-0.01986589813 0.0213147157 -0.05520557022 0.9655193454 -0.01913911884 -0.259626824
-0.01999382782 0.03601416302 -0.06540624046 0.9778868054 1.296260811e-05 0.2091348743
-0.01682509804 0.01187255192 -0.02960192108 0.8108681678 -0.5850820493 -0.01310763063
-0.01589259243 0.01718458939 -0.04670700836 0.7769603498 -0.3027753677 -0.5519598641
-0.02057370424 2.816319466e-09 -0.03145021725 0.9998663527 -0.0145531442 -0.007448674649
-0.01803799248 0.05770256996 -0.05070685959 0.8862534594 -0.003617416067 -0.4631864852
-0.02046659946 -0.002067722321 -0.03141827297 0.9948824484 0.1008389903 -0.006357028017
-0.01970145798 0.05158591461 -0.06643861389 0.9631088224 -0.001658514157 0.2691071266
-0.01913817024 -0.006106427193 -0.04887176132 0.9312582743 0.3450182388 0.1171342879
-0.003142679453 0.05758049393 -0.0809552002 0.244772403 -0.01325360668 0.9694899755
-0.01852910614 0.009981151104 -0.06753623581 0.9121854768 0.1536919939 0.3798636951
-0.0201537385 -0.004140224338 -0.03132522106 0.9805496021 0.1961714745 -0.006263412508
-0.01930099106 0.006001112223 -0.06353098106 0.9343765562 0.1800265863 0.3074587442
-0.01569159698 -0.01331981564 -0.02926047897 0.7738188833 0.6333353616 -0.009521319028
-0.02036413527 -1.927912235e-07 -0.05126201439 0.9880482163 0.1389450055 0.06674584466
-0.01429433918 -0.01479051495 -0.02883914948 0.7096101748 0.7045451017 0.008342634495
-0.0196732502 0.007474767685 -0.04618927002 0.9600635773 -0.2473883885 -0.1306786625
-0.01029993916 -0.01784015656 -0.02763244057 0.5592851171 0.8289740253 -0.001491047301
-0.006604443312 -0.01948188305 -0.02726848507 0.8611045219 0.5056719437 -0.05286669803
-0.01435913563 0.01475141287 -0.03106816006 0.7139728839 -0.7001730599 -0.0006381062553
-0.02028158283 0.04381494522 -0.05728127861 0.9860515783 -0.001535129829 -0.1664329542
-0.01570102692 0.01329777336 -0.0307308445 0.7587589282 -0.6513715327 0.0001233644944
-0.01684190559 0.01185262108 -0.0310688591 0.8113645045 -0.5844589669 0.009765086085
-0.01571078014 -0.01329735184 -0.03073376846 0.7784955063 0.6276495408 -0.0008947984208
-0.01984112549 0.04810353851 -0.0551696434 0.9708565569 0.001961477177 -0.2396532882
-0.006853041172 0.0194191761 -0.02960617065 0.4171409555 -0.9088118017 -0.007384596105
-0.004673741817 -0.01914621162 -0.04835816574 0.05502615975 0.9982656044 0.0209261731
-0.0157883749 0.01319736338 -0.03731191826 0.7621129186 -0.6473834768 -0.008861903438
-0.01765585709 0.01976243973 -0.04999814987 0.8757113063 -0.05710730404 -0.4794459968
-0.02046324921 0.006065203667 -0.0512931366 0.9927552667 -0.08912057571 -0.08058848201
-0.01267844868 0.01623309326 -0.03131273651 0.6044044365 -0.7966429456 -0.007436013199
-0.01686702633 0.01182283306 -0.03326130676 0.812270709 -0.5832797533 -0.00101228642
-0.02030726433 0.003439712524 -0.03353386688 0.9895333123 -0.1442518976 -0.003900504169
-0.01884459114 -0.00825709343 -0.03743122292 0.9119628764 0.4102103358 -0.007154891941
-0.02048604393 0.002062560797 -0.03358568954 0.9914806969 -0.1302298821 -0.002491062743
-0.01015904284 0.04805397415 -0.04272443962 -0.5770550339 -0.00381611678 0.8166963481
-0.02046813393 -0.002062682629 -0.03358040237 0.9949119428 0.1004386405 -0.007893389759
-0.01573945141 -0.01326377821 -0.03293566322 0.7833900876 0.6215270341 -0.002028910044
-0.01266827774 -0.0162336235 -0.03130973434 -0.6074883157 -0.7942812258 0.008676441829
-0.010428473 -0.01776052856 -0.03139752293 -0.4948923655 -0.8689522448 0.001882259586
-0.006780882359 -0.01942359924 -0.02958487892 -0.4113099897 -0.9114568551 0.008396056095
-0.01436153412 -0.014549757 -0.04343578339 0.7096708805 0.7015899891 0.06433295127
-0.007103693008 -0.01176497269 -0.06332102585 -0.3563630295 -0.7638870747 -0.5380352482
-0.0127151289 0.01620485497 -0.03279815674 0.607182414 -0.7944649766 0.01244657219
-0.0176818924 0.03400891876 -0.07116316223 0.8544965358 -0.0009540518006 0.5194562158
-0.01837196732 0.002006269336 -0.06334027863 0.8992603464 0.2752926412 0.3399188008
-0.01913582802 0.007579253435 -0.03535621452 0.9262846182 -0.3765730358 -0.01376789249
-0.01981629658 0.0055042696 -0.03483074379 0.9701508707 -0.2424793931 0.003321452421
-0.02055603123 0.03949895096 -0.06143297195 0.9989323396 -0.005179067843 0.04590597015
-0.02030821037 0.003434129715 -0.03497110367 0.9888604543 -0.1483256688 0.0124297168
-0.02048642921 0.002059217215 -0.03502186203 0.9913077113 -0.1311897032 0.009913798301
-0.02002717018 0.05983193588 -0.0653679657 0.9709162851 -0.002291019832 0.2394082677
-0.01964349174 -0.00619550705 -0.03478155899 0.9525197236 0.3043150562 0.009925856063
-0.005911598206 -0.008985731125 -0.06737784576 -0.2582910926 -0.7041352782 -0.6614221205
-0.007362632751 -0.01923143005 -0.03722244263 0.4361743607 0.8998511208 -0.004459530717
-0.01270721436 -0.01620526695 -0.03279585648 -0.6105023485 -0.7919401074 -0.01085120865
-0.01442200089 0.0146887064 -0.03475059128 0.716295319 -0.6977439204 0.008627718572
-0.01688982964 0.01179323578 -0.03544533539 0.8135489593 -0.5813378566 -0.01357892578
-0.01939350319 0.05170744514 -0.05373597145 0.9412363268 -0.02044589566 -0.3371292667
-0.01049539948 0.02971328354 -0.07828069687 0.5054665893 -0.0009271606236 0.86284568
-0.02015416193 0.004113486052 -0.03707645035 0.9751541697 -0.2213098048 0.009814052865
-0.01222562981 -0.00748762846 -0.06426555634 -0.6006097445 -0.6059130471 -0.5216678197
-0.02047067738 -0.002054329276 -0.03716424751 0.9949609219 0.1001503137 0.004762209082
-0.02016360998 -0.004113314629 -0.03707912731 0.980618263 0.1958698287 0.004778332802
-0.01576801968 -0.01323032379 -0.03512969589 0.7780104493 0.6282351798 -0.004505517094
-0.01440969372 -0.014689291 -0.03474707794 0.7156773042 0.698383209 0.008178610783
-0.01276540327 -0.01616288853 -0.03501680183 -0.6123300323 -0.7905411391 -0.009830506481
-0.0105306139 0.01768289185 -0.03512944031 0.5057521122 -0.8625506168 0.01487395236
-0.01769075108 0.0259158535 -0.05006591415 0.870496225 0.0003036809814 -0.4921749995
-0.01633140373 -0.01165365505 -0.04749648666 0.7814009895 0.6100338978 0.1314196982
-0.0169033947 0.01177363396 -0.03689585876 0.8129838316 -0.5822426949 0.007122760781
-0.01817032814 0.009655432701 -0.03724539185 0.8911965235 -0.4533692133 -0.01500376072
-0.01914258575 0.007560697556 -0.03751328278 0.9383115345 -0.3457271928 -0.00664622826
-0.01777348518 -0.01035802841 -0.03713584137 0.8578864558 0.5138355978 0.00195122876
-0.01529302025 0.04220622253 -0.04684719467 0.7296650539 0.010225275 -0.6837282742
-0.01445248079 -0.01465162992 -0.03694552994 0.7159591075 0.6979785888 0.01511442814
-0.007270972252 0.01926815987 -0.03571128082 0.4362424871 -0.8997970001 -0.007605991758
-0.0106178875 0.0176350975 -0.03736277008 0.4970958441 -0.8676524762 -0.008654609802
-0.01692367458 0.01174432993 -0.03906430817 0.8143490504 -0.5801475886 -0.01626036643
-0.02021543884 -0.002028058052 -0.04912749863 0.979795074 0.185903798 0.0737657834
-0.01077151394 -0.01238411045 -0.05905092621 -0.5160923944 -0.7369601485 -0.4365070217
-0.01069844341 0.01758783913 -0.0395861702 0.493427441 -0.8514935408 -0.1774488957
-0.007011758327 0.05418254089 -0.07992588043 0.3234465365 0.0201547753 0.946031777
-0.01914707565 0.007548367977 -0.03894655609 0.9338130293 -0.357757752 0.001617755494
-0.02015779591 0.004103462458 -0.03921972084 0.9737452916 -0.2274413696 -0.009514751617
-0.02055626965 -4.595518112e-08 -0.04499356651 0.9993498669 0.03336748114 0.01365484547
-0.01657015991 0.02605279064 -0.04837629509 0.8146115884 0.01377574407 -0.5798432452
-0.01841643238 0.009585403442 -0.0430368042 0.9094525922 -0.4024843305 -0.1044143012
-0.02016630363 -0.00410330677 -0.0392220726 0.9803634917 0.1971720039 0.003259599751
-0.01824856472 0.04163249207 -0.05113208961 0.8825271178 -0.01265775495 -0.4700911269
-0.01282338142 -0.0161206646 -0.03722968674 -0.6136786713 -0.7895536576 0.001873543916
-0.01028999901 0.03585827637 -0.07839408875 0.4946601012 -0.0008188211254 0.8690861372
-0.01914721727 0.01354353476 -0.05101281643 0.9254228851 -0.2186110738 -0.3095184682
-0.01581727219 0.01316414356 -0.03948916626 0.772263898 -0.6328344048 -0.05593825061
-0.007936450481 0.04019054413 -0.07958460236 0.3677164531 0.01082485409 0.9298749554
-0.01389800453 -0.01163315153 -0.05544965744 0.6770528507 0.6576621037 0.3302726068
-0.01063223839 -0.01763428879 -0.03736671066 -0.4991346185 -0.8665031363 -0.00607842781
-0.009853926659 -0.01598858356 -0.05243684006 -0.4814367764 -0.8326468488 -0.2737112632
-0.01854053688 0.02784886169 -0.0517027359 0.9047104769 -0.001135680304 -0.4260254256
-0.007247024059 -0.01926961899 -0.03570466614 -0.4312492013 -0.9021757802 0.01014829405
-0.01005175114 0.004736456394 -0.07511250305 0.4861080667 0.363028689 0.7949271152
-0.01449688053 0.01461401653 -0.03913679504 0.7279360505 -0.6847589234 -0.03484714061
-0.01994861666 0.003789314588 -0.05928284836 0.9707364426 0.1666156764 0.1729450067
-0.0196797533 0.006149842978 -0.04122798729 0.952622511 -0.3007926315 -0.04510148892
-0.02017129183 0.004093327999 -0.04135697842 0.9765119327 -0.2137966526 -0.02674764641
-0.01992459806 0.01771270752 -0.05518554179 0.9701991439 -0.04403447952 -0.238274182
-0.02015304995 -0.004093545794 -0.04135210609 0.9791754324 0.2026868314 0.01155512555
-0.01287297392 -0.0160790472 -0.0394305954 -0.6156128353 -0.7880283904 -0.005665064531
-0.007478001118 0.01919335175 -0.03873554611 0.4840264456 -0.8430567153 -0.2344648688
-0.01971997356 0.04954068375 -0.0663822403 0.9636765939 -0.01103473455 0.2668438814
-0.01699245262 0.01171326733 -0.04123855972 0.82259471 -0.5602419475 -0.09729801324
-0.01616603088 0.04559131145 -0.0732875309 0.7843326882 -0.001385863601 0.62033887
-0.01635288429 -0.01243007517 -0.0410707531 0.7882048917 0.6144528675 0.03436164071
-0.007477882862 -0.01919335937 -0.03873551559 -0.4390763361 -0.8984497577 6.287473839e-05
-0.02051206207 0.01405530548 -0.05760326767 0.9986433718 -0.01812242301 -0.04881591687
-0.00753743124 0.01915876007 -0.04022945023 0.6205827748 -0.6051022711 -0.4987266397
-0.01852962399 0.02580314064 -0.05167627144 0.9038677378 -0.001120252054 -0.4278105394
-0.0188071413 -0.00404628551 -0.05509825897 0.9086380709 0.3507093773 0.2266711027
-0.00871429348 -0.01750069618 -0.04929380798 -0.4597971062 -0.8579925592 -0.2289877495
-0.01109392643 0.01753725433 -0.04115276718 0.6734307568 -0.7073932025 -0.2146762047
-0.01616189798 0.01355345535 -0.04341705195 0.8060275704 -0.5409356908 -0.2402251738
-0.01720952034 0.01168609428 -0.04272792435 0.8593057511 -0.4876106923 -0.1543678684
-0.00981055069 -0.01749602699 -0.04665177917 -0.4787944151 -0.8664975022 -0.1412019362
-0.01057260799 -0.01597763538 -0.05116037369 -0.5057115902 -0.8277611208 -0.2430376812
-0.02022648048 0.004082640648 -0.04349834633 0.9782919877 -0.2029877727 -0.04172230704
-0.01293742847 0.02784469891 -0.04461935043 -0.678661404 0.000755613015 0.7344509022
-0.02056312561 -1.287460327e-08 -0.04358369637 0.9998439574 0.01748279262 -0.002532366538
-0.00867347765 0.02167268276 -0.07927516937 0.4097905077 0.007477235581 0.9121490178
-0.02010913849 -0.004084246635 -0.04346757126 0.9765926066 0.2132531504 0.02810648694
-0.01773272514 -0.01029266834 -0.04285982513 0.8597439363 0.5087989009 0.04431751805
-0.01479018307 -0.01305981922 -0.0492661705 0.7296136212 0.6548404252 0.1970989127
-0.01069376993 0.05803202248 -0.04304952431 -0.5917589149 -0.006142882202 0.8060915901
-0.01834316572 0.03793492381 -0.05132806269 0.8910895339 0.0004756809368 -0.4538272979
-0.01056947708 0.05589015961 -0.04297425079 -0.5882179733 -0.005556392295 0.8086833388
-0.01045090914 0.05375054932 -0.04290229034 0.584903298 0.00492426962 -0.8110880862
-0.01033690739 0.05161267853 -0.04283296585 -0.5817893114 -0.004415632151 0.8133275474
-0.01026394367 0.05018854904 -0.04278850555 -0.5788648901 -0.004200776797 0.8154126517
-0.0177660923 0.02595962524 -0.07102312469 0.8592558775 -0.0008739192897 0.5115452798
-0.01005867577 0.04592095947 -0.0426629982 0.4996545102 -0.001440772791 -0.8662235824
-0.01767444229 0.02386331177 -0.0500403595 0.8696139814 0.0002350152181 -0.4937321825
-0.0009289022088 0.02769009781 -0.08117321396 0.05610317786 -0.01157249309 -0.9983579072
-0.008051682472 0.03811478615 -0.07954258728 0.3747452563 0.01216177255 0.9270480485
-0.009963964462 0.04378981972 -0.04260482216 0.5002994392 -0.0014019791 -0.8658513184
-0.02054572678 0.03148413849 -0.05919874191 0.9975531361 -0.004793161296 -0.0697478768
-0.009788905621 0.03953214645 -0.04249686432 0.09919326209 -0.0206084578 -0.9948547574
-0.01547163773 0.05385107994 -0.07414008331 0.7519382828 -0.006149062936 0.65920483
-0.009691972733 0.03740745926 -0.04244281769 0.7011191073 0.01437042252 -0.7128993536
-0.009625358582 0.03599227905 -0.04240723038 0.700528309 0.01432900406 -0.7134807411
-0.02056377983 0.04359722519 -0.06082946777 0.9999929871 0.003596297093 0.001045179266
-0.009530604362 0.033870327 -0.04235661125 0.471259345 3.582038411e-06 -0.8819946881
-0.01295452356 0.05411458588 -0.07655500031 0.653980715 -0.0007874397946 0.7565108092
-0.009441013336 0.03174915314 -0.04230875015 0.4714971045 1.641302851e-05 -0.8818676092
-0.009357864857 0.02962889099 -0.04226433372 0.4710310384 -7.338351916e-06 -0.8821166367
-0.01676227093 0.04402423096 -0.0486781826 0.825789578 0.01177947042 -0.5638553156
-0.009279863358 0.02750930977 -0.04222266388 0.4713477529 7.196160392e-06 -0.881947445
-0.01304165554 0.03413896942 -0.04471831131 0.6814937841 -0.0007907835618 -0.7318234739
-0.01869768715 0.02995592117 -0.06918896103 0.9101680829 -0.0006390535086 0.414238642
-0.009163567543 0.02397832966 -0.04216053963 0.2078168335 -0.009919646651 -0.9781174594
-0.01122287273 0.05779067993 -0.07784223938 0.5443589675 -0.004672501217 0.8388393662
-0.009100975037 0.02186052895 -0.0421271019 0.59412917 -0.1273209855 -0.7942291206
-0.0175358963 0.04346627426 -0.07137177277 0.8460817207 -0.01099196238 0.532939864
-0.009011264801 0.02045234108 -0.04209340668 -0.6388992498 0.2924505984 0.7115338334
-0.01267136097 0.01742058754 -0.04301661682 0.6766125763 -0.5805213186 -0.4529794921
-0.007167485476 0.05206544495 -0.07986803436 -0.3312288453 -0.01870588539 -0.9433650099
-0.01757491302 0.01165334415 -0.04425019073 0.8580215134 -0.4581107405 -0.2322361556
-0.01880035305 0.009550135612 -0.04526624203 0.9148019987 -0.3534924432 -0.1953980446
