# .PCD v0.7 - Point Cloud Data file format
VERSION 0.7
FIELDS x y z normal_x normal_y normal_z
SIZE 4 4 4 4 4 4
TYPE F F F F F F
COUNT 1 1 1 1 1 1
WIDTH 472
HEIGHT 1
VIEWPOINT 0 0 0 1 0 0 0
POINTS 472
DATA ascii
-0.01995453501 -0.004971042335 -0.03755725241 0.9619332333 0.2731995858 -0.006814765862
-0.01834228452 0.009319388072 -0.001603816265 0.9176632458 -0.3965844607 -0.02479783749
-0.02051281929 -0.000712359041 -0.001704106748 0.9957844418 0.02795642187 -0.0873600819
-0.01926215458 0.007153032422 -0.001201889217 0.9445328952 -0.3253874285 -0.0445042832
-0.01837121677 0.009279752254 -0.005458252907 0.9189795659 -0.3938367675 -0.01921348705
-0.01927923679 0.007122878472 -0.005043939789 0.942247221 -0.3343044537 -0.02026590096
-0.02021000926 0.003565446893 -0.001582506239 0.9855877928 -0.1544262244 -0.06905971239
-0.005174733639 0.03632679494 -0.08051421865 0.2335232987 0.01232017969 0.972273152
-0.01012558715 0.04734296926 -0.04270395915 0.6152381513 0.008269485294 -0.788297934
-0.01635143292 -0.01239271069 -0.005256776065 0.804998379 0.5928812717 -0.02166581353
-0.01833972295 -0.009319466273 -0.001602805375 0.9080773023 0.4181825438 -0.0227809803
-0.02051717271 -0.000709389468 -0.005524577273 0.9989125175 0.03781416132 -0.02727400932
-0.001223998547 -0.0006945238113 -0.07519329071 -0.2113207352 -0.5157990994 -0.8302378189
-0.01137693437 0.007410740534 -0.075326828 0.52945769 0.2980758623 0.7942451352
-0.02009606838 -0.004279606104 -0.001536743641 0.9832104859 0.1715662478 -0.06214630416
-0.0192621088 -0.007153033495 -0.001201871149 0.9431853847 0.3320274298 0.01261411259
-0.01643962399 0.01225854476 -0.001622412264 0.8016113396 -0.5963982717 -0.04157356993
-0.01289024696 0.01597419491 -0.01306579723 0.6633945179 -0.7482269769 0.008006532444
-0.01719183286 0.03216874186 -0.04931048139 0.8199744629 0.02149470605 -0.5719963792
-0.01643970251 -0.01225853411 -0.001622442742 0.8018772339 0.596043356 -0.0415357622
-0.004793991566 -0.004137354016 -0.07216944504 0.3051235917 0.5788568607 0.7561906695
-0.01490748692 0.01454752731 -0.04213699722 0.7845635018 -0.5384450783 -0.3074687127
-0.01853118134 -0.008910661379 -0.04163870366 0.9068609127 0.4200718049 0.03380774615
-0.01279297853 0.01602825832 -0.001745752633 0.6461229466 -0.7620332838 -0.04278331649
-0.0155684557 0.05552559662 -0.04716795731 0.7576624702 -0.03653136272 -0.6516233888
-0.02021501393 0.003550563388 -0.005407263385 0.9863651621 -0.1632566958 -0.02076097942
-0.02010558128 -0.00426167353 -0.005364767869 0.9830586649 0.1824596935 -0.01743908458
-0.01927905909 -0.007122882684 -0.005043870966 0.94455095 0.3278849079 -0.01774795933
-0.01279372621 -0.01602821279 -0.001746042773 -0.6459940499 -0.7621209066 0.04316724832
-0.01840746307 -0.00920213747 -0.01305966568 0.9114190573 0.4113123891 0.01172265014
-0.004600366433 0.04332921982 -0.08063820903 -0.2393735225 -0.006109524064 -0.9709083327
-0.01667045076 -0.01194748606 -0.009070688725 0.8071565756 0.5901482719 0.01494254226
-0.0126895256 0.01611732407 -0.005291607571 0.6527538609 -0.7572975608 -0.0203175174
-0.01591338497 0.0314040432 -0.07358137004 0.7699341835 0.01336321467 0.6379833678
-0.009146551132 0.01839835167 -0.001902149975 -0.4315099257 0.9007661389 0.04918889021
-0.01634857297 0.01239284468 -0.005255690426 0.8046720618 -0.5933217429 -0.02172975742
-0.002409716845 0.01033287144 -0.07969703674 -0.2005455375 -0.2655503442 -0.9430082195
-0.009494074186 0.01824139214 -0.009076271852 0.4509313123 -0.8925499315 -0.003946061502
-0.01836249828 -0.009280016899 -0.005454896927 0.9095168825 0.4153638028 -0.01587298657
-0.01521067683 0.007355569839 -0.07177209727 0.7444579429 0.2767823404 0.6075968295
-0.009146029949 -0.01839838123 -0.001901949763 0.4318837998 0.900609632 -0.04877165465
-0.004079479814 0.02016018486 -0.001550264001 0.3390832433 -0.9406477945 -0.01429268234
-0.01667048645 0.01194752625 -0.009070714882 0.8066517443 -0.5908379123 0.01495074349
-0.01677252924 -0.011829162 -0.03323473573 0.8138351318 0.5809843043 -0.01138492147
-0.005060036182 0.01994909859 -0.009041550001 -0.3544418117 0.9350333745 0.009142788923
-0.02025542831 0.003457925664 -0.02918324958 0.9874992259 -0.1576237856 -0.0001451754574
-0.01269596481 -0.01611696854 -0.005294027328 -0.6526342707 -0.757391595 0.02065140673
-0.004097617149 -0.0201590414 -0.001557136059 -0.3396861688 -0.9404404804 0.01360181955
-0.01453685904 0.04708493042 -0.0751603775 0.7118281046 -0.02051403894 0.7020540746
-0.01996966258 0.02340403609 -0.06537311831 0.9776215697 0.01670174585 0.2097072201
-0.01764698124 0.01209569883 -0.04521864128 0.8409431468 -0.4576912354 -0.2886751754
-0.02023561054 0.003503687435 -0.01744065189 0.9869393832 -0.1600470757 -0.01831904794
-0.009301758766 0.01832825089 -0.005106196165 0.4408003877 -0.8972911452 -0.02374066153
-0.02052577337 -0.0007035228279 -0.01307213434 0.9991530574 0.03869501483 0.01399512951
-0.01839988454 0.009240478198 -0.009277498404 0.9213983614 -0.3886084886 -0.002915860303
-0.0193246479 0.007028210481 -0.01712515561 0.9436187468 -0.3307175491 0.01447630252
-0.0167780664 0.01182899642 -0.03323638296 0.8203838696 -0.571620758 -0.01483291883
-0.0184434522 0.009163263957 -0.016819911 0.9209673122 -0.3894041443 0.01355072775
-0.01156465912 0.0006760313809 -0.07184828568 0.5458676147 0.4266159992 0.7211292093
-0.02022784636 0.003521126085 -0.01296430651 0.9867505705 -0.1616388245 0.01400721685
-0.01924067078 0.007232267284 -0.009288547802 0.9197849409 -0.3919611754 -0.0190289137
-0.01955226305 -0.00474402833 -0.04896936417 0.9397305061 0.3256481118 0.1042107634
-0.02022132142 0.003535781701 -0.009202321053 0.986573763 -0.1623588106 0.01765861737
-0.02012217299 -0.004226274172 -0.01292607196 0.9834290658 0.1809202609 0.01162461984
-0.01348540576 0.007378664176 -0.07357051849 0.6482998623 0.2914190404 0.7034075856
-0.020521492 -0.0007064433197 -0.009314894199 0.9962918112 0.08533650566 0.01096848789
-0.02042751016 0.01540050242 -0.05759386656 0.9882732305 -0.0499089403 -0.144309111
-0.02011501932 -0.004243883073 -0.009162456751 0.9832467052 0.18166087 0.01500816481
-0.01924179115 -0.007232244778 -0.009288968086 0.9453169231 0.325416751 -0.02190554682
-0.004690563202 -0.02005494881 -0.004963591337 -0.3453921171 -0.9384305517 0.007237750906
-0.01838506762 -0.009240926743 -0.009271982511 0.9117771275 0.4106790295 -0.002281323904
-0.009300361156 -0.0183283329 -0.005105672359 -0.4409462572 -0.897228473 0.02339798141
-0.006680820942 0.05843994141 -0.08004917908 0.4071487004 -0.0305198425 0.9128518363
-0.02054993629 0.04359977934 -0.06082612695 0.999838923 -0.006710679468 0.01664616373
-0.004685155869 0.02005528831 -0.004961593151 0.3449747043 -0.9385802944 -0.007712612101
-0.0008397620916 0.02839391963 -0.08117627207 -0.1954714376 0.01733989446 -0.9805560898
-0.01293236128 0.03158079274 -0.07658842595 0.6533362793 -0.006524576164 0.757039719
-0.009683356285 0.01815535164 -0.01301210165 0.4649392453 -0.8852658803 0.01165415694
-0.005888877233 0.02388259315 -0.08033798472 0.3089313582 -0.007429021212 0.951055322
-0.01316422977 0.01573959312 -0.009178508282 0.6587267414 -0.7523716192 -0.004003349031
-0.01842359829 0.00920165062 -0.01306548262 0.9208762424 -0.389637438 0.0130235607
-0.01052957344 0.05517680931 -0.04295004463 0.6248928584 0.002782939254 -0.7807055596
-0.01316855679 -0.01573933563 -0.009180076408 -0.6585452198 -0.7525308275 0.003942976911
-0.007134822845 -0.003425515652 -0.07183224487 0.3488795135 0.5604118722 0.7511468688
-0.01936466026 0.006918233013 -0.01295294418 0.9434879028 -0.3306974134 0.02167482652
-0.01936911659 -0.006918140984 -0.01295456066 0.9455782117 0.3247690984 0.02017122194
0.001870400071 0.03918712807 -0.08108444977 -0.08721829562 0.01870957392 -0.9960135143
-0.003777071397 0.05183610662 -0.08081748708 -0.3214316998 -0.0006754148522 -0.9469325246
-0.009681196213 -0.01815547657 -0.01301134109 -0.4643335041 -0.885584659 -0.01158484975
-0.009491591136 -0.01824153582 -0.009075371901 -0.4505285512 -0.8927525785 0.004105858515
-0.02019722366 0.05969346364 -0.05695445569 0.9847094867 -0.0215469065 -0.1728668786
-0.01656898096 -0.01210177294 -0.01315454854 0.8134870622 0.5815819637 -0.001104180504
-0.01656634617 0.01210192892 -0.01315360716 0.8131132304 -0.5821043582 -0.001179316
-0.01832590294 -0.006088360786 -0.05359584236 0.8885303067 0.4048958239 0.2158084009
-0.005054073175 -0.01994947116 -0.009039422989 0.3545340336 0.9350031433 -0.008645286152
-0.01913809395 -0.007560819149 -0.03751083247 0.9452140827 0.3264485439 -0.001298456419
-0.01290077 -0.01597360954 -0.0130695076 -0.6635142601 -0.7481231832 -0.007780067794
-0.01058783245 0.01765105629 -0.03661943054 -0.5699972999 0.8194058421 0.06063945971
-0.02053022957 -0.0007000483341 -0.01754268519 0.9992018992 0.03459683693 -0.01996555737
-0.02012985547 -0.004205331286 -0.01740404479 0.9836863758 0.1792357542 -0.01535117164
-0.02015919156 0.003347882403 -0.05748038822 0.9756572393 0.1542926185 0.155842033
-0.01932804203 -0.007028141499 -0.01712633801 0.9459295151 0.3241541103 0.01189391429
-0.02012746175 0.03535499488 -0.0647273585 0.9808151833 0.001181394756 0.19493635
-0.0132907505 0.04396115112 -0.04492430623 -0.6837220181 -0.01538553713 0.72958035
-0.01842966715 -0.009163677851 -0.01681510894 0.9116884719 0.4107340306 0.01103115181
-0.01458815956 0.01403404427 -0.07448487091 0.7188444112 0.1264616953 0.6835716145
-0.005416994572 0.01984480858 -0.01307797337 -0.3695322269 0.9292025269 0.005347642686
-0.01335553493 0.01560072746 -0.01687711811 0.6681223521 -0.7439499644 0.0122871095
-0.01645601559 0.01225467845 -0.01720539406 0.813893558 -0.5807222903 -0.01840917855
-0.01459161568 0.04503242493 -0.07510525513 0.7075666859 0.009111402468 0.7065878341
-0.01903365326 0.02326574453 -0.06845059713 0.9300590935 0.001620247057 0.3674063928
-0.01858440971 0.03468341064 -0.05180640411 0.9005112551 -0.02103428591 -0.4343236561
-0.01508598042 0.02830125109 -0.04660534795 0.7280955737 0.01219494384 -0.6853671417
-0.01646067469 -0.01225444058 -0.01720699201 0.8139828698 0.5806082008 -0.01805560105
-0.02004838859 -0.0006738776763 -0.05328233295 0.9658328085 0.228201083 0.1228464562
-0.01335211182 -0.01560086136 -0.01687593346 -0.6686048888 -0.7435150636 -0.01236336901
-0.005407309771 -0.0198454113 -0.01307462692 0.3685856975 0.9295786239 -0.005307129975
-0.009850225449 0.01807130877 -0.0169039437 0.4726322667 -0.8811967777 0.01053468055
-0.009325222111 -0.01199546013 -0.06117929993 -0.4859666041 -0.7425206289 -0.4609767622
-0.00986839517 -0.01807026291 -0.01691006279 -0.4720123699 -0.8815283827 -0.01058457705
-0.005769514561 0.01974164645 -0.01707222112 -0.3804921733 0.9247700664 0.005101995442
-0.01628516881 0.05929031181 -0.07307666143 0.7925046971 -0.03216719733 0.6090168934
-0.02054114755 -0.0006847708027 -0.0371838576 0.9993443957 0.03597907133 -0.004035505505
-0.01678801441 0.0118146199 -0.02091909027 0.8159232514 -0.5779643016 0.01505038208
-0.02009496174 0.02716598759 -0.06485074501 0.9774637776 -0.01636737696 0.2104677469
-0.0128215832 -0.01164882592 -0.05734333529 -0.6304303674 -0.6967994217 -0.3420937266
-0.01846708234 0.009117576917 -0.02128837013 0.9214134441 -0.3883271873 -0.01411596886
-0.01355599085 0.01545931911 -0.0330381368 0.6294300328 -0.7769596927 0.01230730438
-0.01934094842 0.006993329525 -0.0215775884 0.9443639517 -0.3282190137 -0.0211897572
-0.02024202792 0.003489273667 -0.02114055188 0.9872545813 -0.1591392591 -0.001757239743
-0.02053241189 -0.0006971747478 -0.02123736254 0.9993839557 0.03494892367 0.00320652542
-0.01791223717 0.01529273001 -0.07022033564 0.8452307615 0.08816232793 0.5270790868
-0.02038315074 -0.0006761149102 -0.04916709264 0.9834811948 0.1661673281 0.07178550399
-0.0201362052 -0.004188021004 -0.02110529089 0.9839858539 0.178241789 -0.001305350023
-0.01697636318 0.01171698835 -0.04123290422 0.8273451471 -0.5476829533 -0.1246731335
-0.007072879076 -0.01932714462 -0.03341838646 -0.4996992571 -0.8660957048 -0.01337469466
-0.01934378878 -0.006993272622 -0.02157853635 0.9465194477 0.3220963345 -0.01883842836
-0.01845609411 -0.009117905299 -0.02128470294 0.9121691011 0.4096726429 -0.01076367668
-0.0003574125469 0.03192300415 -0.08119048691 -0.1241834434 0.02099675327 -0.9920371005
-0.004906336546 -0.0176128664 -0.05352694321 -0.3082405495 -0.8953616935 -0.3214268214
-0.01678736448 -0.011814592 -0.02091886926 0.8154739419 0.5785824244 0.01564059395
-0.005756885529 -0.01974243037 -0.01706801351 0.378662342 0.9255211429 -0.005044278609
-0.004900902748 0.03981850624 -0.08057317734 0.2352194009 0.008252295228 0.9719072657
-0.003988237858 -0.0191719017 -0.04893521309 0.2847798121 0.9253607611 0.250215748
-0.01328229062 0.01567601856 -0.02107387892 0.6594507299 -0.7517227619 -0.006133850132
-0.01053606606 0.02835214424 -0.07825843048 0.5459652684 0.01531971764 0.8376677336
-0.01942178429 0.01130678696 -0.06564716339 0.9290153859 0.1135680884 0.352182768
-0.01325567436 -0.008302308178 -0.06193577728 0.6403040718 0.6071007311 0.4705734777
-0.01602581203 -0.01147119915 -0.04937552547 0.7979683057 0.5788364569 0.1679134871
-0.0132700297 -0.0156766154 -0.02106986459 -0.6738147167 -0.7387539885 0.01470619127
-0.008480054951 0.01179099426 -0.07828852386 0.441447188 0.1932666848 0.8762262086
-0.01004417483 0.01797161802 -0.02153089778 0.4845916818 -0.8747096589 -0.007342655193
-0.01036194515 -0.002037570715 -0.07094863129 0.5011766463 0.5129686628 0.6969111279
-0.02024824397 0.003474968248 -0.02481141641 0.9872202815 -0.1583682983 0.01776507393
-0.0042072498 0.04756719589 -0.08072363281 -0.3405627991 0.003026451262 -0.9402169008
-0.01361494303 -0.01269875073 -0.05361836147 -0.656419419 -0.7027287289 -0.2743827252
-0.02053442065 -0.0006943232814 -0.02490315564 0.999153116 0.03558757103 0.02065370839
-0.01662250304 0.01206040609 -0.02935711956 0.8208918499 -0.5707710462 -0.01889401261
-0.02014250596 -0.004170846502 -0.02477754275 0.9840675659 0.1771353878 0.0152996759
-0.001431923072 0.02002267011 -0.08110502625 0.1967932768 0.04826327003 0.9792563826
-0.007935567061 0.04019134013 -0.07958494822 0.4392804643 0.007208083338 0.8983210547
-0.01006196594 -0.01797059759 -0.02153667259 -0.482033656 -0.8759193716 0.0202190245
-0.006118922472 0.01963939571 -0.02103120995 -0.3858649325 0.9225338729 0.006285474602
-0.01669907061 0.01193894821 -0.02515106095 0.8186219967 -0.574224939 0.01112411893
-0.01324337928 -0.01526332219 -0.04531804466 -0.6177353706 -0.7800939432 -0.09927966374
-0.02015000916 -0.004150392294 -0.02915108713 0.9843267483 0.1763542068 0.0002152119005
-0.01849050331 0.009072293917 -0.02571727435 0.9228460814 -0.3848124038 -0.01656876526
-0.019354424 0.006964490414 -0.02525878954 0.9455028428 -0.3256011618 -0.002873605369
-0.01855201658 0.008953362147 -0.03734948349 0.9278835393 -0.372660364 -0.0125056212
-0.01935680676 -0.006964443684 -0.02525955582 0.9473440404 0.3202172637 -0.000416008808
-0.01848228645 -0.009072538376 -0.02571464984 0.9137894837 0.4059580766 -0.01366819191
-0.009213492393 0.05876537514 -0.07900185013 0.4204560556 -0.05069742036 0.9058954006
-0.02008512921 0.04345503404 -0.06490087043 0.9814066362 -0.004798856982 0.1918801329
-0.01739004402 0.04014786758 -0.04962023926 0.818533258 -0.001328816618 -0.5744576049
-0.01669697475 -0.01193897671 -0.02515039529 0.8178990752 0.5752428219 0.01169609296
-0.01317024994 0.03974694824 -0.04482821147 -0.6780559936 0.003195395824 0.7350033054
-0.006103381634 -0.01964035702 -0.02102621651 0.3861142257 0.9224364394 -0.0051788049
-0.01953671408 0.007319275141 -0.0449166379 0.9557459648 -0.2821539507 -0.08329945333
-0.01321655006 0.01574942608 -0.02524398804 0.6135147204 -0.7893840715 -0.02173650108
-0.01921928501 0.03129278056 -0.06792937851 0.9329739032 0.01515575175 0.3596248032
-0.01319531536 -0.01575049553 -0.02523728981 -0.6299828336 -0.776198062 0.02526257888
-0.006396045923 0.01955829811 -0.02417117691 -0.4726933855 0.8808993728 0.0240261989
-0.01917877674 0.007526116769 -0.04157164319 0.9361164555 -0.343240518 -0.07662851037
-0.009003815969 0.01842545382 -0.02573959732 0.4965824384 -0.8679487611 -0.008416049374
-0.01021104765 -0.01788887978 -0.02535546017 -0.4928386853 -0.8701050099 0.00522512685
-0.01936779912 0.006935869455 -0.02891219966 0.9453471549 -0.3255260713 0.01874923082
-0.005705123425 0.02801076953 -0.08039136505 0.3095155437 -0.009563545459 0.9508462898
-0.008614679337 0.02371583176 -0.07930077871 0.3925305724 0.006220415134 0.9197179221
-0.01951595147 0.03177040513 -0.05409016037 0.9568923454 -0.01523803931 -0.2900428269
-0.02053681352 -0.0006909271479 -0.02926914046 0.9991418871 0.03564333571 -0.02109601803
-0.02056598123 0.02737602647 -0.06121867688 0.9987223826 -0.01941939749 0.04665286213
-0.01289157391 -0.01594351363 -0.03743067408 -0.6188955751 -0.7854722432 -0.001273652099
-0.01936830616 -0.006935867786 -0.02891235892 0.9475300737 0.3192358232 0.0165906199
-0.01434959173 0.01661825418 -0.04416401672 0.7821910357 -0.3570767542 -0.5105618232
-0.006427069187 -0.01954047521 -0.02493981425 0.4602449048 0.8876372022 -0.01657784235
-0.007454114755 -0.01913290596 -0.04168186442 -0.4943858363 -0.86753333 -0.05448454965
-0.01364147396 0.01538382187 -0.02893787613 0.6404846626 -0.7678949057 0.01080789786
-0.01850987339 0.009034843922 -0.02938010216 0.9233134515 -0.3838483046 -0.01235917976
-0.01938255914 0.006901802063 -0.03326419703 0.9478350177 -0.3187511875 -0.002541602833
-0.01850394821 -0.009035019398 -0.02937828064 0.9141119275 0.4052994651 -0.01147726801
-0.02051531219 0.01932761722 -0.06179728317 0.9917208172 0.009907649976 0.1280299152
-0.0166202246 -0.01206045091 -0.02935641456 0.8201668193 0.5718075592 -0.01903953253
-0.01362044754 -0.01538485203 -0.02893147774 -0.6361865723 -0.7712470569 -0.02108607261
-0.007712680221 0.01902457523 -0.02911089182 0.5106988344 -0.8596282803 -0.01503064677
-0.01035142517 -0.01780826124 -0.02914053472 -0.5029924711 -0.8642431618 -0.009073658817
-0.01036948204 0.01779275036 -0.02989230156 0.511150388 -0.8592265799 -0.02132991343
-0.01852910169 0.008997665723 -0.03301634153 0.9253604392 -0.3790807495 -0.002417230494
0.000307309666 0.03549069595 -0.08119099935 0.1056455274 -0.02146574438 0.9941721402
-0.009594714642 0.05175015831 -0.07878536987 0.4482480341 0.001857485594 0.8939072937
-0.02026284949 0.03565439669 -0.05711890093 0.9885272211 0.01535064965 -0.1502607424
-0.02026073096 0.003441038715 -0.03351905081 0.9873650114 -0.1573535963 -0.01871309563
-0.02003490045 0.05161373986 -0.06511114205 0.9685097789 0.009423179539 0.24879713
-0.02032716632 0.0313959043 -0.05758457279 0.9866915503 -0.01580737962 -0.1618329737
-0.02053918648 -0.0006875585649 -0.03359982173 0.999313943 0.02174141909 -0.02998256039
-0.009142703374 0.02327239609 -0.04214939372 0.6560351935 -0.1755927154 -0.7340197703
-0.02015745099 -0.004130104264 -0.0334891173 0.9844085048 0.1756033101 -0.01016726
-0.01902054469 0.01926746241 -0.06839597321 0.9259120889 0.02937842119 0.376594891
-0.01938128535 -0.006901842912 -0.03326381969 0.9499567303 0.3122957089 -0.007321253029
-0.008482158979 0.02781084442 -0.07935849762 0.3875039507 -0.001441060448 0.9218669164
-0.02032588598 0.01132780552 -0.06169252099 0.980108185 0.07488367403 0.1837943991
-0.0185254523 -0.008997773806 -0.0330152607 0.9137683597 0.406231567 0.001816241788
-0.01656641229 0.04760797543 -0.07272078111 0.7990203428 -0.0008206018582 0.6013034329
-0.006780752341 -0.01942364248 -0.02958317312 0.4837484621 0.8751867901 -0.005958851288
-0.005471667767 0.03215726789 -0.08045067596 0.264232548 0.01289717488 0.9643727617
-0.01354410966 -0.01545990197 -0.03303467782 -0.6405510073 -0.7671428339 -0.03444240718
-0.01048469957 0.01771419589 -0.03363713837 0.5151909806 -0.856948805 -0.01473088817
-0.02051058748 -0.0006788665255 -0.04498101976 0.9909996887 0.1286272907 0.03707609803
-0.01050512377 -0.01771304067 -0.03364295578 -0.5108274257 -0.8596827459 -0.0009578834496
-0.02003280173 0.007442811118 -0.04909220378 0.9737840414 -0.1938170582 -0.1190780781
-0.007114824295 0.01932458305 -0.03343028259 0.5198242048 -0.8534966888 -0.03641700562
-0.01043059889 0.03175824738 -0.07831633759 0.5159528152 -0.006720270733 0.8565906434
-0.01695659661 0.01159853351 -0.03709054708 0.8164979765 -0.5773317521 0.004370632279
-0.01196185303 0.01142642895 -0.07613997014 0.5802449704 0.199913402 0.7895254309
-0.01939485137 0.00686805884 -0.03758159574 0.9487285147 -0.3145156583 -0.03152944804
-0.02022788783 0.003621691499 -0.03740311486 0.9791987103 -0.2019481245 -0.01966826489
-0.01855107689 -0.008953389804 -0.03734921773 0.913421426 0.4069950846 0.004037285148
-0.00485936594 0.007189879298 -0.07823838615 0.2877501581 0.3327445219 0.8980428329
-0.0183012689 0.03937751516 -0.07001267497 0.9053042033 0.003104387958 0.4247524718
-0.01695031714 -0.0115987395 -0.03708877516 0.8187037912 0.573513994 0.02838663336
-0.02053727765 0.01137485176 -0.05759096358 0.9992697406 -0.02335780251 -0.03023902308
-0.01681963264 -0.01172296821 -0.04119164997 0.8159517276 0.5768464832 0.03835248496
-0.01321936866 0.0156996757 -0.03754621778 0.6523794943 -0.7504928514 -0.1056478844
-0.007374539057 0.01923073705 -0.03722417704 0.6779206745 -0.6905522383 -0.2521133975
-0.02053949886 0.05177984831 -0.06102852207 0.9976570506 0.01166744994 0.06741127429
-0.02030839849 0.003241064399 -0.04086001539 0.9908596028 -0.1348164275 -0.004666737879
-0.01986523395 -0.004761913935 -0.04481899601 0.9540439276 0.293661817 0.05969021181
-0.02053863737 -0.0006820123659 -0.04074309116 0.9936761749 0.110594077 0.01940643107
-0.009395095348 0.003050723791 -0.07465778351 0.4752630514 0.3998455055 0.7837401379
-0.02002455957 -0.004584784303 -0.04101369531 0.9738447627 0.2258739997 0.02464375044
-0.01013153966 0.03997633108 -0.07848233541 0.465171608 -0.02256804681 0.8849327988
-0.007362513224 -0.01923146947 -0.03722087479 0.4812022538 0.8764542316 0.01650366243
-0.01856261444 0.008924134254 -0.04022002792 0.917108327 -0.3979144668 -0.0240081993
-0.01913345432 -0.007530436277 -0.04108405685 0.9337000055 0.3568635854 0.02920070445
-0.01252628676 0.01653652875 -0.04103805351 0.7147813476 -0.6179368704 -0.3274777082
-0.01242921519 -0.01624631643 -0.04131462526 -0.6180500916 -0.7857861078 -0.02354308915
-0.01807898178 0.03507283173 -0.07042667999 0.9041391807 -0.01453921823 0.4269905773
-0.01913534021 0.05875010109 -0.05313703346 0.9123516995 -0.0109381868 -0.4092612032
-0.008274348021 0.01980555058 -0.04116142845 0.7701939217 -0.3976910057 -0.4986413411
-0.01918919023 0.03532153956 -0.06800514857 0.9280547322 -0.01508171075 0.3721383561
-0.01913857923 -0.004342730079 -0.0528772147 0.9252387031 0.3311329995 0.1851601441
-0.01898766708 -0.007503718058 -0.04459890874 0.9376594397 0.3413843562 0.06520350067
-0.0203782569 0.003395285394 -0.0449487542 0.9864404845 -0.1616893341 -0.02813769224
-0.005042397141 -0.01324668169 -0.06222341537 -0.319040477 -0.7952645612 -0.5155263832
-0.0107793107 0.05946101761 -0.04310125542 -0.6261603229 -0.01658970065 0.7795178201
-0.01065157413 0.05731776047 -0.04302399063 -0.6211617313 -0.001943538021 0.7836799897
-0.004966824849 0.003428444703 -0.07670125071 0.2738795139 0.3801525394 0.8834444287
-0.01937275145 -0.0006724314027 -0.05730804613 0.9391996921 0.2669638017 0.2159496861
-0.01033766651 0.05161295573 -0.04283340454 0.6280041791 0.004638798194 -0.7781961402
-0.02047151883 0.01532402399 -0.06175081465 0.9882115802 0.03340378777 0.1494056881
-0.01928603172 0.0110736866 -0.04939332263 0.9414190463 -0.2291846015 -0.2473956298
-0.009963964462 0.04378981972 -0.04260482216 0.6021894867 0.0048124921 -0.7983386888
-0.009817192078 0.04024146779 -0.042514328 -0.6107580199 0.004555429602 0.7918041987
-0.01420472527 0.002015804768 -0.07019956207 0.6858132821 0.3701042573 0.6266442219
-0.009626219749 0.03599241638 -0.04240769068 -0.6050703843 0.004131240318 0.7961612669
-0.01902898352 0.007517161369 -0.06515835898 0.920454783 0.1798108167 0.3470317891
-0.0190404274 0.0555698761 -0.05289271545 0.9045472252 -0.0149502436 -0.4261112619
-0.01293742847 0.02784469891 -0.04461935043 -0.6660943063 0.001867463525 0.7458651941
-0.009441872279 0.03174927521 -0.04230921046 -0.5964390688 -0.007532784709 0.8026230088
-0.0180523332 0.03131168461 -0.07048141352 0.8743823228 -0.003440069391 0.4852254316
-0.009280720393 0.02750941467 -0.04222312164 -0.5992779413 0.003132200457 0.8005349077
-0.01071654892 0.01893545341 -0.04252248764 0.7011268785 -0.4123846768 -0.5816871827
-0.02015838157 0.05209857602 -0.05674296909 0.9730403846 0.01632892949 -0.2300560278
-0.01620719083 0.01534979137 -0.04582044284 0.7877676256 -0.3677546702 -0.4941443823
-0.01306260554 0.02015751521 -0.04458240509 0.6947103818 -0.1952797247 -0.6922740169
-0.01833989811 -0.008880357742 -0.04514676094 0.8794955205 0.4675481309 0.08880526285
-0.007461082697 0.04785132217 -0.07975932312 0.4283896712 -0.0005428366494 0.9035939326
-0.01654039171 -0.0116770596 -0.04541149309 0.8077511718 0.5847065086 0.07520866442
-0.00802080822 -0.007552314758 -0.06774068451 -0.3876193793 -0.6634392766 -0.639999643
-0.01800369644 0.05915160179 -0.07056512833 0.8620336563 -0.05634103327 0.5037099
-0.0138097806 0.05878869438 -0.04533821869 -0.6891798599 0.04245775826 0.7233453252
-0.01367254289 0.05524628448 -0.04522877502 -0.691943216 0.02076107259 0.7216533542
-0.01354343891 0.05171139145 -0.04512581825 -0.6904057141 0.0001092379318 0.7234223787
-0.01819156392 0.04750991694 -0.07021355693 0.8828697896 0.01425561034 0.4694014403
-0.01518199698 0.03524129486 -0.04671503576 0.7435569293 -0.007294181965 -0.6686328498
-0.01342357286 0.04818451818 -0.04503022893 -0.6820965176 -0.01140491288 0.7311732139
-0.01306876183 0.03554025523 -0.04474359004 -0.6735413816 0.02206667117 0.7388200521
-0.01317349291 -0.005254384845 -0.06549096203 0.6414559505 0.5515085614 0.5332659471
-0.01299250603 0.03133978399 -0.04467198308 -0.6584565663 0.009921857562 0.7525533251
-0.01289080397 0.024354304 -0.04457373683 -0.662999259 0.04409667044 0.7473201899
-0.01911711152 0.04341758537 -0.06818455887 0.9325614543 0.003074858175 0.3609981706
-0.01974185647 0.01528696219 -0.06573856099 0.9568511241 0.06167078307 0.2839588717
-0.01547070885 -0.010787076 -0.05338822632 0.7613757591 0.5882355269 0.2725544319
-0.01867072678 0.0102280674 -0.0459448967 0.9115815885 -0.3413358139 -0.2291481393
-0.0101306591 -0.01750637118 -0.0452770462 -0.4594011601 -0.8759029145 -0.1474607017
-0.01690729157 0.05942267672 -0.04902949905 0.8219307776 -0.03535404485 -0.5684891278
-0.001268963893 0.0241910216 -0.08115148671 -0.208312828 0.009128829165 -0.9780196471
-0.01501191139 0.0002235809962 -0.06802407583 0.749121328 0.3842538976 0.5395981636
-0.01531835556 0.04360305532 -0.0468770078 0.7289828857 -0.006739078254 -0.6844987489
-0.01720848833 0.05601944406 -0.04943696158 0.8523729282 -0.01028818992 -0.5228331898
-0.0154880174 0.05200863139 -0.04707495244 0.7600133056 -0.006558182251 -0.6498744229
-0.01539899508 0.04779983393 -0.04697145208 0.7475334282 0.01070268638 -0.6641379572
-0.01524604066 0.03941722488 -0.04679155604 0.7420246543 -0.002270615353 -0.6703687469
-0.01997540061 0.05915470886 -0.06533535639 0.9659775526 -0.03276179249 0.2565424583
-0.01513472271 0.0317679739 -0.04665785217 0.749945186 0.00169475327 -0.6614978049
-0.01503163687 0.02414748319 -0.04654939651 0.7328290043 -0.03161407102 -0.6796780127
-0.01512628333 0.01999094264 -0.04653716151 0.7897355611 -0.181201344 -0.586074924
-0.01851435852 0.01225163507 -0.04803650856 0.9098732106 -0.2821063125 -0.3042150048
-0.02052441491 0.003376961576 -0.04920344798 0.9941939586 -0.09728983119 -0.04596804778
-0.0186840601 -0.007481004477 -0.04805937004 0.9109245024 0.3934549626 0.1241359873
-0.018031847 -0.008510336876 -0.04896153927 0.8527478947 0.4983986684 0.1562683441
-0.006897953987 -0.01910480309 -0.04448488235 -0.4441460639 -0.8892066901 -0.1097530694
-0.009766459465 0.04826933543 -0.07868800863 0.467837342 0.02035595711 0.8835801358
-0.01741643206 0.05155706469 -0.04969922702 0.850699005 0.01840198812 -0.5253309144
-0.0173645312 0.04737938309 -0.04960170364 0.8227379065 -0.01156278141 -0.5683032987
-0.01720504036 0.04351475754 -0.04934797745 0.8228281189 -0.0169752192 -0.5680367319
-0.01723433304 0.03630268478 -0.04937921206 0.8265693471 0.009617241682 -0.5627527193
-0.01714977996 0.0280439771 -0.0492489624 0.8208186814 0.0118568108 -0.5710657653
-0.0171128734 0.0239266971 -0.04919576073 0.819837857 -0.008111350789 -0.5725382906
-0.01264140928 0.003533734381 -0.07255301666 0.6106917192 0.3560256974 0.7073198193
-0.01715294997 0.01981142267 -0.04916820272 0.8308163311 -0.1476887177 -0.536593204
-0.0205620485 0.03161029625 -0.0609874273 0.9996134099 0.01533247423 0.02319366246
-0.01781674652 0.01594691238 -0.04915908508 0.8576145024 -0.2691796215 -0.4382233411
-0.006903312047 0.05559939702 -0.07996624756 0.4129681256 -0.01778677912 0.9105717752
-0.01257748871 -0.01509133835 -0.04903726196 -0.6299748066 -0.75559398 -0.1794699987
-0.006081712484 -0.01910778236 -0.04648911858 -0.3566441864 -0.9124727199 -0.2004955355
-0.01283340375 0.03565392431 -0.07666860072 0.6178101101 -0.01562111688 0.7861721494
-0.01870668411 0.01425315762 -0.05020995712 0.9099504506 -0.2121895146 -0.3563225889
-0.009150725484 -0.0171214788 -0.04975472736 -0.4661432244 -0.8522982189 -0.2372725025
-0.01906798776 0.05180426089 -0.05295253499 0.905949019 -0.008561764192 -0.4233002141
-0.01931358692 0.04787171718 -0.05362939562 0.9362334214 0.00481256138 -0.351345727
-0.01927631972 0.04413930384 -0.05354315609 0.9345804997 0.02756058982 -0.3546825389
-0.01924730725 0.04002464422 -0.05345838377 0.9339930403 0.01120314355 -0.3571155139
-0.01930130672 0.036076478 -0.05357907915 0.9502974489 -0.005098752379 -0.3113017208
-0.01856565666 0.03194693629 -0.05176245753 0.9014366759 0.009223140623 -0.4328127228
-0.01854068565 0.02784915479 -0.05170304362 0.9025639137 0.0004573058547 -0.4305556557
-0.01851975695 0.02375930532 -0.05165196101 0.9033419599 -0.004876029461 -0.4288933759
-0.01851542664 0.0203555336 -0.05161790657 0.9156917101 -0.03988375154 -0.3998974598
-0.01936803899 0.01938574246 -0.05360974176 0.9429016834 -0.07244669204 -0.325096743
-0.01645166545 -0.0006730673711 -0.06504962073 0.7970440246 0.3823006215 0.4675115588
-0.01951758385 0.01552181636 -0.05321303219 0.9578673996 -0.1202454835 -0.2608276606
-0.02006766235 0.01144798533 -0.05331517114 0.9765851564 -0.1122107852 -0.1835488273
-0.0179149545 -0.001119535526 -0.06163266691 0.8560897344 0.3657246626 0.3651791859
-0.0204773017 0.007395598359 -0.05339253489 0.9893879523 -0.1097195788 -0.0952527893
-0.01028938293 0.03585889689 -0.07839444733 0.5126377785 -0.01934062783 0.8583871202
-0.02051040459 0.00336049668 -0.05339066781 0.9919552644 0.1037947053 0.07246663081
-0.01745992533 -0.008148992618 -0.05270250638 0.8425828158 0.4855707296 0.232970524
-0.01441113377 -0.01305482769 -0.05060146332 0.7098829043 0.6780303895 0.1906332947
-0.0094098924 0.05524921163 -0.07889027405 0.4232236174 -0.02662727365 0.9056338984
-0.01949949773 0.02769457849 -0.05403062248 0.9533182888 0.0001994649083 -0.3019672174
-0.01948564974 0.02362694359 -0.05397936948 0.9538644777 -0.0009697782261 -0.3002359367
-0.01182179197 -0.0107269961 -0.06043827057 -0.5620605135 -0.6979272272 -0.4438305586
-0.01183935356 -0.01450400829 -0.0528751208 -0.5548325033 -0.7848064049 -0.2761155556
-0.02017872514 0.05623428811 -0.05685472404 0.9721646063 -0.003979127181 -0.2342651165
-0.02034159003 0.02346582709 -0.05765332201 0.9887764158 0.02034745864 -0.1480107448
-0.02022883715 0.04813906315 -0.05706521933 0.994002357 -0.007661894864 -0.1090899157
-0.00848133719 -0.01639046264 -0.05321409607 -0.4235796321 -0.8492381104 -0.3152378897
-0.02028162766 0.04381545003 -0.0572815965 0.9942144803 -0.0002052255099 -0.1074128723
-0.02027237002 0.03972867584 -0.05719614855 0.9907881371 0.02230319397 -0.1335718345
-0.00995713075 0.04411249924 -0.07858012899 0.4775031227 0.005315732785 0.8786139714
-0.02034603861 0.02750645807 -0.05770564651 0.9906017764 -0.01546678668 -0.1359003278
-0.02052873654 0.05589539719 -0.06114213435 0.9976289388 -0.003942561442 0.06870921794
-0.02034190602 0.01943222004 -0.05761021169 0.984261002 -0.02341208213 -0.1751632218
-0.0020756495 -0.006264994144 -0.07102187347 -0.2040016694 -0.6451536802 -0.7363151824
-0.01933201324 0.003340578106 -0.06145995416 0.937432095 0.2191225644 0.2705667551
-0.02050008074 0.007359090169 -0.05756447347 0.9910617917 0.07738886341 0.1086622696
-0.01889744377 -0.00336769104 -0.05581461716 0.9226905446 0.3185419509 0.2171938867
-0.01786558151 -0.004892761201 -0.05716256857 0.8496259158 0.4338913497 0.299790093
-0.008152512232 0.03604519653 -0.0795018336 0.449335155 -0.002447323688 0.8933599102
-0.01597882121 -0.008242465292 -0.05699407087 0.7674210988 0.5552413091 0.3205806386
-0.01480758286 -0.01022523499 -0.05634652328 0.7126855862 0.6131451977 0.3407817803
-0.008285587502 -0.01486930599 -0.05698343201 -0.3964691632 -0.8262063224 -0.4002440699
-0.02051914469 0.05933863831 -0.06124346352 0.9946254743 -0.06312713441 0.08206784302
-0.01884649849 0.0152828083 -0.06832229106 0.9160589181 0.08089827308 0.3927996027
-0.02054558224 0.04768196954 -0.06092301856 0.9997964872 -0.007238653329 0.01883045613
-0.01637349097 0.05583721627 -0.07296365356 0.792935917 0.002134509371 0.609301301
-0.02055370394 0.03953169039 -0.06073800574 0.9996242844 -0.02373345559 0.01371178853
-0.02054758562 0.02315675735 -0.0614535626 0.9982020259 -0.02835278953 0.05280941993
-0.02055622885 0.03547642051 -0.06065844938 0.9999039182 0.01285337895 -0.005190865827
-0.01812962532 0.05160126114 -0.07032862854 0.8925200812 0.02758039945 0.450163555
-0.0006662901044 -0.01780425262 -0.05481438065 -0.1606590993 -0.9159055415 -0.3678392214
-0.01998512374 0.007335875617 -0.06160350545 0.9682995971 0.1318094326 0.2121842683
-0.01883468437 0.0002229363124 -0.0604322052 0.9295937579 0.2619021123 0.2593505904
-0.01647771687 -0.004724110603 -0.06088568454 0.7883256385 0.4838558046 0.3800345353
-0.01522460651 -0.007457259893 -0.0599390583 0.7341535948 0.5628380758 0.3797786192
-0.01038948441 -0.01309774303 -0.05826558685 -0.5268482334 -0.7428110315 -0.4131134352
-0.005011408329 -0.0161313343 -0.05717375183 -0.2871224363 -0.8602786124 -0.4212854324
-0.002264022112 -0.01624433327 -0.05806806183 -0.2424701997 -0.8814365928 -0.4053118985
-0.02000502586 0.05571900389 -0.0652299508 0.9676032343 -0.003298925299 0.2524541506
-0.020061011 0.04752634133 -0.06500136948 0.9814522345 -0.006949322933 0.1915808402
-0.02010727353 0.03939838749 -0.06480955844 0.9814181494 0.001854889697 0.1918722893
-0.02014571042 0.03132346408 -0.06465419854 0.9826211982 -0.006583359113 0.1855053645
-0.004898340225 -0.01468472672 -0.06003743744 -0.2946987981 -0.8334011586 -0.4675415781
-0.01986312167 0.01927602556 -0.06580190277 0.9624099272 0.02437714106 0.2705048741
-0.01881649971 0.004671001434 -0.06412218475 0.9174681904 0.2229658668 0.3294515774
-0.01778864932 0.003173466742 -0.06547703743 0.8409182637 0.306553388 0.4459613146
-0.01542127673 -0.00382188789 -0.06392854818 0.7604719612 0.4582108059 0.4601361251
-0.001675459266 -0.01480943298 -0.06085988617 -0.1924694617 -0.8501313491 -0.4901348749
-0.01141124153 -0.007959113598 -0.0645843811 -0.5673315105 -0.6275405569 -0.5332239742
-0.008026441574 -0.01080579599 -0.06396516037 -0.404350088 -0.7175090226 -0.5671699999
-0.01892186546 0.05911833954 -0.0686321106 0.9315729803 -0.0586354305 0.3587947445
-0.01896893311 0.05568202527 -0.06852285385 0.931256221 -0.008252620775 0.3642715266
-0.01902215195 0.05157600784 -0.06840045802 0.933640572 0.01192326928 0.3580127343
-0.01907156213 0.04748836327 -0.06828773371 0.9335447634 0.0006462899499 0.3584602586
-0.01915562852 0.03936258761 -0.06809027354 0.9299918314 0.002373999683 0.3675725202
-0.001207973033 0.003465165615 -0.07735087204 -0.1660957726 -0.3964560702 -0.9029035268
-0.01919692993 0.02754224052 -0.06799602509 0.930655369 0.02899940467 0.3647459646
-0.01819804382 0.006665163279 -0.06677009201 0.8773727919 0.2266319543 0.4229124512
-0.009088218689 -0.008458755334 -0.06604426829 -0.4099877317 -0.6849555529 -0.602283945
-0.005265865088 -0.01111125803 -0.06512506866 -0.3043448985 -0.7566616297 -0.5786513293
-0.01862270164 0.01263123894 -0.06825888062 0.8929004425 0.1202759854 0.4338922529
-0.017649019 0.011149212 -0.06962446785 0.8395386722 0.1694609463 0.516195511
-0.0169558204 0.007337593344 -0.06930908118 0.811866745 0.2432263359 0.5307667452
-0.01588687718 0.003513886452 -0.06893538189 0.7794556496 0.3068993843 0.5461333704
-0.01295587703 -0.001061779848 -0.06938972582 0.6339664079 0.4542488475 0.6258950217
-0.005943914096 0.01977409299 -0.08027976481 0.2937354261 0.05961336527 0.954026072
-0.01179714441 -0.003731342971 -0.06839226532 0.5585300252 0.5315095147 0.6368216757
-0.001829066575 -0.01121351051 -0.06594945526 -0.2170145707 -0.7521150957 -0.6222761114
-0.01806289482 0.05571143468 -0.07045359294 0.9064433443 -0.002207854346 0.4223216653
-0.01824876213 0.04343584569 -0.07010826874 0.8836568607 -0.01363698405 0.4679365183
-0.01809224606 0.0272902902 -0.07041368993 0.9021800799 0.005339382535 0.4313265521
-0.01812635167 0.02327883434 -0.07035526911 0.8974154913 -0.005630306813 0.4411504683
-0.01811765353 0.01927805487 -0.07029971568 0.8781725553 0.03908470832 0.4767445319
-0.008801632786 -0.005059134102 -0.06956695557 0.4145152818 0.5923978751 0.6908269238
-0.007686507384 0.04435994975 -0.07967624919 0.430467068 0.01144538478 0.9025337149
-0.01229999489 0.01947218768 -0.07697588772 0.5912595832 0.04367887675 0.8052976226
-0.004585556602 -0.007899440479 -0.06886199951 -0.2511899507 -0.6831179548 -0.685750296
-0.01647266748 0.05171272744 -0.07283703444 0.7977988835 0.005202627864 0.6029012143
-0.01628521451 0.04342440345 -0.07305743547 0.8011625403 -0.007594394105 0.5983986206
-0.01622546927 0.039485226 -0.07313048935 0.8006826978 0.004129576794 0.5990744227
-0.01602307425 0.03557655602 -0.07341566544 0.7790460893 0.01400743882 0.6268101645
-0.01597537973 0.02736897553 -0.07351246558 0.7769085294 -0.004402192466 0.6295980922
-0.01602716202 0.02334472508 -0.07345282745 0.7886658772 -0.004888409195 0.6148026005
-0.01603131612 0.019331874 -0.0733963462 0.7866996506 0.02059134897 0.6169924279
-0.01592227852 0.01550084484 -0.07316137886 0.782702974 0.08404160519 0.6166952758
-0.01569415744 0.01134445413 -0.07256838226 0.7860974712 0.1823946384 0.5905784974
-0.00850045929 -0.0004088560343 -0.07318018494 0.4139052175 0.480868883 0.7729473386
-0.01297960587 0.05951562881 -0.07648863831 -0.6387129941 0.0927529162 -0.7638341494
-0.01281326887 0.05620885934 -0.07661584303 -0.6061660647 0.01407987298 -0.7952134677
-0.01298460335 0.05204556529 -0.07648865509 0.6001921169 0.0007960176731 0.7998554802
-0.01273288304 0.04814118086 -0.07671595655 0.6077491256 -0.01201327471 0.7940382117
-0.01405711555 0.01137720744 -0.07437864176 0.6895363515 0.1771273711 0.7022574417
-0.005034487804 -0.001605627616 -0.07386592865 0.2885771501 0.5165083613 0.8061900155
-0.001194013476 -0.004878080368 -0.07231699371 -0.1882702077 -0.5893953622 -0.7856000483
-0.01258664926 0.04384901619 -0.07685688146 0.6110799356 -0.000188812021 0.7915688705
-0.01271864669 0.03974262937 -0.07675812022 0.6114051887 0.006209972112 0.7912933284
-0.00864464283 0.01963758469 -0.07924095917 0.3992732137 0.0560655485 0.9151161429
-0.01267273903 0.02734842355 -0.0767621776 0.5875300451 -0.007143668923 0.8091708189
-0.01228394741 0.02351502652 -0.0770346561 0.5912241735 0.01647949235 0.8063388884
-0.01277571344 0.01542510907 -0.07630012639 0.6487624294 0.09030636627 0.7556137045
-0.008894914627 0.007724862957 -0.07691653595 0.4321731234 0.276839952 0.8582459044
-0.007512664795 0.004084982753 -0.07613294601 0.3716403592 0.4037956654 0.835962023
-0.00391215086 0.0006887326241 -0.07559247589 -0.2391220136 -0.4795695798 -0.8442947831
-0.009245337725 0.01555004962 -0.07857472356 0.4735487049 0.1464019532 0.8685148774
-0.004027336915 0.05980643845 -0.08069373576 0.3103100559 0.001876753412 0.9506335503
-0.007217557748 0.05136183929 -0.0798494695 -0.4079782478 -0.0006699866633 -0.9129914022
-0.008328302701 0.03191990598 -0.07942550913 0.4568490664 -0.004066793502 0.88953493
-0.00625968504 0.01022544384 -0.07880542755 0.3396946271 0.2588299232 0.9042204549
-0.003307782729 0.05613918686 -0.08091972605 0.3165381835 0.0002752234742 0.9485797292
-0.005359093189 0.01570404085 -0.0801476415 0.2425936211 0.1194824788 0.962742059
-0.003955559611 0.0123407917 -0.07992290497 0.252328846 0.1844199219 0.9499049668
-0.0009050496221 0.008996404648 -0.07948417664 -0.1129820296 -0.2844000403 -0.9520250407
-9.808120628e-05 0.01593610636 -0.0808761495 -0.1322412054 -0.1323929879 -0.9823361748
