# .PCD v0.7 - Point Cloud Data file format
VERSION 0.7
FIELDS x y z normal_x normal_y normal_z
SIZE 4 4 4 4 4 4
TYPE F F F F F F
COUNT 1 1 1 1 1 1
WIDTH 345
HEIGHT 1
VIEWPOINT 0 0 0 1 0 0 0
POINTS 345
DATA ascii
-0.02051516581 0.03477874923 -0.06133056808 0.9972261015 0.006122056499 0.07417966704
-0.01866226959 0.008593943675 -0.001731451856 0.9263245605 -0.3734833547 -0.0493253718
-0.01959740078 0.03465960622 -0.06668638372 0.9520237287 -0.01137836862 0.3058126105
-0.01459752928 0.04977082552 -0.04618466187 0.7474132539 0.00797480223 -0.6643115462
-0.01700317526 -0.01151352811 -0.001845609978 0.8243419183 0.5643139625 -0.04483473595
-0.02001979065 0.004778635979 -0.04131549899 0.9670821217 -0.2494922309 -0.05005793251
-0.02050093937 -8.694827557e-09 -0.006276887149 0.9993604101 7.619872537e-05 -0.03575982362
-0.0147018055 0.01434129925 -0.002025011015 0.7196547397 -0.692848497 -0.04536536059
-0.009567615827 -0.01820702871 -0.01065355333 -0.4994038083 -0.8663025005 -0.01076168129
-0.008312964916 0.01626265097 -0.07915037918 0.3977511374 0.1254568125 0.9088754705
-0.01986032322 0.005199281965 -0.001771242874 0.9572071887 -0.2865332498 -0.04065826687
-0.01898480906 0.03499668121 -0.05271068573 0.9060686587 0.01594173025 -0.4228302814
-0.01700378942 0.01151351142 -0.001845852435 0.824064902 -0.5646873032 -0.04522484916
-0.02049517894 -2.361834049e-09 -0.001697023593 0.9973634721 5.022093723e-05 -0.07256791343
-0.01996214116 0.009453540385 -0.05118358374 0.9778140596 -0.1481432749 -0.148098734
-0.01986153739 -0.005199265344 -0.001771727485 0.9571039505 0.2868607741 -0.04077896844
-0.004079479814 0.02016018486 -0.001550264001 0.4001947423 -0.9163800966 -0.009575323591
-0.02052319082 0.009381971399 -0.05619158554 0.9978360998 0.0311393223 0.05790907144
-0.01915621392 0.01455001569 -0.05160434341 0.9517361621 -0.1688333881 -0.2563075589
-0.01866095352 -0.00859398365 -0.001730932558 0.9263301618 0.3735377425 -0.04880559612
-0.00981764698 0.01808805418 -0.01612673569 0.5601422914 -0.8281896421 -0.01850756716
-0.01974888611 0.04478631465 -0.06625796 0.9713836232 -0.003529686011 0.2374897849
-0.01826488558 -0.008875389417 -0.04583669917 0.8944574353 0.4367617611 0.09583872082
-0.01213119284 -0.01661122131 -0.01156972249 -0.5825956467 -0.8124381905 0.02294556816
-0.01470239372 -0.01434127693 -0.00202524122 0.7198389581 0.6926479985 -0.0455041157
-0.01181333876 0.01680834579 -0.001363030493 -0.5641589645 0.8239570253 0.05309880579
-0.01995434501 0.00484045499 -0.006274151694 0.9751358828 -0.2198728816 -0.02767536736
-0.01227054914 -0.01652199046 -0.01620183659 -0.5934302484 -0.8045969866 0.02154598553
-0.01869056797 0.00855029885 -0.006343918641 0.917788278 -0.3949334625 -0.04113680751
-0.006171755632 -0.01962011846 -0.02181188329 0.4492333094 0.8934060527 -0.003880569017
-0.01996025311 -0.004840369853 -0.006276420246 0.9751075307 0.2199560207 -0.02801165082
-0.02025048659 0.004747859028 -0.04632783339 0.9787315284 -0.1918973334 -0.07252591782
-0.0185425574 -0.008968146642 -0.03590826925 0.9133923664 0.4068997832 0.01212235042
-0.01181701756 -0.01680814743 -0.001364460975 0.5643952972 0.8238179493 -0.0527440514
-0.009831030369 -0.01808728409 -0.01613123989 -0.5597012204 -0.8284889121 0.0184571506
-0.01225115458 0.01652302043 -0.01619516214 0.593655835 -0.804421029 -0.02189880578
-0.009146551132 0.01839835167 -0.001902149975 0.4760844072 -0.879139475 -0.02138739684
-0.01467472458 -0.01437337957 -0.01594529642 0.7336904309 0.6794360954 0.008058778162
-0.01461808888 -0.0144232955 -0.006329143127 0.7232285729 0.6902472071 -0.02234333064
-0.02052202201 0.02939464474 -0.06123956704 0.9979804384 -0.01493196197 0.06174205316
-0.01697687095 0.01156332588 -0.006125618628 0.826208094 -0.5633626988 -0.001629411576
-0.01868547535 -0.008550452789 -0.006341973543 0.9177498036 0.3950484158 -0.04089067432
-0.009338701566 -0.01831093089 -0.005901570479 -0.4883943014 -0.872578162 0.00885198223
-0.01503299945 -0.01396472291 -0.04113661521 0.7406731827 0.669871991 0.05171800627
-0.01194641709 0.01671761513 -0.006095672131 0.5696240408 -0.8218418169 -0.01022155012
-0.0169772813 -0.011563291 -0.006125761168 0.8265798824 0.562816009 -0.001959084729
-0.009570530256 0.01820686086 -0.01065459538 0.4998924997 -0.8660196238 0.0108397423
-0.01075094306 -0.01380727184 -0.05620857668 -0.5364277602 -0.7597564721 -0.3674443649
-0.009146029949 -0.01839838123 -0.001901949763 -0.4762088515 -0.8790843095 0.02087837487
-0.005699101567 0.01976225233 -0.01627440286 -0.437189119 0.8993590267 0.00436064387
-0.020506616 0.04018289256 -0.06143695903 0.9996223898 -0.005804407716 0.02685864315
-0.01461725203 0.01442331791 -0.006328826745 0.7229100462 -0.6905829653 -0.02227629278
-0.02052299702 0.02001158512 -0.06111556172 0.9970323409 0.04330705081 0.06364754932
-0.01732728163 -0.01101272265 -0.04132437706 0.8069680669 0.5892783727 0.03941495218
-0.01196286011 -0.01671673298 -0.006101817131 -0.5697166646 -0.8217778149 0.01020514834
-0.02052304867 0.05905596651 -0.06103514535 0.9980087619 -0.06223743905 0.01024755058
-0.01716450174 -0.01128722749 -0.01142216042 0.8300742757 0.5576407145 -0.003678348757
-0.004097617149 -0.0201590414 -0.001557136059 -0.4002803819 -0.9163479594 0.009057219398
-0.009340316772 0.01831083616 -0.005902171135 0.4884404696 -0.8725522577 -0.008858062464
-0.02051774955 -2.855435014e-08 -0.02123031425 0.9988682204 -0.01394996 0.04547171613
0.0001672573453 0.03477587032 -0.08119156647 0.1486638647 -0.03453522824 0.9882845609
-0.004761873404 0.02003389613 -0.005780375163 0.4081764267 -0.912888951 -0.005076209449
-0.0171685979 0.01128711346 -0.01142366668 0.829616685 -0.5583205056 -0.003790642515
-0.01511285655 0.01393612051 -0.03639943949 0.707820643 -0.7055688862 -0.03409522354
-0.005687060475 -0.01976300001 -0.01627036524 0.4358487342 0.9000106092 -0.004096860367
-0.01886681331 0.0006683197726 -0.06060764001 0.9193610914 0.2616754543 0.2937705571
-0.01871806876 0.008507112741 -0.01090934308 0.9199679183 -0.3918078393 0.01206840196
-0.01993234507 0.004942678558 -0.01135521465 0.9760068462 -0.217730952 -0.001966879109
-0.01910393181 -0.005283577871 -0.05082891057 0.9105189018 0.3880998638 0.1425967225
-0.005933780193 -0.01911664486 -0.04645532131 0.3481541522 0.9158490021 0.2000232279
-0.02050759284 -1.593430837e-08 -0.01156641626 0.9996810033 2.886347734e-05 0.02525649862
-0.01495227369 0.01410287539 -0.026081755 0.7105619825 -0.7036312103 0.002188347855
-0.01994172647 -0.004942524089 -0.01135866377 0.9760763111 0.2174198336 -0.001910707099
-0.00476438427 -0.02003373782 -0.00578131024 -0.4079265374 -0.9130009569 0.005019234327
-0.01210363897 0.01661269124 -0.01155985514 0.5827559914 -0.8123222433 -0.02297884888
-0.01870974859 -0.008507363319 -0.01090628417 0.9198454088 0.3920942191 0.01210566903
-0.007460056782 -0.01914801931 -0.04094527721 0.452306936 0.8883061052 0.07956569044
-0.01169579601 -0.01689941184 -0.03618888601 -0.62798276 -0.7781803974 -0.008539455512
-0.01469574753 0.01434817028 -0.01096125889 0.7270728288 -0.6864389576 0.01290965517
-0.0205130949 -2.237161001e-08 -0.01605162462 0.9996993988 0.000748163569 0.02450616715
-0.01469601838 -0.01434818395 -0.01096135791 0.7276637082 0.6858156714 0.01274333688
-0.005048157835 0.0001333035588 -0.07490921631 0.3143940084 0.4802472787 0.8188522203
-0.01707827536 0.0448518912 -0.07202810796 0.803710148 0.004292474112 0.5950055233
-0.005203642209 0.01990724373 -0.01066056983 -0.4113026463 0.9114966277 0.002007666438
-0.01874519682 0.008457412302 -0.01617649543 0.921828953 -0.3875969172 0.0001053491399
0.001411039591 0.03842593765 -0.08112361908 0.1159442244 -0.04728551669 0.9921295363
-0.005277651787 0.03493449656 -0.08049214172 0.2508373683 -0.04240184121 0.9671001492
-0.01994156286 0.004918133709 -0.01585073545 0.9764667115 -0.2145753248 0.02168389724
-0.005195742448 -0.0199077371 -0.01065778478 0.4106673335 0.9117833471 -0.001862565451
-0.01497141266 0.01407620702 -0.02119880622 0.7384291197 -0.6743216049 -0.003578871713
-0.01811107826 0.002006375551 -0.06398065948 0.8877615666 0.292036892 0.3558003015
-0.02011444961 0.0397815823 -0.05646141773 0.9853321732 -0.005739675096 -0.1705507686
-0.01253104401 -0.01633357 -0.02607183552 -0.6397763861 -0.7683840835 -0.01649472842
-0.01995112016 -0.004917964644 -0.0158541104 0.9764854908 0.2143629162 0.02290472435
-0.01867224579 0.004936443615 -0.06464740601 0.9227156936 0.2024761567 0.3280231011
-0.0201296428 0.04455702273 -0.05656193161 0.9838331916 -0.02936428748 -0.1766634931
-0.01873776221 -0.008457634389 -0.0161738863 0.9217708705 0.3877350321 8.495701953e-05
-0.01962541008 0.02996148554 -0.06660144107 0.9525912143 0.0004359992724 0.3042528363
-0.01989348617 -0.005104741262 -0.02119270545 0.9769527135 0.2121123003 0.02391166242
-0.01467834881 0.01437317753 -0.01594652925 0.7337298804 -0.6793777233 0.009293633521
-0.01890381336 0.02983880639 -0.05251677608 0.9061803813 -0.002168400507 -0.4228858175
-0.01714832242 0.01132842191 -0.01637101285 0.8122064496 -0.5833441567 -0.005502555262
-0.02008705902 0.02960334682 -0.05628527578 0.9601662829 -0.01470354291 -0.2790421383
-0.01714649709 -0.0113284421 -0.01637037738 0.8114904025 0.5843320912 -0.006271678476
-0.01901122546 0.04490288401 -0.05279163885 0.9377025999 -0.007202088596 -0.3473643102
-0.01995203686 0.004889793773 -0.02104170005 0.9776835603 -0.2090498011 0.02080952999
-0.01713081551 0.01136852537 -0.0212701228 0.8146288873 -0.5799713707 -0.003603484606
-0.01898450394 0.04947273407 -0.05273854065 0.9109105477 0.0001365502372 -0.4126038723
-0.01877138615 0.008408244689 -0.02138907083 0.9232234718 -0.3841756786 -0.008213954931
-0.01870221176 -0.008552870846 -0.02107089386 0.9097632479 0.4150372973 -0.008653008756
-0.01712776484 -0.01136859962 -0.02126909746 0.8101331746 0.5862052475 -0.006902696888
-0.01254839802 0.01633265829 -0.02607725525 0.6155965354 -0.7879479245 0.01337811012
-0.01848662281 -0.009065027714 -0.02644805431 0.8901700349 0.4549725278 -0.02443988185
-0.0149690015 -0.01407635512 -0.02119803429 0.7347969627 0.6782487341 -0.007216523174
-0.01371665033 0.01004861164 -0.07431534322 0.6499879999 0.2374142451 0.7219072491
-0.0123951114 0.01643434779 -0.02078391711 0.6050092236 -0.7960963788 0.0139425591
-0.01239247735 -0.01643448639 -0.02078307724 -0.6044446746 -0.7964999974 -0.01530978431
-0.01004417483 0.01797161802 -0.02153089778 0.5703541102 -0.8212471629 -0.01578880615
-0.01964756584 -0.0001932553095 -0.0563754703 0.9557055276 0.2264323271 0.1880301725
-0.01806085396 0.01700860596 -0.05007367706 0.8937995587 -0.1814995624 -0.4100978636
-0.01975210269 -0.005561362644 -0.02611547422 0.947392285 0.3200679581 -0.002088180398
-0.01006196594 -0.01797059759 -0.02153667259 -0.5696294006 -0.8217586909 0.01532970508
-0.00802080822 -0.007552314758 -0.06774068451 -0.3907235046 -0.6545032851 -0.647271653
-0.006188287099 0.01961909676 -0.02181715075 -0.4509310932 0.8925432645 0.005260246115
-0.01731428501 0.01109813895 -0.02639674759 0.8189235492 -0.5735137023 -0.02112472156
-0.01128892295 -0.005977558057 -0.06674633874 0.5842834964 0.5662321646 0.5813724551
-0.01875252669 0.008463057654 -0.02621827017 0.922487875 -0.3842429036 -0.0370609146
-0.009562189102 0.03457764435 -0.04237348429 0.6252904293 0.002719750697 -0.7803873922
-0.01996287939 0.004861714602 -0.02618197632 0.961193806 -0.2758636574 -0.002389515707
-0.01859013094 -0.004143250159 -0.05574761908 0.8842656586 0.3950712775 0.2489837961
-0.02052192497 -3.378589948e-08 -0.02635833979 0.9997729139 -0.02124256039 0.001695368201
-0.01730241231 -0.01109853881 -0.02639298793 0.8099731452 0.585940417 -0.02484616301
-0.01494446437 -0.01410327514 -0.02607930406 0.7303574617 0.6830535304 -0.003981553662
-0.01023624674 0.01787289238 -0.02611306826 0.5859450794 -0.8103273102 0.006165575289
-0.01024067815 -0.0178726387 -0.02611445363 -0.5847960715 -0.8111482687 -0.007213940911
-0.0143208456 0.02946934199 -0.07536678791 0.6922030981 -0.02033065531 0.7214163399
-0.002144053976 -0.01049564997 -0.06672304281 -0.2260591884 -0.7433900918 -0.6294985423
-0.006602480412 0.01949788793 -0.02651019478 -0.5086933121 0.8609459765 0.001771919007
-0.01886372076 0.008214866843 -0.0312507594 0.9327014085 -0.360646486 -0.001481461662
-0.02052727079 -2.436339855e-08 -0.03646450011 0.9993403436 -0.01728544941 -0.03193886331
-0.01997311004 0.004833927731 -0.03126949596 0.9620714771 -0.2727974943 1.095970876e-05
-0.0205248673 -3.075227141e-08 -0.0314337641 0.9997101805 0.0004226556527 0.02407023769
-0.01976427054 -0.005529531702 -0.0312073077 0.9488295674 0.3157884766 0.0002999426593
-0.006545364062 -0.01950139872 -0.02649285825 0.5070742958 0.8619013571 -0.001307383691
-0.0150349263 0.01401902068 -0.03126483154 0.717481012 -0.6960260047 -0.02772721117
-0.01729405562 0.01113950125 -0.03120131874 0.8218603796 -0.569436265 0.01696633444
-0.01267841403 0.01623311996 -0.03131134033 0.6253555217 -0.7801232254 -0.01839088674
-0.01851686605 -0.009012645404 -0.03156306203 0.8917081299 0.4521813237 -0.01971450123
-0.01893790654 0.02001754788 -0.05251598413 0.9462613396 -0.03974443235 -0.3209514874
-0.01728206094 -0.01113991769 -0.03119772275 0.8058609372 0.5917437991 0.02067428977
-0.01502905989 -0.01401932216 -0.03126307678 0.7350401092 0.6777195513 -0.02030388172
-0.01041561222 0.01776129913 -0.03139164448 0.5877567119 -0.8090376528 0.0003522166736
-0.01266824087 -0.01623365084 -0.0313083299 -0.6486332162 -0.7610115427 0.01167830217
-0.01042839909 -0.01776057434 -0.03139535666 -0.5932216155 -0.8050391103 0.0003818535923
-0.01846264982 0.01993820333 -0.06968021202 0.9087904731 0.01087466263 0.4171110376
-0.006957909902 0.01938128281 -0.03113808695 -0.5121901666 0.8588029618 0.01089523247
-0.00689785862 -0.0193849589 -0.03112061373 0.5094999351 0.8604485376 -0.006174969071
-0.01733986187 0.01107478809 -0.03629214668 0.8236325084 -0.5668634981 -0.01718329552
-0.01979923153 0.0497462101 -0.06600649425 0.9714894701 -0.002717998338 0.2370671254
-0.02050225544 -3.458559513e-07 -0.046387784 0.9994748067 0.03112682535 0.009012855352
-0.01977613068 -0.00549798729 -0.03625410175 0.9489135088 0.3154584449 -0.00700872985
-0.01884123929 0.008270580212 -0.03599201711 0.9096993442 -0.4145120338 -0.02503751134
-0.01998311424 0.004806388272 -0.03631209564 0.9630649104 -0.2692371417 -0.004164115218
-0.01732834601 -0.0110751946 -0.03628887749 0.8181284219 0.5747931766 0.0166939921
-0.01176117379 0.05020920127 -0.07744151851 0.5891759324 0.02437317113 0.80763709
-0.01280586386 0.01613466883 -0.03649127483 0.6846145908 -0.7143229391 -0.1450710201
-0.01825549698 0.01528782908 -0.06959201558 0.9014568288 0.07878807314 0.425638374
-0.01511260049 -0.01393615103 -0.0363993632 0.7408539676 0.6716059556 -0.008991054343
-0.007270865917 0.01926819865 -0.03570972697 0.6859409825 -0.701394757 -0.1937275495
-0.0105887963 0.01765102895 -0.03661832682 0.6780522424 -0.6989810317 -0.2273118431
-0.007246902625 -0.01926965904 -0.03570307032 0.5233901711 0.8520750866 -0.005547567124
-0.01891120768 0.008222013891 -0.04102404451 0.9287895517 -0.3689691546 -0.03480993501
-0.02052653384 -5.779787898e-08 -0.04144852853 0.9992159572 0.03260016711 -0.02246552808
-0.01975777459 -0.005467289597 -0.04124658442 0.9465412117 0.3218336075 0.0219741566
-0.01853828144 -0.008917660475 -0.04092596149 0.9096243546 0.4129953346 0.04492646333
-0.01492493534 0.01439005899 -0.041239429 0.7570851198 -0.6030113319 -0.2513950177
-0.01748435624 0.01100707976 -0.04136575572 0.8627216902 -0.4934931151 -0.1103441466
-0.01190461009 -0.0167006321 -0.04094436155 -0.6156338254 -0.7852707024 -0.0659159841
-0.006283959661 0.04492098672 -0.08010971723 0.3372141379 0.05417130381 0.9398681264
-0.007507716179 0.01917605591 -0.03948249817 0.7224448246 -0.5610471125 -0.4041034681
-0.01054875326 0.01896566741 -0.0417497584 0.6870121474 -0.480420309 -0.5451702817
-0.01286681461 0.01606637001 -0.04015690994 0.754956593 -0.6162903413 -0.2241132704
-0.0201005079 0.03502367528 -0.05637281259 0.9715840725 0.01317918508 -0.2363275252
-0.02009128292 0.05011248457 -0.05646224447 0.9821989933 0.01528421328 -0.1872205397
-0.01073673185 0.05874659856 -0.04307550049 0.6881144486 0.008668575597 -0.7255503852
-0.005462794701 0.05862883123 -0.08036561839 0.3888833649 -0.027300264 0.920882416
-0.01136958253 0.02965482259 -0.07770986652 0.5833288998 -0.01782821223 0.812040362
-0.01049043179 0.05446375275 -0.04292627716 0.6758823052 0.0130064113 -0.7368947976
-0.01022973418 0.04947729397 -0.04276758766 0.6639882919 0.01043762267 -0.7476701173
-0.009995534897 0.04450019964 -0.04262421417 0.6253876198 0.009196653168 -0.7802600506
-0.009785887241 0.03953296566 -0.04249645042 0.6241288101 0.002596921075 -0.7813171472
-0.01215001218 0.05490123367 -0.07716649246 0.586874229 -0.003345573929 0.8096711965
-0.009359151602 0.02962906122 -0.04226502037 0.6271461188 -0.008305700637 -0.7788573432
-0.009186141968 0.02468444697 -0.04217259852 0.7618648976 -0.173527655 -0.6240593167
-0.01663433985 0.0150413475 -0.04632626578 0.8309983693 -0.3414989426 -0.4391129494
-0.0178168726 0.01163475943 -0.04502300644 0.9217734886 -0.3304137685 -0.2028802043
-0.01912518082 0.009123013163 -0.04619605141 0.943968954 -0.2590927674 -0.2044347127
-0.01956144349 -0.005440179765 -0.04615566031 0.9356287946 0.3437873056 0.08005652517
-0.01978644562 0.05914322901 -0.06599836636 0.9730853037 -0.08225602963 0.2152648075
-0.02052608999 0.02469728518 -0.06117206573 0.9982723406 0.04998606643 0.03088247415
-0.01707081646 -0.01072964117 -0.04648891407 0.7935614982 0.5963804071 0.1207913847
-0.01478697463 -0.01370148577 -0.04600224413 0.7673956675 0.6295437519 0.1215670756
-0.01733837557 -0.001679357558 -0.06244415474 0.847801497 0.3813237949 0.3685441427
-0.01491702862 0.0589472374 -0.04649595108 0.7474225014 -0.03639283495 -0.6633514649
-0.01446316079 0.0546602162 -0.04603986413 0.7478199816 0.01082564103 -0.6638132875
-0.01082372153 -0.01561826408 -0.05139626169 -0.549334965 -0.8032396379 -0.230298025
-0.0147563537 0.04463437186 -0.04642724525 0.7413075362 -0.01366800586 -0.6710263202
-0.01521771474 0.03992187743 -0.04691731713 0.7405137023 0.01310587612 -0.6719134563
-0.01547177267 0.03502173805 -0.04713913059 0.7354484794 0.01168037514 -0.6774799651
-0.01304208088 0.03413925298 -0.04471866481 0.7135816103 -0.02156598186 -0.7002400973
-0.01296962802 0.0299412473 -0.04465022659 0.7100041394 -0.0104856114 -0.7041194317
-0.0172456682 -0.006389205668 -0.05670237986 0.8192227897 0.4901254259 0.2977433252
-0.01289991784 0.02505227137 -0.04458268452 0.7210515536 -0.01152024801 -0.6927856385
-0.01287078714 0.02086627674 -0.04453910637 0.7837172874 -0.2586782909 -0.564688193
-0.01399843349 -0.01334460163 -0.05079074707 -0.6754502255 -0.6961226276 -0.2432699738
-0.01551898384 0.01975741196 -0.04703720965 0.7828245198 -0.2488499946 -0.570315221
-0.0124985795 -0.0116482439 -0.05798522949 -0.6265906149 -0.6718734473 -0.3949307181
-0.01752442932 0.05925441074 -0.04990012455 0.8306202701 -0.07966261221 -0.5511114543
-0.01104019952 -0.01674517679 -0.04622280788 -0.572773043 -0.8054200958 -0.1524123046
-0.01596743597 0.02997148459 -0.04765935898 0.7760566189 -0.02274417922 -0.6302529862
-0.01579895437 0.02475855851 -0.04745891428 0.7704994426 -0.07568302758 -0.6329318196
-0.01746364641 0.05505002689 -0.04978731775 0.8396365832 -0.01983172261 -0.5427864322
-0.01731417738 0.04978302983 -0.04953544453 0.8358099937 0.03159596242 -0.5481088848
-0.0176762207 0.04536357193 -0.05006773834 0.8839112846 0.01381289327 -0.4674505803
-0.02051315149 0.004716618836 -0.05130050278 0.9952560288 -0.09349443132 -0.02691149408
-0.02031396198 -9.286031127e-07 -0.05124952364 0.9852995365 0.141702595 0.09542116089
-0.01783314705 0.03965069485 -0.05029003429 0.8701466983 -0.004015543109 -0.4927764188
-0.01777683258 0.03483189011 -0.05020081584 0.8607289869 0.0119773239 -0.508922543
-0.01772756338 0.03002655506 -0.05012360573 0.8514428522 0.01396708953 -0.5242613755
-0.01768007803 0.02454773283 -0.05004918957 0.8496879633 -0.02628338436 -0.526630372
-0.01770330175 0.01975982412 -0.05000974528 0.8735342467 -0.1557631727 -0.4611678152
-0.01634181786 -0.01037621317 -0.05132502861 0.7695648577 0.6028689189 0.2105207742
-0.01883135319 0.05885675812 -0.05235589409 0.9307279162 -0.05448842774 -0.3616304154
-0.0187789526 0.05467944431 -0.05224128151 0.9222059077 -0.04301986322 -0.3842987838
-0.01891929463 0.03971203232 -0.05257199751 0.9203331158 -0.007880513238 -0.3910560747
-0.01882713509 0.02469035149 -0.05233602197 0.9077941976 -0.02398640545 -0.4187294438
-0.02005634291 0.05893596406 -0.05638581501 0.9795438003 -0.09453593625 -0.177642619
-0.01993764114 0.05473796874 -0.05589031777 0.9813694571 -0.002854437425 -0.1921089297
-0.005418979236 0.04980878448 -0.08035959843 -0.4124478148 -0.001750751186 -0.9109795469
-0.01947061431 0.0146225338 -0.06637009335 0.9426133257 0.07552761363 0.3252317602
-0.01783636475 -0.007459691048 -0.05278644562 0.8559887967 0.465296251 0.2253499029
-0.006936997414 -0.01754288737 -0.05179322815 -0.374904447 -0.8732395762 -0.3112865209
-0.003302733898 -0.01919759178 -0.04951226044 0.3057130123 0.9191994134 0.2482176312
-0.0200776825 0.02487356673 -0.05622066371 0.9593468736 -0.0005898500832 -0.2822290349
-0.006436439395 0.03965967321 -0.08007228661 0.2978474472 -0.04629819158 0.9534901025
-0.02007825581 0.020154133 -0.05616963291 0.972847257 -0.007264039499 -0.2313340622
-0.02026979415 0.01476179004 -0.05616659482 0.982265347 -0.07253823321 -0.1728959014
-0.02044037565 0.0046908359 -0.05615748088 0.9858318548 0.1289292577 0.1072977195
-0.01519757166 -0.009950484848 -0.05572588425 0.7361165961 0.6104167594 0.2924444165
-0.005919708729 -0.01647117949 -0.05555369949 -0.3723743175 -0.8567309146 -0.3568606277
-0.02052915833 0.05501325469 -0.06124447979 0.9983196843 -0.05653263176 0.01272279018
-0.02051215376 0.04951676668 -0.0613616521 0.9989109332 0.01387297103 0.04454759384
-0.02049749883 0.04493005498 -0.06154246171 0.997590064 -0.002666835697 0.06933218792
-0.02047954655 0.01466830164 -0.06105721927 0.9977436882 0.01188999023 0.06607693043
-0.020263731 0.009336663306 -0.06097926307 0.9851236694 0.09750235295 0.1415084703
-0.01973268461 0.004675087074 -0.06085334619 0.9578918949 0.1877216092 0.2172641597
-0.0006662901044 -0.01780425262 -0.05481438065 -0.2332065774 -0.9068989568 -0.3509258816
-0.01571942204 -0.005410139635 -0.06143463373 0.7718928796 0.4932811145 0.4010674813
-0.0139648056 -0.009307349523 -0.05945398712 0.6540485057 0.629927137 0.4188225809
-0.01462818031 0.05904041443 -0.07503927155 0.7188865127 -0.03465088069 0.6942632774
-0.01122959161 -0.01045070398 -0.06144173288 -0.5666100188 -0.687023477 -0.4549195849
-0.009357237816 -0.01311982918 -0.05948176956 -0.44164086 -0.7989791868 -0.4081490044
-0.01701697693 0.02491528549 -0.07212244415 0.8028817722 0.01632006521 0.5959148557
-0.005936644506 -0.01379167118 -0.06081585999 -0.3445858953 -0.8105292865 -0.4736062041
-0.002264022112 -0.01624433327 -0.05806806183 -0.2830053666 -0.8737899892 -0.3954731562
-0.01982337475 0.05502314281 -0.06587157702 0.9750219258 0.0007515094107 0.2221073601
-0.01978055191 0.0400518357 -0.06614722888 0.9709639017 0.02580800505 0.2378298728
-0.01964954555 0.02527793777 -0.066529562 0.9530910297 0.01689439214 0.3022119597
-0.01965557885 0.01994018471 -0.06645906162 0.952407325 0.0240717669 0.303876352
-0.01904579462 0.009507158041 -0.06595915059 0.923963273 0.1371740466 0.3570366244
-0.01597584222 -0.0001377817869 -0.06616638692 0.7664796182 0.3940722664 0.5071647107
-0.001675459266 -0.01480943298 -0.06085988617 -0.2072708882 -0.8393755333 -0.5024813359
-0.01743395342 0.004483193159 -0.06701739938 0.8256046412 0.2879556346 0.4852406917
-0.01397452831 -0.004283433119 -0.06551840719 0.668033096 0.518689623 0.5335661699
-0.009922728221 -0.009368717194 -0.06431240845 -0.4826013316 -0.6782025493 -0.5541996543
-0.007103693008 -0.01176497269 -0.06332102585 -0.3698949712 -0.7617581213 -0.5318855844
-0.01428944931 0.000940005827 -0.0693800354 0.7060119758 0.4015859705 0.5833316366
-0.00641885767 -0.01009886971 -0.06575882416 -0.3920579809 -0.7096647028 -0.5853772708
-0.001431923072 0.02002267011 -0.08110502625 -0.2100903511 -0.04609748948 -0.9765946272
-0.01862415028 0.05912788963 -0.06927682495 0.9230745628 -0.054574249 0.3807295666
-0.009447185278 0.05454893208 -0.07886910439 0.4777525608 -0.0302987663 0.8779717965
-0.01857607307 0.05459663086 -0.06939165649 0.9227863872 -0.02002098997 0.3847914287
-0.01846950483 0.04954404116 -0.06962967205 0.9131908259 0.008938080664 0.4074341987
-0.01853792413 0.04478313955 -0.06950335821 0.9186857103 0.01606734686 0.3946623949
-0.01859702158 0.04004574203 -0.06939025879 0.9170125464 0.02031574564 0.3983406334
-0.01785994434 0.007994841099 -0.06809237289 0.8541705855 0.2224858174 0.4699922042
-0.01718726699 0.05921282641 -0.07182591502 0.8231757763 -0.04406796302 0.5660738961
-9.808120628e-05 0.01593610636 -0.0808761495 -0.1890126966 -0.09567533624 -0.97730263
-0.01719597192 0.05527233297 -0.07181216361 0.8216228552 -0.0001495981211 0.5700314565
-0.01835650682 0.03466108608 -0.06991358185 0.8943296786 -0.01277612745 0.4472261135
-0.01840578016 0.02996085803 -0.06982682546 0.907721754 -0.02255675338 0.4189658819
-0.01844814396 0.02527604723 -0.06975345039 0.9102560969 0.006027929514 0.4140018141
-0.01673239092 0.01449760393 -0.07186736004 0.7894146728 0.1171382661 0.6025803689
-0.01612947232 0.009342026055 -0.07125006104 0.768797156 0.207238316 0.6049819942
-0.01492794002 0.004810974294 -0.07083730594 0.7368870499 0.293550125 0.608954678
-0.01698486996 0.04962375689 -0.0721572361 0.792357702 0.0009329636066 0.6100560644
-0.006270787988 -0.005208878211 -0.07068458666 -0.348102224 -0.6058938381 -0.7153443217
-0.01716169214 0.04010435295 -0.07191287518 0.7966300064 0.01416862324 0.6043011526
-0.01680273716 0.03472524293 -0.07241590818 0.7980432962 -0.02320302658 0.6021532338
-0.01679932698 0.02952942727 -0.07243174189 0.7996749222 -0.01876947566 0.600139755
-0.0144003032 0.02475452232 -0.07529124324 0.6715379413 0.002536822583 0.7409658277
-0.01695077372 0.01997264274 -0.07217690531 0.7994815439 0.04395703147 0.5990801619
-0.01108871399 -0.0001880596714 -0.07158149303 0.5645703584 0.4575452585 0.6869589848
-0.009821782112 -0.003860325257 -0.06992449951 0.479141115 0.5520585426 0.6823893005
-0.001984727581 -0.006266164621 -0.07100903829 -0.2163493067 -0.6222907531 -0.7522946206
-0.01495208291 0.05498362296 -0.07469788361 0.7197500723 -0.004707069269 0.6942173125
-0.002758563519 0.05977662849 -0.08099436569 -0.3151465702 0.0126466016 -0.9489587466
-0.01465388317 0.04954031334 -0.07498189774 0.7269169699 -0.002319903205 0.6867214406
-0.01441640997 0.0447784668 -0.07521283875 0.6934701599 -0.01852624228 0.7202471212
-0.01477301285 0.04007438278 -0.07486840474 0.6860752665 0.02319536671 0.7271607138
-0.01244442749 0.003368044138 -0.0726918335 0.596922531 0.3614065764 0.7162881951
-0.01421077156 0.03487768841 -0.07546860027 0.7033796279 0.02025344914 0.710525789
-0.0144278543 0.02005621886 -0.07522369099 0.6733161503 0.04870124611 0.7377489752
-0.0140346967 0.01471702528 -0.07509890461 0.663454732 0.0930839996 0.7424036555
-0.01154206598 0.02017840505 -0.07756793594 0.5935265713 0.05181181437 0.8031449092
-0.01079960918 0.009440305114 -0.07630323283 0.4970827868 0.2547889021 0.8294524208
-0.01057409845 0.004922737019 -0.07479668209 0.4888462209 0.3337923655 0.8059851296
-0.009145795822 0.002037289858 -0.07426725006 0.4315939361 0.4077400807 0.8046581267
-0.007165247679 -0.001369443178 -0.07325007248 0.3668604324 0.5049045901 0.7813352533
-0.01212250805 0.05878950729 -0.07717237701 0.5890221745 -0.0544601889 0.8062797069
0.002329760551 0.03994831848 -0.08104528046 0.1088864121 -0.03697344989 0.993366354
-0.01086952865 0.04470581007 -0.07803058147 0.5989012751 -0.002670606739 0.800818413
-0.005595421791 0.03008194113 -0.08042078972 0.2975358094 0.006032039336 0.9546916029
-0.01105083529 0.03989125379 -0.07791375987 0.5910401959 -0.003566737772 0.8066342202
-0.01121088684 0.03510236168 -0.07781114006 0.587807522 0.0103692418 0.8089343582
-0.01148745871 0.02490740554 -0.07763512166 0.5888170781 0.002740385385 0.8082616772
-0.01104998136 0.01481096876 -0.07742928791 0.5740680183 0.148801425 0.805173302
-0.006155681992 0.004507860422 -0.07678425446 0.3715481684 0.3545419254 0.8580512698
-0.001410152018 0.0006916630268 -0.07593915176 -0.1854586719 -0.4731820473 -0.861222289
-0.009213492393 0.05876537514 -0.07900185013 0.4632547815 -0.04393635707 0.8851353591
-0.009665037632 0.05035563469 -0.07874548721 0.5407091171 0.01052155499 0.8411438329
-0.005783417066 0.007968463739 -0.07825506846 0.3709570539 0.3133990006 0.8741692803
-0.005461977312 0.05481007276 -0.08034857505 0.3956836341 -0.01689492434 0.918231465
-0.008213789304 0.0346681366 -0.07947538503 0.4019162221 -0.002129512614 0.915673968
-0.008407214403 0.029863976 -0.07939113998 0.4153454515 0.01771208477 0.9094913073
-0.008593380213 0.02439784622 -0.07931005478 0.4037527953 -0.01245212153 0.914783376
-0.00864464283 0.01963758469 -0.07924095917 0.3962406128 0.04655586658 0.916965609
-0.005966074546 0.01454583629 -0.07974874496 0.3493779276 0.1437891098 0.92588323
-0.005618529717 0.01115222041 -0.07919763692 0.3317580333 0.2060303913 0.9205911607
-0.001922011822 0.00552452445 -0.07817329025 0.3013341615 0.3666202038 0.8802200573
-0.005859345913 0.02457005882 -0.08034656334 0.3635589977 -0.01015742714 0.931515798
-0.005943914096 0.01977409299 -0.08027976481 0.3540918342 0.0488547971 0.9339337138
-0.001657383233 0.009664638042 -0.07959060669 -0.2360237528 -0.2734062341 -0.9324922623
-0.0006583426297 0.02980274709 -0.08118247223 -0.1965792262 0.01608653094 -0.9803559718
-0.001203268886 0.02489029932 -0.08115589142 -0.2026009533 -0.008195685669 -0.9792270852
