# .PCD v0.7 - Point Cloud Data file format
VERSION 0.7
FIELDS x y z normal_x normal_y normal_z
SIZE 4 4 4 4 4 4
TYPE F F F F F F
COUNT 1 1 1 1 1 1
WIDTH 341
HEIGHT 1
VIEWPOINT 0 0 0 1 0 0 0
POINTS 341
DATA ascii
0.01799901009 -0.009761763191 -0.001777264399 0.8594936114 -0.5085633937 0.0513225741
0.007270865917 0.01926819865 -0.03570972697 0.701631945 0.6857272403 0.1936253226
0.01970235634 -0.005853364182 -0.001839476144 0.9566315415 -0.2739067611 0.09915230775
0.01538446903 0.01366552766 -0.006618631045 0.7558347146 0.6531303663 0.04620182765
0.0145410188 0.008698645274 -0.07305310822 0.6943392431 -0.2479586407 -0.6755808819
0.01944197718 0.02995544391 -0.0672564231 0.9658986594 0.00319685605 -0.2589006759
0.0179990593 0.009761763525 -0.001777283702 0.859521983 0.5085247611 0.05123014867
0.01970170822 0.005853374481 -0.001839217436 0.9566787508 0.2739976487 0.09844316231
0.01772834337 0.04958371091 -0.07089364386 0.8809765657 0.009315497196 -0.4730681899
0.007758374274 0.01892515326 -0.01620056927 -0.524988937 -0.8507337503 -0.02527255675
0.01520996952 0.002012480021 -0.0689853363 0.734401243 -0.3738077728 -0.5665002764
0.02025949001 -0.00356401825 -0.001602355838 0.989320592 -0.1303719506 0.06517607486
0.01276581982 0.01605893394 -0.006072731597 0.618730394 0.7853572609 -0.0196639837
0.01862388878 0.03494707642 -0.05195806847 0.9088211585 -0.02342499283 0.4165277561
0.02049517894 -2.361834049e-09 -0.001697023593 0.9995733999 0.0003194767046 0.02920472965
0.0178092885 0.04481734212 -0.07076592763 0.8779815486 0.01524503192 -0.4784516584
0.02025759888 0.003564040422 -0.001601601243 0.9893261042 0.1306425929 0.06454744417
0.007852309799 0.01887866364 -0.01098029976 -0.4994848604 -0.866223466 0.01310653014
0.0080790658 -0.01530728722 -0.05636328697 0.4366131098 -0.8297164205 -0.3477637904
0.009146029949 -0.01839838123 -0.001901949763 -0.4989954914 0.8665065639 -0.01303358407
0.01532369963 -0.01373660946 -0.001956985652 0.7416561897 -0.665277267 0.08574528722
0.007847162247 -0.01887897644 -0.01097848358 0.4991824257 -0.8663964477 -0.0131947472
0.007192007144 0.01540526199 -0.07945632426 -0.3578859751 0.1184813907 0.9262180029
0.01532234605 0.01373667018 -0.001956457386 0.7417462938 0.6652417505 0.08523995002
0.002563316643 0.004829338392 -0.07778609212 0.3045557122 -0.381453973 -0.8727764231
0.02028759623 -0.003487919033 -0.02115361452 0.9894461849 -0.1431133484 -0.02268957209
0.01999259663 0.008882725636 -0.06253122838 0.9555049774 -0.1276913034 -0.2659044361
0.01362829256 -0.0111696612 -0.05680624262 0.67222966 -0.6608210584 -0.3338005586
0.01279372621 -0.01602821279 -0.001746042773 -0.5972488731 0.7978804433 -0.08173482523
0.01978321757 -0.005579935755 -0.006327034133 0.9617036185 -0.2725580256 0.02895294155
0.02027006531 -0.003546129525 -0.006187845945 0.9899968876 -0.1387145007 0.02577692442
0.01326168782 -0.01569415201 -0.02598042188 0.6411375039 -0.767220057 -0.01777878551
0.01806179169 0.009687806845 -0.01626019778 0.8859626105 0.463731808 0.004802395423
0.02050093937 -8.694827557e-09 -0.006276887149 0.9999027866 0.000496084572 0.01393453198
0.02026344442 0.003546206892 -0.006185301661 0.9899398054 0.139178487 0.02546625962
0.01363880634 0.01538644995 -0.03117121369 -0.6542356121 -0.7562393534 -0.008820670798
0.01977887017 0.00558000803 -0.006325367723 0.9616394296 0.2728243235 0.02857439302
0.01977162933 0.005623151223 -0.01579099623 0.9625378607 0.2699874358 -0.02505297014
0.01978486665 -0.005622919003 -0.01579566749 0.9625289055 -0.2699444515 -0.02584761489
0.01978317499 0.04005149047 -0.06614771652 0.9725687205 -0.008294983628 -0.232467798
0.01889756322 0.009318118423 -0.06622580338 0.9026109095 -0.176918728 -0.3924198131
0.01279340076 0.01602823544 -0.001745916873 0.5971749723 0.7979529121 0.08156716535
0.01776922857 -0.01017263401 -0.00622690795 0.8623310829 -0.5063224395 0.004763474312
0.01776887512 0.01017265577 -0.006226776673 0.8623572909 0.5062815951 0.004341583188
0.0205130949 -2.237161001e-08 -0.01605162462 0.9998384848 -0.0005499317166 -0.01796390525
0.005054263592 -0.01994941521 -0.009041596413 0.4386043262 -0.8986538112 0.006897294176
0.009146551132 0.01839835167 -0.001902149975 0.4989979326 0.866499408 0.01341041535
0.01742588179 0.02501836027 -0.07144558879 0.8512281511 -0.02451478928 -0.5242229104
0.004097617149 -0.0201590414 -0.001557136059 -0.4091115584 0.9120409446 -0.02844377043
0.01671240664 0.0005567566852 -0.06556139882 0.8378977808 -0.3419938885 -0.4254027375
0.01950370286 -0.005625945568 -0.04626954373 0.9484785343 -0.3115166448 -0.05784332295
0.01302868064 0.01585675764 -0.01112615331 -0.6335414748 -0.7736546491 0.009147874239
0.01979860878 0.03988739522 -0.05499195608 0.9478715622 0.004362113028 0.3186227764
0.01798331642 0.009872984443 -0.03616352163 0.8775020408 0.4791535126 0.02005192636
0.01277040413 -0.0160586759 -0.006074436324 -0.6185749276 0.7854823016 0.01956049064
0.01995131564 0.02964043474 -0.05555848074 0.9751078768 0.02385555876 0.2204439632
0.0199603405 0.01547408263 -0.05471221924 0.9667985629 0.05495849968 0.2495598165
0.01538904826 -0.01366532453 -0.006620357672 0.7557666485 -0.6531929984 0.04642929915
0.0154537255 -0.01359477202 -0.01123583984 0.7373973686 -0.6753445722 0.01244305809
0.007294278463 0.01970583884 -0.07976036199 -0.3572816166 0.0372568875 0.9332533262
0.004089464545 0.02015955544 -0.001554047048 0.4088405129 0.912145575 0.02898077047
0.00257369414 -0.005562178671 -0.07145890999 0.2662205743 -0.6175804311 -0.7400817637
0.02027789974 -0.003409574986 -0.04138322735 0.9863889323 -0.1634259679 -0.01813359673
0.01971832614 -0.005823328919 -0.02121007919 0.9563472343 -0.2918469013 -0.01501178325
0.02052631593 -5.928426981e-08 -0.04144846964 0.9995742263 0.02519474724 0.01471702817
0.009338701566 -0.01831093089 -0.005901570479 0.5081094278 -0.8612921607 0.0007894859553
0.009340316772 0.01831083616 -0.005902171135 -0.5082409504 -0.8612144777 -0.0008716106087
0.00476438427 -0.02003373782 -0.00578131024 0.4297823753 -0.9027058968 0.02022804143
0.009151703517 -0.007073876222 -0.0674660085 0.4783034885 -0.6308366099 -0.6109590367
0.01558506608 -0.01344456315 -0.02107907104 0.761704637 -0.6462070577 -0.0471432351
0.003458870014 0.05470249049 -0.08088342285 0.3048439761 -0.004945638582 -0.9523894639
0.01841053685 0.02463844837 -0.05150456654 0.902571613 0.04495699296 0.4281861187
0.01788413429 -0.01000399758 -0.01118641853 0.8647852931 -0.5019875959 -0.01244388587
0.004870952368 0.03982344437 -0.08056990814 -0.2961338248 0.03099384846 0.9546434618
0.02036277771 0.02010283232 -0.05762312603 0.996704918 -0.008745570323 0.08064007386
0.02028011386 -0.003525494814 -0.01148291492 0.9908387148 -0.1350277875 -0.002477456552
0.01977253278 -0.005651038726 -0.01129653819 0.9628108279 -0.2700763355 -0.007354087632
0.01845922979 4.22724843e-05 -0.06109737727 0.8900866347 -0.3079727328 -0.3360038371
0.01902470863 -0.005419584945 -0.05095125651 0.9094095855 -0.3834405994 -0.1610823159
0.01303475205 -0.0158564086 -0.01112829924 0.6333185488 -0.7738355154 -0.009284986287
0.009776748657 0.04826700592 -0.07868900299 -0.4912130681 -0.01536911177 0.8709038478
0.01788500903 0.0100039861 -0.01118674784 0.8648208517 0.5019241269 -0.01253257313
0.007280708969 -0.005149488032 -0.070267663 -0.382097793 0.5929920572 0.7087747856
0.02050759284 -1.593430837e-08 -0.01156641626 0.9999976789 0.0007321899009 0.002026326681
0.01550683562 0.01352539603 -0.01580192407 0.7506133869 0.6603941803 -0.02142592219
0.02027469953 0.003525557677 -0.01148091571 0.9910937656 0.1331146395 0.003693317144
0.01976253414 0.005651216666 -0.01129286623 0.962599815 0.2708177183 -0.007704520392
0.0006662901044 -0.01780425262 -0.05481438065 0.2473392467 -0.8975250087 -0.3650645914
0.01328475911 0.0156577989 -0.01611565236 -0.6588286509 -0.7522835463 -0.003778193119
0.01529740191 0.059384058 -0.07431736755 0.7410309179 0.07465724439 -0.6673076311
0.009562189102 0.03457764435 -0.04237348429 -0.6259466863 0.003817237681 -0.779856509
0.004761873404 0.02003389613 -0.005780375163 -0.4297034954 -0.9027348851 -0.02060662961
0.005060968399 0.01994899559 -0.009043996811 -0.4387051534 -0.8986034605 -0.007043378728
0.01544595559 0.01359511471 -0.01123302364 0.7376091184 0.675115779 0.0123074563
0.01946917884 0.02527261368 -0.06718419902 0.9665465839 -0.02371632446 -0.2553923199
0.01806169537 -0.009687785864 -0.0162601584 0.8859999244 -0.4636573444 0.005099112008
0.02028524399 0.00350803717 -0.01597155889 0.9903695334 0.136706492 -0.02189799768
0.02028362719 -0.003508055925 -0.01597099622 0.9901407746 -0.1381251788 -0.02329552561
0.01783387065 -0.005406600133 -0.05628467202 0.8704019086 -0.4149070565 -0.2650521684
0.01328366797 -0.01565781321 -0.01611526775 0.6569684666 -0.7539031746 0.004736797296
0.01551634789 -0.01352497864 -0.01580523682 0.7499741599 -0.661146821 -0.02058252946
0.01788090432 0.04007484603 -0.07065182161 0.8704050207 -0.03447859874 -0.4911276068
0.02029541683 -0.003448241532 -0.03136548615 0.987976754 -0.1546024694 -0.0001005619203
0.007759045422 -0.01892514205 -0.01620080256 0.5246913247 -0.8509227238 0.02509047581
0.02051774955 -2.855435014e-08 -0.02123031425 0.9999107301 -0.007515684954 -0.01104746064
0.02029690981 0.003487812102 -0.02115673351 0.9909211942 0.1332539863 -0.01784830628
0.009186141968 0.02468444697 -0.04217259852 0.762577803 0.1511216188 0.6289970992
0.01328295885 0.01569308622 -0.0259870848 -0.6556846292 -0.7546611413 0.02375350133
0.01978213191 0.005590743899 -0.0209850328 0.9632462792 0.2673838256 -0.0257389867
0.01778970019 -0.01019518332 -0.02118848594 0.8690611383 -0.4946758937 0.005338359557
0.01283184216 -0.015929737 -0.04107165909 0.6321313102 -0.7729921081 -0.05378854482
0.01788899187 0.01000220324 -0.02132535039 0.869165105 0.4941643552 0.01880453115
0.01557711816 0.01344491005 -0.02107643652 0.7510977397 0.6593819722 -0.03267415209
0.006353792191 -0.01910678927 -0.04582103984 0.4544587466 -0.8766846902 -0.1577694572
0.01829921968 0.009415626832 -0.04117036166 0.9077221851 0.4093317449 0.0921301102
0.0132700297 -0.0156766154 -0.02106986459 0.6503761022 -0.7594106763 -0.01750286905
0.01328229062 0.01567601856 -0.02107387892 -0.6573474278 -0.7532748391 0.0217111931
0.008116860787 -0.01879535802 -0.02167427794 -0.5376023827 0.8431974532 0.001316446932
0.008116230965 0.01879535739 -0.02167402426 0.5385728429 0.8425789378 0.0001626793497
0.01774118822 -0.01035881129 -0.02641559445 0.8712886233 -0.4902418772 0.02278237922
0.01957229466 -0.006259157287 -0.02605873553 0.9508162874 -0.3097553547 -8.912300578e-05
0.02029152679 -0.003467978716 -0.02628569031 0.9884451043 -0.1515661424 -0.001995038814
0.02052192497 -3.378589948e-08 -0.02635833979 0.9999077535 -0.01358041247 0.0002386682904
0.02030249151 0.003467853308 -0.02628918966 0.991796147 0.1277264914 0.005132854543
0.01294505986 0.02483086888 -0.07646335157 -0.6291602752 -0.01051642545 0.7772044473
0.01971556616 0.04954229832 -0.06638238716 0.9518271948 -0.01976536328 -0.3059972577
0.01979333401 0.005558641036 -0.02612845421 0.9640915493 0.2655657226 0.00152691004
0.0139701457 0.02494590735 -0.04557053804 0.7279335062 0.03874326647 0.6845522404
0.01406652594 0.01529595041 -0.04119574547 0.7221441134 0.6060661694 0.3334541614
0.01803381824 0.009780582292 -0.02630763871 0.8715600896 0.4898461381 0.02082717442
0.01565304915 -0.01336495558 -0.02630007108 0.7953000882 -0.6061189795 -0.01084215978
0.01719165295 0.03470914698 -0.0717904048 0.8491829127 -0.0003866405872 -0.5280986946
0.01564669609 0.0133652312 -0.02629807281 0.7767940457 0.629448974 -0.019621409
0.01287295034 0.0548182479 -0.07657247331 -0.6571396799 -0.001583782947 0.7537671608
0.01024067815 -0.0178726387 -0.02611445363 0.5663188964 -0.8241855809 0.001017758744
0.01023624674 0.01787289238 -0.02611306826 -0.5679958886 -0.8230296952 -0.001670751314
0.006545364062 -0.01950139872 -0.02649285825 -0.5045370069 0.8633874881 -0.002110488709
0.01958722178 -0.006223295093 -0.03115458155 0.951224017 -0.3076971961 -0.02225544979
0.0205248673 -3.075227141e-08 -0.0314337641 0.9993426695 0.03599592547 0.004303747584
0.02030583763 0.003448123038 -0.03136863804 0.9919189864 0.1268597348 0.001825427656
0.01980674624 0.005526830077 -0.03121992493 0.964637428 0.263567112 -0.00264763393
0.0135092095 0.01550428227 -0.03637295314 -0.6818896057 -0.7236710519 -0.1064273195
0.01813945066 0.009564690773 -0.03122799829 0.8911008774 0.4537914588 0.003540948703
0.006602480412 0.01949788793 -0.02651019478 0.5058889198 0.8625952604 0.002411951103
0.01362227454 -0.01538725798 -0.03116629001 0.6361100024 -0.7714771535 0.01367722326
0.01572031999 -0.01328618097 -0.03146639347 0.7919748335 -0.6097819939 0.03068848324
0.01770012135 -0.01043061543 -0.03132144186 0.8675263621 -0.4972173414 0.01315014877
0.01571553755 0.01328638744 -0.03146496725 0.7661585369 0.6421670864 0.02495053893
0.003462054412 0.01488046424 -0.08036020915 -0.2379516577 0.1495170802 0.9596997715
0.01762808323 0.055061028 -0.07105589294 0.8673056211 0.003916250486 -0.4977606076
0.01042839909 -0.01776057434 -0.03139535666 0.5662988516 -0.8241602514 -0.008092629024
0.01043234563 0.01776035118 -0.03139651871 -0.5847201109 -0.8105168831 -0.03412878648
0.00689785862 -0.0193849589 -0.03112061373 -0.5018740207 0.8649391716 0.001642179977
0.02047954655 0.01466830164 -0.06105721927 0.9996550203 -0.003073854587 -0.02608432104
0.006957909902 0.01938128281 -0.03113808695 -0.5346481134 -0.8442153985 -0.03810191302
0.01655753517 0.02467757368 -0.04835943699 0.8177443606 0.02849802312 0.5748756591
0.01766235091 -0.01050045169 -0.03618589193 0.8663379354 -0.4990584605 -0.01998085852
0.01960174984 -0.006187757174 -0.0362052447 0.9513849184 -0.3078282672 0.01041609081
0.02029927317 -0.003428677638 -0.03640067291 0.9879434482 -0.1538537687 0.01722675428
0.02052727079 -2.436339855e-08 -0.03646450011 0.9997302155 -0.01906214908 0.01327142673
0.02017389297 0.03266201401 -0.06468373871 0.9861343853 0.02114897569 -0.1645955498
0.02030915387 0.00342856582 -0.03640349706 0.9924486246 0.1199422632 0.02568230795
0.01982009443 0.005495299498 -0.03626639493 0.9586552598 0.2839751533 -0.0183903532
0.01954532242 -0.0005609880338 -0.05653483327 0.944962973 -0.2454484655 -0.2163331468
0.01260993682 -0.01615433576 -0.03619682821 0.6401552646 -0.7682452829 -0.0006500036188
0.01578698254 -0.01320811844 -0.03658601379 0.8056867082 -0.5920407252 0.01888671265
0.001203268886 0.02489029932 -0.08115589142 0.1860844173 -0.02173151711 -0.9822934036
0.01578134155 0.01320836099 -0.03658443197 0.8085748133 0.5853075248 0.06018199627
0.007246902625 -0.01926965904 -0.03570307032 -0.5036961714 0.8638756024 -0.003018345415
0.01059984748 0.01765040525 -0.03662141291 -0.6810354576 -0.6964057786 -0.2262955965
0.01781168785 -0.01017469759 -0.04116501236 0.858618652 -0.5105817143 -0.0456105623
0.01958439954 -0.006153194467 -0.04120103677 0.9492242336 -0.3141655757 -0.0165331608
0.004673742294 -0.01914621162 -0.04835816574 0.3724858277 -0.8932035194 -0.2518765196
0.02032240534 0.003409075439 -0.04139502811 0.9940417878 0.09986235296 0.04368563318
0.0198686645 0.005463414609 -0.04127578354 0.9695613986 0.2411238931 0.04254365402
0.02031250477 0.05096784973 -0.06375322723 0.9871706749 -0.03572273332 -0.1556211586
0.01580433464 -0.01314345932 -0.04092619578 0.7947865866 -0.601866362 -0.0779176751
0.01596050771 0.01313680013 -0.04096723684 0.8531644228 0.4883620895 0.1833383133
0.02050225544 -3.458559513e-07 -0.046387784 0.9998541765 -0.01072537859 -0.0132887949
0.007460056663 -0.01914801931 -0.04094527721 -0.4254370898 0.9021850179 0.0711721579
0.01129506993 0.0178702836 -0.04156951046 0.713785706 0.5250685613 0.4634792033
0.00828191793 0.02016624546 -0.04079637623 0.8257506968 0.3817035054 0.4152568129
0.01550367228 -0.01309276231 -0.04515555954 0.7776338362 -0.6220040541 -0.09163281884
0.009938271999 0.04480274296 -0.07859947586 -0.5193648761 -0.005449606335 0.8545352112
0.0173693339 -0.01026607823 -0.04632586034 0.8492272734 -0.5194864733 -0.0945877484
0.02019659233 -0.003396755934 -0.04490294266 0.9842593141 -0.1668591912 -0.05823755669
0.0203630414 0.03493684578 -0.05782660103 0.99692217 -0.004563851751 0.07826466795
0.02036964099 0.004067515413 -0.04635675367 0.9981997953 0.05298642759 0.02809994841
0.02001217779 0.006108546257 -0.04626999283 0.9785246172 0.1879122799 0.08472631585
0.01890712945 0.00954163754 -0.04600054391 0.927391049 0.3363763079 0.1636973478
0.01381018734 0.05878861618 -0.04533831978 0.7097080714 0.01346218872 0.7043672499
0.0168195037 0.01485353327 -0.04644480006 0.8609786233 0.3430752371 0.3755198955
0.01961413247 0.05469917897 -0.05446574511 0.9515950431 -0.001777951529 0.3073494963
0.009359151602 0.02962906122 -0.04226502037 -0.6342818584 -0.01121076261 -0.7730205967
0.009785887241 0.03953296566 -0.04249645042 -0.6354531662 0.007198605272 -0.7721058565
0.009995534897 0.04450019964 -0.04262421417 -0.6334093842 0.00771202587 -0.7737784416
0.01012483215 0.0473427124 -0.04270352173 -0.6254348949 0.00485715116 -0.7802612385
0.008165188313 0.009046817621 -0.07766230011 -0.4270465725 0.2766944143 0.8608550552
0.01026470153 0.05018882116 -0.04278894297 -0.6320152099 0.01003387669 -0.7748910218
0.01261492262 -0.01556045294 -0.04616847191 0.6070146305 -0.7831156183 -0.1351412845
0.01049043179 0.05446375275 -0.04292627716 -0.6325075266 0.007001312704 -0.7745225693
0.01073673185 0.05874659856 -0.04307550049 -0.6315826144 -0.005610128211 -0.7752882868
0.0144123745 0.01729511833 -0.04490385437 0.7892957721 0.4171759521 0.4505290326
0.01384232006 0.02037014542 -0.04535508652 0.7863575005 0.2215368547 0.5766830182
0.01403768619 0.02981428305 -0.04563806979 0.7154741306 0.01708385349 0.698430319
0.01375559791 0.03427866809 -0.04538106092 0.7229760526 0.01228613046 0.6907638369
0.01317494265 0.03974634679 -0.04482939402 0.691549136 -0.01097572153 0.7222460287
0.00270591329 0.03447963905 -0.08085244751 0.193713549 0.03112084845 -0.9805644057
0.01331601381 0.04466417313 -0.04494249725 0.7230678089 -0.02012512261 0.6904838327
0.01347307269 0.04959410477 -0.04506835175 0.7173140842 -0.01095493295 0.6966638315
0.01284768188 0.02956184614 -0.07653868055 -0.6260707617 -0.0228838798 0.7794303878
0.01364785266 0.05453886032 -0.0452083416 0.7176381562 -0.003200919802 0.6964088102
0.01629071546 0.01954592752 -0.04789081287 0.864056273 0.1640730604 0.4759062807
0.01607443237 0.03538380432 -0.04779680328 0.7865599816 0.01259345696 0.6173854551
0.01598551404 0.03998747587 -0.04770073175 0.7729225604 0.008653085489 0.6344413604
0.01591149311 0.04461011963 -0.04761576538 0.7712820242 0.004115426588 0.6364802451
0.01544272709 0.04990307045 -0.0470223608 0.7709790859 -0.006608594756 0.6368261737
0.01555205441 0.05482170486 -0.04714901733 0.7929387713 -0.008000775957 0.6092487936
0.01565519396 0.05905293274 -0.04726777267 0.792553179 0.03817889289 0.6086064661
0.009585087776 -0.01749449921 -0.04732338905 0.5238506747 -0.8337994705 -0.1742380946
0.02042036343 0.0005606535375 -0.05092497667 0.9954522519 -0.08286510529 -0.04699136627
0.02051315149 0.004716618836 -0.05130050278 0.9996855971 0.02505605868 0.0009491843332
0.0197325037 0.01014315281 -0.05043223991 0.9869721915 0.1095696135 0.1178150794
0.01907195561 0.01473913802 -0.05148659985 0.9262050914 0.1564728357 0.3430165891
0.01661370468 0.03018460894 -0.04843444347 0.8166531505 -0.01717315158 0.5768732224
0.01849903253 0.04507988475 -0.05174428177 0.8786111709 -0.003872512612 0.4775221607
0.01801102018 0.04965359688 -0.050870272 0.8748692579 -0.02055843399 0.4839226513
0.0179029967 0.05492633565 -0.05060552025 0.8786448069 0.01428565981 0.4772622165
0.01277024394 -0.005063792907 -0.06609001101 0.6412781061 -0.5346343663 -0.550389394
0.01956087227 0.03479256109 -0.0668202479 0.9577594534 0.0446669247 -0.2840804382
0.01796035258 0.05912180583 -0.05071878052 0.8810806912 0.03624803576 0.4715749098
0.01290020485 -0.01421740885 -0.05097033691 0.5882333772 -0.7820183572 -0.2059824823
0.01651745563 -0.01023704476 -0.05108163918 0.8346881812 -0.5223883346 -0.174373358
0.01999475765 -0.001685675025 -0.05222316456 0.97389548 -0.2033269096 -0.1009245358
-0.001870400071 0.03918712807 -0.08108444977 0.1448098212 0.008491932034 -0.9894230656
0.02034487025 0.008304186503 -0.05243582344 0.9953938524 0.06024060664 0.0745798095
0.01856754131 0.01994022961 -0.05176411629 0.908475108 0.08128558766 0.409958085
0.01559082007 0.04972821617 -0.07401945877 0.7335094633 -0.0137552075 -0.6795400367
0.0185128684 0.02990127675 -0.05171931871 0.9038505964 0.002184085737 0.4278426454
0.0185261116 0.03968949751 -0.05174260781 0.8943432338 0.02161508812 0.4468590025
0.008065147161 -0.01702061574 -0.05180002403 0.4201408023 -0.8539994485 -0.3068658473
0.01138809458 -0.01355587943 -0.05586521912 0.5248440644 -0.7723852504 -0.3577145971
0.02026102734 0.002013141036 -0.05541929245 0.9833956436 -0.1488925869 -0.1037497261
0.003302734137 -0.01919759178 -0.04951226044 -0.2861030619 0.9258151248 0.2470048434
0.00444522047 0.04474256643 -0.08066201019 -0.3043462657 0.0387034472 0.9517748651
0.01714356695 0.02962187672 -0.07187354551 0.8495094041 0.02610758053 -0.526927098
0.01976074905 0.05033713989 -0.05491990585 0.9567002408 -0.007326511107 0.2909827685
0.02051397419 0.04018191147 -0.06143847656 0.9995595962 -0.009200055585 -0.02821298819
0.01972448387 0.05894834747 -0.05484410629 0.9592709772 0.08360982634 0.2698306678
0.007918890953 0.05895905304 -0.0795364418 0.4790268793 0.0613327412 -0.8756549228
0.01476107788 -0.01162872887 -0.05351553345 0.6955417241 -0.6687176811 -0.2627515425
0.01962746906 0.05912593206 -0.06666676331 0.9421815846 0.08897459199 -0.3230748885
0.01586718655 -0.009297228177 -0.05539864095 0.7761167168 -0.5531341932 -0.302795981
0.02044037543 0.0046908359 -0.05615748045 0.9979242657 -0.05121577625 -0.03903977591
0.02052319082 0.009381971399 -0.05619158554 0.9997025055 0.002249247744 0.02428664828
0.02037294536 0.01452435917 -0.05665138668 0.9982456849 0.03690982137 0.04629489869
0.01993637323 0.02017975903 -0.05544297028 0.9700752246 0.004317746819 0.2427661751
0.0199382089 0.02490501054 -0.05549385134 0.9643618131 0.02551765974 0.2633536451
0.01701797324 0.01464577121 -0.07144073343 0.8109700637 -0.08217425284 -0.5792883116
0.01996982336 0.03506701899 -0.05564604378 0.9681593672 -0.04048351087 0.2470395211
0.0198222723 0.04467443371 -0.05509189224 0.9520076898 0.006999981151 0.3059940504
0.02027443059 0.03972840627 -0.05719659106 0.9919947651 0.007970157699 0.1260272294
0.01224919154 0.009591964375 -0.07535025441 -0.5711024619 0.2522033594 0.7811756804
0.02028491926 0.04449808502 -0.05729729271 0.9944837162 0.01788480233 0.103355078
0.02029912877 0.04997186756 -0.05742647648 0.9907604022 -0.01355941438 0.1349443133
0.003483391881 -0.01425956631 -0.06120632172 0.2982339545 -0.8239168346 -0.4818895704
0.02031621424 0.05478301748 -0.05755256653 0.9902015537 0.006005022757 0.1395163889
0.007226363063 0.02448395252 -0.07982830906 -0.3699364484 -0.016404423 0.9289122235
0.02033322144 0.05892558098 -0.05767064412 0.9929479995 0.0586067421 0.1030510559
0.003768522978 -0.01667426682 -0.05643566895 0.3023658871 -0.8770628025 -0.3732769894
0.02035662969 0.02481067912 -0.05767428843 0.9959342957 0.01629713809 0.08859617369
0.02035854578 0.02952917099 -0.05773886585 0.9960942176 0.01859523517 0.08631643479
0.019679898 0.00455329247 -0.06103054914 0.9498358926 -0.2020207979 -0.2387454174
0.007000647008 0.02997302604 -0.07990587521 -0.3473124657 0.01534643149 0.9376238789
0.02031333923 0.006014827728 -0.05890411377 0.9851771118 -0.1002309097 -0.1392114332
0.01966916958 0.05500629648 -0.06653924433 0.9545760513 0.05691971868 -0.2924802693
0.02042641182 0.009609025908 -0.06004808388 0.9941408365 -0.05583192127 -0.09255697532
0.02052338541 0.02001155984 -0.0611156404 0.9998457075 -0.01653157914 0.005938700935
0.02052675708 0.02469722986 -0.0611722037 0.9998958692 -0.00153712956 0.01434879828
0.02052353096 0.02939449692 -0.06123987985 0.9997547281 0.019866891 0.009787249372
0.02051912999 0.03477828908 -0.061331388 0.9998653025 0.002428791405 0.0162320014
0.0205071284 0.04492862574 -0.0615444444 0.9974151989 -0.01338913119 -0.07059498725
0.02019508076 0.02529353523 -0.06456647682 0.9827214572 -0.02591475448 -0.1832674633
0.02052383477 0.04951484762 -0.06136405482 0.9978339728 -0.004204576337 -0.06564818587
0.02054560696 0.055010265 -0.06124786308 0.999997915 0.00200466479 0.0003890730988
0.01306144245 0.04997384008 -0.07642868551 -0.6617489015 0.01655843686 0.7495426669
0.02054351888 0.05905197689 -0.06103937367 0.9995642136 0.02942863719 0.002310473681
0.01254962847 -0.009790179571 -0.06073946169 0.6216908661 -0.6501298708 -0.4368427842
0.01635303965 -0.004725241856 -0.06111368908 0.8043008412 -0.4390137293 -0.4004586149
0.007566435814 -0.01352722979 -0.06020049763 0.3872377478 -0.793742171 -0.4690632074
0.01432546444 -0.006916914749 -0.06214071198 0.7038347924 -0.5576155316 -0.4400926084
0.008629395167 -0.01172701232 -0.0621872317 0.4316945626 -0.7475600651 -0.5047709912
0.02028933716 0.05507307816 -0.06386919689 0.990564098 0.02110981073 -0.1354147097
0.02026489735 0.05919482613 -0.06399345779 0.9850166598 0.07709365284 -0.1542684302
0.01011865664 0.04066199684 -0.07849979401 -0.5004644412 0.0343552534 0.8650751757
0.01794990857 0.004672047516 -0.06602990214 0.8720682708 -0.2524304528 -0.4192562434
0.01947061467 0.0146225338 -0.06637009335 0.9600410127 -0.06836962209 -0.2713795289
0.02019426107 0.01995290279 -0.06449716759 0.9812771933 -0.04048615893 -0.1882974796
0.02018221156 0.0299789683 -0.06463770294 0.9821058411 0.004896667167 -0.18826614
0.01975144662 0.04478593869 -0.06625843472 0.9554418409 -0.03713783292 -0.2928338608
0.007669449329 -0.009647818089 -0.06555937831 0.3922891958 -0.6931087174 -0.604739194
0.01091082096 -0.008886993408 -0.06402367401 0.5165446492 -0.6802889913 -0.5199889554
0.01947612588 0.01993593756 -0.06711304665 0.9656362473 -0.03549746716 -0.257461779
0.002841783106 -0.01082838678 -0.06613013268 0.2749844288 -0.7282114757 -0.6277671627
0.01429995751 -0.001685357854 -0.06743491745 0.6771686829 -0.4724142077 -0.5641519222
0.007270287895 0.001225213969 -0.07468387756 -0.4153712385 0.4448564825 0.7934541223
0.01754669285 0.05919155359 -0.07118867588 0.8645302242 0.04649539352 -0.5004254889
0.01255008753 0.0002220054468 -0.07061768023 -0.6126162897 0.4312262075 0.6623784716
0.01595151882 0.004948486853 -0.06967593079 0.803432577 -0.2888806363 -0.5206189318
0.01649603858 0.009490498543 -0.07083397322 0.8174819299 -0.1831584652 -0.5460551904
0.01732877398 0.01996403074 -0.07155273724 0.8468188278 -0.03492595125 -0.5307335027
0.01077459621 -0.003396998167 -0.06961577606 -0.5380298153 0.5167383561 0.6659620028
0.006620723963 0.0108944726 -0.07886112976 -0.3458700215 0.216954828 0.9128551533
0.0138420248 0.004506618159 -0.07193179321 -0.6632332633 0.3335647988 0.6699672853
0.008388516235 -0.0009568117976 -0.07287985077 -0.4310606365 0.4889927414 0.7583355633
0.0158161025 0.04018294334 -0.07377235794 0.7664942695 -0.03329438 -0.6413875732
0.01571292814 0.04494238663 -0.07388936615 0.7466005622 0.03056465677 -0.6645700883
0.01542913175 0.05523176098 -0.07418327522 0.7425332897 0.06851256711 -0.6662959867
0.01145208216 0.005057173312 -0.07428273582 -0.517011292 0.3460500382 0.7829104004
0.01291730329 0.01494435876 -0.07602363041 -0.6226245486 0.1131832477 0.7742920792
0.01298509139 0.02011730266 -0.07639583206 -0.6349074342 0.04366698113 0.7713531907
0.01271465731 0.03498959422 -0.07664041662 -0.6403373982 0.03273713339 0.7673957887
0.01321375483 0.03982765891 -0.07626839724 -0.6269346373 0.02737487618 0.7785907633
0.01311614453 0.04467145642 -0.0763921814 -0.6302608891 -0.01565333559 0.7762256017
0.01289523983 0.05879760981 -0.07655299854 -0.6524384932 -0.04583367316 0.7564544184
0.002500309199 -4.115700722e-07 -0.07538487434 0.2364982026 -0.4944695871 -0.8364020729
-0.000307309666 0.03549069595 -0.08119099935 -0.1638878815 -0.01638071666 0.9863429598
0.007877550261 0.004761543104 -0.07619362967 -0.4155599664 0.3579426575 0.836174006
0.009917586803 0.01350146437 -0.07794735718 -0.5025032967 0.1771137414 0.8462394221
0.008259294891 0.05011511917 -0.07938626709 -0.4740398531 -0.01372843836 0.8803963583
0.00820426476 0.0547200923 -0.07940809727 -0.4689903923 -0.04954491592 0.8818125159
0.004363270283 0.007542373657 -0.07852342224 0.2882909112 -0.2937137837 -0.9113838729
0.007055358124 0.03449685822 -0.07987715759 -0.3605632205 0.03377653259 0.9321230122
0.007973978639 0.03949941444 -0.07957094193 -0.3791615263 0.02275613912 0.9250506446
0.007641872764 0.04505776024 -0.07969268799 -0.4884285029 0.004546840954 0.8725920718
0.002309630096 0.01033233102 -0.07968395487 0.2251149957 -0.2077387928 -0.9519284809
0.003976219296 0.04970165348 -0.0807672081 0.3259316206 0.008720442499 -0.9453531259
0.0006583426297 0.02980274709 -0.08118247223 0.1771542108 0.01976289362 -0.9839846613
0.002885971308 0.05904469681 -0.0809812266 0.2869294801 0.007905194878 -0.9579190891
-0.0004108006731 0.01526783752 -0.08080155182 0.18333049 -0.1134414843 -0.9764839789
0.001431923072 0.02002267011 -0.08110502625 0.1766759876 -0.05388721894 -0.9827928383
