# .PCD v0.7 - Point Cloud Data file format
VERSION 0.7
FIELDS x y z normal_x normal_y normal_z
SIZE 4 4 4 4 4 4
TYPE F F F F F F
COUNT 1 1 1 1 1 1
WIDTH 562
HEIGHT 1
VIEWPOINT 0 0 0 1 0 0 0
POINTS 562
DATA ascii
0.01379536883 0.02478303846 -0.07589052836 -0.6475853964 0.001740749409 0.7619908951
0.01494853325 -0.005273423004 -0.06309713516 0.7160074693 -0.5238242739 -0.4614557768
0.02049448872 0.001425777614 -0.0009294261038 0.9940826761 0.09562623755 0.05152917398
0.02042701721 -0.002119929443 -0.009279464722 0.9969781657 -0.07756037103 0.00435039522
0.01749586296 -0.01078390121 -0.001268139005 0.8564186271 -0.5143166917 0.04500528644
0.001408270538 0.0193320303 -0.08109161758 -0.1345589741 0.05911821102 0.9891404954
0.01050174761 0.009445580959 -0.07660228348 -0.5178405108 0.248964903 0.8184483383
0.01656587887 -0.01218889189 -0.006299304008 0.8107294536 -0.5854018998 -0.004729566801
0.0197365551 -0.00571787405 -0.0006230300367 0.9522875796 -0.3022821948 0.04211698426
0.01925871944 0.007159091473 -0.0004298921227 0.9525518436 0.3033373883 0.02512795637
0.01264875412 -0.01624784279 -0.03056456661 -0.628671935 0.7776686028 -0.001772679227
0.01992976761 0.004999414921 -0.0007011492252 0.9644641733 0.2626129993 0.02903912955
0.01196294689 -0.01671667862 -0.006104637861 0.6090049275 -0.7931282967 -0.007778385891
0.009905518055 -0.01805329037 -0.01768703365 0.4836106723 -0.8752797043 -0.002481318096
0.01669445992 0.01306319904 -0.04402962875 0.8089436006 0.5225969034 0.2692633053
0.02041519737 -0.002139525751 -0.0008973661661 0.9956662082 -0.07322508309 0.05733139609
0.01756481361 -0.01068335009 -0.009727799892 0.8604380521 -0.509520863 0.005903278257
0.009752563953 0.01812150669 -0.01457408333 -0.4634495786 -0.8858461524 0.02216037972
0.01944926414 0.02797466431 -0.05388262787 0.9488240923 -0.008703877103 0.3156851031
0.01735820198 0.05232958412 -0.07161092758 0.8313775597 -0.006318867346 -0.5556720482
0.013755023 -0.0152617445 -0.001341842771 -0.6596537797 0.7498851562 -0.05029058928
0.01994669819 0.004937218904 -0.01211310816 0.9663333417 0.2571907767 0.00726478514
0.02025673294 0.003567028522 -0.0008332941532 0.9891277274 0.1410273214 0.04168493141
0.01805639458 0.009812858264 -0.0009762446421 0.8917310826 0.4508087078 0.03983949581
0.02049806499 0.001422193974 -0.003230147958 0.9958325076 0.0909092689 0.0072884607
0.01530178833 -0.0137605114 -0.0003933697343 0.7492261402 -0.6596796567 0.05901645079
0.02044535542 0.04283124733 -0.06287410545 0.9960461377 -0.01247378376 -0.0879573555
0.0197547164 -0.005684255362 -0.005991707087 0.9563459514 -0.2916274389 -0.0188641991
0.01518948078 0.01929572773 -0.04654738998 0.7906667989 0.1562033373 0.5919852452
0.01401361465 -0.01503579903 -0.01452625751 0.6840210503 -0.7293648017 -0.01192429237
0.02041844241 -0.002134145796 -0.003198595961 0.9969072222 -0.07822498401 0.007539381409
0.01649696732 -0.01226289368 -0.000869859159 0.8047581418 -0.5932326478 0.0209608848
0.02042274412 -0.002127013544 -0.006249297142 0.996938344 -0.07748295485 -0.01050380931
0.01658384705 0.02742911339 -0.0483945713 0.776181002 0.008534507652 0.6304523887
0.01867219257 -0.008578713655 -0.003275762677 0.8974935041 -0.4408457372 0.01266673009
0.01660488701 -0.01214700127 -0.009372757435 0.8116923097 -0.5839981307 0.01008849701
0.0175147934 -0.01075629425 -0.003590777993 0.847134977 -0.5313320973 0.006966571527
0.02029512405 0.04860013008 -0.05739221287 0.992863705 0.01356144551 0.1184810133
0.016132967 0.0002863295674 -0.06637757329 0.7817786475 -0.374990582 -0.4982009733
0.01974436378 -0.005703418255 -0.002931504965 0.9514303415 -0.3076259008 0.01210828393
0.01763810285 0.01209558837 -0.0452171402 0.8691340931 0.4026392331 0.2872065044
0.01290983987 0.01594246364 -0.006459864259 -0.6315758781 -0.7753029355 -0.004155529859
0.01500523758 0.02472600619 -0.07469195811 0.7466073918 0.002453197774 -0.6652603884
0.01444700368 0.01466376686 -0.03621519089 -0.6769370472 -0.7358652136 -0.01608171218
0.01520133686 0.04294209194 -0.0744450798 0.7305913418 0.0002153079794 -0.6828149419
0.01753988838 -0.01071969795 -0.006669728994 0.8487770531 -0.5287420444 0.003060148591
0.005558455467 0.01980341148 -0.01468080473 0.3714896906 0.9284194172 0.005726747055
0.01380120373 -0.01522139406 -0.003696375132 0.6816536205 -0.7315869425 0.01135284941
0.02025932789 0.003558074713 -0.003135543585 0.988371923 0.1518567115 0.007776958082
0.003268787146 -0.002073704958 -0.07406871796 -0.2022534652 0.5322609029 0.8220656099
0.01993318844 0.004986851692 -0.003006337643 0.9611416255 0.2760212033 0.004367041097
0.02026939201 0.003534377456 -0.009220351696 0.9884847573 0.1512541388 0.004479963867
0.01503989315 0.02483921432 -0.04655789757 0.7518129862 0.005858111465 0.6593503745
0.01833048916 0.04923399925 -0.05129920292 0.8821426078 -0.01526789266 0.4707348627
0.01926901197 0.007140935659 -0.002743172258 0.9495173054 0.313536237 -0.01057897716
0.01589894247 0.01301172066 -0.0006314410418 0.7595094687 0.649647478 0.0332192914
0.01873367739 -0.008471650958 -0.01467816925 0.9016092428 -0.4325348569 0.003790890684
0.01928263807 0.007116868734 -0.005809680581 0.9472809851 0.3202500634 -0.009931372975
0.009107299805 -0.01841596031 -0.001097951889 -0.4269624361 0.9009683402 -0.07719538943
0.01290990925 -0.007824416518 -0.06299232197 0.6328993682 -0.6092843186 -0.477714359
0.02037958972 0.03067842674 -0.06330701955 0.994826571 0.01439971208 -0.10056213
0.01179256153 -0.01682347679 -0.0005700672269 -0.6004747151 0.7990430097 -0.03099008032
0.01533465528 -0.01372465849 -0.002738793612 0.7284759245 -0.6850707618 -0.0009373781683
0.01984553099 0.05775850296 -0.06596324539 0.9722518701 0.03280924575 -0.2316243822
0.01976499939 -0.00566522193 -0.009031188726 0.9568904467 -0.2903143683 -0.008845367083
0.01626162357 0.04873903732 -0.04806653061 0.7865468291 0.01859634258 0.6172505664
0.003888548613 0.02018898773 -0.0006783555746 0.3242188527 0.9451892521 0.03872225748
0.006949652672 -0.007571855783 -0.06826702499 0.3488871465 -0.6705370999 -0.6547196016
0.01396853256 -0.01507518959 -0.01222773361 0.6703585864 -0.7420354935 -0.001640764849
0.0138927083 0.006704942942 -0.07293764496 0.6590244228 -0.2850396687 -0.6960166646
0.009224303246 0.01836323452 -0.003507230878 0.450323977 0.8928237571 -0.008605490014
0.01652659893 -0.01223107147 -0.003204578757 0.8075082571 -0.5898319751 -0.005353116927
0.01793775082 0.01002590919 -0.003756074905 0.889987342 0.4558292929 0.01192420882
0.005547588348 -0.01980408669 -0.01467710304 -0.3704917696 0.9288174289 -0.005833729123
0.02026298428 0.003546202302 -0.006187693119 0.9881203745 0.1534018898 -0.009272845918
0.01644949746 -0.005402308941 -0.0601829567 0.7819676163 -0.489790997 -0.385527465
0.01592857599 0.01297795153 -0.002970886767 0.7584083095 0.6517794382 0.000632491021
0.01277388859 0.01604260826 -0.0009559928775 0.6216592879 0.7818907087 0.04676162288
0.009658665657 0.03669986916 -0.04242502403 -0.5619207496 0.002983977495 -0.8271856908
0.01995114422 0.004920889616 -0.01510930586 0.9664900825 0.2566067462 0.007063875726
0.011865839 -0.01677754593 -0.002950313449 0.6034817824 -0.7973658579 0.004174565385
0.01027033901 -0.01785638046 -0.02687422752 0.4675782282 -0.8839480137 0.002551395076
0.0127266283 -0.01619112778 -0.03353684998 -0.6302588853 0.7763827412 -0.001891226161
0.02050280428 0.001417443231 -0.006280168533 0.995727496 0.09165718958 -0.01121219333
0.01879194832 -0.008314182281 -0.005875514825 0.900411651 -0.4350249713 0.003483261499
0.02033195925 0.004071302116 -0.04564357758 0.985434217 0.1600129604 0.05757826369
0.01993772221 0.004970196486 -0.006062281132 0.958680281 0.2843552631 -0.008614127825
0.02004618963 -0.0002245242596 -0.05421080017 0.9693947342 -0.2135927299 -0.1210454256
0.01860236311 0.01594837189 -0.0689724865 0.8978693238 -0.07517825561 -0.4337959282
0.02044450601 -0.002071685791 -0.0299660724 0.9972795311 -0.07367587649 0.002324227302
0.009601638317 0.05174901962 -0.07878635025 -0.4941422567 -0.005562341075 0.8693632673
0.01283235407 0.01599954176 -0.003322895646 0.6263885674 0.7794918634 0.005458708533
0.02033026314 0.05823348713 -0.05765014076 0.9957219217 0.006974061179 0.09213694747
0.02016598034 0.03637351418 -0.05641193008 0.9736395288 0.01908324474 0.2272925377
0.01542148399 -0.01362994242 -0.0089350214 0.7359862164 -0.6769965193 -4.628266467e-05
0.009107600212 0.01841594315 -0.001098068595 0.4275177532 0.9012655424 0.07034907826
0.003892110825 -0.02018876266 -0.0006797192097 0.3258145631 -0.9451392691 0.02359306099
0.0194422039 0.00673804388 -0.03644813538 0.9448463238 0.3275121202 0.001111556577
0.02057522392 0.05181581497 -0.06033780607 0.9997221747 0.002903653896 0.02339107315
0.01017465448 0.03928650475 -0.07846894836 -0.4703498612 0.002027447805 0.8824777037
0.01839296103 0.05479251194 -0.05143725204 0.8844517948 0.002735281553 0.4666235538
0.009223342419 -0.01836329079 -0.003506866336 -0.4597501497 0.8880395211 -0.003950806373
0.01979754982 -0.005634680748 -0.0359736969 0.9483417405 -0.3170294345 0.01184402393
-0.001870400071 0.03918712807 -0.08108444977 0 0 1
0.02050751305 0.001412724435 -0.009309651613 0.9958564144 0.09083919724 0.004271073078
0.01537822008 -0.01367713642 -0.005847635031 0.7354351727 -0.6775698824 -0.005844749841
0.01782019361 0.01023704116 -0.006522158941 0.8837991854 0.4678393184 0.005037078301
0.01319072413 -0.01129038858 -0.05742096329 0.6406129487 -0.6779631986 -0.3605287109
0.01596785641 0.01293319011 -0.006071876287 0.758204256 0.6517825772 -0.01748651235
0.01835157919 -0.008171050668 -0.04797984695 0.890472968 -0.4378931197 -0.1237235183
0.0166436348 -0.01210539198 -0.01242562103 0.8108814014 -0.5851870915 0.005236488065
0.004457520247 -0.02010291481 -0.003288228869 -0.3327048893 0.9428764922 -0.01706977258
0.01386241388 -0.01516791153 -0.006817220926 0.6869807794 -0.7266569054 0.005210628893
0.01995556164 0.004904661655 -0.01808687973 0.9667198267 0.2558358537 -0.0008902921103
0.02038012161 -0.002587401915 -0.04240374908 0.9863540754 -0.1645525878 -0.005299423569
0.01451795626 0.01460122299 -0.03986640167 0.7039296846 0.7011157179 0.1136650748
0.01870188379 -0.008528715849 -0.008632472992 0.8997983681 -0.4362204894 -0.008636051892
0.01947914362 0.02159570742 -0.05395653439 0.9566512734 0.02325163833 0.2903062219
0.009356153488 -0.01407354705 -0.05758096059 0.4562195971 -0.7890190637 -0.4114761187
0.007687402248 0.04435906601 -0.07967589569 -0.385272262 -0.002798434413 0.9227987066
0.01749677181 0.04550447845 -0.07142287064 0.8574119877 0.01511554502 -0.514408596
0.01994222546 0.004953653574 -0.009097650051 0.9659809968 0.2586094513 -0.001365809259
0.01929436922 0.007093002915 -0.008854684234 0.9493517873 0.3142132337 -0.001108036657
0.007072879076 -0.01932714462 -0.03341838646 0.4241718217 -0.905578022 0.002590692559
0.01798089075 0.009965775251 -0.009122950912 0.8846897015 0.4660486564 -0.01108070289
0.004449302435 0.0201034317 -0.003285133362 0.3324511561 0.9429607563 0.0173562939
0.005346126556 0.01986554718 -0.01227499866 0.3661311788 0.9305367476 0.00702291294
0.009377089977 -0.01829350662 -0.006698463202 0.4498426467 -0.8930492759 -0.01022663547
0.01600686693 0.01288873649 -0.009151551008 0.7584940578 0.6516370497 -0.007477952814
0.005337034225 -0.01986611366 -0.01227183342 -0.3656982492 0.9307092289 -0.006717270518
0.00750771594 0.01917605591 -0.03948249817 -0.5807434061 -0.7459287293 -0.3260788663
0.01172361088 0.004718768597 -0.07397442627 -0.5629385409 0.342872415 0.7520230756
0.009378922939 0.01829339981 -0.006699141502 -0.4533818568 -0.8912796107 0.008096138499
0.004840617895 -0.02001235199 -0.006601012945 -0.3482188258 0.9373317148 -0.01236550975
0.02027443059 0.03972840627 -0.05719659106 0.9912789322 0.009497830096 0.1314377033
0.002729276776 -0.008357674122 -0.06897923279 0.2006325277 -0.70098063 -0.6843776335
0.02052747154 0.006694678664 -0.05687566471 0.9993605531 -0.01543581053 -0.0322524525
0.01205936003 -0.01665624619 -0.009236395359 0.6094381114 -0.7928327625 -0.001182845689
0.003761463404 0.05183862813 -0.08081542714 0.2675501 0.0007479385674 -0.9635436599
0.01392320061 -0.01511479902 -0.009916447163 0.6765235558 -0.7363820056 0.007577615413
0.006118922472 0.01963939571 -0.02103120995 -0.3900252315 -0.920796493 -0.003759962982
0.01759708977 0.04007899666 -0.07129229355 0.8584929011 -0.01198558769 -0.5126853659
0.01871783161 -0.008500090957 -0.01166512156 0.9008042482 -0.4341362196 -0.008800521079
0.01977501822 -0.005646318316 -0.01205054641 0.9523607071 -0.3043885969 0.01888559335
0.01267136097 0.01742058754 -0.04301661682 0.7155401186 0.5006203029 0.4872182785
0.02043017928 -0.00211290439 -0.01228936752 0.9969275472 -0.07639705206 0.01729034715
0.01494009256 -0.01306398916 -0.04858913612 0.7297454982 -0.6592997784 -0.1810947543
0.001212439537 0.0248886385 -0.08115636063 0.1662343104 0.003521412382 -0.9860799936
0.02051219034 0.00140803656 -0.01231926084 0.9957137909 0.09135620265 0.01442535103
0.01671240107 -0.008373432318 -0.05487778219 0.810123014 -0.5223131988 -0.2662510555
0.0012239995 -0.0006945238113 -0.07519329071 0.1979689129 -0.4928720573 -0.8472812076
0.02027646637 0.003522621989 -0.01223334265 0.9884752011 0.1507309677 0.01403396354
0.007905396938 -0.0006823163033 -0.07336597443 -0.378567301 0.4978899127 0.7802515194
0.01930544281 0.007069307089 -0.01187935519 0.9510546892 0.3089126841 0.008242070742
0.01800434589 0.009932106972 -0.01216093898 0.8855764781 0.4643375043 -0.01204090802
0.01298678017 0.01588578725 -0.009574777842 -0.6354190397 -0.7718943798 -0.02053558956
0.00483869791 0.02001247406 -0.006600298643 -0.3532988938 -0.935488646 -0.006394122136
0.009529695511 -0.0182242403 -0.009866374493 -0.4603627431 0.8877011899 -0.007262383317
0.01878062773 -0.008387381196 -0.02360608244 0.9040803628 -0.4272724503 -0.00877215849
0.02030868244 0.003431345463 -0.03568789673 0.9832516001 0.1821201181 -0.006968034618
0.01546445656 -0.01358306599 -0.01200163984 0.7379895864 -0.6748047715 -0.003144959018
0.0205168376 0.001403378695 -0.01530964565 0.9957396999 0.09109265625 0.01430307937
0.01671385288 -0.01202323437 -0.01847001171 0.8129520508 -0.5822148922 0.01160958742
0.02043755976 -0.002092112213 -0.02120574506 0.9971588446 -0.07530323295 0.001913581701
0.01758957386 -0.01064724207 -0.01276566267 0.8525200032 -0.5226944713 0.0003657215038
0.01604492903 0.01284460783 -0.01221034646 0.7620662797 0.6474970928 0.001581180657
0.01777321529 -0.01036642981 -0.03641458511 0.8559463928 -0.5170440736 0.004604194368
0.009532394886 0.01822408485 -0.00986734724 -0.4459517438 -0.8945853377 -0.02905367123
0.005054263592 -0.01994941521 -0.009041596413 -0.359210998 0.9332260532 -0.007522795951
0.01554593706 -0.01349038363 -0.01807400799 0.7614888682 -0.6481779808 -9.322635715e-05
0.02052296162 0.001394155905 -0.02123422861 0.9956719434 0.09290888525 0.002306531948
0.02036131001 0.03358269119 -0.05780269623 0.9934507875 0.01948149115 0.112587763
0.01215510035 -0.01659623623 -0.01234629869 0.6143577058 -0.7890272606 -0.0007690392375
0.01978299761 -0.005627577424 -0.01504980779 0.9527173731 -0.3032817456 0.01870266896
0.02043282159 -0.002105929732 -0.01527989451 0.9969372067 -0.07633951626 0.01698482401
0.0202834959 0.003510941982 -0.01522703838 0.9885136337 0.1504969507 0.01383704563
0.006671182871 0.0194777832 -0.02728863144 -0.4096211947 -0.9122479894 -0.003752690466
0.01762440872 0.01596102858 -0.07086456299 0.8580772355 -0.08088031626 -0.5071112624
0.01931644535 0.007045763493 -0.01488457489 0.9513653742 0.3079580272 0.008110383339
0.02038159911 0.01863773219 -0.06314185015 0.9947269356 0.003757535171 -0.1024900218
0.0180251317 0.009898732662 -0.01517837572 0.8858396037 0.4637480148 0.01503247409
0.01274758403 0.01608987935 -0.01230252393 -0.6407113339 -0.7677754393 -0.003140293512
0.02035343819 0.01291911049 -0.06226001129 0.9884695758 -0.05565283927 -0.1408213732
0.005060968399 0.01994899559 -0.009043996811 0.3592962703 0.9331893635 0.007987617008
0.01371081638 -0.002701628804 -0.06732868195 0.652236491 -0.4856691986 -0.5819905405
0.005195929527 -0.01990768242 -0.01065992451 0.3608574674 -0.9326100891 0.004506647521
0.009643456459 -0.01817260551 -0.012227911 0.4747748513 -0.8800633107 0.00879827798
0.02031144269 0.003417465448 -0.03926015472 0.9844927093 0.1753339551 0.005666524203
0.01550646305 -0.01353652668 -0.01504792309 0.7405261758 -0.6720152452 -0.004061171513
-0.0009303150177 0.01459734344 -0.08072600555 0.1040117782 -0.1427199635 -0.9842827653
0.01668201923 -0.0120640583 -0.01545852327 0.8121363743 -0.5834209476 0.007382910448
0.01527456665 0.06007828522 -0.0743406601 0.7233363464 0.00313289288 -0.6904887508
0.01761417484 -0.01061136627 -0.01578397608 0.8536825971 -0.5206874654 0.01051602514
0.00524739027 -0.004824487209 -0.07153036499 -0.2921524726 0.6130253803 0.7340618611
0.01608221292 0.01280078769 -0.01524900723 0.7644576528 0.6446333708 0.007232869043
0.01779230595 -0.01033229876 -0.03929745483 0.8580516179 -0.51340246 -0.01285827241
0.01279032183 -0.01603145123 -0.04231420708 0.657174601 -0.7514949241 -0.05811129738
0.02056778908 0.009372718573 -0.05689496613 0.9999246503 0.002524292124 0.0120133963
0.02041300888 0.03323746338 -0.06308250351 0.9966224923 -0.00140116106 -0.08210751834
0.0131277833 0.01578646994 -0.01497926235 -0.6439231582 -0.7649874911 0.01253414467
0.009646800995 0.01817241287 -0.01222909164 -0.4506799629 -0.8926660412 -0.005908466349
0.005203831673 0.01990718842 -0.010662714 -0.361009622 -0.9325494231 -0.004860693146
0.02034175682 0.004018777251 -0.05682811546 0.9882758678 -0.106839028 -0.1090698453
0.01057579994 0.01766603851 -0.03587906456 -0.5286317561 -0.8484066508 -0.02747037258
0.01609107235 0.01247821522 -0.07234752001 0.781838324 -0.1520507232 -0.6046564418
0.009756542683 -0.01812127781 -0.01457544613 0.4765721417 -0.8791265094 -0.003946413904
0.01224950314 -0.01653667068 -0.01543481016 0.6189560704 -0.7854255871 -0.0001731107783
0.01653334522 0.02192816639 -0.04832713509 0.7771116971 0.03181954175 0.6285578152
0.01874942303 -0.008443389893 -0.01767226124 0.8919518905 -0.4521201658 0.003029987208
0.02052485085 0.0006756895085 -0.04850117938 0.998887365 -0.04236116395 -0.02072592411
0.01979046631 -0.005608962893 -0.01803019571 0.9520756337 -0.3058538729 0.002322965492
0.02043521754 -0.002098999977 -0.01825178973 0.9971533981 -0.075373043 0.00200127566
0.02052053404 0.0013987519 -0.01828112221 0.9956424209 0.09321892024 0.002530344529
0.02029048157 0.003499334693 -0.01820207596 0.9885558607 0.1507967993 0.00419946383
0.01777200222 0.02529085064 -0.07101329422 0.8661550371 -0.0151413539 -0.499545985
0.01932737827 0.007022367597 -0.01787098408 0.9522188333 0.3054148057 -0.00104401828
0.01722369576 -0.002015432835 -0.06242096329 0.8216247906 -0.414003307 -0.3918341042
0.01804571009 0.00986556983 -0.0181768322 0.8867182043 0.4620676359 0.01497751864
0.01407339954 -0.01498356152 -0.01757442474 0.6979134658 -0.7159380724 -0.01869413956
0.01763862133 -0.01057571507 -0.01878338337 0.8548285338 -0.5188092437 0.01025409388
0.02029562378 0.006083213329 -0.04915382004 0.9902111277 0.09822881387 0.09916159907
0.01176571369 0.04598228455 -0.07749907684 -0.5598959723 0.01680658757 0.8283924425
0.01611926055 0.01275724602 -0.0182683835 0.7695111871 0.6383937196 0.01749261968
0.0101306591 -0.01750637118 -0.04527704748 0.4938923726 -0.8582067429 -0.1398267171
0.01677297592 -0.01194248438 -0.02443684006 0.8226502082 -0.5685213185 0.005490467888
0.02044220352 -0.002078456571 -0.0270622975 0.9972885975 -0.07358122152 0.001121213175
0.01320737839 0.01573062253 -0.01803835964 -0.646884679 -0.7625810316 -0.003222150108
0.01863364474 0.03667348671 -0.0693165067 0.9005657883 -0.001927540623 -0.4347154766
0.01233264208 -0.01647806358 -0.01849929142 0.6256489901 -0.7801046865 0.0001386790722
0.01354843235 -0.01450596142 -0.04826121902 0.6658350916 -0.7273761756 -0.1660949425
0.01286989832 0.01607920647 -0.03942977333 -0.6926201742 -0.717415265 -0.07478390161
0.01876507187 -0.008415302157 -0.02064802599 0.8930567909 -0.4498123664 -0.01088132473
0.006367854595 -0.01956003571 -0.02416241074 0.3963719548 -0.9180870778 0.002321853558
0.01979788971 -0.005590461373 -0.0209925046 0.9524758137 -0.3046058197 0.002262502234
0.01999516996 0.006449725469 -0.06114197922 0.9661848846 -0.1473624992 -0.2115917358
0.0195129571 0.03109026861 -0.05407946587 0.9574992196 -0.0152390712 0.2880330106
0.02029742527 0.003487797737 -0.02115907955 0.9886304803 0.1503139693 0.003934965839
0.01995995331 0.004888531685 -0.02104645157 0.9666702461 0.2560003611 -0.003528514062
0.01933824539 0.006999114037 -0.02083920813 0.952552587 0.3043719778 -0.001126101096
0.02033913803 0.06030976868 -0.05771165085 0.9944216843 0.03586527588 0.0991927205
0.00673737812 0.05772865868 -0.08002807999 -0.3459568803 -0.0306140201 0.9377508298
0.01186042356 0.04323197174 -0.07742777634 -0.5648006358 0.010187541 0.8251645023
0.01806616259 0.00983261013 -0.02115696716 0.8882389922 0.4591868242 -0.01337734149
0.01287297392 -0.0160790472 -0.0394305954 0.666653518 -0.745135578 -0.01860261497
0.009882730007 0.01805460167 -0.01767938805 -0.4741502606 -0.880286513 0.01664888612
0.005826532602 -0.01972191334 -0.01786362743 -0.3775697133 0.9259657967 -0.005334326653
0.01885183525 -0.00823689127 -0.03958174133 0.9205265687 -0.3906491113 -0.004910003546
0.01413280678 -0.01493165445 -0.02060332394 0.7013157057 -0.7125395556 -0.02106329811
0.01935978651 0.006953015447 -0.02672354794 0.9531737668 0.3022033401 -0.01152872353
0.02012886556 0.0248693161 -0.05623376592 0.9715092014 -0.0007035755095 0.2370007946
0.01241239452 -0.016419981 -0.02154326916 0.6268187289 -0.7791631801 0.00173774502
0.01558509541 -0.01344452858 -0.02108133411 0.7635338711 -0.645759039 -0.003360229488
0.01674350262 -0.01198273897 -0.02146234131 0.8176251828 -0.5756077206 0.01283792644
0.01766291904 -0.01054028177 -0.02176451397 0.8604444974 -0.5095252451 0.004392210445
0.01286620235 0.02226175308 -0.04454916954 0.6623924231 0.09583119114 0.7430024634
0.01615607882 0.01271397281 -0.02126911449 0.7781162018 0.6276870823 0.02332602074
0.004934956074 -0.01182659817 -0.06435140228 0.2507685746 -0.7846407754 -0.5669691134
0.01328646207 0.01567513418 -0.02107786417 -0.6517454238 -0.7580796962 -0.02330400818
0.005839747667 0.01972109318 -0.01786800098 0.3793829469 0.9252240313 0.00539179776
0.01338523515 -0.0002251476447 -0.06959439341 0.6406862148 -0.4322430144 -0.6345763553
0.0100320549 -0.01798699284 -0.02077049255 0.48831951 -0.8726026162 0.01042738713
0.01635210323 0.01265318012 -0.04155033239 0.7931606308 0.5977959303 0.1163453456
0.02038207293 -0.002753494382 -0.03283533001 0.9886828436 -0.1496799731 -0.01010645062
0.01942264414 0.01329379821 -0.06634880638 0.9401916529 -0.08365421834 -0.3302145174
0.01980526924 -0.00557206893 -0.02393734598 0.9528153586 -0.3035429517 0.002137480908
0.02043988832 -0.002085264862 -0.02414238294 0.9971792998 -0.07503284319 0.001875239459
0.009783696175 0.006539786657 -0.07601391602 -0.4802333419 0.3195217538 0.8168731764
0.02052537537 0.001389586866 -0.02417002249 0.9957042461 0.09256705356 0.00209639779
0.01606872463 0.04555735874 -0.04781526375 0.7847030668 0.01685890786 0.6196425374
0.01091082096 -0.008886993408 -0.06402367401 0.5164778501 -0.6544618427 -0.5522049681
0.02030104828 0.003476366282 -0.02409758949 0.9887188997 0.1497361808 0.00374346297
0.01709487915 -0.008837999344 -0.05262102127 0.826941685 -0.5181037561 -0.2184855772
0.01996431828 0.004872496605 -0.02398863125 0.9669084004 0.2550989112 -0.003562405017
0.01934904671 0.006975998282 -0.02378986311 0.953382942 0.3017620021 -0.000812389486
0.01989454985 0.0522771244 -0.0658001194 0.9710045432 -0.01474518864 -0.23860586
0.01808649445 0.009799845457 -0.02411939764 0.8946120542 0.446336715 -0.02127931917
0.01602535558 0.04276963234 -0.04775580883 0.7814354425 -0.000245310939 0.6239860488
0.02030488586 0.003453734994 -0.02992388344 0.9890732762 0.1474209 0.001064176359
0.01001202679 0.01798814201 -0.02076395416 -0.4912127235 -0.8710396381 -9.553149293e-05
0.006103381634 -0.01964035702 -0.02102621651 0.3874178727 -0.9218998111 0.002851367239
0.02047295523 0.004056265354 -0.04849140549 0.9965230406 0.07863607991 0.02753536897
0.02055603123 0.01268290408 -0.05967865245 0.9988773005 -0.01769477631 -0.04394352534
0.01490793347 -0.01413950825 -0.02384207535 0.7411955604 -0.671282615 -0.002965146179
0.01768707371 -0.01050505781 -0.02472798443 0.8684809811 -0.4957148808 0.002746355496
0.01237064409 0.01879497242 -0.07697297668 -0.6216776032 0.04570618949 0.7819385538
0.01619267654 0.01267096019 -0.02425182438 0.7729747189 0.6344270943 0.00351367931
0.0204353652 0.04554473019 -0.06293767548 0.9958421988 0.01512852744 -0.08983007714
0.01421604586 0.01487890291 -0.02362137222 -0.654950418 -0.7556464873 -0.006191616228
0.02054602019 0.0006858545641 -0.03575489744 0.998906003 0.04549333034 -0.01082377571
0.01015157223 -0.01792148113 -0.02383196926 0.4810725352 -0.8765564059 0.014767637
0.01249165344 -0.01636225796 -0.02456838894 -0.6248975497 0.7806420582 -0.01005133376
0.009357237816 -0.01311982918 -0.05948176956 0.4525204889 -0.7745983944 -0.4418399422
0.01873777275 -0.008496166992 -0.02696758003 0.9051734998 -0.4250368185 -0.002153634494
0.01975230942 0.03344958725 -0.06627570953 0.9502410865 0.01009283709 -0.3113519106
0.01981260681 -0.005553781748 -0.0268653183 0.9532203084 -0.3022622558 0.002927867587
0.02052777481 0.001385043964 -0.02708909607 0.9956925482 0.09271641433 -0.0001266709784
0.02035779095 0.02817942333 -0.05771884727 0.9921911456 -0.01106732762 0.1242346363
0.01266343498 -0.005200483958 -0.0662121404 0.638274335 -0.5437135711 -0.5449600223
0.02030297184 0.003465019226 -0.02701880646 0.9888218214 0.149058442 0.003603675235
0.01997106838 0.004856514454 -0.0269147768 0.9623115699 0.2719469356 0.001143125809
0.01643252516 -0.01129862213 -0.04823057747 0.7903849895 -0.5920104753 -0.1575283006
0.0195949893 0.04611755276 -0.05436447048 0.962085946 -0.01415572045 0.2723788685
0.01082265568 0.06017575073 -0.04312745285 0.5921689322 -0.004859561659 0.8057991936
0.01818649673 0.009622280121 -0.02738180962 0.8956928447 0.4445861655 -0.008801667731
0.02014674091 0.03095043755 -0.05631957245 0.971627779 -0.01168594518 0.2362263699
0.01251051998 0.01636126518 -0.0245743618 -0.6458355149 -0.7633923394 -0.01134124579
0.02040649748 0.009407995701 -0.0540808897 0.9951483422 0.07109515877 0.06800922993
0.01014048195 0.01792211628 -0.02382845306 0.5052409309 0.8629645936 0.00486949265
0.01634840441 0.06028772163 -0.04819195747 0.8015136846 0.01940040225 0.5976616416
0.01642995377 0.03649599991 -0.0729474823 0.7987557053 0.005937096078 -0.6016261913
0.0205641222 0.00404190594 -0.05131279373 0.9998139017 0.0189611709 -0.003554696871
0.01495662546 -0.01409121323 -0.02682407379 0.7486944353 -0.6628918019 -0.005576880204
0.01064879417 -0.01754806614 -0.04176609039 0.5298498352 -0.8459404336 -0.06036501461
0.01317494265 0.03974634679 -0.04482939402 0.642517485 -0.0009082793672 0.7662704852
0.01988618135 -0.002700893879 -0.05115048885 0.9554679373 -0.2667569679 -0.1261813804
0.01680227852 -0.01190246344 -0.02739411545 0.8273668736 -0.5616564047 -0.002477795002
0.01771108818 -0.01047003698 -0.02767440033 0.8729030876 -0.4878774241 -0.003977269331
0.01480758286 -0.01022523499 -0.05634652328 0.7248441743 -0.6135333488 -0.3133332937
0.01622906041 0.01262819839 -0.02721712685 0.7698928045 0.638164591 0.00332030138
0.01427779531 0.01482748079 -0.02661436176 -0.6585405315 -0.7525438161 -0.001474154531
0.006839434385 -0.01940425777 -0.03035358524 0.4142992435 -0.9101384204 0.002047574076
0.01791800165 -0.008156388283 -0.05069730759 0.8850605943 -0.4324465986 -0.1722140639
0.006396045923 0.01955829811 -0.02417117691 -0.3998093343 -0.916587283 -0.004499865669
0.01257043457 -0.01630488205 -0.0275752821 -0.6239889631 0.7813715554 -0.009811540554
0.01840753136 0.01266416054 -0.04815338974 0.9089550127 0.2971295317 0.2924291818
0.01881387234 -0.008324601054 -0.03019989443 0.9057178171 -0.4238796687 -0.00112347276
0.0198199029 -0.005535596371 -0.02977700853 0.9521251541 -0.3056943801 -0.002938876276
0.01775447178 -0.01030024862 -0.04215123367 0.8579191897 -0.5124208533 -0.03741033326
0.02055370283 0.006715734005 -0.05410447598 0.9996463671 0.01008565041 0.02460529034
0.01240676117 0.02148480129 -0.07701647949 -0.6003209452 0.01347006033 0.7996457467
0.01510059404 -0.002695894897 -0.06549225998 0.740218001 -0.4517055752 -0.4980355251
0.0205287509 0.001380535796 -0.02999160194 0.9962458552 0.08649476767 -0.003584857199
0.0205705932 0.03685473378 -0.05999340439 0.9972400063 -0.0007950723323 0.07424107826
0.0199790144 0.004840601444 -0.02982504368 0.9646207821 0.2636121308 -0.003923178113
0.007514228821 -0.01752503109 -0.05119549561 0.3807709099 -0.8878930166 -0.2581850213
0.01525166512 0.009354859352 -0.07248188972 0.7579914342 -0.2163302925 -0.615345586
0.01937046671 0.006930161119 -0.02964085245 0.9537773872 0.3002285081 -0.01309727646
0.01808537531 0.02176468372 -0.05082328892 0.8794712007 0.01568265311 0.4756936635
0.01258627605 0.0163040514 -0.0275801487 -0.6486646594 -0.7610651612 -0.003738988297
0.01026812363 0.0178565073 -0.02687354183 -0.5166611422 -0.8561562534 -0.007598283032
0.006604443312 -0.01948188305 -0.02726848507 0.405302439 -0.9141807305 0.001877466172
0.01500503659 -0.01404319477 -0.02978893328 0.726098209 -0.6873814085 -0.01697616464
0.02037796068 0.02180441999 -0.0633494339 0.990855673 0.01567967502 -0.1340118769
0.01068282938 -0.01760294628 -0.0388487339 0.5370065756 -0.8431540491 -0.02674298702
0.01683141613 -0.01186266756 -0.03033476257 0.8324289549 -0.554130843 -0.001021714431
0.01773414135 -0.01043523979 -0.03060410213 0.8670391575 -0.4982090629 0.005552388712
0.02057579994 0.04839773083 -0.06024925423 0.9974481579 0.01419784125 0.06996851824
0.01836084938 0.05200991535 -0.05136633396 0.882683007 0.002023518799 0.4699644822
0.01812923861 0.009727474213 -0.03072199345 0.8973936954 0.441104196 0.01056615907
0.006673503399 -0.01910293579 -0.0451641674 -0.3676465001 0.9220663827 0.1209530355
0.01952686691 0.04297569656 -0.05414410934 0.9488925223 -0.008893088761 0.3154740785
0.01626523709 0.01258567882 -0.03016561985 0.7718869818 0.6357541381 0.002676438869
0.02036343575 0.001567839583 -0.05381939316 0.9912986742 -0.1112118336 -0.07041922085
0.01433387184 0.01477661228 -0.02958829975 -0.6629042399 -0.7486072709 0.01204668522
0.01037716818 -0.01779231358 -0.02989458179 0.5154927715 -0.8568479352 0.008877980445
0.01691789722 -0.0117445507 -0.03906272507 0.8096998206 -0.586528768 -0.01924070855
0.01821961365 0.04606827164 -0.05106641159 0.8795491926 -0.01407226332 0.4755998205
0.02033424234 0.01608886075 -0.05688584137 0.994612796 0.02303860686 0.1010673469
0.01888734055 -0.00815490799 -0.03341002922 0.9211369849 -0.3891945907 0.005850263214
0.02035930061 0.03087891865 -0.05775888443 0.9946352278 -0.008171702501 0.1031212241
0.01982716036 -0.005517509103 -0.03267299271 0.9504033483 -0.3110198549 -0.0003540652552
0.01759284115 -0.01027249861 -0.04496094322 0.853313931 -0.5150256626 -0.08126439581
0.02054486879 0.0006880818208 -0.03288300133 0.9985994257 0.05285888743 -0.002263848651
0.01834038277 0.04271695633 -0.05131584244 0.877334223 0.01376470244 0.4796823889
0.01183583355 -0.01597731352 -0.04785670853 0.5762795026 -0.7971280562 -0.1802464894
0.0203067894 0.003442511082 -0.03281339264 0.9817134642 0.1900969575 -0.01009064171
0.007114824295 0.01932458305 -0.03343028259 -0.4281239771 -0.9037194506 -0.001007360705
0.01998691845 0.004824774504 -0.03271959972 0.9661157762 0.2578032609 -0.01256128003
0.006928878546 -0.008964124203 -0.06684552765 0.343749621 -0.6913698062 -0.6354872061
0.01933111649 0.007043045902 -0.03296094055 0.9446114827 0.3281885811 -0.001184037135
0.01610020504 0.05496956253 -0.04786567001 0.7938259001 -0.01223462543 0.6080220014
0.01266005659 0.01624725246 -0.03056793213 -0.6544780144 -0.7560515626 0.006675575421
0.0134492588 0.04888871574 -0.04504927444 0.6567380484 -0.003350116589 0.7541113396
0.01038248301 0.01779201221 -0.02989615822 -0.5230760644 -0.8522527524 -0.007528403845
0.01505308318 -0.01399544954 -0.03273722029 0.7291349256 -0.6841954515 -0.01545459116
0.01058151007 -0.01766571617 -0.03588065147 0.529705909 -0.8481613581 -0.005827573006
0.02055929375 0.02138094997 -0.05975636387 0.9976797533 0.0108343432 0.06721403769
0.01686039448 -0.01182308817 -0.03325936699 0.8337118507 -0.5521956137 -0.002134047608
0.02040313339 0.04866899185 -0.06315116043 0.996251083 0.007565415864 -0.08617739914
0.01775385189 -0.01040074062 -0.03351699257 0.8665075994 -0.4991447321 0.004372246965
0.001358810663 -0.01194014454 -0.06514608002 0.1655049616 -0.7793442654 -0.604343134
0.01817680931 0.03407141304 -0.05099254036 0.884720287 -0.0135013145 0.4659267412
0.01814755821 0.009695353508 -0.03363054085 0.8984723106 0.4388771198 0.01159227258
0.01630120921 0.01254339361 -0.0330978899 0.7727875153 0.6346630264 0.001516282653
0.02039152288 0.05509834766 -0.06319100571 0.9958606773 -0.00345330349 -0.09082723224
0.0205738306 0.06006648827 -0.06057493401 0.9977000777 0.06625310115 -0.01432067161
0.01438432932 0.0147262826 -0.03254393768 -0.6657401258 -0.746098997 0.01124151281
0.02057625818 0.04567138195 -0.06018301582 0.9973218441 0.01711509645 0.07110705076
0.006905531406 0.01940020943 -0.03037294579 -0.4191520344 -0.9079143502 -0.001762030094
0.01548302722 0.01551739335 -0.04480592251 0.7897258536 0.4447819328 0.4224950986
0.02038419342 -0.002744561493 -0.03570913506 0.987599048 -0.1565350236 -0.0120377259
0.01930042553 0.01285981894 -0.05104542414 0.9496667664 0.189440076 0.2494904614
0.01999478149 0.004809030294 -0.03559901047 0.9680793474 0.250562787 -0.006377062222
0.01273341846 0.01619077492 -0.03353880882 -0.6573617907 -0.7535477542 0.00642325751
0.0006122791991 0.01660548782 -0.08095122147 -0.1318566511 0.09199049311 0.9869911716
0.001634830058 -0.005571537256 -0.07166943359 -0.2132797477 0.6279164206 0.7484869524
0.01820249271 0.03681671429 -0.05104035473 0.8920394151 0.003380317325 0.4519449693
0.01048220825 0.01772869015 -0.0328968792 -0.5184799265 -0.854957974 -0.01501427673
0.01497393475 -0.0140861948 -0.03607101974 0.7315840968 -0.6817509083 -0.0006390191198
0.02054708354 0.0006836383045 -0.03861234411 0.9990351894 0.0434333772 -0.006498626904
0.01688922024 -0.01178371859 -0.0361685009 0.8089511161 -0.5878274886 -0.007545546858
0.02036802864 -0.002870964718 -0.03899070969 0.9875462069 -0.1572829821 -0.003814821634
0.008121472836 0.03673405266 -0.07951523209 -0.4210317383 0.002111937202 0.9070434472
0.02056889725 0.01602477384 -0.05970610714 0.9996894776 -0.01485649814 0.02000581989
0.01884224033 -0.008263845086 -0.03671203232 0.9213782576 -0.3884981568 0.01145812845
0.009452912807 0.05454666519 -0.07886919785 -0.4887970771 -0.001022168076 0.8723969123
0.01816578388 0.009663400412 -0.03652390385 0.900131628 0.4355983996 0.004133598856
0.01501572291 -0.007917753696 -0.05966377004 0.7287218486 -0.5610373156 -0.3926851129
0.01633442855 0.01250143647 -0.03601379395 0.7750824337 0.631821714 0.006967258035
0.01280407286 -0.01613472652 -0.03649272346 0.6626624265 -0.7488903227 -0.006464763373
0.0202500515 0.008761096001 -0.05195066833 0.9846623997 0.1300069242 0.1163535913
0.01987771149 -0.005337598133 -0.03942866135 0.9536017308 -0.3010233323 -0.005356536072
0.009875590801 0.04618603325 -0.07863417435 -0.4690327534 0.01479120298 0.8830569045
0.02000612068 0.00478944095 -0.03917751439 0.9668117818 0.2551939802 0.0122886542
0.01869178057 0.03062633801 -0.06920063591 0.8939512405 0.01710609592 -0.4478376503
0.01820693779 0.02762339058 -0.05105581894 0.8876585762 0.01585176637 0.460229262
0.01280637789 0.01613460732 -0.03649336815 -0.6656368112 -0.7462251947 -0.00869450941
0.007304828405 -0.01925052452 -0.03646355438 -0.4317017582 0.9020095749 0.003509810788
0.01515593743 -0.01388855648 -0.03931340981 0.7334957984 -0.6796537965 -0.007391256916
0.01221756458 0.006951542695 -0.07452624512 -0.5730863162 0.2957000851 0.7642862905
0.01940270376 0.006851237178 -0.03972937107 0.946584951 0.3211644454 0.02881544041
0.01818150902 0.009631679058 -0.03940198708 0.8965357445 0.4411138905 0.04052399921
0.01662131691 0.03087365595 -0.04844460932 0.7804867347 0.01143505475 0.6250677535
0.0163661375 0.01245974851 -0.03891430092 0.7756055579 0.6295205807 0.04625858782
0.01326649189 0.04583524895 -0.07632048035 -0.6636605665 0.01017300194 0.74796468
0.007322808027 0.0192494297 -0.03646849251 -0.4365525092 -0.8996784403 -0.0007815123623
0.01354543638 0.05171105766 -0.04512631989 0.6602198847 -0.00208677669 0.7510694703
0.02054684173 0.0006808386842 -0.04216357337 0.9998169004 0.01864917732 -0.004286469183
0.01067319298 0.01760348892 -0.03884613991 -0.6190853646 -0.7744317632 -0.1303409203
0.01373582315 0.02815294838 -0.07594276047 -0.6689602337 0.01195180183 0.7432020991
0.01495640087 0.0280872612 -0.0747442627 0.7443369809 -0.008735443439 -0.6677470711
0.007510100126 -0.0191759119 -0.03948312378 -0.4274306178 0.9034004099 0.03421646358
0.01510329413 -0.01384619164 -0.04218593693 0.7306071505 -0.6817043265 -0.03863163047
0.02055017757 0.0006779582401 -0.04569649442 0.9998778541 -0.01516549503 0.003779491679
0.01686638069 -0.01170863199 -0.04192149353 0.8037288825 -0.5929679603 -0.04908035743
0.02033616892 -0.002488891443 -0.04540777334 0.982511001 -0.1843782031 -0.02601559271
0.02056572819 0.0307833724 -0.05988545513 0.9979327336 -0.0089733955 0.06363754716
0.01880691051 -0.008211539984 -0.04242321873 0.9194121667 -0.3913001101 -0.03956629375
0.01979293728 -0.005456019402 -0.04267765236 0.9470056881 -0.319528032 -0.03289473302
0.01166500282 0.04874151993 -0.07757489395 -0.5706516981 0.005928126932 0.8211708085
0.02033269501 0.003403455973 -0.042817173 0.9865154684 0.1603908051 0.03258865168
0.01019400978 0.04876549911 -0.04274579493 0.5777557992 -0.001401454752 0.8162084736
0.02007411289 0.004769072533 -0.04275064468 0.9756360628 0.2142352131 0.04730270964
0.01949586582 0.006827033162 -0.04260179234 0.9384999346 0.337148167 0.07449151793
0.01832972813 0.009595894337 -0.04230090809 0.9083111093 0.4121108675 0.07166283248
0.01720952034 0.01168609428 -0.04272792435 0.8228347499 0.5297392347 0.2057165953
0.01459714794 0.01524445868 -0.04278058815 0.7418532673 0.5563995525 0.3742636341
0.0132881422 0.01601869202 -0.04171984863 0.7414634943 0.6421336793 0.1946695264
0.01090523767 0.01823635387 -0.04183762741 0.6643390324 0.5807330746 0.4705345323
0.004872378588 0.03982207489 -0.08056937408 0.3399504882 0.004477713786 -0.9404326747
0.01346716245 0.03967908223 -0.07617105611 -0.6687658185 -0.004724713741 0.7434581072
0.007410013199 -0.01912012672 -0.04240743065 -0.4021227165 0.9133132458 0.06446887579
0.01877957948 -0.002691358328 -0.05718149376 0.9213005332 -0.3037998021 -0.2427158991
0.01518004036 -0.01345293903 -0.04507565117 0.7387817407 -0.6672415533 -0.09481692422
0.009788905621 0.03953214645 -0.04249686432 -0.5663848832 0.002377324024 -0.8241374354
0.01667511463 -0.01167819214 -0.04473232079 0.8082586088 -0.5817019548 -0.09132829302
0.01864279842 -0.008189529777 -0.04522197247 0.9167808202 -0.3910301487 -0.08129176222
0.005714369774 -0.01911449623 -0.0471347847 0.355825034 -0.9194085863 -0.1675601283
0.01966683531 -0.005440698028 -0.04547638512 0.9422437302 -0.3286785612 -0.06439841871
0.01880035305 0.009550135612 -0.04526624203 0.9240691428 0.3458202672 0.1628022177
0.0204289566 0.05195385132 -0.06296762466 0.9964686968 -0.01310661243 -0.08293583664
0.01975418949 0.00679914391 -0.04550151539 0.9516334559 0.292850977 0.09290893818
0.009084696134 0.02186172549 -0.0421231486 0.6490771291 0.2494005911 0.7186781098
0.00920828867 0.02539051723 -0.04218442917 -0.5447954525 0.001990839844 -0.8385666053
0.02035662969 0.02481067912 -0.05767428843 0.991535122 0.001898829404 0.1298248679
0.009305435181 0.02821578121 -0.04223632431 -0.5491329376 0.001764391701 -0.8357331535
0.01486212087 0.05528712845 -0.07479426384 0.7207396643 -0.0100141712 -0.6931335028
0.009412868023 0.03104234123 -0.04229371643 -0.5528109934 0.002946138861 -0.8333014615
0.009011671066 -0.01600575256 -0.05368981171 0.4439202537 -0.8406928434 -0.3101134492
0.009530604362 0.033870327 -0.04235661125 -0.5573297404 0.003335927971 -0.8302845488
0.02056147607 0.0247341369 -0.05979732068 0.9980310155 -5.753949647e-05 0.06272231413
0.009903455734 0.04236989594 -0.0425675602 -0.569889349 0.001440835804 -0.8217201798
0.02001462078 -0.003385137439 -0.04837771988 0.9657290343 -0.2464947231 -0.08128827591
0.01375444555 0.05737048721 -0.04529369354 0.6688097712 0.02545114582 0.7429977989
0.01002672911 0.04521045876 -0.04264338875 -0.5736679173 0.001647178492 -0.8190863248
0.01037452793 0.05232515907 -0.04285585403 -0.5823869108 0.002958191916 -0.8129063508
0.006649618149 -0.01607418633 -0.05606738281 0.363193142 -0.8488111504 -0.3842009535
0.002606433868 0.06051457596 -0.08100479126 -0.2366473052 -0.01187615804 0.9715230362
0.02037549019 0.05784606743 -0.06327212048 0.9960589386 0.01820294024 -0.08680578159
0.01052957344 0.05517680931 -0.04295004463 -0.5884274866 0.001735100852 -0.8085481324
0.01069376993 0.05803202248 -0.04304952431 -0.5898414176 0.003657722698 -0.8075108192
0.01244916344 -0.01599735117 -0.04512145424 0.6114744313 -0.7831129288 -0.113283541
0.02013722992 -0.003391950846 -0.046298172 0.9762119198 -0.2125296002 -0.04291219651
0.02015475845 0.008665880203 -0.06164331818 0.9757893145 -0.1100119285 -0.1890306572
0.0131646266 0.01945402241 -0.04460288429 0.6977649665 0.2594234882 0.6677001612
0.01952513647 0.03381153393 -0.05412286377 0.9587362628 -0.001322830849 0.2842939123
0.01289928532 0.02505195332 -0.04458215904 0.6326936762 0.01420080055 0.7742719479
0.01980373171 0.03668049622 -0.06607580821 0.9549577384 0.003534701708 -0.2967207842
0.01293742847 0.02784469891 -0.04461935043 0.6233120953 0.0007488198873 0.7819728071
0.01507612133 0.0276083622 -0.04659519768 0.7554410402 0.0004955491914 0.6552164445
0.01298064327 0.03064025879 -0.04466075325 0.6268205829 0.003533101166 0.7791556161
0.01950016689 0.01888834238 -0.05393604279 0.9613125809 0.04377665226 0.271959053
0.01302894354 0.0334389019 -0.04470637703 0.6420082647 0.01989118838 0.7664396445
0.01308497763 0.03624058151 -0.04475690079 0.639600219 0.02086520348 0.7684244941
0.01033973598 -0.01452702236 -0.05540620422 0.4898282895 -0.7995513887 -0.3475425494
0.01327342987 0.04325741959 -0.04490836525 0.646957689 -0.02197814926 0.7622090984
0.01335859776 0.04607092667 -0.04497662926 0.6525350889 -0.02126166391 0.7574601635
0.01364715672 0.05453822327 -0.04520778656 0.6640698396 0.004410894035 0.7476575367
0.01383840847 0.05949802017 -0.04536091232 -0.6690861092 -0.01323282365 -0.7430670702
0.01398149586 -0.01452074051 -0.04621562195 0.7079611676 -0.6976222927 -0.1100641715
0.01737830734 -0.01025488377 -0.04703885269 0.8357036159 -0.5342712992 -0.1270969918
0.004382313728 0.0454476757 -0.0806761055 0.324269594 0.003962964071 -0.9459564077
0.01943564844 -0.005427364349 -0.04823904991 0.9348674456 -0.337781008 -0.1092101177
0.02025987911 -0.002029393673 -0.04843655968 0.9812962648 -0.1766932956 -0.07640104645
0.01815013838 0.01903346014 -0.05081468773 0.8981340969 0.06314532383 0.4351641208
0.02002326139 0.006998464584 -0.048153169 0.9715290664 0.2150436789 0.0994358552
0.01942930222 0.009499562263 -0.04824921703 0.9475890798 0.2534203655 0.1945586139
0.01739289093 0.01503266668 -0.04777540207 0.8585303204 0.2795863635 0.4298338683
0.01651848539 0.01668245602 -0.04733280436 0.7976647145 0.2839263475 0.5320872414
0.01500750685 0.02207269669 -0.04652455139 0.7613351369 0.0375098193 0.6472726031
0.003876377344 -0.01328453922 -0.06272164154 0.2028640225 -0.8145873118 -0.54340933
0.01511578703 0.03038047791 -0.04663636017 0.7509564852 0.009889975543 0.6602776278
0.01982379436 0.05982316399 -0.06602822495 0.9726743573 0.02365966724 -0.2309649645
0.01515287256 0.03315652084 -0.04667990494 0.7677813078 0.009837259416 0.6406364739
0.01258649699 -0.01024928474 -0.06012014135 0.6088767249 -0.6743542337 -0.4177505253
0.0161646347 0.03462976837 -0.04790392303 0.780382119 0.002237584095 0.6252989218
0.01594801617 0.03720881844 -0.04764856148 0.7773069235 -0.01014731761 0.6290397274
0.0159851234 0.0399868927 -0.04770024776 0.7791845365 -0.001624209435 0.6267924856
0.01617543292 0.0518481493 -0.04796305561 0.7921336366 -0.001017840465 0.6103468406
0.01447783279 0.01336957216 -0.07446144104 -0.6980684948 0.1562845402 0.6987671422
0.01630312562 0.05817276096 -0.04813153172 0.8001799902 -0.01181525886 0.5996435466
0.016640028 0.01917391491 -0.04833016586 0.8098442453 0.1208650224 0.5740591822
0.009520393054 -0.01077169927 -0.06282435354 0.4609051912 -0.714118709 -0.5268784244
0.01655718136 0.02467721844 -0.04835896492 0.7758542145 0.02022566262 0.6305879482
0.009036959171 -0.0174968338 -0.04864440346 0.4514379798 -0.8683719169 -0.2052655948
0.01609618111 -0.01079275665 -0.05126899796 0.7676065868 -0.6043580174 -0.213381149
0.01909075642 -0.005416142225 -0.0509669733 0.9230278064 -0.3558587701 -0.1462333898
0.007814592838 0.04227228165 -0.07962920761 -0.4013568659 -0.00471801689 0.9159096061
0.02042387486 0.0006735332608 -0.05127641233 0.995926183 -0.07430574231 -0.05108517137
0.009622858286 0.02433705378 -0.07875407219 -0.4810673632 -0.002374229159 0.8766804179
0.02039131117 0.00674109292 -0.05127807331 0.9957232536 0.0634702733 0.0671321577
0.01786086464 -0.005061334252 -0.05698751068 0.8839433875 -0.3860371457 -0.2638549029
0.01992746671 0.009680752754 -0.05094535065 0.9747847343 0.1542584638 0.1612422032
0.01856012392 0.01628767037 -0.05089112854 0.918197965 0.1256239036 0.3756742365
0.01485698986 0.03348287392 -0.07484116364 0.7405708216 0.01156666937 -0.6718787617
0.01810203123 0.02449376917 -0.0508543787 0.8779054479 0.01111209103 0.478705072
0.004631239653 0.04262931824 -0.08062034225 0.3300804556 0.006504452456 -0.943930392
0.01806641388 0.03093236237 -0.05078129349 0.8797870591 -0.003560813104 0.4753546583
0.009522578557 0.02774129613 -0.07880375671 -0.4810259214 -0.0002037467534 0.8767063484
0.01823011923 0.03956657791 -0.05109190369 0.8759266586 0.01523994294 0.4822035181
0.01673335934 0.04012720108 -0.07253342438 0.7987523192 -0.005756680028 -0.6016324403
0.01842645454 0.05758223724 -0.05151189137 0.8871490652 0.01809847377 0.4611279447
0.01845267868 0.05967915154 -0.05157026482 0.8898629663 0.044296086 0.4540724149
0.003988238215 -0.0191719017 -0.04893521309 -0.2975494885 0.9240938892 0.2398224048
0.01052643077 -0.01597997379 -0.05115079371 -0.5412453872 0.8032078165 0.2488184767
0.01312097899 -0.01401682281 -0.05125703303 0.6275273879 -0.740029144 -0.2420046353
0.01441113377 -0.01305482769 -0.05060146332 0.7063381027 -0.6757783668 -0.2107370008
0.01767841148 -0.007457550287 -0.05345269012 0.869941211 -0.4450261637 -0.2124947128
0.01843536301 -0.005542910957 -0.05403983765 0.902693835 -0.3745889247 -0.2117238242
0.01950425673 -0.002695653319 -0.05385715771 0.9479008692 -0.2759492112 -0.1591727835
0.02053362751 0.00402923739 -0.05409331322 0.999125369 -0.03389905214 -0.02448165217
0.01995549631 0.01313207722 -0.05364918232 0.9707214352 0.1074397019 0.2148408845
0.01968440437 0.01617535305 -0.05395616627 0.9685008544 0.06242001033 0.2410598211
0.01954037056 0.0247021843 -0.05414385147 0.9568394749 0.009822580372 0.2904509186
0.01501825905 0.006691392899 -0.07173678589 0.7383102593 -0.2628178791 -0.6211479079
0.0195385313 0.03653724766 -0.05416998672 0.9594583026 0.01713405286 0.2813293262
0.01960349388 0.03966477509 -0.05438046494 0.9606988995 0.01507365208 0.2771829893
0.01961119795 0.04886826134 -0.05442794895 0.9631170856 -0.0004859340009 0.2690822239
0.01962777185 0.0516256485 -0.0544950552 0.9644573512 0.002383198845 0.2642278148
0.0009050496221 0.008996404648 -0.07948417664 0.1566796289 -0.3015280413 -0.9404957917
0.01964551878 0.05438998127 -0.05456599617 0.9532618625 0.003451590133 0.3021256493
0.01971445351 0.05755950623 -0.05480485306 0.9654783149 0.01872719463 0.2598093831
