# .PCD v0.7 - Point Cloud Data file format
VERSION 0.7
FIELDS x y z normal_x normal_y normal_z
SIZE 4 4 4 4 4 4
TYPE F F F F F F
COUNT 1 1 1 1 1 1
WIDTH 564
HEIGHT 1
VIEWPOINT 0 0 0 1 0 0 0
POINTS 564
DATA ascii
0.01073596573 0.05874628448 -0.04307505798 -0.5928193909 0.005485841362 -0.8053167547
0.0204300499 -0.002036436796 -0.04496172714 0.9913178571 -0.1274174633 -0.03246068804
0.01742459917 0.01774184895 -0.04921767521 0.8613149408 0.1386981857 0.4887733484
0.02054179382 0.002035686255 -0.04499051666 0.998212705 0.05928349749 0.007540728765
0.01987375259 0.00612117672 -0.04482453918 0.9632356521 0.2568744367 0.07869308954
0.009357864857 0.02962889099 -0.04226433372 -0.4710310384 -7.338351916e-06 -0.8821166367
0.01956991291 0.007483340979 -0.04545616341 0.9556725346 0.2660951914 0.126029186
0.01833440208 0.01025586605 -0.04444031525 0.8927918387 0.4159872816 0.1728505548
0.0178168726 0.01163475943 -0.04502300644 0.8710474382 0.4398800915 0.2185906346
0.01669445992 0.01306319904 -0.04402962875 0.8109789634 0.5003390477 0.3032720861
0.02042776489 0.01007143688 -0.05478486252 0.9940441005 0.05352157873 0.09493032614
0.01428680897 0.01594139004 -0.04342417908 0.7326457131 0.5382991927 0.416490382
0.01267136097 0.01742058754 -0.04301661682 0.6854184517 0.5687582845 0.4546598288
0.01845911789 0.02393934822 -0.06973417282 0.8941452571 0.0008563196278 -0.4477762007
0.01370010328 0.05595370102 -0.04525018311 0.6533118541 -0.01934749684 0.7568416583
0.01071654987 0.01893545341 -0.04252248764 0.5235567368 0.4810426417 0.7031972129
0.008199103355 0.01558981419 -0.07912652588 -0.3869633325 0.1101834026 0.9154883927
0.009011264801 0.02045234108 -0.04209340668 0.6388992375 0.2924505538 0.7115338628
0.01716288185 0.01198437929 -0.07074995041 0.8287640301 -0.1501366812 -0.5390817743
0.009231290817 0.02609668159 -0.04219671631 -0.4713556623 7.545779768e-06 -0.8819432179
0.01484355068 0.03415873337 -0.07485436249 0.721612593 -0.003115339434 -0.6922900839
0.02019616508 0.05209137726 -0.05675268555 0.9827190567 -0.01021796571 0.1848211267
0.02041940928 0.04962765789 -0.06304056644 0.9957271512 -0.008567239292 -0.09194586912
0.009279863358 0.02750930977 -0.04222266388 -0.4713477529 7.196160392e-06 -0.881947445
0.009530604362 0.033870327 -0.04235661125 -0.471259345 3.582038411e-06 -0.8819946881
0.009625358582 0.03599227905 -0.04240723038 -0.700528309 0.01432900406 -0.7134807411
0.009963964462 0.04378981972 -0.04260482216 -0.5002994392 -0.0014019791 -0.8658513184
0.008329099655 0.0319193058 -0.07942516327 -0.3916039762 -0.0003641607437 0.9201337909
0.01015904284 0.04805397415 -0.04272443962 -0.5002314876 -0.001404450312 -0.8658905741
0.01922677994 0.02366581726 -0.05322058868 0.9224855714 -0.005557854621 0.3859915554
0.01026394367 0.05018854904 -0.04278850555 0.5786745275 -0.004186802947 0.8155478293
0.01050526953 0.02971234608 -0.07828211212 -0.5271106475 -0.001753381371 0.8497948523
0.01033690739 0.05161267853 -0.04283296585 0.5816331724 -0.004404144074 0.8134392763
0.01045090914 0.05375054932 -0.04290229034 -0.5848190861 0.005004867289 -0.8111483143
0.01065157413 0.05731776047 -0.04302399063 -0.5917204343 0.005984198535 -0.8061210312
0.01551925182 0.05341392136 -0.04711113739 0.7485774482 0.01007257359 0.6629708495
0.01928892517 0.03591323471 -0.05340000916 0.9407539773 0.003180246858 0.3390749774
0.01565855217 0.01400790882 -0.07327397919 0.7568664947 -0.1276054465 -0.6409913878
0.01082265568 0.06017575073 -0.04312745285 -0.5941936265 0.006452545614 -0.8042961512
0.01941631699 0.05980571747 -0.06734928513 0.9413519677 0.001627282982 -0.3374223243
0.007346553802 -0.01910853577 -0.04312721252 0.4187861046 -0.9029457715 -0.09647347946
0.02037637901 0.03807731247 -0.06344795227 0.9900217136 0.00243464264 -0.1408938577
0.01244916344 -0.01599735117 -0.04512145424 0.5900421621 -0.7990363351 -0.1157202752
0.01420914459 -0.0145334692 -0.04483592606 0.6910310446 -0.7148488819 -0.1070848801
0.02023914814 0.02214553165 -0.05692183304 0.9792561297 -0.005452867959 0.2025529528
0.01555540276 -0.007455243111 -0.05930560303 0.7469499287 -0.5512805818 -0.3716927819
0.01607114744 -0.0123813982 -0.04529637146 0.7760547779 -0.6231755135 -0.09690851893
0.01825097179 0.041632164 -0.05113265038 0.8825081189 0.01284777026 0.4701216385
0.02053431129 -1.015663147e-07 -0.04709928799 0.9981268321 -0.05722383763 -0.02163930557
0.02055962658 0.002030654669 -0.04710630417 0.9995232756 0.03012288034 0.006770049282
0.02008139038 0.006102231026 -0.04699271965 0.9725576809 0.2152379498 0.08834128306
0.01641910934 0.01442965984 -0.04539471436 0.8130525215 0.4507309057 0.3684932127
0.01932975769 0.04207055283 -0.05351790047 0.9395858339 -0.01371431095 0.3420385627
0.01548550034 0.01585401917 -0.04516653442 0.7515812238 0.4620306297 0.4708007661
0.01285856342 0.02156450081 -0.04454144669 0.6582525624 0.06304621545 0.750152477
0.01605802917 0.01799413872 -0.07338135529 0.7649003824 -0.05230507852 -0.6420214824
0.02010489845 0.04955830383 -0.06506558609 0.9748566842 0.003889674187 -0.2227988236
0.01293742847 0.02784469891 -0.04461935043 0.678661404 0.000755613015 0.7344509022
0.01480758286 -0.01022523499 -0.05634652328 0.7195709167 -0.6168591078 -0.3189083518
0.01311006165 -0.002026183128 -0.06861708832 0.647603892 -0.4685221206 -0.6009128236
0.02058483219 0.01202320194 -0.05898959541 0.9999374587 -0.01094511284 -0.002298525756
0.007730244398 0.04366304398 -0.07966016006 -0.356246275 -0.01214023753 0.934313227
0.0129692049 0.02994099617 -0.04464987564 0.6791683084 0.0009087848356 0.7339820046
0.01377473736 0.018069561 -0.07578741455 0.6681538371 -0.0532162953 -0.742117562
0.01300415659 0.03203917789 -0.0446830368 -0.6801823934 -0.0008719648819 -0.733042394
0.01306835556 0.03553995514 -0.04474324036 0.6827999463 0.0005014719897 0.7306052162
0.02000023365 0.01212425423 -0.05330488396 0.9693816019 0.1344280911 0.2054954942
0.01317448902 0.03974604034 -0.0448290329 0.6882794625 -2.198415907e-05 0.725445643
0.01323289824 0.04185219002 -0.04487586975 0.6912451978 -0.000716999777 0.7226199294
0.01342590523 0.04818371201 -0.04503056335 0.7015335588 -0.001948352956 0.7126337557
0.01352641535 0.03763556862 -0.07612559509 -0.681231833 -0.002421755547 0.7320637437
0.01354543638 0.05171105766 -0.04512631989 0.6467451085 0.01737371612 0.7625083072
0.01979455757 -0.002021100044 -0.05322495651 0.9554003636 -0.2531619589 -0.152049886
0.01362103176 0.05383080673 -0.04518686676 -0.6497510256 0.00275604405 -0.7601420979
0.01378196621 0.05807921219 -0.04531572723 -0.6473357485 -0.0005750582342 -0.7622047612
0.004898340225 -0.01468472672 -0.06003743744 0.2444770959 -0.8478112819 -0.4705815337
0.01383840847 0.05949802017 -0.04536091232 -0.6488863551 -0.04351632061 -0.7596399331
0.0003574125469 0.03192300415 -0.08119048691 -0.102335635 -0.01898471607 -0.9945687499
0.02055818272 0.04571112442 -0.05948240471 0.9993154782 0.01155936779 0.03514194069
0.006897952557 -0.01910480309 -0.04448488235 0.3933438682 -0.9117161123 -0.1185509673
0.01017060089 -0.01750413895 -0.04528708267 -0.4884422352 0.8674604725 0.09453312418
0.02021766472 0.05760983276 -0.0569023056 0.9793723846 0.004211730839 0.2020197852
0.01384932947 -0.01451524258 -0.04690050125 0.6818757875 -0.7161499508 -0.1489115792
0.009907366276 -0.01029619789 -0.06313341522 0.4753594458 -0.6966923918 -0.5372644679
0.01576772809 -0.0123637538 -0.04736125946 0.7618098695 -0.6343526078 -0.1313106685
0.01737830734 -0.01025488377 -0.04703885269 0.8425729233 -0.5238950239 -0.1249194654
0.01930417442 -0.006112928867 -0.04750382614 0.9348354784 -0.3436783944 -0.0892624751
0.02040960503 0.03000443459 -0.06330171204 0.9910508961 0.0005771757914 -0.1334832879
0.01653334522 0.02192816639 -0.04832713509 0.813415332 0.002880091434 0.5816762009
0.01927200317 0.009512151241 -0.04750644493 0.9408938277 0.2713617791 0.202685939
0.01850868225 0.01158039951 -0.04732535934 0.9014879883 0.349737421 0.2549571402
0.01500750685 0.02207269669 -0.04652455139 0.7165131033 -0.008184647905 0.6975256155
0.01510569859 0.02968702888 -0.0466256485 0.7186570683 0.002302587768 0.6953608533
0.01519190788 0.03593643188 -0.04672696495 0.7246051473 -0.001364812519 0.6891629109
0.01529302025 0.04220622253 -0.04684719467 0.7299996262 -0.01014213477 0.6833722872
0.01535743809 0.04569974327 -0.04692289352 0.7360195017 0.01197622764 0.6768543884
0.02046137857 0.004023696959 -0.05546689606 0.9939232545 -0.07668291511 -0.07897021369
0.0153986845 0.04779938889 -0.04697111511 0.7387999394 0.0004463484506 0.6739246622
0.0155684557 0.05552559662 -0.04716795731 0.7524655114 0.01059538447 0.6585464236
0.01567301607 0.05975920868 -0.04728824806 0.7578133666 0.008419713362 0.6524170521
0.01200977421 -0.01598126411 -0.04717802811 0.588084025 -0.7956744841 -0.1451182101
0.01311685991 0.04996405411 -0.07643269348 -0.6403743069 0.0005935547857 0.7680627545
0.01701038265 -0.01024244261 -0.04907546234 0.8300296299 -0.5353177838 -0.1564790201
0.01815546703 -0.008163177848 -0.04934406567 0.880662079 -0.4491759101 -0.1505832142
0.01844311142 0.02594386864 -0.06976260376 0.8932457551 0.0009619626725 -0.4495676763
0.01913817024 -0.006106427193 -0.04887176132 0.9251457057 -0.3597202113 -0.1212715664
0.0187987957 0.01694023323 -0.05165641022 0.9166768233 0.1236258255 0.3800266529
0.009458137512 -0.01454452229 -0.05665056229 0.454765878 -0.8091001175 -0.3722163296
0.01805609957 0.03569707108 -0.05075212351 0.8791753932 0.01669188001 0.4762058474
0.01326649189 0.04583524895 -0.07632048035 -0.6455437405 -0.0006781885096 0.763722999
0.02021543884 -0.002028058052 -0.04912749863 0.9821182454 -0.1752841933 -0.06869646067
0.02058190727 0.002025608301 -0.04921681213 0.9999682206 -0.007740766473 -0.001907448655
0.02029562378 0.006083213329 -0.04915382004 0.982282431 0.1616802791 0.09476662408
0.01991380978 0.008122262955 -0.04906681061 0.9679124617 0.2027630192 0.1484339064
0.009432798862 -0.01599716806 -0.05306332588 0.4520458141 -0.8440909666 -0.2883834635
0.01939788437 0.01017086411 -0.04894865036 0.948283028 0.2409832852 0.2066067645
0.02035817242 0.01000122213 -0.0610018158 0.9931893014 -0.04806570661 -0.1061352887
0.01793685722 0.01566467857 -0.04932715225 0.8832965955 0.2075814498 0.4203535013
0.01542454433 -0.006087311983 -0.06137525177 0.7544516852 -0.5063958121 -0.4175714743
0.01653150558 0.01986705589 -0.04830909348 0.8228773723 0.06673741462 0.5642862285
0.02056045055 0.004032135725 -0.05340390968 0.9993822328 -0.0270655621 -0.02241892175
0.01655086899 0.02398961449 -0.04835053635 0.8133232258 -0.00272783828 0.5818057144
0.01657015991 0.02605279064 -0.04837629509 0.8145530614 -0.0137596992 0.5799258408
0.01669033623 0.03778171158 -0.04855727005 0.82135601 0.009866296194 0.5703305717
0.01998570728 0.03803410339 -0.06544770432 0.9657204781 -0.006324479039 -0.2595071468
0.016590868 0.02811746788 -0.04840394592 0.815874632 -0.01344443586 0.5780725145
0.01660561752 0.02949498749 -0.04842364502 0.8162544395 0.009214400101 0.5776190655
0.0166291666 0.03156299019 -0.04845509148 0.8179462421 0.002531158179 0.5752890911
0.01664964294 0.03363330841 -0.04848734665 0.8208477601 0.003002496608 0.5711391597
0.01666256905 0.03501502991 -0.04850971603 0.8236357005 0.009346353389 0.5670422194
0.01671292114 0.03985987091 -0.04859552574 0.8242766366 0.01009919219 0.5660971937
0.01673679161 0.04194045639 -0.04863566971 0.8228631333 0.003352346469 0.5682297296
0.01676227093 0.04402423096 -0.0486781826 0.8201687892 -0.01803386852 0.5718373342
0.02054505825 0.01600029421 -0.06108198166 0.9995544284 -0.01374060695 -0.02649793145
0.01678904343 0.04611068726 -0.04872259903 0.8278838161 -0.01810534226 0.5606073347
0.01686780357 0.05169086838 -0.04885188675 0.8299376597 0.003655678126 0.5578441691
0.02035840416 0.02010273552 -0.0576217289 0.991059829 -0.002687259802 0.1333911319
0.0141355648 0.06020185089 -0.07556798553 0.6757980254 0.0268233959 -0.7365986249
0.01696903801 0.05799914169 -0.04901593781 0.8207440968 -0.001087868353 0.5712949712
0.01337970161 -0.01450217819 -0.0489370575 0.6536818588 -0.7325918768 -0.1897608219
0.0192189579 0.021631567 -0.05319800377 0.9374463079 0.01026783943 0.3479784351
0.01884113598 -0.006097655535 -0.05090946579 0.9110136576 -0.3810795214 -0.1575833558
0.01953139782 -0.004056070566 -0.05106850433 0.948689477 -0.2871742289 -0.1323602603
0.001146271229 0.02558758736 -0.08116046143 -0.04539922469 -0.0105579391 -0.9989131295
0.01534254265 0.05799693489 -0.07427135086 0.7367944167 -0.003754180192 -0.6761064219
0.02004994392 -0.002024275541 -0.05118844986 0.9734542258 -0.2057400662 -0.1002890591
0.02006857681 0.05570665359 -0.06524154663 0.9742376708 0.001557267467 -0.2255183711
0.02036413527 -1.927912235e-07 -0.05126201439 0.9897915669 -0.1258183948 -0.06695062147
0.02046324921 0.006065203667 -0.0512931366 0.9927552667 0.08912057571 0.08058848201
0.02022382021 0.008094325781 -0.05124269009 0.9819997441 0.145106182 0.1209160802
0.01988795853 0.01013000774 -0.05117098999 0.9691011178 0.1728926184 0.175929435
0.01960684109 0.01149238729 -0.05111063957 0.9476176039 0.2013395699 0.2479581706
0.01834646289 0.03793451182 -0.05132883199 0.8911402108 0.001149557321 0.4537265732
0.01914721775 0.01354353476 -0.05101281643 0.9334238779 0.1984117914 0.2989190947
0.01868219566 0.05568839264 -0.06916767883 0.9076715263 0.001123341624 -0.4196798046
0.01765585709 0.01976243973 -0.04999814987 0.8747646847 0.05479153883 0.4814401662
0.02046362114 0.008016502619 -0.05894326401 0.995429113 -0.05478311738 -0.07822845471
0.01769075108 0.0259158535 -0.05006591415 0.8703957342 -0.0003920591835 0.4923526298
-0.0009303150177 0.01459734344 -0.08072600555 0 0 1
0.01058825111 0.01752145767 -0.07808866882 -0.5267072125 0.0670838934 0.8473955768
0.01956945229 0.04409937191 -0.06689938164 0.949113369 -0.01729886708 -0.314459158
0.01774747276 0.0320840683 -0.05015480423 0.8759156523 0.0009410697721 0.4824633504
0.02055315208 0.0395952301 -0.0593479538 0.9974418918 0.002923587472 0.07142216078
0.01809979693 0.03982332102 -0.05082888921 0.8818937487 -0.008572590703 0.471370265
0.01790725899 0.04586804199 -0.05041894913 0.8849823186 -0.006423785938 0.4655803161
0.01792834949 0.04794807434 -0.05046501732 0.8848860518 -0.005135601416 0.4657792406
0.00871429348 -0.01750069618 -0.04929380798 0.4607863479 -0.8569936849 -0.2307331047
0.01297592831 -0.01449770355 -0.05027331543 0.6438493477 -0.7334692924 -0.2179009284
0.01538386917 -0.01163329506 -0.05153167534 0.7382663774 -0.6397595782 -0.2137064298
0.0200274334 0.05983188248 -0.0653680191 0.9735087308 0.002468610148 -0.2286365174
0.01779140759 -0.008153199673 -0.0513718605 0.8642949431 -0.4711952675 -0.1759808832
0.02056794548 0.03949739647 -0.0614354229 0.9988788524 0.004925342525 -0.047082684
0.0177660923 0.02595962524 -0.07102312469 0.8597529956 0.001112348306 -0.5107088693
0.01903512573 0.01557072926 -0.05170210266 0.9215141044 0.1455355614 0.3600432693
0.01862257957 0.01830883408 -0.05162562561 0.9170779344 0.06640744296 0.393138797
0.0185315361 0.02580297947 -0.05167671967 0.9038773163 0.001047301957 0.4277904863
0.01854319954 0.02784861755 -0.0517033577 0.9047244696 0.001063165111 0.4259958964
0.01858442879 0.03399840164 -0.05179624176 0.9018983412 -0.001165126732 0.4319467845
0.02036306953 0.05991226196 -0.06333553314 0.991441162 0.002023198723 -0.1305386113
0.01870363903 0.04774877739 -0.05206909943 0.9130967903 0.006915014733 0.4076842333
0.01872535896 0.04982317352 -0.05211807251 0.9143925243 -0.0001515501417 0.4048287152
0.01939350319 0.05170744514 -0.05373597145 0.9376010514 0.01736000445 0.3472792804
0.01908923626 0.05388320732 -0.05300537682 0.9352566396 0.002283182863 0.3539629997
0.02052598826 0.05785481898 -0.05932624435 0.9975403666 0.01070639971 0.0692718555
0.02055429935 0.008026974678 -0.05757921982 0.9979776956 -0.03199880319 -0.05492354379
0.01910855007 0.05596634769 -0.05306044579 0.9361513823 -0.01222942517 0.3513844484
0.01912862301 0.05805317879 -0.05311744308 0.9369014905 -0.002051785629 0.349587453
0.01057260799 -0.01597763538 -0.05116037369 0.5165945574 -0.8245058861 -0.2309114701
0.01716836929 -0.006082074881 -0.05754009438 0.844540011 -0.4516744196 -0.2876497671
0.01244548416 -0.01449911976 -0.05158126068 0.5809534413 -0.7715524248 -0.2592295407
0.02045725346 0.01199925971 -0.06103395748 0.9972876853 -0.02432703179 -0.0694655911
0.016030334 -0.01022572803 -0.05308885765 0.7673574898 -0.5910041618 -0.248750002
0.01729418373 -0.008146889091 -0.05336782932 0.841526484 -0.4939510947 -0.2187361258
0.01921916771 -0.004050541759 -0.05309558105 0.9327448815 -0.3184418019 -0.1690615416
0.02045161438 0.002016728878 -0.05337600327 0.9935467944 -0.09239960724 -0.06578054307
0.01831790733 0.03802746582 -0.06998258972 0.8869377414 0.0009070846103 -0.4618881035
0.02055649376 0.006048732758 -0.05340753555 0.9992281495 0.02870885907 0.02681243484
0.02045415401 0.008068622112 -0.05339061165 0.9940381572 0.07609294255 0.078089731
0.001476712108 0.02001986313 -0.08111038971 -0.1184069442 -0.01522605888 -0.9928484087
0.01166145182 -0.007495173931 -0.06486473465 0.5660619434 -0.6183115564 -0.5452198598
0.02027211571 0.01009281445 -0.05335702896 0.9869733239 0.1024071194 0.1240823909
0.01954801369 0.01551951981 -0.0532220993 0.9526671898 0.1192425521 0.279654142
0.01953989029 0.04749168587 -0.06698516846 0.9445156194 -0.001686659421 -0.3284621742
0.01932779026 0.01756051064 -0.05318686295 0.945049509 0.09187611188 0.3137518216
0.01923539162 0.02570197964 -0.05324544907 0.9336654225 0.003173690722 0.3581323868
0.01924463463 0.02773980331 -0.05327213669 0.9363170984 0.001000997932 0.3511542242
0.02058919716 0.04972081757 -0.06098479843 0.9999672702 0.008048430754 0.0008253579471
0.01931539345 0.04001511383 -0.05347642899 0.9398854458 -0.001826923171 0.3414850086
0.01934477043 0.0441287384 -0.05356124496 0.9388574206 -0.008728708318 0.3441955162
0.01936948967 0.04756715393 -0.05363803864 0.9392129184 0.008199006551 0.3432373381
0.01153628778 -0.01450645256 -0.05352205086 0.5737126477 -0.7631666402 -0.2973726234
0.02004873371 0.05776694489 -0.06530382156 0.9737567138 0.001919389842 -0.2275833437
0.002264022589 -0.01624433327 -0.05806806183 0.1316069486 -0.8940413436 -0.4282168692
0.01893994331 -0.003820882479 -0.05489454778 0.9197324247 -0.3299276964 -0.2126969253
0.01231609535 -0.006114296913 -0.06568314362 0.581367377 -0.5882953817 -0.5620680714
0.01946227741 -0.002018441796 -0.05524124336 0.9424298065 -0.2770733225 -0.1872336341
0.02056123066 0.008046245933 -0.05550064087 0.9999792532 0.005099833984 0.003935076583
0.0203623395 0.01208053827 -0.05547551441 0.9912785152 0.06706454686 0.1134427253
0.02014145915 0.01589600086 -0.05568360647 0.983343115 0.05319834864 0.1737994647
0.01992459806 0.01771270752 -0.05518554179 0.9669969548 0.04564890161 0.2506652491
0.01992503166 0.01950566864 -0.05543353271 0.9756139991 0.02492332337 0.2180737324
0.01974453354 0.02358753777 -0.05473758698 0.9515803683 0.001007111838 0.3073984195
0.01975415993 0.0276487484 -0.05478849411 0.9517598462 0.003598186948 0.3068228287
0.0204107008 0.05167503357 -0.06309523773 0.9947510698 -0.009210705834 -0.1019091359
0.01975997162 0.02968250656 -0.05481719971 0.9529895175 0.0007963519967 0.3030022202
0.02042755032 0.04758399963 -0.06298786163 0.9958735842 -0.008344362879 -0.09036689645
0.01977345753 0.03375661469 -0.05488068199 0.9562015644 -0.008679320674 0.2925803099
0.01978113556 0.03579723358 -0.05491547012 0.9605141284 -0.01314377636 0.2779205826
0.01682707977 0.03404898071 -0.07240213013 0.8149858602 -0.0009288376396 -0.5794800988
0.01949355507 0.0259378891 -0.0671977005 0.9437498596 0.0008923264121 -0.3306590483
0.01980821514 0.04193639565 -0.055033041 0.9693832817 0.002618482497 0.2455385849
0.01982952023 0.04604454803 -0.05512203407 0.9600167687 -0.005345462984 0.2798914607
0.01984925461 0.0494783287 -0.05520266724 0.9590917768 -0.0001905126875 0.2830952619
0.01988954544 0.05568631935 -0.05536339951 0.968549721 0.00926657015 0.2486474786
0.01990427017 0.0577635498 -0.05542121124 0.970499657 0.002888032635 0.241085203
0.01991974735 0.05984564972 -0.05548148727 0.9692667454 0.02824051072 0.2443858626
0.006649618149 -0.01607418633 -0.05606738281 -0.3224362028 0.8698943181 0.3732542972
0.01749677181 0.04550447845 -0.07142287064 0.8499477932 0.01376898378 -0.5266869696
0.01354845174 -0.01210798168 -0.05513887914 0.6653889596 -0.6814801254 -0.3047004612
0.01630579567 -0.008832325935 -0.05525853348 0.788793496 -0.5411354375 -0.2915085915
0.01710637474 -0.007453514576 -0.05542989731 0.8253968708 -0.4935018664 -0.2741822634
0.01840873528 -0.004722494602 -0.05570938873 0.902736173 -0.3649861807 -0.2277114178
0.008658100128 0.0196366806 -0.07924238586 -0.430768228 0.03162574159 0.9019082804
0.02027942403 0.02393161392 -0.05718286514 0.983879607 0.001084614861 0.1788288079
0.02025045109 0.02956301689 -0.05701861191 0.9799494611 0.01208870276 0.1988791514
0.02025434589 0.03159076595 -0.05704977036 0.9803871325 0.003042668304 0.1970578914
0.02027867937 0.04176988602 -0.05723800278 0.9820726452 0.001628092933 0.1884958062
0.007987668991 -0.01603206444 -0.05490847015 0.3725982462 -0.8575601139 -0.3546282532
0.01033973598 -0.01452702236 -0.05540620422 0.4872670091 -0.7973960237 -0.3559921955
0.01215431023 -0.01306583977 -0.0557889061 0.6013730145 -0.7173961715 -0.3517004841
0.01901501846 -0.002016548157 -0.05723128891 0.9225761792 -0.3067751529 -0.2339705091
0.01957065392 -3.24845314e-07 -0.05735048676 0.9463257019 -0.2460945609 -0.2095355173
0.001278607845 0.02418968964 -0.08115225983 -0.04539922469 -0.0105579391 -0.9989131295
0.01261737251 -0.01024828815 -0.06012456894 0.6176959992 -0.6504434417 -0.4420124227
0.02000837708 0.002009971619 -0.05744599533 0.970805511 -0.1752903225 -0.1637374808
0.02026756096 0.004016499639 -0.05750515556 0.9838297592 -0.1177214472 -0.1349839461
0.005600876808 0.03008058071 -0.08042081833 0.3423923794 0.004275607857 -0.939547326
0.02045820808 0.006021612167 -0.0575512886 0.9930043692 -0.07254166959 -0.09316667292
0.02051206207 0.01405530548 -0.05760326767 0.9986433718 0.01812242301 0.04881591687
0.02043200588 0.01607073212 -0.05760123444 0.9943431594 0.03263701478 0.101076736
0.009601638317 0.05174901962 -0.07878635025 -0.4497259502 -0.0004756086724 0.8931664702
0.02037810516 0.018086689 -0.05760665894 0.992446318 0.01924916373 0.1211601241
0.02055475044 0.04163063049 -0.05939067459 0.9987564989 0.0090599503 0.04902421073
0.0165938797 -0.002016339779 -0.06368721771 0.7975506335 -0.4179581286 -0.4349988388
0.008921572685 0.00610215044 -0.07634919739 -0.4242500848 0.3354919183 0.8411046536
0.02048945427 0.05191422272 -0.0589202652 0.9938645352 0.0007577448063 0.1106015894
0.01138621712 -0.01307704353 -0.05704870987 0.5501579027 -0.7431634522 -0.3808337767
0.01289876938 -0.01164261055 -0.05736004639 0.6285254152 -0.6838988334 -0.3704567292
0.01416900539 -0.01022994137 -0.0576211586 0.6870408075 -0.6340164329 -0.3549620988
0.01867230225 -0.002015579939 -0.05854862595 0.9136743025 -0.31626544 -0.2552948108
0.01994861666 0.003789314588 -0.05928284836 0.9664979178 -0.1828482296 -0.1801341164
0.02031333923 0.006014827728 -0.05890411377 0.9903621026 -0.08678069567 -0.1079445068
0.01863031006 0.005999888897 -0.06546981812 0.9107750224 -0.1977969385 -0.3624434158
0.02054004288 0.02005840588 -0.05904643631 0.9955882339 0.0007912249533 0.09382666238
0.02054564667 0.02811663055 -0.05914735031 0.9969930281 -0.01118554956 0.07667975922
0.0119055419 0.04185998535 -0.07739381027 -0.5998535145 -0.002502303836 0.8001059303
0.02054758263 0.03148394585 -0.05919913101 0.9974954557 0.004444848052 0.07059078738
0.02055020714 0.03553399658 -0.05926924515 0.9974359255 0.0009918954714 0.07155830195
0.02055642128 0.04366895676 -0.05943532562 0.9993262286 0.006733444874 0.0360797662
0.02056001663 0.0477565155 -0.05953142929 0.9993965473 0.01156134751 0.03275479436
0.01162596655 -0.01166217756 -0.05922333908 0.5799423222 -0.7038070155 -0.4102713589
0.01459795475 -0.008838741302 -0.05911319351 0.6942839615 -0.5977241577 -0.4008685722
0.01824786186 -0.002015149593 -0.05984960175 0.8834217705 -0.3546927019 -0.3062010167
0.01633441544 0.05996959305 -0.07310877991 0.7840541201 0.001856240921 -0.6206896899
0.02020256376 0.008004041076 -0.06096045113 0.9810280019 -0.1085555007 -0.1606230455
0.02051832485 0.01399869776 -0.06106028938 0.9983430667 -0.02303646001 -0.05272990243
0.02055292892 0.01800378704 -0.061101717 0.9999067362 -0.005855130367 -0.01233840637
0.02056297636 0.02000858355 -0.06112431049 0.9999797183 -0.002359028926 -0.005915905302
0.02056764889 0.02603411102 -0.06119950867 0.9995730542 0.0005153058571 -0.02921375943
0.02056787395 0.03006134415 -0.06126003838 0.9994887716 0.002172589529 -0.03189789019
0.02056794119 0.03207857943 -0.06129370689 0.9993473853 -0.007165368656 -0.03540425024
0.02056064987 0.03588668696 -0.06159264119 0.9973842686 -0.00206394932 -0.07225206409
0.008551567554 0.02576141357 -0.07932826614 -0.4048711126 -0.01093321951 0.9143083981
0.02056711674 0.04152802181 -0.061479249 0.9988586327 0.001430656409 -0.0477429062
0.02059678078 0.04359247971 -0.06083624649 0.9999864329 -0.005037504774 -0.001325741433
0.02059433365 0.04563163948 -0.06088362694 0.9999910708 0.00197420218 0.003736415144
0.02058372021 0.05382614899 -0.06109490967 0.9997439497 0.001109443936 -0.02260097588
0.02058085823 0.05588505554 -0.06115322113 0.9995799916 -0.001521621378 -0.02894002694
0.001657375842 0.009664638519 -0.07959060669 0.1519650475 -0.2829084266 -0.9470319142
0.02057789993 0.05794903374 -0.06121405411 0.9995420239 0.002186228945 -0.03018216034
0.01489381123 -0.007459276676 -0.06057251358 0.7150950683 -0.5678452468 -0.4076650819
0.01777570343 -0.002015030861 -0.06114226913 0.858140395 -0.3760568176 -0.3495373119
0.01870041084 0.0006696382761 -0.06132853317 0.9165556062 -0.272457046 -0.2927336311
0.01904906845 0.002006640911 -0.06140010071 0.9257663927 -0.2494830716 -0.2841034726
0.01643019867 0.05582629395 -0.07297033691 0.7921991895 -0.01401447556 -0.6101016625
0.0204353652 0.04554473019 -0.06293767548 0.9963715228 0.001410860156 -0.08509875445
0.02039930391 0.05372761536 -0.06315198517 0.9925523473 0.001023041068 -0.1218145774
0.02038759327 0.05578422356 -0.06321077156 0.9921858985 0.001577358502 -0.1247583855
0.007940481663 -0.01315784264 -0.06062875748 0.3747952738 -0.7947534787 -0.477383924
0.01326972198 -0.007474500179 -0.0630587883 0.6458432296 -0.5975315557 -0.4752289583
0.01003804493 -0.01169336224 -0.06103443909 0.4862828956 -0.7227406822 -0.4910955627
0.01169446087 -0.01026222229 -0.0613539772 0.5766766972 -0.6709893803 -0.4660657019
0.01722369576 -0.002015432835 -0.06242096329 0.8301841595 -0.3934122991 -0.3949949674
0.01901417033 0.004227560918 -0.06323967107 0.9266697279 -0.2132288979 -0.3095426505
0.01930099106 0.006001112223 -0.06353098106 0.9426067756 -0.1809277564 -0.280637869
0.01173835468 0.002025366306 -0.07257511902 -0.5697506193 0.395267885 0.7205189317
0.01979789162 0.007995395184 -0.06294735336 0.9580533381 -0.1457729202 -0.2467469497
0.01943083572 0.03599371147 -0.06737279129 0.9401888086 0.0009658984897 -0.34065242
0.02036971664 0.01597098827 -0.06311398697 0.9889796674 -0.0319505232 -0.1445627254
0.02041982651 0.01796833801 -0.0631427269 0.9910398208 -0.01389241798 -0.1328422909
0.02043269539 0.01996898937 -0.06316659355 0.9918767157 -0.001914597379 -0.1271885028
0.02042991352 0.02397673702 -0.06321518707 0.9917929983 0.0002456560152 -0.1278537767
0.02042419434 0.02598362732 -0.06324188614 0.991564387 0.000537248732 -0.1296139564
0.01507778406 0.004019883513 -0.07035274887 0.732594564 -0.3219230149 -0.5997255849
0.02035771751 0.04213210297 -0.06353448868 0.9872943941 0.002408983637 -0.1588835301
0.0106174016 0.02563375282 -0.07821788025 -0.5291245556 -0.006163549272 0.8485217825
0.006208415985 -0.01320882416 -0.06172518921 0.3049540478 -0.7984736545 -0.5190788493
0.008746446609 -0.01172270203 -0.06220623016 0.4344937972 -0.747194441 -0.502907156
0.01146911526 -0.00887823391 -0.06342424393 0.572366506 -0.6403828508 -0.5121585568
0.01851424599 0.003339622974 -0.06406067657 0.8946818976 -0.2641937099 -0.3602027009
0.01921729136 0.007991388083 -0.06490095139 0.9261355755 -0.1644761501 -0.3394414409
0.01817080021 0.00799312222 -0.06746030045 0.8883183733 -0.2001538305 -0.4133145433
0.01986406708 0.01396151304 -0.06506240463 0.9596035539 -0.06622361011 -0.2734510062
0.008792675018 0.01016014004 -0.07775681305 -0.4262271337 0.2292209564 0.8750932429
0.02002403069 0.01794850063 -0.06512984467 0.9645450603 -0.02738771373 -0.2624933139
0.02004716301 0.02394916487 -0.06520727158 0.9665539825 0.0006124573465 -0.2564625192
0.02004004192 0.02595383358 -0.06523475266 0.9662468872 0.000890623325 -0.2576163035
0.02001530409 0.03198203516 -0.06533116913 0.965314678 0.00109023875 -0.2610869276
0.02000600719 0.03399637794 -0.06536765671 0.9649458352 0.001095786011 -0.262446822
0.01997469854 0.04005787754 -0.06549128723 0.9652936106 -0.006424824453 -0.2610880444
0.01996319675 0.04208465385 -0.06553690338 0.9663559801 -0.006702281406 -0.2571209814
0.02013011456 0.04412508774 -0.06492602921 0.9753377056 -0.002264234147 -0.2207062147
0.005889966488 0.02388208199 -0.08033766937 -0.3554326433 -0.001389431622 0.9347008642
0.02012103271 0.04615908813 -0.06497629547 0.97741884 -0.005208596791 -0.2112469685
0.02009469223 0.05160294342 -0.06512207031 0.9751770205 0.0005165306318 -0.2214260868
0.01169093418 0.04805055237 -0.07755537415 -0.5826036543 0.01130765224 0.8126777461
0.003876377344 -0.01328453922 -0.06272164154 0.1923264585 -0.8093867821 -0.5548905931
0.01400194232 -0.004282068491 -0.06552296956 0.6872769193 -0.5080566155 -0.5191617395
0.01547542381 -0.002018822432 -0.06556112289 0.7573982737 -0.4268359492 -0.4941244049
0.01754287338 0.002006886721 -0.06525504303 0.8502770771 -0.3112485578 -0.4244446106
0.01812606812 0.004005905151 -0.06536885071 0.8715030877 -0.2676811295 -0.4108882829
0.003140786886 0.05758083344 -0.08095494843 0.2432974463 0.01304057038 -0.9698640607
0.01950167561 0.05157789612 -0.0670969429 0.9457618777 0.0003994535594 -0.3248604487
0.01948141766 0.05362790394 -0.06715654564 0.944305048 0.00056797822 -0.3290708946
0.01946049595 0.05568206978 -0.06721828079 0.9429991785 0.001064763061 -0.3327933527
0.01943874216 0.05774164486 -0.0672827034 0.9418699419 0.001379142146 -0.335974866
0.004934956074 -0.01182659817 -0.06435140228 0.2212189192 -0.7730701551 -0.5944953533
0.009586531639 -0.008910326958 -0.06519202423 0.4913439779 -0.654211379 -0.5749683183
0.01562811947 -6.645917892e-07 -0.06697809029 0.7539589128 -0.4000196235 -0.5210856539
0.01772673416 0.006003204107 -0.06737083435 0.8643351592 -0.2371892015 -0.4434704222
0.01941303062 0.01594436932 -0.06705725098 0.9375981745 -0.05932699601 -0.3426221984
0.01022875881 0.03791306877 -0.07843918991 -0.4898444415 -0.001386364096 0.8718087526
0.01948423576 0.01793715286 -0.06709056091 0.9419086076 -0.03407804875 -0.3341359925
0.01951252842 0.01993327808 -0.06711863327 0.9441693701 -0.01150521146 -0.3292595188
0.01951188278 0.0219325161 -0.0671435318 0.9445101668 0.001277666773 -0.3284796984
0.01950302601 0.02393429756 -0.06716959381 0.9443016925 0.0007448460393 -0.3290801707
0.01948277664 0.02794398212 -0.06722826385 0.9431292649 0.001004738209 -0.3324246984
0.0194709053 0.0299522438 -0.06726079559 0.9424548329 0.001027002153 -0.3343319208
0.009970572472 0.04410992813 -0.07858157349 -0.4737318406 0.007225574348 0.880639503
0.01477176571 0.03754502296 -0.07492530823 0.7124241817 -0.006590526632 -0.7017181416
0.01944493866 0.03397691345 -0.06733304596 0.9409862539 0.0009937883172 -0.3384433224
0.01941609001 0.0380132637 -0.06741461182 0.9393465298 0.0009304053684 -0.3429682659
0.001358810663 -0.01194014454 -0.06514608002 -0.158889748 0.7809164927 0.6040889665
0.005596774101 -0.01039591789 -0.06589873505 0.2610249098 -0.7353920754 -0.6253514947
0.007983484745 -0.008247416019 -0.06702694702 0.3955486432 -0.6678818278 -0.6304562911
0.009731962204 -0.007523421764 -0.06662757111 0.4887043506 -0.6354864894 -0.5977666598
0.01329182148 -0.003380488157 -0.06725442505 0.6456927103 -0.5130428491 -0.5655687039
0.01412981129 -0.002022769451 -0.06740293884 0.6836395665 -0.4648392122 -0.5626379386
0.01611693764 0.002009781361 -0.06776035309 0.7756082489 -0.3518439652 -0.5240588406
0.01824306107 0.009982503891 -0.06817214203 0.890603287 -0.1655204017 -0.4235903467
0.0187535305 0.01395645046 -0.0682932663 0.9184032285 -0.1009700108 -0.382544856
0.01898771477 0.01793760872 -0.0683744812 0.9307419319 -0.03741157921 -0.3637579277
0.01903695965 0.01993238926 -0.06840671921 0.9304805845 -0.007702267435 -0.3662602311
0.01904133224 0.02193117714 -0.06843309021 0.9346379116 0.007475489067 -0.3555222795
0.01902981377 0.02393302822 -0.06845935059 0.9315927688 0.0009353836495 -0.3635024598
0.01901739883 0.02593673897 -0.06848765564 0.9310207955 0.001075597387 -0.3649645482
0.01488336086 0.03213188553 -0.07481530762 0.7231290644 -0.004346226054 -0.6906992591
0.01900386238 0.02794297314 -0.06851852417 0.9303961375 0.001186384247 -0.3665537066
0.01898942566 0.02995138359 -0.06855144501 0.9297222208 0.001224126906 -0.3682595466
0.01897385883 0.03196271324 -0.06858693695 0.9290048742 0.001232472908 -0.3700654331
0.01895738602 0.03397653961 -0.06862449646 0.9282370368 0.001232796257 -0.371987209
0.01592673016 0.01000993156 -0.07190595245 0.75952802 -0.2261775669 -0.6098859689
0.01890158272 0.04003735352 -0.06875174332 0.9217385794 0.01132088141 -0.3876465258
0.01888099289 0.04206419754 -0.0687986908 0.9170660124 0.005248021335 -0.3987008744
0.01885486603 0.04409581757 -0.06884749603 0.9096380002 0.002766022521 -0.4153926549
0.01882715416 0.04613106537 -0.0688983078 0.9127776 -0.004806815856 -0.4084286321
0.01880799675 0.04749036026 -0.06893358612 0.9109967593 0.008988917127 -0.4123155393
0.01877823162 0.04953316307 -0.06898862839 0.912351339 0.009638470579 -0.4092946788
0.01874743462 0.05157997131 -0.06904580688 0.9106895331 0.001406936031 -0.4130890883
0.005706221581 0.02801016808 -0.08039104462 -0.3484765954 -0.0009211332216 0.9373170296
0.0187153368 0.05363200378 -0.0691056633 0.909207017 0.001254146472 -0.41634244
0.01864773941 0.05775044632 -0.0692324028 0.906072508 0.0009789011824 -0.4231213206
0.01861222267 0.05981720734 -0.06929930878 0.9052627155 0.001186509615 -0.4248505714
0.005911598682 -0.008985731125 -0.06737784576 0.2582915052 -0.7041350967 -0.6614221526
0.01129891872 -0.003848294576 -0.06877154287 -0.5629032155 0.535583619 0.6295158116
0.0136948688 -8.372068405e-07 -0.06941614914 0.6815089139 -0.4186123155 -0.6002577193
0.01520996952 0.002012480021 -0.0689853363 0.7488051212 -0.353891738 -0.5604030052
0.01664097404 0.006010041714 -0.06924633026 0.8127540214 -0.256906642 -0.5229052285
0.01814300346 0.01396197414 -0.06955970764 0.8799461427 -0.1078623834 -0.4626667183
0.01831174374 0.01595075655 -0.06960816956 0.8893727031 -0.07183725482 -0.4515037141
0.01842974091 0.0179416275 -0.06964996338 0.8979008852 -0.04281471541 -0.438110603
0.01847383213 0.01993719292 -0.06968161011 0.8979068991 -0.01386317841 -0.4399670588
0.003978290915 0.04969986534 -0.08076673508 0.2743320926 0.005719939786 -0.9616180038
0.01739094067 0.01995975971 -0.07156009674 0.8419075349 -0.02240180643 -0.5391566208
0.01840594864 0.02996045876 -0.06982647705 0.8913142151 0.001044310068 -0.4533849131
0.01838559628 0.03197286797 -0.06986207962 0.890270417 0.001020386146 -0.4554311621
0.01033584499 0.01550911903 -0.07802832794 -0.4970219367 0.1157668188 0.8599809522
0.01836422539 0.03398783875 -0.06989978027 0.8891809594 0.0009350869165 -0.4575547477
0.01834157944 0.03600620842 -0.06994012451 0.8880922593 0.0007474096372 -0.4596646391
0.01829294968 0.04005253983 -0.07002771759 0.8861285574 -0.002385206678 -0.4634333722
0.01826695633 0.04208082962 -0.07007497406 0.8884710871 0.002113827011 -0.4589277275
0.01823966503 0.04411335373 -0.07012491608 0.8940057098 -0.01017933543 -0.44793992
0.01821132851 0.04614942932 -0.07017701721 0.8866803199 -0.005747218487 -0.4623472502
0.01395812702 0.01405134964 -0.07507966995 -0.6711018362 0.1419455293 0.7276494981
0.01782393742 0.04752791023 -0.0708446579 0.8519766914 0.01274442007 -0.5234245858
0.01775103378 0.05162255478 -0.07095944977 0.8494397593 0.001466687447 -0.5276835644
0.0177133379 0.05367711163 -0.07102084732 0.8515058693 -0.007528002796 -0.5242910295
0.012245399 0.02959488392 -0.07713795471 -0.6149649247 -0.003771025725 0.7885454462
0.0176337533 0.05780092049 -0.07115082169 0.8465654281 0.0001313623937 -0.5322846595
0.01759184837 0.05987053871 -0.0712194252 0.8434157373 0.02569918111 -0.5366464815
0.005878494263 -0.007591396809 -0.06879336548 -0.2697130894 0.6728684422 0.6888417154
0.007957318783 -0.006170154095 -0.06914260864 -0.3867780773 0.6281778303 0.6751261604
0.009519581795 -0.004775039673 -0.06940483856 0.4860177973 -0.5654528273 -0.6663706182
0.01183061886 -0.002031272411 -0.06979389954 -0.5609353586 0.5022465263 0.6581032976
0.01530254459 0.006021736383 -0.07109039688 0.742579257 -0.2710244823 -0.6124718582
0.01588418102 0.008014203906 -0.07119765091 0.7634582999 -0.244972573 -0.5975950659
0.01734231472 0.01796221638 -0.07152715683 0.8405301797 -0.04877048653 -0.5395650625
0.01778350735 0.02395379925 -0.0709941597 0.8607492659 0.001011320707 -0.5090281706
0.01774710083 0.02796807766 -0.07105471039 0.8586971396 0.001157973089 -0.5124820793
0.00418543911 0.04756950378 -0.08072025299 -0.2841069604 -0.00520818509 0.9587784467
0.01772684669 0.02997879791 -0.07108840179 0.8575669755 0.001157290419 -0.5143710171
0.0176818924 0.03400891876 -0.07116316223 0.855078624 0.001078396293 -0.5184972361
0.01765718269 0.03602873993 -0.07120426178 0.8537520452 0.0009091561595 -0.5206789979
0.01605705643 0.02602080536 -0.0734990921 0.7751870135 -0.001293746537 -0.6317304965
0.01763119125 0.03805149841 -0.07124748993 0.8524638108 -0.0008235397449 -0.52278559
0.01759708977 0.04007899666 -0.07129229355 0.8511742071 -0.008307846609 -0.5248175386
0.01756097412 0.04210995102 -0.07133912659 0.850116378 -0.00790843193 -0.5265354695
0.0175358963 0.04346627426 -0.07137177277 0.8494175872 0.00888200253 -0.5276465414
0.009171169281 -0.003408937931 -0.07075288391 0.4472976788 -0.5439113671 -0.7099895853
0.01400197315 0.004027328491 -0.07155836868 0.6727882741 -0.3503170577 -0.651639392
0.01632556152 0.01199785471 -0.07198681259 0.797947432 -0.1689619429 -0.5785600726
0.01660811996 0.01398715305 -0.07205065155 0.8141517055 -0.09685923263 -0.5725166282
0.01693784523 0.02598807526 -0.07226262665 0.8199477827 0.001021139739 -0.5724374123
0.01691259003 0.02799927521 -0.07229404449 0.8189102832 0.001257755653 -0.573920174
0.01688583946 0.03001283646 -0.07232758331 0.8176966411 0.001343427786 -0.5756478076
0.01679614353 0.03607186699 -0.0724433403 0.8141036001 -0.00634696648 -0.5806849785
0.01673335934 0.04012720108 -0.07253342438 0.8098476904 -0.003719829812 -0.5866284013
0.01667602348 0.0435178833 -0.07261584473 0.8064161943 0.01692409441 -0.5911061636
0.006518060684 0.006138891697 -0.07740576935 -0.292122714 0.3421330629 0.893089742
0.01612437439 0.04763729477 -0.07334295273 0.7928432982 0.009426954462 -0.6093526376
0.01607603097 0.04968911457 -0.07340041924 0.7946756325 0.001696223525 -0.6070319282
0.01597350502 0.0538070631 -0.07352259064 0.7901652695 -0.005448441683 -0.6128696121
0.002075647354 -0.006264994144 -0.07102187347 -0.165494372 0.647464389 0.7439095898
0.00524739027 -0.004824487209 -0.07153036499 -0.2506314564 0.6209543831 0.7426974668
0.01171704102 0.003821750005 -0.07350681305 -0.5810983861 0.3707950803 0.7244554328
0.01314618397 0.004704787254 -0.07280903625 -0.6413508639 0.3316573995 0.6918615748
0.01386602497 0.00781916968 -0.07340223948 -0.6682053243 0.2691062402 0.6936018138
0.01492540073 0.01002640533 -0.0731232605 0.7302084583 -0.1982720676 -0.6538224489
0.01533084488 0.01201733923 -0.07320372772 0.7491936161 -0.170023922 -0.6401568492
0.01610663605 0.02200057793 -0.07344274902 0.774738592 -0.0005667179284 -0.6322814191
0.01608282185 0.02400965214 -0.07346986771 0.7762057451 0.000856601718 -0.6304791095
0.01602895927 0.0280347681 -0.07353095627 0.7740943642 -0.003140432994 -0.63306244
0.0159666729 0.03207080269 -0.07360159302 0.7755854284 0.0004218459726 -0.6312424774
0.01333676529 0.04377814484 -0.07626798248 -0.6647761875 -0.003048000586 0.7470363647
0.01593247032 0.03409322739 -0.07364038086 0.7740372272 0.0009034694187 -0.6331394433
0.01589590263 0.03611935997 -0.07368185425 0.7718348286 -0.005226244015 -0.6358016073
0.01585743523 0.03814863205 -0.07372547913 0.7702245309 -0.002863344159 -0.637766394
0.01578822803 0.04153973007 -0.07380397034 0.7672775891 0.004752874616 -0.6412975218
0.0154084034 0.05592084503 -0.07420430756 0.7404418971 -0.006505283676 -0.6720888917
0.01527456665 0.06007828522 -0.0743406601 0.7492409615 0.04757538718 -0.6605865305
0.004340594292 -0.003450220823 -0.07280852509 -0.2173348626 0.5901813162 0.7774648362
0.01232146549 0.006055631161 -0.07407342529 -0.5825422617 0.3205788928 0.7469094234
0.0133461113 0.008719312668 -0.07424811554 -0.647854472 0.2414162894 0.7224975836
0.0137461853 0.01004856682 -0.07431958771 0.667243443 -0.1904585079 -0.7200775962
0.01485021305 0.01602831411 -0.07454673004 0.7263213454 -0.1060502966 -0.6791249059
0.003302660704 0.05613895798 -0.08091854095 -0.2511482602 -0.005509000603 0.9679329534
0.01500480652 0.01802677155 -0.07459411621 0.7316469622 -0.05350493138 -0.6795807127
0.01504280186 0.02003218079 -0.07462622452 0.7575935477 -0.01414923808 -0.6525732262
0.01503857327 0.02204151917 -0.07465415192 0.7321441573 0.01714217863 -0.6809339753
0.00673737812 0.05772865868 -0.08002807999 -0.3097310429 -0.005446725872 0.9508086107
0.01501404858 0.0240543642 -0.07468196487 0.7285197118 -0.0007003535068 -0.6850244806
0.01498761559 0.02606929016 -0.07471194458 0.7274822387 0.0002915429177 -0.6861264515
0.01492114353 0.03010790062 -0.07477842712 0.7250652588 0.002482815184 -0.6886756901
0.01366847706 0.03153098488 -0.07600183868 -0.6601193935 0.001684752518 0.7511588034
0.0148156538 0.03551197052 -0.07488186646 0.7144192784 -0.002739726308 -0.6997125042
0.01469382763 0.0409413681 -0.07500286102 0.7089428176 0.003992623697 -0.7052546635
0.01462672615 0.04366680527 -0.07507000732 0.7174660651 0.008755834531 -0.6965384274
0.0145735383 0.04571624565 -0.0751234436 0.7112547273 0.006860504693 -0.7029008795
0.01451825714 0.04776979446 -0.07517912292 -0.7021918188 -0.001144517935 0.7119868958
0.0144603467 0.04982871056 -0.07523763275 -0.699456257 0.003723797628 0.7146657106
0.0144003191 0.05189212036 -0.07529840851 -0.6961427269 0.003875464427 0.7178929478
0.01433762884 0.05396138763 -0.0753620491 -0.6967869391 0.0004472785991 0.7172780224
0.01427279568 0.05603554153 -0.07542798615 0.6963147987 -0.002310382403 -0.7177327938
0.01420526648 0.05811605263 -0.07549681854 0.6887557296 0.006348215642 -0.7249656855
0.003268787146 -0.002073704958 -0.07406871796 -0.167611252 0.5543651043 0.8152213193
0.005409575939 -0.0006866078377 -0.07439489746 0.281614801 -0.5030346108 -0.8170980873
0.008169331551 0.002041981459 -0.07481829834 -0.3994876178 0.4465698112 0.8006154176
0.009644393921 0.004064157724 -0.07504831696 -0.483851896 0.3784169262 0.7891058057
0.01078016663 0.006075856209 -0.07522891235 -0.5481229444 0.3203220859 0.7726286295
0.01167532015 0.008078182697 -0.07537578583 -0.5722338926 0.2900578385 0.7670820181
0.01359633732 0.01606754923 -0.07573656464 -0.6829615439 0.1015423657 0.7233620653
0.01383810139 0.02209170914 -0.0758530426 -0.6762534219 0.01178544579 0.7365747841
0.01380666399 0.02410965443 -0.07588061905 -0.667068186 0.02051901577 0.7447140425
0.005895714998 0.009553564072 -0.07874996567 -0.2954735153 0.2629492059 0.9184514777
0.01374855137 0.02747814751 -0.07593159485 -0.6646766851 -0.004681336185 0.7471164496
0.01370974922 0.02950321198 -0.07596563339 -0.6629959282 -0.006271331291 0.7485967336
0.01357724667 0.03559687042 -0.07608187103 -0.6803471699 -0.002112216818 0.7328869401
-0.0002943267524 0.03548786926 -0.08119216919 -0.1212145507 -0.02285073725 -0.9923632785
0.0134676199 0.03967844772 -0.07617069244 -0.6798953976 0.0006124798567 0.7333088525
0.01340357161 0.04172629738 -0.07621823883 -0.6728318186 -0.008803330324 0.7397430941
0.01319342899 0.04789676666 -0.07637519073 -0.6431687953 0.000303190742 0.7657243687
0.0128687191 0.05619825363 -0.07661984253 -0.6491037219 -0.007365016823 0.7606642589
0.01271802139 0.05968573761 -0.07673400879 0.6507101958 0.009262835847 -0.7592696761
0.0012239995 -0.0006945238113 -0.07519329071 0.1244847599 -0.4924996451 -0.861363828
0.005665453911 0.002054889202 -0.07585414124 -0.2916361418 0.4323302465 0.8532519668
0.01075833797 0.01011293316 -0.0766448288 -0.5466826768 0.2274355693 0.8058604797
0.01184078217 0.01411339951 -0.07683977509 -0.5756030976 0.1462747739 0.8045400951
0.01214636469 0.01611675072 -0.0769066925 -0.5990711161 0.103831116 0.7939350712
0.01234913635 0.01812354279 -0.07696089172 -0.6055668764 0.05377885237 0.7939751843
0.01127400017 0.02176429876 -0.07778381093 -0.5470915746 0.01538611971 0.836931345
0.01237143707 0.02350818825 -0.07704306793 -0.6231149884 0.001256976148 0.7821292293
0.01233253622 0.02553436947 -0.07707235336 -0.618395036 -0.0003103685913 0.7858673445
0.01229076767 0.02756298447 -0.07710379791 -0.616944031 -0.002820692685 0.7870019735
0.0121971426 0.03162961197 -0.07717428589 -0.6133084008 0.001878203861 0.7898412991
0.01209046459 0.03570986176 -0.0772545929 -0.6134097156 -0.003202421422 0.7897583588
0.01203201294 0.03775588226 -0.07729859924 -0.5961872304 -0.001764456791 0.8028434922
0.01197062302 0.03980553818 -0.07734481049 -0.6021727609 -0.008970654941 0.7983154097
0.01176571369 0.04598228455 -0.07749907684 -0.5851576773 0.01226202105 0.8108268222
0.01163907146 0.04943248749 -0.07759441376 -0.5782367712 -0.01183648246 0.8157831416
0.01155170918 0.05151132965 -0.07765431213 -0.5745997796 -0.01394667857 0.8183156991
0.01144970894 0.05359725952 -0.07771482849 -0.5709650371 -0.006166577741 0.8209512164
0.01134051228 0.0556906147 -0.07777775192 -0.5679134876 0.002300318207 0.8230850376
0.01122505951 0.05779027557 -0.07784255981 0.5635059111 0.009669857484 -0.8260554352
0.003845921278 0.003438966274 -0.07701169586 -0.1915900342 0.4025123442 0.8951408111
0.007455230713 0.007481333256 -0.07754727936 -0.3489639771 0.3073883813 0.8852889504
0.008203260422 0.008821249008 -0.07766282654 -0.4019761848 0.2709334492 0.8746486226
0.008482949257 0.02781032372 -0.0793581543 -0.4011530051 -0.001339489541 0.9160100831
0.01056360245 0.02767127419 -0.07824865723 -0.5300758156 -0.001751054487 0.8479484439
0.01037675095 0.03380468559 -0.07835599518 -0.5206161882 -0.001686536465 0.8537891661
0.01006075859 0.04203962135 -0.07853173447 -0.4792071603 0.008152288726 0.8776639663
0.009907893181 0.04549319839 -0.07861627197 -0.4667938408 -0.008293023315 0.8843272788
0.009810018539 0.04757293701 -0.07867053986 -0.4611215611 -0.009288244753 0.8872883603
0.009375580311 0.0559498024 -0.07891233444 -0.4433404798 0.00679750201 0.8963275143
0.009173764229 0.05947047424 -0.07902506256 0.4345505953 0.019847279 -0.9004287121
0.003024388075 0.006196567535 -0.07832984924 -0.1675682565 0.3356025588 0.9269799361
0.004363270283 0.007542373657 -0.07852342224 0.2206330413 -0.295762653 -0.9294328992
0.00698176384 0.01156350136 -0.07891683197 -0.3351317803 0.1981113507 0.921107259
0.007711093426 0.01357451391 -0.0790371933 -0.3646296196 0.1627210644 0.9168244629
0.008692032814 0.02099219704 -0.07926708984 -0.4420135577 0.02383328729 0.8966916913
0.008654922485 0.02235316849 -0.0792832489 -0.4170287855 0.00566183964 0.9088756437
0.008615463257 0.02371538925 -0.07930043793 -0.4160692691 -0.003128330957 0.909327541
0.00840840435 0.02986313725 -0.07939062119 -0.3967520933 -0.002181624599 0.9179232086
0.008243817806 0.03397997093 -0.07946230698 -0.3854291965 0.001200221966 0.922736633
0.008051682472 0.03811478615 -0.07954258728 -0.3715714427 0.01195523759 0.9283273858
