# .PCD v0.7 - Point Cloud Data file format
VERSION 0.7
FIELDS x y z normal_x normal_y normal_z
SIZE 4 4 4 4 4 4
TYPE F F F F F F
COUNT 1 1 1 1 1 1
WIDTH 474
HEIGHT 1
VIEWPOINT 0 0 0 1 0 0 0
POINTS 474
DATA ascii
0.02011501932 -0.004243883073 -0.009162456751 0.9788478454 -0.2035119797 -0.02097068532
0.01269149914 0.01611721802 -0.005292351294 -0.6605833485 -0.7506208565 -0.0140701642
0.02051588673 0.01932758056 -0.06179739889 0.9984665593 -0.008911049661 -0.05463628085
0.0202102553 0.003565443476 -0.001582604498 0.9900764816 0.121284517 0.07098328304
0.01506404877 -0.00201989913 -0.06618001556 0.7400532345 -0.4362418558 -0.5118732786
0.01886770167 -0.008081477029 -0.001374055736 0.9142647396 -0.3979228605 0.0760090986
0.01384500429 -0.004889422443 -0.06503127162 0.658051445 -0.5421774368 -0.5225054284
0.01491184711 -0.008836847305 -0.05847564888 0.7356291767 -0.5749744478 -0.3581258142
0.01021104765 -0.01788887978 -0.02535546017 0.5301015772 -0.8478778326 0.009772347198
0.02009606838 -0.004279606104 -0.001536743641 0.9717017478 -0.206900092 0.1139651933
0.009494074186 0.01824139214 -0.009076271852 -0.4935803435 -0.8696641772 -0.007916025019
0.008328302701 0.03191990598 -0.07942550913 -0.4586959746 -0.003591596278 0.8885860135
0.01700451803 -0.0115134809 -0.001846139804 0.8328042132 -0.5496488325 0.06575183179
0.01905170798 -0.007662111878 -0.005147316128 0.9257340982 -0.3770693193 0.02889823397
0.02051281929 -0.000712359041 -0.001704106748 0.9932400038 -0.1072035527 0.04451621182
0.009858326276 0.05890813192 -0.07863043722 0.4789319004 0.07595941033 -0.8745595478
0.02012217299 -0.004226274172 -0.01292607196 0.978383007 -0.2059201399 -0.01906797241
0.007072879076 -0.01932714462 -0.03341838646 0.4910229056 -0.8711122971 0.007737699939
0.01886792455 0.008081470558 -0.001374143666 0.9014433692 0.4309926356 0.04056106862
0.01981529999 0.004009514332 -0.06017741013 0.9675824685 -0.158658514 -0.1964984542
0.0201362052 -0.004188021004 -0.02110529089 0.9788605731 -0.204510111 0.002755529803
0.01700424385 0.0115134933 -0.001846031472 0.7988266967 0.600595518 0.03407245673
0.01892537594 0.007985346377 -0.009284404278 0.9016759095 0.4324039797 0.002711557232
0.01348560848 -0.01545742073 -0.04147921524 0.6566283827 -0.752943575 -0.04376231153
0.01531194353 0.01374858284 -0.001175787941 0.7205410363 0.6869109903 0.09473070496
0.0009050496221 0.008996404648 -0.07948417664 0.1293563751 -0.2677320599 -0.9547703768
0.01472548294 0.03958201726 -0.07497132365 0.7174752404 0.008131655962 -0.6965365429
0.01982903163 0.01130982176 -0.06434877014 0.9701601352 -0.08354850122 -0.2276158168
0.01279340076 0.01602823544 -0.001745916873 0.6557216846 0.7543866137 0.03049441692
0.02028328609 0.04381521098 -0.05728195254 0.992565494 -0.0006902356791 0.121709752
0.02025542831 0.003457925664 -0.02918324958 0.9921282631 0.1251797795 0.003395930089
0.01531275702 -0.01374854612 -0.001176108271 0.7205070891 -0.6868693008 0.0952895486
0.01884433047 0.00732782846 -0.06551652188 0.9007615404 -0.2058171623 -0.3824499222
0.01279372621 -0.01602821279 -0.001746042773 -0.6556156896 0.7544696777 -0.0307176341
0.01634589577 0.003611768913 -0.06835844421 0.7906070493 -0.3267569893 -0.517851681
0.0203782569 0.003395285394 -0.0449487542 0.9959169499 0.08823621905 0.01907350593
0.02010558128 -0.00426167353 -0.005364767869 0.9892213107 -0.1452034336 0.01889871459
0.02051717271 -0.000709389468 -0.005524577273 0.9976499626 -0.06561063405 0.01974327494
0.02021568807 0.003550553534 -0.00540752493 0.9913084468 0.1295576355 0.02285568594
0.01075128078 0.05202359161 -0.07811923065 -0.5106637603 -0.002066663627 0.8597780253
0.01695711434 0.01159851122 -0.03709069204 0.8289039907 0.5591670184 -0.01582465469
0.01905223179 0.007662096918 -0.005147518069 0.9064732493 0.4221466589 0.00992203097
0.01948750496 0.00882561779 -0.04755738831 0.9465238792 0.2731689396 0.1716720031
0.01717606888 0.01127430515 -0.009127206326 0.8021067939 0.5971781907 0.001702868215
0.009146029949 -0.01839838123 -0.001901949763 -0.4734070345 0.8761110256 -0.09118799555
0.01494995213 0.0158953259 -0.04431328869 0.768799208 0.4841666731 0.4177683694
0.01909578541 0.007570638044 -0.01298509802 0.9158021933 0.4013318042 -0.01546369137
0.01712090715 0.01136680555 -0.01335157124 0.8061296812 0.5917381648 0.000938796588
0.01536734168 -0.01368900299 -0.005071336826 0.7629664684 -0.6460262084 0.0230717628
0.01920653038 0.01582301884 -0.05230449753 0.9494054511 0.1020557013 0.2970082883
0.009280720393 0.02750941467 -0.04222312164 -0.5866526091 -0.01292113084 -0.8097356115
0.004690563202 -0.02005494881 -0.004963591337 0.3453921171 -0.9384305517 0.007237750906
0.01694458733 -0.01161484051 -0.005369078732 0.8012808896 -0.5979206868 0.02097112932
0.01723433304 0.03630268478 -0.04937921206 0.8490244954 -0.02240573767 0.5278781954
0.01911390644 0.007563159943 -0.03750422499 0.9248600637 0.3775076555 0.04606335445
0.01694289131 0.01161491051 -0.005368432999 0.8011081569 0.5981627356 0.02066549596
0.02052577337 -0.0007035228279 -0.01307213434 0.9978205154 -0.06495148974 -0.01164143226
0.01882844268 0.04342356152 -0.06882593791 0.8955614149 -0.001455215963 -0.4449355398
0.0189236629 -0.007985405266 -0.009283770561 0.9131866486 -0.4075292351 0.003172919643
0.01536383375 0.01368915908 -0.00506999739 0.7629150986 0.6460996129 0.02271216865
0.01717710838 -0.01127425652 -0.009127587891 0.8329208034 -0.5533807079 0.003567539987
0.01975425466 0.02764905421 -0.0547888031 0.9561456513 0.01490770328 0.2925119721
0.009146551132 0.01839835167 -0.001902149975 0.4732074469 0.8761908125 0.09145694203
0.004097617149 -0.0201590414 -0.001557136059 0.3396861688 -0.9404404804 0.01360181955
0.01425037834 -0.01203984669 -0.05360526603 0.6828743076 -0.6784337706 -0.27094335
0.009683356285 0.01815535164 -0.01301210165 -0.5031117738 -0.8641380645 0.01199785489
0.005494874668 0.04768291397 -0.08033606567 0.3607858716 0.01838865178 -0.9324673787
0.01258664926 0.04384901619 -0.07685688146 -0.63222635 0.01044459293 0.7747133359
0.005060036182 0.01994909859 -0.009041550001 0.3545530732 0.9349925567 0.009002065031
0.01950746536 0.006001852989 -0.06288194656 0.943450813 -0.1775763992 -0.2799413973
0.02022205098 0.00353576986 -0.009202594757 0.992014017 0.1250796882 -0.01622533956
0.0006122791991 0.01660548782 -0.08095122147 0.1152255402 -0.1070868087 -0.987550247
0.01269596481 -0.01611696854 -0.005294027328 0.6604445585 -0.7507372111 0.0143744538
0.004089464545 0.02015955544 -0.001554047048 -0.3393629342 -0.9405510258 -0.0140202247
0.009301758766 0.01832825089 -0.005106196165 -0.4802786565 -0.876455545 -0.03403071868
0.01642209991 0.03137745285 -0.07297054799 0.7950035787 0.005146444762 -0.6065829077
0.01547514089 -0.01357141113 -0.01276409054 0.7609326433 -0.6487565079 -0.009823737083
0.02006251293 0.04752610736 -0.06500165007 0.9871415647 0.005921386787 -0.1597387506
0.009300361156 -0.0183283329 -0.005105672359 0.480292767 -0.876458181 0.03376262627
0.00864464283 0.01963758469 -0.07924095917 -0.4351975094 0.06897246475 0.8976892151
0.01380688095 -0.0006761027707 -0.06874103631 0.6572044295 -0.4550930928 -0.6008099656
0.020521492 -0.0007064433197 -0.009314894199 0.9956538746 -0.08927631471 -0.02651606181
0.01859492302 0.02740476279 -0.06931485193 0.8870938239 -0.004801728196 -0.4615641786
0.01316855679 -0.01573933563 -0.009180076408 0.6672783499 -0.7448036378 0.002672987736
0.018873902 0.02371264331 -0.05243656158 0.934828398 0.02568127448 0.3541699288
0.01542148399 -0.01362994242 -0.0089350214 0.7557778297 -0.6547744716 -0.008382335067
0.005823077043 -0.007593951384 -0.06878384399 0.3139571441 -0.6775310045 -0.665118523
0.01354410966 -0.01545990197 -0.03303467782 0.6437985576 -0.7648932972 -0.02148629918
0.01541530418 0.01363021564 -0.008932734489 0.7557262126 0.6548295894 -0.008723560497
0.01316651497 0.01573947105 -0.009179342556 -0.6675293707 -0.7445787649 -0.002646153447
0.004685155869 0.02005528831 -0.004961593151 -0.3451709418 -0.938509557 -0.007538719625
0.009491591136 -0.01824153582 -0.009075371901 0.4932431264 -0.8698536798 0.008111350196
0.009681196213 -0.01815547657 -0.01301134109 0.5025389759 -0.8644726465 -0.01190047131
0.01269909 -0.003384226799 -0.06784888077 0.6215634476 -0.5027006663 -0.6007919113
0.01909662465 -0.007570643016 -0.01298540769 0.9367068936 -0.3500978179 -0.003422491519
0.02022887781 0.00352110929 -0.01296468046 0.9919214305 0.1262164595 -0.01269964448
0.005054073175 -0.01994947116 -0.009039422989 -0.3545340336 0.9350031433 -0.008645286152
0.003301242431 0.05614031982 -0.08091886393 -0.3272909383 -0.01212084729 0.9448458746
0.01640561085 -0.008004712486 -0.05640144043 0.799443254 -0.518844883 -0.3028043444
0.0171128734 0.0239266971 -0.04919576073 0.8473050384 0.004793535245 0.5310849215
0.005407309771 -0.0198454113 -0.01307462692 -0.3685856975 0.9295786239 -0.005307129975
0.01712449964 -0.01136665503 -0.01335285393 0.8370016808 -0.5471903984 0.003294577402
0.001268963893 0.0241910216 -0.08115148671 0.1921188808 -0.008016947569 -0.981338914
0.01546631495 0.0135717996 -0.01276093419 0.7609557785 0.6487271869 -0.009966956304
0.003912154436 0.0006887326241 -0.07559247589 0.2510884084 -0.4722736358 -0.8449332661
0.01290077 -0.01597360954 -0.0130695076 0.6719745348 -0.7405333235 -0.007785969
0.01949355507 0.0259378891 -0.0671977005 0.9430169289 0.01269207093 -0.3325026062
0.01924251366 0.008179115176 -0.04466673851 0.9455497619 0.3079668691 0.1053188273
0.01289167824 0.01597411861 -0.01306630955 -0.6719889894 -0.7405169269 0.008091913643
0.0190310794 -0.007739911927 -0.01702346431 0.9217420315 -0.3863740487 -0.03326742953
0.02014980412 0.05916899681 -0.06466996384 0.9865235409 0.05788215305 -0.153039079
0.02012985547 -0.004205331286 -0.01740404479 0.9787950394 -0.2039737346 0.01884108619
0.02053022957 -0.0007000483341 -0.01754268519 0.9974939459 -0.06865090474 0.01711377285
0.01421049166 0.03958178584 -0.04581047503 0.6783407597 0.001797072449 0.7347452513
0.02023700121 0.003503665023 -0.01744113572 0.992229999 0.1233768827 0.01605533735
0.01868531418 0.03520840142 -0.06910598477 0.8911420614 0.00657683036 -0.4536767261
0.01335759767 -0.0145032088 -0.04893191783 0.6557566095 -0.7325294314 -0.1827126195
0.01697646862 0.01171698443 -0.04123293304 0.8646019786 0.4876181687 0.1212103138
0.019030916 0.007739894973 -0.01702340741 0.9108958413 0.411810775 -0.02608930585
0.01672759607 0.03945268928 -0.07251722887 0.7934254923 -0.007598697864 -0.6086199537
0.01984892464 0.0006708727777 -0.05671661377 0.9638519928 -0.2017498027 -0.1740297475
0.01335211182 -0.01560086136 -0.01687593346 0.6763423941 -0.7365315551 -0.009068314835
0.01553609689 -0.01350190639 -0.01731829007 0.7651491132 -0.643840393 0.004047577239
0.005466992696 0.03215775299 -0.08045005035 -0.2511937384 0.006568803601 0.9679145399
0.01716268826 -0.01131854415 -0.01712648487 0.8383008044 -0.5450337149 -0.01378444418
0.01715798473 0.01131874013 -0.01712485743 0.8094509515 0.5871381486 -0.007612592293
0.01319531536 -0.01575049553 -0.02523728981 0.636108211 -0.7712619885 0.02283175399
0.01552699947 0.01350230503 -0.01731516616 0.7649268096 0.6441020955 0.004412093533
0.007454114596 -0.01913290596 -0.04168186442 0.4614768225 -0.8811852291 -0.1027216356
0.01898417228 0.007867834772 -0.02545528303 0.9060939989 0.4226603692 0.01875839694
0.01335553493 0.01560072746 -0.01687711811 -0.6761185437 -0.7367364029 0.009120714509
0.005416994572 0.01984480858 -0.01307797337 0.3695322269 0.9292025269 0.005347642686
0.009629941861 -0.01194129642 -0.06095546087 0.4816821522 -0.7389829335 -0.471048329
0.01747391955 0.0557491773 -0.04980546188 0.863110835 0.01277330741 0.5048529777
0.00986839517 -0.01807026291 -0.01691006279 0.5111867178 -0.8593753515 -0.01273360634
0.02027443059 0.03972840627 -0.05719659106 0.9918779484 -0.005916529822 0.1270556184
0.009850225449 0.01807130877 -0.0169039437 -0.5118002499 -0.8590107653 0.01268894703
0.004898340225 -0.01468472672 -0.06003743744 0.2813262333 -0.8412706646 -0.4616483721
0.005756885529 -0.01974243037 -0.01706801351 -0.378662342 0.9255211429 -0.005044278609
0.01489595509 0.03145722389 -0.07480301412 0.7446851586 0.007329297723 -0.6673756782
0.01719647439 -0.0112709918 -0.02086750062 0.8399095493 -0.5424840542 -0.01621727448
0.01905020926 -0.007701414214 -0.02148136542 0.9261661533 -0.3769858006 0.009897603869
0.02053241189 -0.0006971747478 -0.02123736254 0.9976976606 -0.06781448961 -0.0007569698735
0.02024371592 0.003489246488 -0.02114111869 0.9917551585 0.1281320073 -0.001973381819
0.01904965973 0.007701411989 -0.02148118231 0.9058821962 0.4231097808 0.01885629876
0.01014649741 0.039974425 -0.07848446147 -0.5004335956 0.002284557292 0.8657719083
0.01719475396 0.01127107302 -0.02086692333 0.8115987583 0.5842111658 -0.002183848194
0.01471098499 0.0518896019 -0.04629549942 0.7292132505 -0.04078583151 0.6830699461
0.005769514561 0.01974164645 -0.01707222112 0.3805215691 0.9247559037 0.005463877489
0.02010535049 0.05553101839 -0.06484435381 0.9741862419 -0.007020017625 -0.2256366226
0.0132700297 -0.0156766154 -0.02106986459 0.6813638357 -0.731843536 0.0121803997
0.01558509541 -0.01344452858 -0.02108133411 0.7768896219 -0.6296113723 -0.00565997144
0.0198185997 0.04398912557 -0.05507666143 0.9611040262 -0.003488245203 0.2761645941
0.01900730451 0.04421408463 -0.05277689934 0.9316797264 -0.009501060774 0.3631564639
0.01557714844 0.01344487524 -0.02107870197 0.7775813063 0.6286713837 0.01181539117
0.01328229062 0.01567601856 -0.02107387892 -0.6755747353 -0.7372136681 -0.01071375952
0.007935567061 0.04019134013 -0.07958494822 -0.4388752625 -0.00587203076 0.8985288105
0.01006196594 -0.01797059759 -0.02153667259 0.5403540823 -0.8412796198 0.01631156328
0.02014250596 -0.004170846502 -0.02477754275 0.979141314 -0.2022434872 -0.01948997262
0.02053442065 -0.0006943232814 -0.02490315564 0.9953251485 -0.09646650098 -0.004697117861
0.01287831361 0.003555919681 -0.07236713736 -0.6289078543 0.3450781182 0.6967036695
0.01992922465 0.01528982989 -0.06508645503 0.973848079 -0.05449997215 -0.2205667068
0.02024903933 0.003474955479 -0.02481167709 0.9921244187 0.1243107257 -0.01536168127
0.01024289544 0.01147084586 -0.07727977117 0.4971412129 -0.2004875265 -0.8441891768
0.01004417483 0.01797161802 -0.02153089778 -0.5411214135 -0.8408117894 -0.01493822654
0.01928382263 -0.005559767818 -0.04918670807 0.9287418101 -0.3485387715 -0.1263304197
0.006103381634 -0.01964035702 -0.02102621651 -0.3861142257 0.9224364394 -0.0051788049
0.02004686387 -0.004078533252 -0.04486453438 0.9724354165 -0.2251275687 -0.06072016544
0.01563370164 -0.01338761139 -0.02481420008 0.7507519682 -0.6605841803 -0.0001516747284
0.01796506945 0.01566461992 -0.04933423042 0.8780998791 0.2407585249 0.413492364
0.01723669561 -0.01121438201 -0.02532107226 0.8426355664 -0.5382737376 0.01505608077
0.0008397620916 0.02839391963 -0.08117627207 0.1961976125 0.01540674629 -0.9804433329
0.01898476846 -0.007867830958 -0.0254554754 0.9209069256 -0.3886092987 0.0302199827
0.01035805448 0.05581949043 -0.07834510803 0.4980874325 0.008334560044 -0.8670867573
0.01723852698 0.01121432765 -0.02532165305 0.8155747717 0.5785395074 0.01139430441
0.01030527719 0.03585707728 -0.0783967158 -0.5056705881 -0.003108275215 0.8627210412
0.02008702342 0.04345476362 -0.06490122392 0.9869442748 0.003578779221 -0.1610223302
0.01562689463 0.01338790735 -0.02481202634 0.7404009905 0.6721654273 -0.0001082325534
0.01508301306 0.04772096252 -0.07457055473 0.7327400567 0.01130088249 -0.6804147995
0.02056773281 0.02737586689 -0.06121903865 0.9998030724 -0.01875027375 -0.006499505209
0.009863907337 0.01969389725 -0.04230794716 0.6734971194 0.4068496237 0.6171507222
0.006118922472 0.01963939571 -0.02103120995 0.3887514833 0.9213229155 0.006030718476
0.01863654439 0.03130215677 -0.0692055308 0.8927126866 -0.002136559225 -0.4506212315
0.01321655006 0.01574942608 -0.02524398804 -0.6385649267 -0.7692112968 -0.02342680537
0.006427069187 -0.01954047521 -0.02493981425 -0.4602449048 0.8876372022 -0.01657784235
0.01915371561 -0.007460611343 -0.02902929974 0.9354943308 -0.3526053913 -0.02279901395
0.02015000916 -0.004150392294 -0.02915108713 0.9901098171 -0.1402649123 0.002881737346
0.005574270248 -0.003900074561 -0.07205704498 -0.3119797656 0.5852639216 0.7484215175
0.02053681352 -0.0006909271479 -0.02926914046 0.9978421689 -0.06392829638 0.01497260133
0.01798023287 -0.004723308961 -0.05701279619 0.8680939957 -0.411375344 -0.2778185398
0.01915331769 0.007460613072 -0.02902917528 0.9149925922 0.4031151212 -0.01693385063
0.01020440292 0.01788926029 -0.02535338306 -0.5506944529 -0.8346468062 -0.01001640639
0.01654176794 0.03560387966 -0.07278731646 0.794745829 -0.006476839463 -0.6069078331
0.006464911302 0.0195381457 -0.02495145988 0.4609791476 0.8871608581 0.02106744559
0.02017930794 0.05623418045 -0.05685484992 0.9741077671 0.0004930478295 0.2260836461
0.01362044754 -0.01538485203 -0.02893147774 0.6421931289 -0.7663091047 -0.01892990442
0.0166241554 -0.01206031668 -0.02935762143 0.8151060125 -0.5792379203 0.009253109267
0.005878474712 -0.01132916292 -0.06452372106 0.3368399432 -0.7417806467 -0.5799140668
0.01676159545 0.01187712915 -0.02958301026 0.8173101947 0.5761502285 0.007413488001
0.01566645908 0.01334259892 -0.02778125191 0.7458720654 0.6659030707 -0.01574682578
0.02056293964 0.03159421921 -0.06076444817 0.9991566981 -0.01081148093 0.03961066269
0.007537430763 0.01915876007 -0.04022945023 -0.6627699465 -0.7070124948 -0.2467171058
0.01364147396 0.01538382187 -0.02893787613 -0.6448911413 -0.7640237903 0.01957201508
0.01381822641 -0.008060865811 -0.06136528615 0.6676298382 -0.5970790704 -0.4447099986
0.01035142517 -0.01780826124 -0.02914053472 0.5029924711 -0.8642431618 -0.009073658817
0.01029993439 0.01784015656 -0.02763243866 -0.5584557464 -0.8295340298 0.000687504214
0.01496680578 0.02741460419 -0.07473348999 0.7215824743 0.009777727012 -0.6922594376
0.01877209053 -0.008358571339 -0.04141684494 0.9229956002 -0.38321808 -0.03497177664
0.006780752341 -0.01942364248 -0.02958317312 -0.4837484621 0.8751867901 -0.005958851288
0.009690134128 -0.004776157022 -0.06920023219 -0.4657129894 0.5803890841 0.6680268876
0.01677683532 -0.01182901537 -0.03323600888 0.826409788 -0.5630319133 -0.006475095666
0.01089618444 0.01756254673 -0.04036946869 -0.6399695111 -0.6893123536 -0.339540136
0.01909773657 -0.007600435363 -0.03318147786 0.9333965097 -0.3588294966 -0.003513971088
0.009339570681 -0.01454997349 -0.05662783305 0.4322619553 -0.8146405218 -0.3866657759
0.02015745099 -0.004130104264 -0.0334891173 0.9896100208 -0.1434318211 0.009965913458
0.02053918648 -0.0006875585649 -0.03359982173 0.9972452503 -0.07368580444 0.008503707779
0.02042751016 0.01540050242 -0.05759386656 0.9980466957 0.02124259541 0.05874985409
0.02026073096 0.003441038715 -0.03351905081 0.9925045521 0.1210604945 0.01670541296
0.01909807332 0.007600423283 -0.03318157853 0.9230931034 0.3843537984 -0.01308740136
0.01677981997 0.01182892132 -0.0332368927 0.8197560828 0.5727115221 -0.001215372324
0.01038248301 0.01779201221 -0.02989615822 -0.5418303818 -0.8402399439 -0.02041259303
0.0205374705 -0.0006820097367 -0.04074277454 0.9974694375 -0.06465450195 -0.02957222676
0.006850262165 0.01941938146 -0.02960370954 0.4827283606 0.8757648986 0.003028557907
0.01355599085 0.01545931911 -0.0330381368 -0.6456954654 -0.7632842774 0.02178251458
0.01050512377 -0.01771304067 -0.03364295578 0.5143715994 -0.857461475 0.01347874348
0.01050562763 0.0177130127 -0.03364311218 0.5125903807 0.8586248765 0.003797766025
0.01695202756 -0.01159868157 -0.03708925867 0.8286575255 -0.5591334085 -0.02639198564
0.02047151883 0.01532402399 -0.06175081465 0.9969813508 -0.02639013986 -0.07301881023
0.01884531466 -0.008257083019 -0.03743023109 0.9340993861 -0.3566445146 0.01621810637
0.02055873723 0.04767989985 -0.06092572488 0.9998693679 -0.005578730031 0.01516986863
0.01033766651 0.05161295573 -0.04283340454 -0.6163590776 0.006224043826 -0.7874406319
0.01965023168 -0.006175346692 -0.03765197118 0.9473226621 -0.3195929819 0.02097855461
0.01899847548 0.01154326017 -0.04885620063 0.9160825077 0.293988241 0.2726971824
0.020137117 -0.004248459721 -0.03750042114 0.9889447965 -0.1482637941 0.002457001232
0.02054114755 -0.0006847708027 -0.0371838576 0.9958529235 -0.09091539681 -0.003368281816
0.005157559554 0.03632876587 -0.08051192474 -0.2259674993 0.01413483092 0.9740322868
0.02022788783 0.003621691499 -0.03740311486 0.9921327152 0.1232441351 0.02198996489
0.01550367228 -0.01309276231 -0.04515555954 0.7446090691 -0.6621251712 -0.08454343181
0.007114824295 0.01932458305 -0.03343028259 0.4909811753 0.8711535424 -0.005384329286
0.01191983128 0.008745347023 -0.07541691589 -0.5568075746 0.2427858825 0.7943678872
0.01364468575 -0.01537992191 -0.03745199521 0.6525289728 -0.7577619235 0.001675426909
0.01364793968 0.01537976519 -0.03745290248 -0.6329084535 -0.7681234194 -0.09702217311
0.02026362578 0.03565430196 -0.05711906815 0.9912424945 -0.0001552894127 0.132054129
0.007362513224 -0.01923146947 -0.03722087479 -0.4939152432 0.8694716707 -0.008169850609
0.01063223839 -0.01763428879 -0.03736671066 0.5183093699 -0.855164747 -0.006975133445
0.008152512232 0.03604519653 -0.0795018336 -0.4488909217 0.004781977101 0.8935737648
0.02018273239 -0.003958351326 -0.04093339462 0.9863693477 -0.1635005253 -0.01852263847
0.02030950475 0.003241055876 -0.0408603158 0.9932845243 0.1156885553 -0.001418404678
0.01062353802 0.01763477898 -0.03736433029 -0.6403574743 -0.7552476325 -0.1397974203
0.01655038681 -0.01080123138 -0.04939183426 0.8262642467 -0.5404596419 -0.1587160045
0.007374539057 0.01923073705 -0.03722417704 0.6697397703 0.710714934 0.2152508367
0.01681963264 -0.01172296821 -0.04119164997 0.8315783691 -0.5541513852 -0.03733173407
0.0196291275 -0.006150866747 -0.04121444702 0.9478329423 -0.318261644 -0.01795102803
0.0189877437 0.007989433765 -0.04128379631 0.9346168614 0.3450782964 0.08609466754
0.01066855971 -0.0175611426 -0.04104030863 0.5403074384 -0.838612748 -0.0692569912
0.01489256501 0.003017012954 -0.06997259903 0.7168462886 -0.3488595515 -0.6036790636
0.01983720779 0.04741694832 -0.05515361404 0.9616171168 0.02453843513 0.2732954187
0.01970114708 0.006144444942 -0.0419450264 0.9637465122 0.2533723651 0.0836367432
0.003302734137 -0.01919759178 -0.04951226044 -0.2862753462 0.9107189319 0.2977204279
0.01365736542 0.01572817669 -0.0415260231 -0.6670090479 -0.6774190927 -0.3101649607
0.01872855949 -0.008054373932 -0.04481804962 0.908840423 -0.4080575652 -0.08659162234
0.01381018734 0.05878861618 -0.04533831978 0.697570039 0.01997436651 0.7162381346
0.01950197474 -0.006128675302 -0.04472791926 0.9427813577 -0.3274088611 -0.06298213447
0.01324337943 -0.01526332219 -0.04531804466 0.6192346273 -0.777836155 -0.1073284317
0.02051058748 -0.0006788665255 -0.04498101976 0.9979684797 -0.05932642305 -0.02322259653
0.01565487671 0.05905237961 -0.04726742935 0.7666894758 0.02449571132 0.6415506276
0.0198309145 0.006459435105 -0.04516653728 0.9679468181 0.2292500416 0.1025835065
0.009626219749 0.03599241638 -0.04240769068 -0.5930840762 0.002081236504 -0.8051378435
0.01705875174 -0.01096920824 -0.04553945986 0.8407366179 -0.5347194694 -0.0850707259
0.0127757136 0.01542510907 -0.07630012639 -0.6112736837 0.1195483551 0.7823379541
0.01779323087 0.01182889434 -0.04532239205 0.8700778352 0.4153867682 0.2653646423
0.009142703374 0.02327239609 -0.04214939372 0.6797944174 0.219554262 0.6997681588
0.01462640667 0.01136545102 -0.07377777354 0.7153627346 -0.199916939 -0.669544155
0.009441872279 0.03174927521 -0.04230921046 0.5879801358 -0.003916339416 0.8088658864
0.001675458074 -0.01480943298 -0.06085988617 0.1394858166 -0.8521215396 -0.5044131131
0.009817192078 0.04024146779 -0.042514328 -0.6000009355 0.002494678083 -0.7999954087
0.01443162994 0.0553578804 -0.04600462952 0.6960263487 0.00139627025 0.7180148831
0.009963964462 0.04378981972 -0.04260482216 -0.6045637741 0.003897989599 -0.7965472043
0.01012558715 0.04734296926 -0.04270395915 -0.6108328764 0.001435603187 -0.7917582562
0.01695582061 0.007337593344 -0.06930908118 0.8368341687 -0.2269868315 -0.4981822482
0.01593119335 -0.003367897749 -0.06356110001 0.790242263 -0.4359078389 -0.4306988759
0.01057024034 0.0558904597 -0.0429746933 0.6364751874 -0.002665477136 0.7712925716
0.0107793107 0.05946101761 -0.04310125542 0.6401571702 -0.01027825695 0.768175211
0.01507717228 -0.006089291096 -0.06200513458 0.7481399963 -0.5090731709 -0.4255949395
0.0101306591 -0.01750637118 -0.04527704748 0.5124160689 -0.8482203754 -0.1339849514
0.01889067459 0.01963556894 -0.05240111669 0.9363952315 0.06200998182 0.3454254372
0.01653562975 0.01543848825 -0.04649938393 0.8631403629 0.3158269329 0.3940076933
-0.0009303150177 0.01459734344 -0.08072600555 0.1014730035 -0.1481205423 -0.9837497316
0.0154080534 0.05592168808 -0.07420468394 0.739329587 0.00174606904 -0.6733414535
0.01409444459 0.02007422892 -0.04555978394 0.7176692202 0.2426948386 0.652725138
0.007657752991 -0.004795646667 -0.07050467682 -0.3802137165 0.5671297191 0.7306171443
0.01720504036 0.04351475754 -0.04934797745 0.8558635611 0.01742854519 0.5169079324
0.01396122042 0.02425089359 -0.04556156667 0.6675601462 -0.007471793905 0.7445183836
0.01422655964 0.02811863022 -0.04581094894 0.6636801253 -0.02116389245 0.747717046
0.01990640068 0.01514531326 -0.05434870052 0.9693572911 0.1253962273 0.2112397417
0.0138493927 0.03151105995 -0.04546633072 0.666978741 0.0202582781 0.7448012898
0.01653197034 0.01931595103 -0.0727867686 0.8029295474 -0.03284030127 -0.595168595
0.01640385017 0.01558844433 -0.07258471832 0.8098969762 -0.08161926485 -0.5808658913
0.01412626696 0.0353906695 -0.04572953669 0.6738033612 0.02306188525 0.7385507294
0.01841861725 0.01927452405 -0.06966513485 0.8829484015 -0.02643116416 -0.4687254141
0.01714977996 0.0280439771 -0.0492489624 0.8454528873 0.0003619246428 0.5340498894
0.01430642446 0.04378183873 -0.04590112813 0.6831745824 -0.003324445142 0.7302475183
0.01872518963 0.05158433278 -0.06904328071 0.8920767529 -0.01441859945 -0.4516538176
0.01965672302 0.05637643242 -0.0665800705 0.9493814549 -0.009174881826 -0.3139915201
0.01441267967 0.04799195989 -0.04600119146 0.6865633544 -0.01979892354 0.7268003598
0.02012893846 0.03535482279 -0.0647276357 0.986168451 -0.004964316004 -0.1656717893
0.006353792191 -0.01910678927 -0.04582103984 -0.4222551601 0.8884886218 0.1796901465
0.01824925137 -0.008167226076 -0.04866081619 0.8885436541 -0.4348821312 -0.1461769706
0.01988781357 -0.003724353969 -0.04869768429 0.9568164648 -0.2712955159 -0.104407834
0.02050008074 0.007359090169 -0.05756447347 0.9986359947 -0.03331341735 -0.04020405805
0.02038315074 -0.0006761149102 -0.04916709264 0.9917454227 -0.1203250436 -0.04430463336
0.02052441491 0.003376961576 -0.04920344798 0.9994470377 0.02637568925 0.02024702092
0.02010096383 0.007269960284 -0.04928405571 0.9851401457 0.1368653482 0.1037630467
0.01561954975 0.05764038086 -0.0472268219 0.7657662882 0.03199224793 0.6423227288
-0.0001299884599 0.03476997566 -0.08119562912 -0.1084981272 -0.02126636607 0.9938691554
0.01715793095 0.05949670563 -0.04938195038 0.8304419068 0.02267835051 0.5566434512
0.01496642399 -0.012704566 -0.04966162395 0.7227720124 -0.6624266301 -0.1969557763
0.01715294997 0.01981142267 -0.04916820272 0.8649548524 0.1076638275 0.4901648739
0.01719183286 0.03216874186 -0.04931048139 0.8478391887 -0.01914858379 0.5299075786
0.0197555809 0.01014256954 -0.05043954849 0.9695121426 0.178800085 0.1675611378
0.01739004402 0.04014786758 -0.04962023926 0.8545901605 -0.001309324833 0.5193013993
0.01736464628 0.04737936529 -0.04960173162 0.855401497 0.006958691615 0.5179187732
0.01741689173 0.05155698649 -0.04969933637 0.8662332955 -0.01746212942 0.4993345089
0.009902925332 -0.01673883009 -0.0495682443 0.4745273223 -0.8493233725 -0.2312436578
0.01895798429 -0.004730648014 -0.05303690932 0.9016012984 -0.3823030626 -0.2023844536
0.004673742294 -0.01914621162 -0.04835816574 -0.2972052297 0.9267334102 0.2298569943
0.01745992502 -0.008148992618 -0.05270250638 0.8491436832 -0.4820402273 -0.215852321
0.0201070652 -0.0005057014078 -0.05312128544 0.9815091119 -0.157255391 -0.1091357192
0.01498678422 0.01502464533 -0.07421307755 0.713445458 -0.1123970677 -0.6916375334
0.02051040459 0.00336049668 -0.05339066739 0.9990317318 -0.02479596302 -0.03634224913
0.0204773017 0.007395598359 -0.05339253489 0.9989552106 0.02491929974 0.03830816738
0.02013421297 0.01127417374 -0.05350426817 0.981621314 0.1100722325 0.1558964387
0.01652965005 0.02332537842 -0.07284289805 0.805348344 0.006085104251 -0.5927706271
0.01953525734 0.01283847809 -0.05180239487 0.9497222498 0.1658441723 0.2655623442
0.01889404488 0.02779450639 -0.05248805428 0.9327206234 -0.002423257485 0.3605916894
0.02004313405 0.01928008684 -0.06514821625 0.980387553 -0.02119986998 -0.195935733
0.01891763783 0.03188435809 -0.0525478344 0.9315349083 -0.004478576567 0.363624335
0.01894436582 0.03598342705 -0.05261586571 0.9310542183 -0.002990063716 0.3648686094
0.002264022589 -0.01624433327 -0.05806806183 0.2397934206 -0.8806456483 -0.408610276
0.01897409121 0.04009294828 -0.05269216537 0.9306621189 -0.009986893309 0.3657434652
0.005967076898 0.007511070728 -0.07804274368 -0.3099082404 0.3202364519 0.8952125432
0.02034169833 0.02346581862 -0.0576533449 0.9936845567 -0.004799451648 0.1121069443
0.01910547867 0.04805341492 -0.05302002106 0.9319055312 -0.000857366689 0.3627000771
0.01906921164 0.05180405553 -0.05295281982 0.9045440343 0.004610967593 0.4263552849
0.01904124451 0.05556972809 -0.05289290543 0.9104201123 0.03918868869 0.411824557
0.01913556767 0.05875005817 -0.05313708591 0.9100309224 0.03285616973 0.4132362428
0.01215429354 -0.01450101948 -0.05223038864 0.5872588506 -0.7714209285 -0.2450240672
0.016030334 -0.01022572803 -0.05308885765 0.7809388583 -0.5731390858 -0.2482863024
0.005042396665 -0.01324668169 -0.06222341537 0.3322654882 -0.791231526 -0.513373468
0.005628251394 -0.01758706093 -0.05295838292 0.3169036319 -0.8943609359 -0.3157381897
0.01694538371 0.05167517789 -0.07221674474 0.8441861885 -0.01184848707 -0.53591911
0.009515684843 -0.01563409662 -0.05379992676 -0.4983406684 0.8028620492 0.3272141626
0.01957897568 -0.002019287825 -0.05457071304 0.9479988792 -0.2682007055 -0.1713665857
0.01975469208 0.01953259532 -0.05469917679 0.9633534435 0.07699034291 0.2569486915
0.01974441401 0.02358781497 -0.05473784765 0.9583617616 0.01986918956 0.2848647911
0.01976645152 0.0317185936 -0.0548480835 0.9600630714 -0.005054641765 0.2797380015
0.002246393323 -0.001384114385 -0.07463100433 0.2347962768 -0.5183019465 -0.8223343606
0.01978123156 0.03579763158 -0.05491578293 0.9598426399 -0.002174219468 0.2805305321
0.01979860878 0.03988739522 -0.05499195608 0.9596421941 -0.01389754546 0.2808802549
0.02022991262 0.04813889476 -0.05706544931 0.9930239596 0.006596443235 0.1177280872
0.02015929095 0.05209842004 -0.05674316491 0.9733947489 -0.00695626365 0.2290289789
0.02019735241 0.05969343885 -0.05695448367 0.9921394941 0.04388170158 0.1171905311
0.01877890354 0.04749544271 -0.0689297977 0.89582504 0.006041565793 -0.4443658371
0.01923670197 -0.001056232597 -0.0574770268 0.9096922484 -0.3188025676 -0.2661295476
0.02015919156 0.003347882403 -0.05748038822 0.9807241541 -0.1372198488 -0.1391073206
0.02053727765 0.01137485176 -0.05759096358 0.9997647196 -0.004689418952 0.02117816726
0.02034217135 0.01943220287 -0.05761027018 0.9936645063 0.01896586521 0.1107751999
0.02034638384 0.02750642649 -0.05770571899 0.9932725372 0.01412637089 0.1149352535
0.004296962261 0.01301386833 -0.07997515869 -0.2390315332 0.1631438075 0.9572084539
0.02029616737 0.03138327735 -0.05735402461 0.9907233714 0.01224890463 0.1353409237
0.0133103496 -0.0112414247 -0.05724302292 0.6591003681 -0.6712895928 -0.3390530746
0.0006662901044 -0.01780425262 -0.05481438065 0.182984368 -0.9149984299 -0.3595755753
0.006140211582 -0.0156093146 -0.05740246964 0.2959301459 -0.8608171153 -0.41402807
0.005327022195 0.04393847466 -0.08040270424 0.3674618211 0.003964608143 -0.9300301564
0.01088785076 -0.01308739328 -0.05765714836 0.5427079061 -0.7327862808 -0.4104782521
0.02056206512 0.03547573344 -0.0606596561 0.9994601493 0.001417322199 0.03282379099
0.02056293382 0.03953048325 -0.06073991013 0.9994528384 0.01354757233 0.03017427975
0.005359092553 0.01570404085 -0.0801476415 -0.2693959225 0.1121259207 0.9564798037
0.02056229252 0.04359799915 -0.06082867177 0.9996788355 0.0014732515 0.02529931603
0.008482158979 0.02781084442 -0.07935849762 -0.4312363791 -0.002440897942 0.9022356828
0.02055402141 0.05177736282 -0.06103151067 0.9997731991 -0.01253838065 -0.01721451124
0.02054624812 0.05589216232 -0.06114574305 0.9989832561 0.01117994818 -0.04367450978
0.02053915628 0.05933471616 -0.06124758848 0.9976930718 0.03945614207 -0.05524262248
0.01665278518 -0.004553463042 -0.06074575329 0.8203190881 -0.4541776647 -0.3475618544
0.01822153113 -0.000672044913 -0.061232513 0.8754451029 -0.3435994676 -0.3399048067
0.01919393131 0.00314945347 -0.06182639531 0.9092524934 -0.2673264417 -0.3190556016
0.02004483128 0.007502628446 -0.06144370031 0.9730913081 -0.1124274952 -0.2011302176
0.003024388075 0.006196567535 -0.07832984924 0.2510189196 -0.3283572371 -0.9105882861
0.01790285492 0.003339859486 -0.06532649824 0.8626860876 -0.2927977873 -0.412361698
0.02032588598 0.01132780552 -0.06169252099 0.9878349662 -0.05745244654 -0.1445036194
0.02054819788 0.02315670913 -0.06145368849 0.9995347744 -0.0009128587376 -0.03048608711
0.01215591669 -0.01025525522 -0.06073927307 0.5720664944 -0.6787045722 -0.4605431898
0.02014451098 0.02345533562 -0.064702878 0.9819565446 -0.01360927759 -0.1886163623
0.02016307259 0.02730232811 -0.06459021378 0.9865631556 -0.009604644273 -0.1630977952
0.02014695846 0.03132333501 -0.06465443336 0.9878769884 0.01111471517 -0.1548403012
0.02010899862 0.03939816369 -0.06480988312 0.9867951172 -0.003460271727 -0.1619364786
0.01056299814 0.02767174784 -0.07824901581 -0.5475411114 -0.004633881983 0.836765952
0.02003593402 0.05161356481 -0.06511133533 0.9617345088 -0.02583814153 -0.2727620301
0.005943914096 0.01977409299 -0.08027976481 -0.2825006019 0.03794289179 0.9585164302
0.01662511766 -0.0005047133937 -0.06490832138 0.8258794902 -0.350241408 -0.4418755751
0.008487816572 -0.01032620764 -0.06428722763 0.4266290052 -0.7125849597 -0.5569653194
0.00985454998 -0.008353195667 -0.06552407837 0.492527776 -0.665601523 -0.5607058074
0.01222562695 -0.007487628937 -0.06426555634 0.5711717899 -0.6200807945 -0.5378313813
0.01921816095 0.01130526956 -0.06629636002 0.9298229688 -0.1195083807 -0.3480617669
0.01962760162 0.05912593842 -0.06666633224 0.9475543561 0.03493299105 -0.3176797576
0.01936712074 0.01528122679 -0.06704277293 0.9312172525 -0.06818850568 -0.3580289883
0.01950309753 0.01926790301 -0.06710927582 0.9386447408 -0.02769649124 -0.343771661
0.01950597827 0.02326703707 -0.06716090647 0.9416290806 0.01564190049 -0.3362885747
0.01887170961 0.03936745199 -0.06873123169 0.8973543526 -0.001153892599 -0.4413092277
0.01866731898 0.05569175593 -0.0691665073 0.8936101698 0.004688047118 -0.4488194366
0.01301921447 0.02752099482 -0.07651805751 -0.6264264512 -0.002189842938 0.7794774569
0.01861598047 0.0591293939 -0.06927648036 0.8925718393 0.0353768245 -0.4495152855
0.001829072475 -0.01121351004 -0.06594945526 0.2188869214 -0.7619648495 -0.6095064264
0.01822365761 0.01528942278 -0.06958765496 0.8765599056 -0.08420977127 -0.4738685961
0.01111554432 -0.006128042698 -0.0668707962 0.5327653114 -0.5996826071 -0.5971112909
0.01775720596 0.01131388177 -0.06947273593 0.8463814852 -0.1548798907 -0.5095592222
0.01842878554 0.02327447107 -0.06972037845 0.8860643546 0.009756491519 -0.4634595671
0.008020811081 -0.007552314758 -0.06774068451 0.394927042 -0.6534879491 -0.6457446336
0.002511400302 -0.007660114129 -0.06966011302 -0.2459952876 0.6774783207 0.6931878847
0.01665170394 0.04352181117 -0.07261427138 0.7945138592 0.01144282299 -0.6071381963
0.01683588191 0.04739370891 -0.07236106982 0.7967136134 0.001783217949 -0.604354398
0.01685766157 0.05579471715 -0.07234337997 0.8351272242 0.02223954104 -0.5496070617
0.006622852325 0.05915299988 -0.08007082748 0.3887603537 0.03442809258 -0.9206954403
0.01677946234 0.05924336147 -0.07245637512 0.8402869227 0.0420391307 -0.5405095735
0.01091344213 -0.001357180864 -0.07103980255 -0.5545229742 0.4875105017 0.6744166233
0.01228280544 0.0006750177145 -0.0712670517 -0.5913441141 0.4366223968 0.6779919036
0.01406049559 0.007370966064 -0.07297104475 -0.6644599417 0.2783164728 0.6935653732
0.01619261773 0.01133521366 -0.07195985921 0.7758932059 -0.161396852 -0.6098694854
0.01647966671 0.02734616121 -0.07290195338 0.7963085293 -0.01411806421 -0.6047258937
0.009272799397 -0.0004100887775 -0.07273892059 -0.4488392639 0.4739208944 0.7575897973
0.01553243764 0.0517869517 -0.07407847341 0.743237641 -0.02247608617 -0.6686498594
0.01529740191 0.059384058 -0.07431736755 0.7342508614 0.04385167628 -0.6774604808
0.001194012761 -0.004878080368 -0.07231699371 0.2117985071 -0.5940708148 -0.7760291614
0.006273165862 -0.0006866563757 -0.07405497233 -0.317689167 0.5057877261 0.8020301549
0.009712692451 0.003116266489 -0.07449706268 -0.4807311159 0.3904274095 0.785152235
0.0003574125469 0.03192300415 -0.08119048691 0.1261263723 0.02042014467 -0.9918039907
0.01503013674 0.01936371104 -0.07461552175 0.7082368112 -0.04751850362 -0.7043739143
0.01502222347 0.02338341586 -0.07467269389 0.7200099865 0.002583565625 -0.6939588925
0.01481531366 0.03551249822 -0.07488223012 0.7146241178 0.00768973757 -0.6994663954
0.01462637901 0.04366745631 -0.07507038116 0.7155130012 0.004008382283 -0.6985879171
0.01291518497 0.04792596308 -0.07656954702 -0.6494681727 0.01849667003 0.7601637757
0.01371847884 0.05196495565 -0.07589580282 -0.6783033117 0.01287161734 0.7346692718
0.01357033777 0.05611777751 -0.07602429708 -0.6336830496 0.002741313499 0.7735879251
0.01343850088 0.05959593773 -0.07613903809 0.619099834 0.05644555353 -0.7832811085
0.009871719201 0.007438309352 -0.07626649475 -0.4700891416 0.3039651591 0.828626201
0.01274044037 0.01140711912 -0.07556144969 -0.6377687046 0.1806285254 0.7487485661
0.01310251633 0.01943767071 -0.07639828237 -0.6329649755 0.03702887012 0.7732943829
0.01309405152 0.02347278341 -0.07645742798 -0.6296335389 0.003205148711 0.7768856632
0.01293236128 0.03158079274 -0.07658842595 -0.6239484044 -0.005145169843 0.781448601
0.01283340375 0.03565392431 -0.07666860072 -0.6236135347 -0.008987478296 0.7816811272
0.01271864669 0.03974262937 -0.07675812022 -0.6220396223 -0.00594520481 0.7829631938
0.006917459488 0.01156418546 -0.07890829468 -0.372990943 0.2311948164 0.898569259
0.005476748884 0.003423945129 -0.07653990364 -0.2712283311 0.3993011008 0.8757818354
0.008018810272 0.0047595191 -0.0762100296 -0.4073126672 0.3693692082 0.8352621021
0.01024184394 0.04855901432 -0.07841563225 -0.517700621 0.005502536479 0.855544148
0.001207968146 0.003465165615 -0.07735087204 0.192757899 -0.4052760067 -0.893641847
0.009245337248 0.01555004946 -0.07857472356 -0.4752965142 0.1370533941 0.8690854911
0.01069505882 0.01954121399 -0.07813111115 -0.5468740694 0.05380631052 0.8354840711
0.01066698615 0.02359926351 -0.07818958028 -0.5519755115 0.001941173156 0.8338580614
0.01044268608 0.03175701714 -0.07831806691 -0.5149178189 -0.004454574135 0.8572279723
0.009969933192 0.04411070124 -0.07858194224 -0.5032005192 0.01093283507 0.8641005211
0.008614679337 0.02371583176 -0.07930077871 -0.4411006877 0.003303555623 0.8974515418
0.007730244398 0.04366304398 -0.07966016006 0.4367443397 0.009060079727 -0.8995400473
0.005864678764 0.05126681137 -0.08022921295 0.3577127918 0.004908628347 -0.9338187533
0.006903312047 0.05559939702 -0.07996624756 -0.3954761841 -0.01815029484 0.9182968772
0.003011920333 0.01100029421 -0.07978384399 -0.235832775 0.1891019388 0.9532173724
0.005888877233 0.02388259315 -0.08033798472 -0.2910623805 0.001816324219 0.9567023527
0.005705123425 0.02801076953 -0.08039136505 -0.279762552 -0.002751728087 0.9600652803
0.004872378588 0.03982207489 -0.08056937408 -0.2235958675 0.005489973129 0.9746664805
0.003613669634 0.05326734543 -0.08084862518 -0.3435155585 -0.005706056757 0.9391296513
0.002758563519 0.05977662849 -0.08099436569 -0.3034213425 -0.01768122328 0.9526924285
0.001431923072 0.02002267011 -0.08110502625 -0.1815906714 0.06195379082 0.9814206824
-0.0006619520783 0.03693213654 -0.08118173981 -0.1079707492 -0.01911654325 0.9939702587
-0.001870400071 0.03918712807 -0.08108444977 -0.09436373216 -0.03368542366 0.9949677273
