# .PCD v0.7 - Point Cloud Data file format
VERSION 0.7
FIELDS x y z normal_x normal_y normal_z
SIZE 4 4 4 4 4 4
TYPE F F F F F F
COUNT 1 1 1 1 1 1
WIDTH 541
HEIGHT 1
VIEWPOINT 0 0 0 1 0 0 0
POINTS 541
DATA ascii
0.0009597830375 0.0205080825 -0.009276133749 -0.09413405888 -0.9955575893 -0.001966027184
0.004962504148 0.06060000229 -0.04376502482 -0.2830939838 -0.4176218179 -0.8633943557
-0.002976606091 0.02033542506 -0.0165041194 0.1129080431 -0.9933906132 0.02066067271
-0.01745800018 0.01089422989 -0.03984483337 0.7650291448 -0.6407827897 -0.06424814429
0.005118489742 0.03260508251 -0.04066815186 0.3381439293 -0.02603210374 0.9407342944
0.02020221281 0.003548869073 -0.02499512577 0.9838682983 0.1788778756 0.002424312192
-0.01348233223 0.03002178001 -0.07109113312 0.8440227949 0.01868702908 0.5359816384
0.02025528717 -0.003581778049 -0.001497149825 0.9999307773 0.01102988836 0.004096604043
-0.01505409098 0.02833536005 -0.06859462166 0.8836060937 0.02631978334 0.4674906845
0.02018680096 0.00350088501 -0.001467829898 0.9885092804 0.1400007583 0.05700166839
0.01915868282 0.00741754818 -0.001452974796 0.9109164769 0.4099426608 0.04667105097
-0.01081382751 0.004170863152 -0.06945893097 0.6855428882 0.3378295683 0.6449047458
0.0182925005 0.009405188084 -0.001445939243 0.9012530282 0.431788615 0.03607729466
0.01055628538 0.01766594315 -0.001423157036 0.5031017919 0.8631789462 0.04255224787
0.01932492447 0.04758008703 -0.05357938894 0.942070464 0.006867808361 0.3353447092
0.01917568302 0.00746901083 -0.02912862587 0.9136327624 0.4065402217 0.0004729133895
0.01492367697 0.02749136257 -0.04643824196 0.7665742682 0.0006894924839 0.6421552895
0.01524970531 0.01384361219 -0.01289384127 0.746668217 0.6651936057 -0.002010122782
-0.002980631292 0.02032576227 -0.001433979034 -0.1059298278 0.9922742108 0.0645814376
-0.01226214981 0.03263487244 -0.04870985031 0.8285136455 -0.001175582574 -0.5599676394
0.02002273814 0.03158295377 -0.06515906398 0.9722334983 0.01837033392 -0.2332907106
0.01467044353 0.0206952858 -0.07505766296 0.8259258432 -0.01698790109 -0.5635227704
0.01681720924 0.01178802848 -0.001438161671 0.8082283084 0.588149348 0.02910920663
0.01055767473 0.01766970444 -0.01352759997 -0.5038752092 -0.8634708166 -0.02297656241
-0.01168069077 0.05113611221 -0.04818350601 0.7406338955 -0.01519775951 -0.6717368986
0.02003931427 0.05186456426 -0.06513491821 0.985402692 0.005271152977 -0.1701580133
0.01661213462 0.05991991679 -0.04939465205 0.8121070103 0.2910249463 0.5057535808
0.001143458292 0.06060000229 -0.08011718559 0.06725979632 -0.4909336732 -0.8685967121
0.004962504148 0.06060000229 -0.07933930206 0.2504758611 -0.6455354721 -0.7214885982
-0.01395306683 0.01507945442 -0.001473961592 -0.66782099 0.7397420922 0.08244247893
-0.004198528647 0.03862834358 -0.07714827347 0.1660238386 -0.01597410309 0.9859923494
-0.01745800018 0.01089422989 -0.02926001549 0.7699225271 -0.6381373032 -0.0002906215896
-0.007398988088 0.01913504664 -0.03703346888 -0.3924668799 0.9194792043 0.02297261533
-0.01237044716 0.007567747021 -0.06952739868 0.7170127526 0.2841531742 0.6365136967
0.01524566555 0.01383206415 -0.001431973457 0.7494801968 0.6589693786 0.06355149606
0.01829708481 0.009418866158 -0.00940074269 0.9008317772 0.434105858 0.007362966982
-0.0146073595 3.768851757e-05 -0.06093315735 0.8502679278 0.3247215298 0.4142467611
-0.0166601963 0.03640064875 -0.05708151627 0.9675055215 0.007323854355 -0.252743797
-0.01703379313 0.0387939415 -0.06102560806 0.999762851 -0.003303851185 -0.02152501815
0.01916368484 0.007432689349 -0.009446444352 0.9135857513 0.4065817626 0.007235007345
-0.002979976177 0.02032733186 -0.005019299467 0.1128911205 -0.9933763732 -0.02142372608
-0.007398988088 0.01913504664 -0.02899931653 0.3993155246 -0.9166146136 0.01909873981
0.008590068022 0.0357578125 -0.0419554774 0.4462041511 0.009613973733 0.8948795601
0.01673375225 0.04010275555 -0.04866399479 0.8115306096 -0.01459369414 0.5841276348
0.02030687014 0.01541498502 -0.05658206177 0.991353014 0.04303536113 0.1239643471
0.0009575855202 0.02050266096 -0.004993976858 -0.09192276705 -0.9957630578 -0.002477429794
0.01295381069 0.01591766135 -0.001426748733 0.6275997071 0.7778129398 0.03355053399
-0.01399112034 0.0289321785 -0.05078234482 0.8912972291 -0.007517673995 -0.4533571814
0.01898373032 0.05498761749 -0.06854385376 0.8885261836 0.1663917597 -0.4275920993
0.01785067558 0.06060000229 -0.05703041585 0.9011116377 0.4102513873 0.1403268168
0.0105571839 0.01766837692 -0.009252945423 -0.5035153371 -0.8639847151 -0.001648449727
-0.007409927686 0.01910965157 -0.001446410129 -0.4053207882 0.9121598716 0.06065828381
0.02029201317 -0.003465507984 -0.0247374452 0.9999157427 0.01298093516 5.359834694e-05
-0.003666230202 0.03131331317 -0.07727382914 0.2189353412 0.01266493695 0.9756571712
0.01917582321 0.007469436646 -0.03719855245 0.9134594097 0.4061694873 0.02486472164
0.007983522256 0.01890806929 -0.001422025909 0.3811403078 0.9224262581 0.06214389775
0.02013704109 0.003824365449 -0.009240180588 0.9817600918 0.190119765 0.001263749486
0.0201790123 0.005857917786 -0.05967311478 0.9940329442 -0.07148990309 -0.08238749702
0.01055997435 0.01767592812 -0.0335608724 -0.5054763602 -0.8621001216 -0.03573554971
-0.01573049355 0.003607591295 -0.06107119827 0.9082025275 0.2588714026 0.3288673988
0.004602862597 0.02002560234 -0.00142277956 0.2232061556 0.9719407534 0.07423061294
0.004606179833 0.02003407224 -0.009250311136 -0.2352263582 -0.9719403588 -0.0007065798758
-0.01701264064 0.03567899577 -0.06156073761 0.9938205563 -0.001326950997 0.1109907252
0.02029084015 -0.003469222069 -0.00898196125 0.9998932533 0.01387732551 0.004571842503
0.0009557548165 0.02049814447 -0.001426758111 0.09958558004 0.9937609254 0.0502188756
0.008947004318 0.05223235512 -0.04205951691 0.455809192 -0.02479395638 0.8897321171
0.02057214832 0.002309129953 -0.04892294312 0.9996447446 0.01273360593 0.02341452222
-0.01148058796 0.01703521156 -0.001461794049 -0.5192381664 0.8546289833 0.001013580193
-0.01146156152 0.01707839139 -0.03742511876 0.5163981566 -0.8558527164 -0.02913883358
0.01450361061 0.06060000229 -0.07033391571 0.7200513739 0.4939777433 -0.4873520371
-0.01754775333 0.01069526577 -0.0014978185 0.7726644506 -0.6348073045 -0.003055002254
0.020274388 -0.003521309137 -0.005239494562 0.99993338 0.01107387554 0.003256519077
0.02018920549 0.00350837038 -0.005137694875 0.9894931546 0.1421109631 0.02660397044
0.01984093094 0.009482871056 -0.06355605698 0.9863530865 -0.04503854042 -0.1583638807
0.01829458427 0.009411403974 -0.005061091185 0.9003593229 0.4348040177 0.01727876618
0.0001934331208 0.02792811394 -0.0776613884 -0.2046054175 0.03130564143 -0.9783437943
0.0191609567 0.007424429258 -0.005085707267 0.9128919534 0.407879275 0.01621044561
0.007985187054 0.0189124563 -0.004977415456 -0.390236656 -0.9207114477 -0.00240467783
0.02027484639 0.05129941432 -0.05727296448 0.9885981111 0.01504327516 0.1498248128
0.01681888358 0.0117929244 -0.005033887823 0.8083578135 0.5885623373 0.01232966146
0.01250131321 0.02293835068 -0.04433387756 0.6839867076 0.1788896427 0.7072203896
0.01524692726 0.01383567142 -0.005012247642 0.7467970744 0.664794897 0.01848985286
-0.01394756826 0.01509178766 -0.005159073512 0.6759918062 -0.7364706551 -0.0254175556
-0.007401205699 0.01912990867 -0.01664663834 0.3997878695 -0.9164547976 0.01674106838
0.02023728434 -0.00363876764 -0.04137899017 0.9995711156 -0.01063902774 -0.02728362204
0.01295508724 0.01592123032 -0.004993961652 -0.6278207658 -0.7783575524 -0.0007789276965
0.01529171149 0.01396369743 -0.0410051206 0.7643528823 0.6143580437 0.1957775919
0.01055669339 0.01766704941 -0.004981427431 -0.5035853597 -0.8639452006 -0.0006898444834
0.004604370236 0.02002945169 -0.004980062008 0.232185956 0.9726677056 0.002686305786
0.01682242346 0.01180327964 -0.01294941592 0.8077986396 0.5894566264 -0.001497853365
0.0009664550092 0.02052454842 -0.02932433361 -0.09317026078 -0.995564883 -0.01303327806
-0.01390563742 0.01518583234 -0.03325979805 0.6727748071 -0.7392706034 -0.02920674387
-0.007407306035 0.01911574173 -0.005062738233 0.4006916385 -0.9159931421 -0.02006924168
0.01682089202 0.01179880222 -0.00935025843 0.8088706563 0.5879616482 0.005418635102
-0.01031809711 0.008560684204 -0.07198434448 0.6298078587 0.2511609374 0.7350239755
-0.009371699333 0.05132432556 -0.07484959412 0.530895226 -0.003145483391 0.8474316285
-0.01148058796 0.01703521156 -0.005116685073 0.5189920039 -0.8547765803 -0.002073108135
-0.01438481445 0.004421311092 -0.0649192894 0.8519216511 0.2887034691 0.4368979369
-0.01752676137 0.01074180126 -0.005242019494 0.7720809014 -0.6355178806 -0.002846939956
0.01524844201 0.01384000174 -0.009310106595 0.7457710784 0.6661908163 0.003910865439
0.02052531815 0.002163097501 -0.05195721436 0.9994707039 -0.03218168874 -0.004759304976
0.01295606814 0.01592398082 -0.009276187738 -0.6265354695 -0.7793812603 -0.004261042006
-0.01391228739 0.01517091783 -0.02880341721 0.6717329989 -0.7405248722 0.01994221292
-0.01525896486 0.02394458644 -0.05305072276 0.912979326 -0.008706011312 -0.4079129265
-0.007404784626 0.01912159793 -0.009403847006 0.4022918905 -0.9155093483 -0.001966704573
0.007987185637 0.01891772228 -0.009245377011 -0.3923310585 -0.9198237074 -0.000829400221
0.01946979904 0.01588423634 -0.05315099843 0.9659474246 0.0770525318 0.2469989479
-0.007406409144 0.02362090635 -0.07594940948 0.4544687354 -0.01255426879 0.8906742159
-0.002979043126 0.02032956918 -0.009323263327 0.1109156552 -0.993829744 0.0003967310426
-0.01148058796 0.01703521156 -0.009504225095 0.5175367257 -0.8555589886 -0.01321191132
0.008601514339 0.02448112361 -0.04195278931 0.5491235058 0.1808673466 0.8159352782
-0.007402995984 0.01912575181 -0.01302363968 0.4021647671 -0.915561915 -0.003143234739
-0.0139420681 0.01510412359 -0.008845056534 0.6751201512 -0.737328732 0.02364576896
-0.01338840103 0.03677904129 -0.07119683075 0.7800922336 -0.01925871374 0.6253680588
-0.01146975962 0.01705978521 -0.02857171885 -0.5194608655 0.8544886689 -0.003086094558
-0.01750576878 0.01078833818 -0.008986345291 0.7712983862 -0.6364673143 -0.002856107777
0.01672170982 0.01195300484 -0.02925965042 0.807848817 0.5891722234 0.0160118704
0.02015246773 0.00387218504 -0.03724832001 0.9828120059 0.182254326 0.02939254362
0.02029201317 -0.003465507984 -0.01272734292 0.9999807591 0.006054634633 0.001350134989
0.00379876256 0.0468118 -0.04037763786 0.2239417158 0.01503791827 0.9744865155
0.02024906578 0.003216338778 -0.01278438301 0.987926366 0.154414615 -0.01255476141
0.01295697943 0.01592653751 -0.01356152693 -0.6273888295 -0.7784685041 -0.01923654636
-0.0139365654 0.01511646589 -0.0125329717 0.6732149179 -0.7391539197 0.02081243213
0.01055947971 0.01767458916 -0.02925201098 -0.5032135063 -0.8639947396 -0.0170075547
-0.01748476919 0.01083488878 -0.01273176511 0.7701914489 -0.637806832 -0.002752650664
0.01829917049 0.009425088406 -0.01301926231 0.901573272 0.432625048 0.001096857975
-0.01096156063 0.01158955021 -0.07238087158 0.6164601322 0.1998766647 0.7615945275
-0.01643796563 0.05204436207 -0.06494348717 0.9774191765 0.03248680109 0.2087974165
0.01916596031 0.007439576864 -0.0130825305 0.9139012305 0.4057331862 -0.0128500012
0.007989185598 0.01892299271 -0.01351636219 -0.3894846073 -0.9208810745 -0.01672684381
0.0185848217 0.05740391159 -0.06936419678 0.8534648071 0.2218273464 -0.4715829211
0.004607735515 0.02003805002 -0.01352363364 -0.2336065301 -0.9720692258 -0.02257009992
-0.01443397388 0.01180573559 -0.068290065 0.8594340748 0.1554052826 0.4870546881
0.0009619467391 0.02051341989 -0.01356132348 -0.09278031682 -0.9955306485 -0.01762216274
-0.007399332523 0.01913425255 -0.02099935235 0.401485265 -0.9158654514 -0.0002383461117
-0.002977846861 0.02033244324 -0.01291208839 0.1109704829 -0.9938223151 0.00166069902
0.01916823769 0.007446470261 -0.01672177347 0.9151775448 0.4027839954 -0.01466678581
-0.01148058796 0.01703521156 -0.01316283035 0.5179269093 -0.855418427 -0.003321365755
-0.0170438563 0.008147256851 -0.05702534231 0.9996644028 0.0258165009 -0.00214244375
0.01692734947 0.01166577034 -0.03276088905 0.8070491511 0.5903626213 -0.01198511744
-0.01664716339 0.0321328481 -0.05679228846 0.9611349014 -0.001058451645 -0.2760771289
0.02029201317 -0.003465507984 -0.01722591019 0.999907656 0.01358968441 -2.324095777e-15
0.02027102547 0.003284421301 -0.04087848358 0.9902692123 0.1386999571 0.01136701535
-0.01541218996 0.02757099533 -0.05326247978 0.8944314136 0.002762111598 -0.4471966203
-0.01563825893 -2.504289523e-05 -0.05816769409 0.894839634 0.2802850064 0.3474224297
0.02019690577 0.003532345017 -0.01689262295 0.982828667 0.1834508215 -0.01983954092
0.01830125809 0.009431316058 -0.01664093939 0.9013327359 0.4328475581 -0.01556568856
0.01682311726 0.01180529261 -0.01655188799 0.8085821859 0.5881555699 -0.01636686462
-0.002082034349 0.05134365845 -0.04014506149 -0.003339918226 0.01128090125 0.9999307907
0.0152504034 0.01384560966 -0.01648085531 0.7455425631 0.666116754 -0.02132502319
0.02029203097 0.01977674103 -0.05730701701 0.9802055239 0.02815374045 0.1959706555
0.0008192538023 0.02760952759 -0.04005702209 -0.1239615491 -0.214622967 -0.9687984911
-0.01148058796 0.01703521156 -0.01682478205 0.5165632734 -0.8562063646 0.008546684359
0.01354039437 0.06060000229 -0.0487164372 0.6742772808 0.4303868513 0.6000977477
-0.01392995644 0.01513128853 -0.01696202787 0.6721218803 -0.7404226818 -0.005141040597
-0.01746184031 0.01088571771 -0.01722914028 0.769338219 -0.6388404318 -0.001267813014
0.01295773951 0.01592866961 -0.01713594818 -0.6277548406 -0.7784087714 -0.001909099954
0.01055808353 0.01767081165 -0.01709313393 -0.5036315903 -0.8639138986 -0.002827897268
-0.006741358439 0.01573283831 -0.07590503184 0.4717624517 0.1092370253 0.8749328325
0.01918182468 0.04841901398 -0.06795506287 0.9595613513 0.002076586526 -0.2814919198
0.01931858635 0.007901611646 -0.04451034292 0.9588834216 0.2735471946 0.07559441816
0.007990853707 0.01892738756 -0.01707875315 -0.3926410653 -0.9196917137 -0.0003816244387
-0.01150287132 0.03491828537 -0.07314687347 0.6709359113 -0.0330614031 0.7407779333
0.004608424604 0.02003981161 -0.01708808804 -0.2355417293 -0.9718581786 -0.003431389037
0.01842014313 0.0389473381 -0.05146469879 0.9078211823 0.01181092341 0.4191911295
0.0009632936219 0.02051674048 -0.01713562425 -0.09406980704 -0.9955618571 -0.002731321867
-0.007398988088 0.01913504664 -0.03264658716 0.3995022811 -0.9167235825 -0.003975008652
0.02029201317 -0.003465507984 -0.02097900486 0.9999134104 0.01315947392 9.190644029e-15
0.008954129219 0.03111910343 -0.04205708313 0.4432785729 0.03402440211 0.8957379342
-0.004007713437 0.01214327717 -0.07616041565 -0.4183875286 -0.1741788226 -0.891411024
0.02019979858 0.00354135263 -0.02130935955 0.987957152 0.1540699332 0.01425206831
-0.01482875843 0.04448737259 -0.06892780609 0.8497579158 0.02664348552 0.5264993915
0.01917097346 0.007454751968 -0.02109388097 0.9141303145 0.4054150284 0.002103053015
-0.01390033722 0.015197721 -0.0369816246 0.6718875297 -0.7388701195 -0.05136237828
-0.01147385136 0.04393526649 -0.07313075892 0.6788639244 -0.004558288017 0.7342499534
0.01830265427 0.009435484886 -0.02099219004 0.9010639207 0.4336839457 0.001430373372
0.01682368151 0.01180692816 -0.02088001283 0.8072303388 0.5901344686 -0.01097675073
0.0152504034 0.01384560966 -0.02079051336 0.7458394642 0.6659065971 -0.01708501275
-0.01700885963 0.0118898859 -0.05722601318 0.9999126804 -0.01216513263 0.005161510212
0.01295879163 0.01593160354 -0.02071462271 -0.6287993276 -0.7774344028 0.01439288143
0.01055849361 0.01767192078 -0.02066299248 -0.5044865131 -0.8632243849 0.01835809028
0.01836629105 0.03097205162 -0.05134360504 0.8911193838 -0.009529696621 0.4536688536
0.007992335902 0.01893129434 -0.02064541732 -0.3893898778 -0.9209301107 0.01622511595
0.0202046477 0.003556432764 -0.02868708356 0.9829149227 0.1825598795 -0.02345517304
0.004608656804 0.02004040051 -0.02065692711 -0.2324830113 -0.9724487451 0.0171781161
0.007994454861 0.0189368248 -0.03712842242 -0.4171141525 -0.8879029184 -0.1940211102
0.0009644351072 0.0205195535 -0.02071423806 -0.09271444213 -0.9956325205 0.01095063562
-0.002975115299 0.02033900706 -0.02081961632 0.111951949 -0.9935656023 0.01715095034
-0.01147903379 0.01703873889 -0.02122411474 0.5160658867 -0.8564822475 -0.01068458106
-0.01838473384 0.06060000229 -0.06831733958 0.8903142603 0.3620589624 0.2761409526
-0.01392333953 0.01514612929 -0.02139648501 0.6715002685 -0.7406010813 -0.02444233367
-0.01704946823 0.02374136162 -0.06093784561 0.9994215896 0.01973898001 0.0276922169
-0.01745800018 0.01089422989 -0.02098240948 0.7690393764 -0.6392010358 -0.0006880627278
-0.0146876266 0.03242518663 -0.0692538147 0.8530553461 0.0326922371 0.5207953476
-0.01745800018 0.01089422989 -0.02474146144 0.769388655 -0.6387808283 -0.0003886474777
0.01917371305 0.00746304671 -0.02547301674 0.9131049275 0.4072581104 0.01949930754
0.01907410431 0.03687519836 -0.06835836029 0.9371327044 0.004048355713 -0.3489497174
0.01830265427 0.009435484886 -0.02535087776 0.8995955455 0.4362934196 0.01938830734
0.01682404423 0.0118079807 -0.02521532377 0.8071399405 0.5902553718 0.01112260859
-0.01125599766 0.01535836239 -0.07289675598 0.6663599089 0.111197965 0.7372919939
0.01376326084 0.03028762054 -0.07591869354 0.7284856206 -0.09522236451 -0.6784109388
0.0152504034 0.01384560966 -0.02510732651 0.7460299775 0.6657391468 0.01518752977
0.01296016863 0.01593543752 -0.02501536751 -0.6270088117 -0.7790112186 -0.001212991234
-0.01631196136 0.05967909775 -0.06581584015 0.9342442301 0.2158472972 0.2838972751
-0.01287999821 -0.00139745605 -0.06294860077 0.8081690188 0.378959222 0.4508356076
0.01064064407 0.04442889023 -0.04299655151 0.4907165385 0.0198108456 0.8710940301
0.01055898603 0.01767325401 -0.0249532191 -0.5035949523 -0.8638081587 0.01508605235
0.02007853222 0.0357331543 -0.06502769089 0.9788187984 -0.01142978962 -0.204409197
0.007993318823 0.01893386989 -0.02493189557 -0.3912147655 -0.9201874462 0.01435517529
0.004608935912 0.0200411075 -0.02494594479 -0.2340502841 -0.9720604394 0.0178596383
0.0009657534427 0.02052280362 -0.02501494641 -0.0943672817 -0.9955374206 -0.0002457651812
-0.002973622163 0.02034259383 -0.02514217504 0.1125153401 -0.9934608114 -0.01938851254
-0.007398988088 0.01913504664 -0.02535946465 0.3989569205 -0.9167897612 -0.0181634066
-0.01514722983 0.03525534058 -0.05283351262 0.887844155 -0.02396876225 -0.4595195914
-0.01147316504 0.01705205822 -0.0248946476 0.515802527 -0.8567074174 0.0003927153131
0.01685140634 0.04773291874 -0.04883743858 0.8113233473 0.008881773018 0.5845301876
-0.01391781807 0.01515851355 -0.02509690762 0.6718026885 -0.7407263972 0.002356300425
0.02029201317 -0.003465507984 -0.02925526619 0.99992261 0.01244082089 1.822760692e-15
-0.01610690308 0.01388933945 -0.04397793198 0.7262455149 -0.6813317817 -0.09140270959
0.01830265427 0.009435484886 -0.02898949814 0.9005368927 0.4345441621 -0.01430650119
0.0152504034 0.01384560966 -0.02943279521 0.7449855427 0.6667813596 0.01997898054
0.01296154806 0.01593927924 -0.02932462841 -0.6274164634 -0.778554228 -0.01420899129
-0.01189063295 0.05992210261 -0.04806196721 0.6512227472 0.3718379856 -0.6615477655
0.007994005733 0.01893565644 -0.0292269694 -0.3908524706 -0.920322095 -0.01554309078
0.004609215498 0.02004181576 -0.02924354267 -0.2340312386 -0.9720888495 -0.0165120577
-0.01378116067 0.01546501605 -0.04067777379 0.6665343059 -0.7451420343 -0.02225686062
-0.002972126047 0.02034618918 -0.02947329934 0.1120773785 -0.9934651306 -0.02157998039
0.008573182344 0.04800357342 -0.04197198296 0.4483084175 -0.004627325048 0.8938669648
0.02029201317 -0.003465507984 -0.03302750015 0.9999261702 0.01215130097 1.210270678e-14
0.02020660782 0.003562467416 -0.0331264445 0.9880462199 0.1533643013 0.01562237041
0.01917582321 0.007469436646 -0.03279211553 0.912019161 0.4098346862 -0.0160181155
-0.006981202364 0.06060000229 -0.07936850739 -0.2959109482 -0.4731223378 -0.8298144156
0.01830265427 0.009435484886 -0.03263553301 0.8981830644 0.4393054955 -0.01666926817
0.004337311824 0.05609399796 -0.04051277542 -0.1853401997 -0.1707163236 -0.9677318571
-0.01242134571 0.05554139519 -0.04895726585 0.7142328326 0.2486420101 -0.6542542409
-0.0114656655 0.0170690759 -0.03299284617 0.5139627689 -0.8578114242 -0.001353799439
0.01785067558 0.06060000229 -0.06090173721 0.9033675358 0.4287935504 0.007948994298
-0.01745800018 0.01089422989 -0.03303286171 0.7703661447 -0.6376016714 -0.000334260453
0.0152504034 0.01384560966 -0.03304479027 0.7463916692 0.6655026697 0.002381762116
0.01296270005 0.01594248708 -0.03292300987 -0.6295236192 -0.7769446 -0.00755654486
-0.01544042969 0.03138896815 -0.05342967478 0.9223544564 -0.01367628641 -0.3861025977
0.007994454861 0.0189368248 -0.03353216171 -0.3660212313 -0.9300483358 -0.03222656273
0.004609495799 0.02004252656 -0.03355122439 -0.2526745857 -0.9611009887 -0.1115367352
-0.01402353859 0.03865299988 -0.05082879639 0.8747354004 -0.005588575503 -0.4845686196
0.01852329063 0.05380544281 -0.05170591736 0.8975948709 0.0547373283 0.4374097308
0.0009668939908 0.02052564685 -0.03292290115 -0.08253945565 -0.9965785447 0.004294480495
-0.00297071898 0.02034956646 -0.03308989906 0.1124136813 -0.9936613828 0.0004697797043
0.02029201317 -0.003465507984 -0.03680819702 0.9999491947 0.003212612589 -0.009554430495
0.01921983719 0.05901350657 -0.05335747401 0.8986680748 0.3136894154 0.3065854564
0.003593878269 0.03607144547 -0.0403285656 -0.1722077868 -0.0009119830774 -0.9850602248
-0.01039100575 0.0005841462873 -0.06758101082 0.6994321821 0.3962497733 0.5947947039
-0.01745800018 0.01089422989 -0.03681417211 0.7679504485 -0.6392798289 -0.03966621879
0.01830265427 0.009435484886 -0.03702092997 0.8999594931 0.435349687 0.02331439199
0.01228602076 0.03216475391 -0.04419312954 0.5537460886 -0.01106593364 0.8326120432
8.082377942e-05 0.05293169403 -0.07763978322 -0.08130929976 -0.05685582031 -0.9950659342
0.01682501634 0.01181079865 -0.03682264264 0.8103825337 0.5858772121 -0.005295416226
0.02055480448 0.05203718058 -0.06107927831 0.9994319719 -0.0001995187614 -0.03370005454
0.0152504034 0.01384560966 -0.03666526159 0.7531390372 0.6577078556 0.01421151904
0.01296346389 0.01594460042 -0.03652988688 -0.6373002262 -0.7697773198 -0.03593465778
-0.01352462959 0.04282093048 -0.05019159317 0.8301148109 -0.02817210044 -0.5568803583
-0.01175417757 -0.0006991781145 -0.06513138771 0.7603622175 0.3639944912 0.5379194257
0.0009672365454 0.0205265043 -0.03652991316 -0.1644532804 -0.9186106453 -0.3593182447
-0.002968987187 0.02035371399 -0.03671480751 0.1078087111 -0.9578773211 -0.2661734762
0.01056038761 0.01767704582 -0.03716007614 -0.4950277213 -0.8614390107 -0.1134477235
0.004609729886 0.02004311991 -0.03714945793 -0.1723752373 -0.9573593474 -0.2318401549
0.01918484306 0.007496740103 -0.04087645721 0.9183166249 0.3939989936 0.03820169344
-0.01466388702 0.05141583633 -0.06922023468 0.8312756223 -0.02895146258 0.5551059832
0.01832919757 0.00951467514 -0.04140841929 0.9119275587 0.3908283981 0.125065147
-0.01674999046 0.03936867142 -0.05732465363 0.9688714945 -0.0001146977285 -0.2475641614
0.01686117522 0.01191630507 -0.04118297704 0.8181734095 0.5507714178 0.1650548918
0.0130236649 0.01611167346 -0.04084690094 0.7150656249 0.6489328845 0.2599370374
-0.01551648808 0.03978797404 -0.05360429637 0.9142554064 -0.004366036349 -0.4051147856
0.010576159 0.01771972656 -0.04004047775 -0.5948528518 -0.7379687607 -0.3186725482
0.02028482056 0.02823760859 -0.05728925959 0.9788410324 0.01352415877 0.2041747547
0.008308805645 0.01926564765 -0.04049969435 -0.4587483528 -0.8029310395 -0.3805938711
0.004893590291 0.02011838404 -0.03977232107 0.2420806113 0.9231867352 0.2985351397
-0.007787092686 0.01914681053 -0.04034946537 -0.3858303327 0.9220123924 -0.0320640396
-0.007278615157 0.055611763 -0.07597623444 0.4485067424 0.1945042217 0.8723587621
0.0009673709075 0.02052684085 -0.03942113113 -0.3104748975 -0.731812201 -0.6066763885
-0.0029681108 0.02035580444 -0.03962043381 -0.07160295023 0.8520925263 0.518470196
-0.01129088449 0.01746572971 -0.04107623482 -0.5339188131 0.8451705618 0.02484798807
-0.01706873894 0.01175714493 -0.042004776 0.7715306227 -0.6283683825 -0.09946694959
0.003779994806 0.02370724742 -0.04036923599 0.1005701511 0.4206900924 0.9016127167
0.01081204605 0.01835809135 -0.04212058258 0.6382238166 0.5897001921 0.4948980131
-0.00314832747 0.0272328577 -0.04029278755 0.1838388201 0.2191136212 0.9582236217
0.02020113945 0.059812898 -0.06087266223 0.9665773534 0.2550359237 0.02617054708
0.02006491661 -0.004184445858 -0.04449359894 0.995831035 -0.08886746176 -0.02056997579
0.02028843498 0.003814959486 -0.04499060694 0.9733920941 0.2273933086 0.02828629311
0.008288808823 0.02753412724 -0.04183056259 0.379048027 -0.02413646328 0.9250621732
-0.01478007138 0.06056808805 -0.04923940849 0.6903811298 0.427605038 -0.583547622
0.006199147224 0.02977163315 -0.04095584869 0.3642436218 -0.01303920037 0.9312124157
0.02056508827 0.05559564209 -0.06037916819 0.9881541782 0.1504011782 0.03050910813
0.0006273740642 0.03948522663 -0.04007251167 0.07894361479 0.003272204386 0.9968737123
0.008389932632 0.04413637161 -0.04181177139 -0.426640424 -0.03592886446 -0.9037074003
-0.002889776945 0.0398928299 -0.04020684433 0.05169402512 0.1192903862 -0.9915127491
0.01692166481 0.05180054855 -0.04899027176 0.8142824739 0.005522553363 0.5804425502
-0.01156904163 0.02808659401 -0.07308499908 0.6790527664 0.02010656014 0.7338140546
0.01764153072 0.01197189713 -0.04510936519 0.8504599458 0.4418607471 0.2854416942
0.01584033298 0.01552836838 -0.04543420486 0.7464415014 0.4840470593 0.4566437664
-0.01477280617 0.04793065166 -0.06908989525 0.854879101 0.002584463134 0.51882082
0.01393157482 0.01653609896 -0.04365186501 0.7347523722 0.5585831626 0.3848685515
0.01310767873 0.03990650304 -0.04482184219 0.6250905374 -0.005771554588 0.7805309149
0.01301582031 0.01943490791 -0.04447709808 0.7208327836 0.3758776983 0.5823367188
0.008601803462 0.03939382426 -0.04195205561 0.4506063485 -0.02428111939 0.8923924842
-0.01607385095 0.01153964361 -0.06465516281 0.9351875852 0.1378426892 0.3262262613
-0.01577642059 0.05981597028 -0.05308868681 0.8158997108 0.4028291108 -0.4147726719
-0.01539481354 0.05550161743 -0.05324913216 0.8683554562 0.161191927 -0.4690159532
0.006292745113 0.04080670929 -0.0409874649 0.3765917218 -0.018176892 0.926200991
0.005254722118 0.04349491119 -0.04070927048 0.2866543253 -0.0008231167785 0.9580337261
0.02017187564 0.02372276688 -0.05664705658 0.9869005917 -0.008496046917 0.1611056776
0.002583986759 0.0489537735 -0.0401798439 0.1314012857 -0.01139542338 0.9912637623
0.0005684638421 0.05085320791 -0.04005773036 -0.02889955451 -0.01601960494 -0.9994539449
-0.004559418201 0.04913074875 -0.04055342484 0.507346122 -0.02380436811 -0.861413527
-0.01699484698 0.05950904083 -0.06155197144 0.9829777686 0.1836515976 -0.005176597468
0.01270735145 0.02746313286 -0.044442379 -0.616890163 -0.01853326955 -0.786831014
-0.003024950504 0.05547060521 -0.07738015493 0.2225218996 0.2094698231 0.9521588089
0.006063994169 0.05204457474 -0.04092935753 0.3431410654 -0.01736054439 0.9391234321
0.0046673663 0.06038590676 -0.0416038159 -0.2050660389 -0.4373017957 -0.8756226694
0.0007679011888 0.06054294671 -0.04145000797 -0.03914702212 -0.4934157383 -0.8689122049
-0.003020638943 0.06060000229 -0.04167453057 0.01930348967 0.9995424633 -0.02328603389
-0.01166383934 0.04815507189 -0.07296667353 0.6781094627 0.0294432016 0.7343709243
0.01998307482 0.007591296593 -0.04896126938 0.973972388 0.1803017281 0.1373647489
0.018748209 0.01523664474 -0.05085938644 0.9271402755 0.1669939708 0.3354458574
0.01629382324 0.01895663071 -0.07308553696 0.8499984531 -0.01788287386 -0.5264815595
0.01895506859 0.01138193512 -0.0484782753 0.9235186739 0.3041032425 0.2337401909
0.01929062843 0.05228077698 -0.06777906036 0.9407019394 -0.00962412637 -0.3390976812
0.01523801804 0.0180939045 -0.0462796402 0.78426756 0.2683055941 0.5594072779
-0.003362770955 0.01627202002 -0.07702249908 -0.3237547939 -0.09633671075 -0.9412237096
0.01301091266 0.03594262505 -0.04468524647 0.6480438171 -0.01782623602 0.7613944027
0.01285247326 0.04359120865 -0.04459767303 0.6185064485 -0.01343031798 0.7856649412
0.02006442261 0.03959162649 -0.06494968414 0.9687545556 -0.01493059759 -0.247571582
0.009093518019 0.05584640312 -0.04222512913 0.4263286034 0.1573376154 0.8907798812
0.008364995003 0.05973735714 -0.0420687418 -0.3354208694 -0.2781229392 -0.9000780361
0.01935685539 0.05936081314 -0.06754337311 0.9034378303 0.2891392096 -0.3165416312
-0.006981202364 0.06060000229 -0.04192235565 0.3909097366 0.2851519954 -0.8751445122
0.0181506176 0.01347924137 -0.04822488022 0.8813297654 0.331514491 0.3366838084
0.01749562693 0.0159555757 -0.04863799858 0.8481833246 0.1873158737 0.495477357
0.01719209766 0.01939258337 -0.04924571323 0.8216086637 0.1512929877 0.5496086204
0.02052458509 0.01155245177 -0.05720916494 0.9972867263 0.04954483499 0.05444717563
0.01647917628 0.02366959667 -0.0483085556 0.8113893719 0.04630396338 0.5826690572
-0.01628582986 0.02057587624 -0.06563090769 0.9553122965 0.02726516009 0.2943382869
0.01268604183 0.04775677872 -0.04443361664 0.644898865 0.01189252485 0.7641753868
0.0127947197 0.05146159681 -0.04456898181 0.6131323397 0.02011291194 0.7897241321
0.02006039715 0.05945154444 -0.05708036423 0.9415676517 0.2797590226 0.1875773081
-0.004841601372 0.06060000229 -0.04309128952 0.2988087987 0.3390837747 -0.8920400751
-0.007903487342 0.06060000229 -0.04422900936 0.4697079998 0.2796084887 -0.8373729682
-0.01115610065 0.06060000229 -0.04509034653 0.5730168925 0.315643833 -0.7563204424
0.01724241543 0.02784184217 -0.04943118954 0.8258376459 0.003945288823 0.5638941543
0.0166111207 0.03209532213 -0.04848725796 0.8057080617 -0.007273538374 0.5922681951
-0.007147095108 0.03576229095 -0.07604662933 0.492210457 -0.0217346884 0.8702048433
0.01512145519 0.03581982994 -0.04665082741 0.7863585204 -0.01014600347 0.6176870859
-0.01694396782 0.008371290207 -0.05389467621 0.9986844689 -0.05122536275 -0.002300829956
0.01939077187 0.02357251835 -0.06750878906 0.9458796474 -0.01484235278 -0.3241780333
0.01278118443 0.05644436836 -0.04451743031 0.644749268 0.1572186875 0.7480512454
0.01284982368 0.06033478328 -0.04532802909 -0.6179995496 -0.3249247141 -0.7158913932
0.009252581716 0.06060000229 -0.04462244749 -0.4554693558 -0.4201232154 -0.7848848003
0.01810869694 0.02410651588 -0.07039416504 0.8937356848 -0.03023974567 -0.4475735509
-0.01289650536 0.02791771698 -0.0493993454 0.838008835 -0.003803394661 -0.5456434061
-0.01221509838 0.03763448906 -0.04872854614 0.8153924972 -0.009062495918 -0.5788375824
-0.01154351997 0.04222442055 -0.04804700851 0.7759191162 -0.01489264465 -0.6306565897
-0.009479392052 0.04806132126 -0.04641507721 0.723174889 -0.03782720831 -0.6896282928
-0.007941571236 0.05425260925 -0.04546842575 -0.698339352 -0.04686801132 0.7142307323
-0.01523864603 0.04850287819 -0.05295346832 0.8862111214 0.005361782091 -0.4632505796
0.02052201653 0.006911688805 -0.05349523036 0.9987059689 0.02946219569 0.04145318637
0.01990174904 0.01148942928 -0.05253395309 0.9683656572 0.124771133 0.2161021016
0.017342484 0.03602587509 -0.04958845329 0.8173180245 -0.001103889241 0.5761857585
-0.01826113081 0.06060000229 -0.05370207882 0.8892522851 0.3934608356 -0.233278684
-0.01519855833 0.007662616253 -0.06512705994 0.8759799692 0.2176543389 0.4304482342
0.01704435291 0.0435233757 -0.04920561676 0.8102035673 0.01004655632 0.5860624934
0.01512679291 0.04508496475 -0.04667321396 0.7651280953 -0.02107174138 0.6435332
0.01477991104 0.04775948334 -0.04630416489 0.6965800202 -0.007283033013 0.7174421461
-0.01592755413 0.0142869215 -0.05298688889 0.9742013332 -0.07687964039 -0.2121821935
-0.0166071949 0.04351195621 -0.06443854904 0.97850283 -0.02612015009 0.2045726019
-0.01532695961 0.01916926384 -0.05300499344 0.9555606474 -0.05908468837 -0.2888128265
-0.01349374962 0.03330820847 -0.05013082504 0.8661167557 -0.001941650719 -0.4998379693
0.01920715332 0.04482462692 -0.0680432663 0.9443971824 0.007634714057 -0.3287182274
-0.01231764078 0.04682652664 -0.04883959007 0.7755173337 -0.0134033703 -0.6311839786
-0.009793488503 0.05639954376 -0.0466348114 0.5925613668 0.2067705461 -0.7785351423
-0.01348188496 0.06060000229 -0.04631228638 0.6253639578 0.404665557 -0.6672073945
-0.01436399674 0.01596281815 -0.06936328506 0.809608665 0.0754450794 0.5821012366
0.02031103516 0.001494895101 -0.0543333931 0.9937271053 -0.08745096909 -0.06970486507
0.01860393333 0.01917691231 -0.05172497559 0.9113863793 0.0915473517 0.4012405138
0.0183120842 0.02259810257 -0.05122126389 0.8987777353 0.04164239607 0.4364223795
0.01530759907 0.05256726074 -0.04688151169 0.7571611652 0.01864875272 0.6529618626
0.01944420624 0.01945521164 -0.05380226326 0.9606331518 0.04549134794 0.2740702189
-0.007122018973 0.04042902883 -0.07607968394 0.3942942982 0.0245492309 0.9186562696
0.0002478139748 0.04693065008 -0.07763912201 0.07321824353 -0.006916868028 0.9972919561
0.01480192709 0.05638454819 -0.04634337807 0.6919130093 0.1753318675 0.7003678489
-0.01669308805 0.004257567108 -0.05758851814 0.9654495992 0.141346513 0.2189251804
0.01925045586 0.02387479146 -0.05334900157 0.9458054196 0.0194617839 0.3241501925
-0.01663339996 0.01272220421 -0.05478038025 0.9895900362 -0.07804531 -0.1209152176
0.01968126106 -0.0004689585567 -0.05618902206 0.9937271053 -0.08745096909 -0.06970486507
0.01861545181 0.02761554337 -0.05185164261 0.9045955276 0.003547080838 0.426256202
0.01664329696 0.05590710449 -0.04856513596 0.8025971622 0.1318954907 0.5817571442
-0.01356516552 0.05181865311 -0.0502636261 0.7920430793 -0.01589960328 -0.6102581119
-0.01128573402 0.03958913803 -0.07331314596 0.6768152271 -0.03145446061 0.7354806356
-0.01682389132 0.01588912582 -0.05736481603 0.9970766444 -0.03972120161 -0.06527167263
-0.01657225418 0.01995543353 -0.05672106679 0.9840329609 -0.02313627231 -0.1764761874
-0.01521415949 0.04401333237 -0.05293917847 0.8839249636 0.01658208681 -0.4673346694
-0.01789032173 0.06060000229 -0.05064758301 0.8118799523 0.4234887436 -0.4018808619
-0.01405423832 0.0478650589 -0.05088322067 0.8540625772 -0.003737414028 -0.5201568475
0.02052335835 0.006915810108 -0.05722844696 0.9993779343 -0.02049954017 -0.02869692143
-0.01701977348 0.01898603185 -0.06142732875 0.9989432383 -0.01239582709 0.04425776919
0.01944435692 0.02789962673 -0.05387473297 0.9527664106 -0.006053515729 0.3036437416
0.01927782885 0.03216904895 -0.05342265066 0.9463844013 -0.007771728832 0.3229491683
0.01919571241 0.03590557226 -0.05328030014 0.9274633717 -0.02963633295 0.372737685
-0.01668592358 0.02316109085 -0.05697825432 0.9780548306 -0.0168740171 -0.2076632271
-0.01674599695 0.02725471735 -0.05745081997 0.9800462757 -0.02396520256 -0.1973194529
-0.0170442454 0.03239884567 -0.0606687177 0.9988731842 0.01919514161 -0.04340401439
-0.004280852914 0.05127655029 -0.07710902786 0.2665418201 -0.002500209853 0.9638201114
-0.01545408607 0.05176965904 -0.05350015068 0.909690731 -0.01503596242 -0.4150140886
-0.01141047827 0.05991384697 -0.07363382085 0.6531543554 0.3178293482 0.6872946191
-0.0140891695 0.05659893417 -0.0509474678 0.8313266375 0.2159488396 -0.512115339
-0.01848361626 0.06060000229 -0.06531561737 0.9177198526 0.3572495627 0.1736750474
0.01930276744 0.04006135813 -0.05349937566 0.9441752615 0.008332303461 0.3293381973
-0.00719398725 0.04820497799 -0.07601702499 0.4020589884 0.01026791021 0.9155561915
0.01922220739 0.04362220383 -0.05336235555 0.9399568161 0.002497518296 0.3412842601
0.01835644722 0.04804943085 -0.0513487072 0.8953545676 -0.01358856898 0.4451466602
-0.01651331615 0.008408674359 -0.06159791088 0.9672163592 0.1202483252 0.2236802513
0.02016474152 0.0398667984 -0.05665443802 0.9813726995 -0.002844855809 0.1920925076
-0.01692111651 0.0120843935 -0.06102881368 0.9858849311 0.06902197593 0.1525348139
0.02016767248 0.03199155299 -0.05664788055 0.9802058088 -0.01706812502 0.1972441421
-0.008259850502 0.01151053953 -0.07433769608 -0.4970053626 -0.2330985081 -0.8358533095
0.01933427 0.05150453949 -0.05367830467 0.9449564972 0.006922273142 0.3271227606
0.01829789543 0.05667663193 -0.05124324417 0.8621573624 0.2063297869 0.462723137
-0.01701473618 0.01547094011 -0.06124816513 0.9986381472 0.005747606353 0.05185379359
-0.01672624493 0.04403524017 -0.05727026558 0.9723299848 -0.005652358717 -0.2335432541
-0.01704770374 0.05231045914 -0.06078617668 0.9987939161 0.02351145964 -0.04310364704
-0.01656476784 0.0478689003 -0.05663047409 0.9654688114 0.01955942961 -0.259783377
-0.01644400978 0.03201451921 -0.06508033657 0.9550850044 0.01190355854 0.2960927891
0.02041854286 0.01123143816 -0.06097340202 0.9965626235 -0.01605105029 -0.08127300375
0.02053208733 0.01608691279 -0.06084537633 0.9995327448 0.01160452772 -0.02827767647
-0.003076397598 0.02740380001 -0.07733897018 -0.2272556609 0.02350713123 -0.9735513748
0.0202794164 0.0362917366 -0.05727795664 0.9905845562 -0.01196095671 0.1363787832
0.02053982544 0.02896659597 -0.06138354365 0.9992419025 0.004466906642 -0.0386738542
0.01940549151 0.0560704867 -0.05385901388 0.9415200005 0.1333927246 0.3094292644
0.01734957051 0.06060000229 -0.05305423546 0.858446574 0.4080872886 0.3106996048
-0.01702921549 0.02915624936 -0.06121551895 0.995017079 0.01774734977 0.09811240496
-0.01349380207 0.001090135574 -0.06416118622 0.812275916 0.348188673 0.4679449586
-0.01673147392 0.05147521718 -0.05744235865 0.9751647295 -0.01769830353 -0.2207725536
-0.01664731522 0.05566383591 -0.05700946655 0.9793066506 0.1165794665 -0.1654318958
0.01824525261 0.05133002663 -0.07008942413 0.8859960436 -0.001657234097 -0.4636898364
0.02053061549 0.02047837321 -0.06151237106 0.9987694341 -0.005782169343 -0.04925631017
0.02055824979 0.02484296354 -0.06071686045 0.999856179 -0.001976534578 0.01684383306
0.02027530162 0.04396782303 -0.05727307383 0.9871528122 -0.002658496981 0.159756871
0.02016261546 0.0473760287 -0.0566666921 0.9807385571 -0.0002792586137 0.1953248696
-0.01348188496 0.06060000229 -0.07601361847 -0.6047531847 -0.4929808766 -0.625494557
-0.01285670471 0.002588847637 -0.0662244606 0.7415567844 0.360852194 0.5655786679
-0.01623361378 0.01575601292 -0.06526539993 0.9687912077 0.05958208694 0.2406108286
-0.01702923965 0.04343037224 -0.06093469493 0.9992492424 -0.01874581988 0.03390495285
-0.01671255048 0.06003928884 -0.05736734009 0.8963848468 0.4227629803 -0.1332879174
-0.01863193989 0.06060000229 -0.05744508235 0.9331109272 0.3500236833 -0.08238579201
0.02056098684 0.03310037994 -0.06061498515 0.9997738317 -0.009461841561 0.0190462333
-0.0153346585 0.06020819044 -0.06960852051 0.7692656164 0.4246586999 0.4773839127
0.02016124026 0.05454523468 -0.05668441645 0.9786973743 0.123388927 0.1640933338
-0.01644577281 0.02367538897 -0.06509157435 0.9607852092 -0.005918764238 0.2772305
0.01332329965 0.06060000229 -0.07326000786 0.6082095464 0.1015385135 -0.7872554083
-0.016621665 0.0275169301 -0.06442353916 0.9688486997 -0.03148420671 0.2456439332
-0.01703761419 0.04793543371 -0.06085779317 0.9996175063 -0.005234898078 0.02715579038
0.01590606085 0.03978145854 -0.07358176676 0.8627890853 0.009642422832 -0.5054720744
0.0201695137 0.01500518799 -0.06400327301 0.9897954651 -0.01519121732 -0.1416833239
0.02054635048 0.03703398132 -0.06126927948 0.996773021 -0.02637780963 -0.07581395529
0.02056299655 0.0409592069 -0.06052520625 0.9999476277 0.003764503319 0.009516848458
-0.008592320919 0.0009538232386 -0.06935658646 -0.6367649247 -0.3727676119 -0.674962768
-0.01389110279 0.007837918282 -0.06772594452 0.8228290749 0.2327607452 0.5184349033
-0.01702035999 0.0559478941 -0.06117397118 0.9892543218 0.1417402148 0.03585524165
0.0195933876 0.01328633785 -0.06584432983 0.973556513 -0.03273676223 -0.2260885232
0.01593633194 0.05950701981 -0.07283547211 0.7159969735 0.3789390432 -0.5863049851
0.01993063164 0.01871393108 -0.06552140427 0.9722986132 0.003050985377 -0.2337222672
0.02019839382 0.02379965019 -0.0645242424 0.986294012 -0.0186255632 -0.1639427042
0.01714604219 0.06050867123 -0.06879657491 0.7903722401 0.5026848963 -0.3501708399
0.02055145264 0.04471514893 -0.0611680247 0.9995121801 0.005560164305 -0.03073249667
0.02056469027 0.04844970194 -0.06044660823 0.99993237 0.007436746288 0.008941490733
-0.01474324894 0.01956923723 -0.06909768867 0.8406276711 0.02568591803 0.5410040223
-0.01638172404 0.03590589905 -0.06533799489 0.9506274191 0.02322642954 0.3094641225
-0.01630189967 0.03949300957 -0.0655126543 0.9494159919 -0.01123885451 0.3138199524
-0.01863193989 0.06060000229 -0.06151405525 0.9493313192 0.3140279637 0.01250937229
0.02002457142 0.0274936285 -0.06525296021 0.9637288406 -0.00240077036 -0.2668725503
-0.007880218983 0.004018226147 -0.07161768341 -0.6016983632 -0.3460775697 -0.719853732
-0.01276367188 0.01042710209 -0.07027215576 0.739708807 0.2204676011 0.6357868493
-0.01460740509 0.02420851936 -0.0693411499 0.8519528624 0.01367829537 0.5234398002
-0.01637677078 0.04803917007 -0.06527534027 0.9624535074 0.01292186901 0.2711388417
0.01880856895 0.01541415501 -0.06845022583 0.9426374755 -0.03224431223 -0.332257271
-0.00743809666 0.00770925699 -0.07347138323 -0.5094966675 -0.3066702225 -0.8039692285
-0.01487472463 0.03608882523 -0.06892398643 0.8779255707 -0.01971559996 0.4783910403
-0.01654208183 0.05586580811 -0.06464931259 0.9760317098 0.1516061705 0.156133502
0.01873147964 0.01954670334 -0.06910019684 0.9158447658 -0.01463590162 -0.4012656918
0.020121521 0.04355165672 -0.06482587433 0.9846029012 0.01499435139 -0.1741616961
0.02010182126 0.04721368917 -0.06475907008 0.9743120597 0.002115324847 -0.2251922194
0.01936824226 0.03375810242 -0.06758234406 0.9590246847 -0.01690813483 -0.2828175546
-0.01146471367 0.01923316879 -0.07306204071 0.6478864953 0.02854910038 0.7612017066
-0.002515255094 0.04883028412 -0.07748712921 0.1590611462 -0.0007873419091 0.9872684194
-0.01471659546 0.04037759094 -0.06915742798 0.8497808304 -0.004746629948 0.5271147975
0.01892155838 0.02847851753 -0.06870619202 0.9287425482 0.006731447402 -0.3706642238
0.02006260395 0.05602706909 -0.06492080593 0.9615160963 0.15510855 -0.2267777201
-0.01130730343 0.02383157463 -0.07332906189 0.6861930853 0.01569016321 0.7272502104
0.01854181099 0.0314601059 -0.06953939056 0.9053958382 -0.004965934975 -0.4245394159
0.01907340145 0.04071520615 -0.06824509048 0.9417868944 -0.002575995529 -0.3362005499
0.01995977497 0.06004299259 -0.06440840816 0.9219290911 0.3691201335 -0.1174609638
0.01785067558 0.06060000229 -0.06479489581 0.8428863385 0.5072552219 -0.179540414
-0.006275813341 0.01242636395 -0.07552750778 -0.4522112903 -0.1708681365 -0.8753907864
-0.008695780754 0.01611057663 -0.07497903442 0.5428139241 0.1059933499 0.8331377158
-0.01111691062 0.03177713966 -0.07346843211 0.6772396736 -0.0006043481871 0.7357622302
-0.01483842993 0.05562010701 -0.06894544601 0.8241380486 0.1316849928 0.5508679874
-0.002551830331 0.02319128418 -0.07747409312 -0.2543026415 0.007537894347 -0.9670953142
0.01683990002 0.02874444771 -0.07239836121 0.8570910491 -0.008940130513 -0.5150873787
0.01636838563 0.04826493454 -0.07298760732 0.8403965374 -0.005114943437 -0.5419478731
0.01810188675 0.03420842361 -0.07040699005 0.8979284553 0.008817950066 -0.4400531024
-0.007939559221 0.01969225407 -0.0756944809 0.4537771152 0.03518748013 0.8904202216
0.01757912445 0.03667135239 -0.07132556152 0.8957614794 -0.005274026 -0.4445037196
0.01807341385 0.04365147209 -0.07044699097 0.9094054989 -0.0002379956807 -0.4159105457
-0.004829180241 0.01962994576 -0.07694464874 -0.3898471975 -0.0417089481 -0.9199345228
-0.007200311303 0.02849533176 -0.07601039696 0.3955102508 0.03193732784 0.9179061219
0.01543368721 0.03086530685 -0.07420605469 0.8149629425 -0.03023209362 -0.5787239609
-0.007266424656 0.03178651905 -0.0760454216 0.4463330421 0.002690992874 0.8948628801
-0.01148632393 0.05241700134 -0.07315646515 0.6776376668 0.04176455173 0.7342090402
-0.01171193905 0.05607099533 -0.07294688263 0.6711109851 0.1794258563 0.7193166256
-0.01431177398 0.06021003832 -0.07265486145 0.6628245829 0.5024687404 0.5551474915
-0.007391063333 0.04386002922 -0.0759437027 0.4547300151 -0.001889196068 0.8906273319
0.01713386822 0.05543753242 -0.0719384346 0.7889144355 0.1521706964 -0.5953638322
0.000656528155 0.03437892914 -0.07763054148 -0.05017701733 0.01181216485 -0.998670486
-0.002314007699 0.03613877869 -0.07752184677 0.155031743 -0.004551201953 0.9878990056
0.003340007544 0.04069010544 -0.0773608017 -0.01465354432 0.01423045794 -0.9997913621
0.0004389697512 0.04074848811 -0.07763632965 -0.09453263127 0.02853035464 -0.9951128582
-0.003334128112 0.04382434845 -0.07731515312 -0.1619460108 -0.005951732988 -0.9867816711
-0.007046232224 0.05234157848 -0.07611664772 0.4049169226 0.06490641827 0.9120468424
-0.009306679726 0.05737464142 -0.07488153839 0.4409673162 0.2310074019 0.8672850779
0.01401335526 0.04932816696 -0.07569911957 0.7972625564 -0.008808516175 -0.6035684105
0.003970387459 0.04721683693 -0.07718789291 0.0610864104 0.007010396971 -0.9981078623
-0.007655205631 0.06010872307 -0.07681790924 -0.4612700413 -0.3285219394 -0.8241985709
-0.01130105352 0.06060000229 -0.07644508743 -0.6047531847 -0.4929808766 -0.625494557
0.01044614887 0.06060000229 -0.07471369934 0.430311656 -0.6910888833 -0.5807133837
0.007346448898 0.05661067963 -0.07599035645 0.3919683566 -0.2927874891 -0.8721446518
0.003631217241 0.05293695831 -0.0772581749 0.1087751 -0.01667695679 -0.9939264846
-0.003431601485 0.06009689013 -0.0779264768 0.2608084785 0.3524780766 0.8987425344
0.01225445684 0.06060000229 -0.07630670929 0.430311656 -0.6910888833 -0.5807133837
0.009082072122 0.06060000229 -0.0771526304 0.4522508664 -0.5601591105 -0.69403957
0.0006691200052 0.0594700034 -0.07796743883 0.07302161037 -0.2691240255 -0.9603333293
0.005092229509 0.06027484131 -0.07751154022 0.321812149 -0.2841939984 -0.9031449009
-0.003779373288 0.06060000229 -0.08001464462 -0.1369806134 -0.4473934112 -0.883784729
0.007715772152 0.06060000229 -0.07903049469 0.2504758611 -0.6455354721 -0.7214885982
