# .PCD v0.7 - Point Cloud Data file format
VERSION 0.7
FIELDS x y z normal_x normal_y normal_z
SIZE 4 4 4 4 4 4
TYPE F F F F F F
COUNT 1 1 1 1 1 1
WIDTH 562
HEIGHT 1
VIEWPOINT 0 0 0 1 0 0 0
POINTS 562
DATA ascii
0.02045789242 0.001952842355 -0.002947844386 0.9959602908 0.07789754791 0.04466622051
0.01980196953 0.05361077118 -0.06611739349 0.969741955 -0.02971713729 -0.242316802
-0.01395086765 0.0150843873 -0.002947938085 0.6823674907 -0.7300127177 -0.03815808806
-0.01482271862 0.02027417755 -0.0520642395 0.9376268598 -0.01882331025 -0.3471333385
-0.01342859221 0.01076623201 -0.06948727036 0.7949228502 0.1888770416 0.5765614671
0.01829333401 0.009407674313 -0.002891913533 0.8912385593 0.4532664921 0.01559863956
-0.01250911427 0.05096001434 -0.04894717026 0.7296503597 0.006247520726 -0.6837918697
-0.007352028847 0.01923370647 -0.002891665816 0.3822160568 -0.9239284209 -0.01634500003
0.01577486968 0.01317054415 -0.002867941082 0.7765368981 0.6299254259 0.01357953404
0.01992237568 0.005069485664 -0.02930774784 0.9618857742 0.2733934461 -0.005637460081
0.01411607265 0.01493092346 -0.002858232617 -0.6915078498 -0.7220054551 -0.02291323761
0.01411756945 0.01493514395 -0.005716825008 -0.6922465939 -0.7216609938 -0.0002514308592
0.007713664532 0.06060000229 -0.04231240616 -0.3361333204 -0.3913472921 -0.8566572756
0.01733386517 0.0110773201 -0.005762014627 0.828227395 0.5603853304 -0.002768310049
0.02027820778 -0.003509215951 -0.005987924099 0.9994124374 -0.03410686054 0.003391467782
0.0129773674 0.01598747683 -0.002852891922 -0.6208815931 -0.7837468688 -0.01571282611
-0.01752256298 0.01075110817 -0.005990841866 0.7720170948 -0.6355917339 -0.003571161673
-0.01863193989 0.06060000229 -0.0567684803 0.9154250405 0.3753180671 -0.145373119
0.02054492823 0.02052046522 -0.06005569712 0.9993376502 0.005897599122 0.03590931991
0.007334511757 0.01920202732 -0.005687863946 -0.348946277 -0.9370578564 0.01261227443
-0.008312311172 0.02773086357 -0.07553518677 0.4801734037 0.00766516267 0.8771400958
0.00928622818 0.01833245277 -0.002844780207 0.4538254854 0.890887198 0.01903757302
-0.01606241226 0.05564922333 -0.0662971522 0.9379783101 0.1335090894 0.319956267
0.00733316803 0.01919850969 -0.002843747318 -0.3496331643 -0.9367023678 -0.0185829099
0.001717075989 0.02047666979 -0.002851249874 -0.1211787558 -0.9924775755 -0.01743477102
0.0102859478 0.02497602463 -0.04276012039 0.5072282033 0.02646674469 0.8614052828
-0.007627338886 0.005288578749 -0.07240068436 -0.5269567449 -0.3366740277 -0.7803634974
0.02029084015 -0.003469222069 -0.00898196125 0.9994445016 -0.03325767218 0.002148377572
-0.001357986912 0.02049893332 -0.002861190617 0.03230794609 -0.9992860712 -0.01958429515
0.00734405303 0.01922695541 -0.03856463623 -0.395394215 -0.890499921 -0.2251073199
-0.00467670542 0.019996418 -0.002876393616 0.2043911065 -0.9788304435 -0.01073492196
-0.01324411249 0.04646845818 -0.0713563652 0.76354004 -0.006716768372 0.645725555
-0.01753935623 0.01071388054 -0.002995538116 0.7728765502 -0.6345464612 -0.00355340467
0.01921538258 0.007589191198 -0.04233928108 0.9477543184 0.3118793058 0.06703022068
0.009287536621 0.01833594704 -0.005689930677 -0.4545986477 -0.8906814545 0.005159085809
0.007335855722 0.0192055459 -0.008532781601 -0.3499920979 -0.9366953819 0.01035822807
-0.01704453278 0.05661376572 -0.06002710724 0.9903605122 0.1171127085 -0.07396397311
0.01116337776 0.01725369692 -0.005696275711 -0.5312166089 -0.8472328349 0.002331916345
0.02046132755 0.001963553667 -0.005895947456 0.9946036558 0.10370683 0.002908820258
0.0129783783 0.01599028778 -0.005706171274 -0.6199351066 -0.7846530217 -0.0003147429217
0.01991804504 0.005056181431 -0.005847500563 0.9602448676 0.2791552832 -0.001456746433
0.009290154934 0.01834293842 -0.01138307095 -0.4653359618 -0.8851300265 -0.002697915312
0.01638139591 0.06060000229 -0.06910712738 0.6857089708 0.5335841032 -0.4950668765
0.01916141129 0.007425805569 -0.005812310219 0.9358662379 0.3523524254 -0.001467347318
0.01401000929 0.02899251461 -0.04557683945 0.6663008925 -0.00154441452 0.7456813901
0.02028416157 0.04019436646 -0.05727150917 0.9889117205 0.007986461732 0.1482896675
0.008684996605 0.03231050873 -0.04192173767 0.4482630358 0.02125912305 0.8936488686
-0.01394646835 0.01509425449 -0.005896142483 0.6661508553 -0.7457790798 -0.00752344019
0.02007089329 0.005525758743 -0.04552445984 0.9726945391 0.222295616 0.06670826595
0.01935919476 0.00802454257 -0.04523141289 0.9316022807 0.3357678287 0.1392018532
0.01829500103 0.009412647247 -0.005784178972 0.8915214499 0.4529648609 -0.003512718205
-0.01701987076 0.04497361628 -0.05996275965 0.9964233788 0.009676830948 -0.08394527509
0.001726415038 0.0204999361 -0.03577903461 -0.07001548438 -0.978573136 -0.1936296711
-0.001307755172 0.06060000229 -0.08006340408 0.02962950531 -0.6022632771 -0.7977474773
-0.007350025892 0.01923836231 -0.005783686399 -0.3870592056 0.9220349119 0.006065683952
0.01577587581 0.01317344022 -0.005736267209 0.7759272975 0.6308220776 -0.0005791579246
0.002425297856 0.05959391785 -0.04018055916 -0.1938449725 -0.3730138621 -0.9073504203
0.001718429595 0.02048003101 -0.005702872753 -0.1147736906 -0.9933772587 -0.005349933771
0.01916687107 0.007442333221 -0.01453777266 0.9358240982 0.3524671297 -0.0004239366866
-0.001356883541 0.02050161886 -0.005722768068 0.03205371503 -0.999486108 0.0002815235503
0.004609262168 0.02004193401 -0.0299605093 -0.2324181087 -0.9726158455 0.0004897550361
-0.01357769394 0.01592136288 -0.04211026382 -0.6327483207 0.77235343 0.05567532499
-0.005493040085 0.008518104553 -0.07471048737 -0.4339859979 -0.2535114959 -0.864516093
-0.004675457358 0.01999936199 -0.005753171206 0.2509995956 -0.9679428542 0.009264660433
0.01991845703 0.005057447433 -0.008772329807 0.9598228566 0.2806058403 0.0006680437609
0.00929179287 0.01834731166 -0.01494457181 -0.4814847269 -0.8764540604 -0.0008588978005
0.01916322994 0.007431312323 -0.008719422102 0.9359336161 0.3521749497 0.001034957025
-0.01148058796 0.01703521156 -0.0116990304 0.5330956373 -0.8460465071 -0.003788044703
-0.0139420681 0.01510412359 -0.008845056534 0.6713929308 -0.7410763676 -0.006111457928
0.01829666805 0.009417622089 -0.008677233934 0.891481924 0.4530550845 0.001034246384
0.01733554077 0.01108224964 -0.008643984556 0.8279373088 0.5608194398 0.001169875647
0.01577688146 0.01317633724 -0.008605413914 0.7760986814 0.6305396713 -0.009516287398
0.01411906672 0.01493936491 -0.008576210022 -0.6909588411 -0.7226888982 0.01722313089
0.01991886902 0.005058713913 -0.01169847298 0.9597317207 0.2809174101 0.0006580542485
0.02029201317 -0.003465507984 -0.02699497604 0.9993832051 -0.03511708018 1.043923554e-14
0.01992093563 0.005065061808 -0.02636458302 0.9617044721 0.2740439414 -0.004942317986
0.0129783783 0.01599028778 -0.008560343742 -0.6206276835 -0.7840135996 0.01199808957
0.01116370296 0.01725458384 -0.008545474052 -0.5312828184 -0.8471429187 0.009351050687
0.009288846016 0.0183394413 -0.00853588295 -0.454345828 -0.890747799 0.01175699967
0.004605878174 0.02003330183 -0.008538366437 -0.2310411862 -0.9728428599 0.01402640853
-0.009315380096 0.01834622192 -0.03352598 0.4550390513 -0.8904701381 0.001547565603
-0.009614230156 0.06060000229 -0.07739136251 -0.4235044381 -0.4602939372 -0.780239375
0.001719783559 0.02048339367 -0.008555301309 -0.1215493442 -0.9925156978 0.0117620839
0.004608000755 0.02197641563 -0.0405318718 0.4770141473 0.451245737 0.7542113683
0.0205671339 0.02486872005 -0.05999638748 0.9986485553 -0.005424409057 0.05168789777
-0.001355728462 0.02050442839 -0.008585163116 0.03182605473 -0.9993992432 0.01372060577
-0.004674208641 0.02000230694 -0.00863076961 0.2627060921 -0.9648757902 0.0004677023705
-0.01478926563 0.04023150253 -0.05206700134 0.8679029254 -0.01122905222 -0.4966069074
-0.007349398136 0.01923982239 -0.008676593542 0.3983675961 -0.917225135 0.001144561809
-0.009326010227 0.01832180977 -0.008719212055 0.4374621082 -0.8992237969 -0.004844264908
0.001725954473 0.02049878311 -0.0328966856 -0.1245292963 -0.9922159292 -6.561732682e-05
-0.01148058796 0.01703521156 -0.008772713184 0.5335169937 -0.845785279 -0.002622827005
-0.006981202364 0.06060000229 -0.07799631373 -0.2592728876 -0.4751508863 -0.8408383941
0.001726622343 0.0205004549 -0.03866695786 -0.3351864857 -0.754984782 -0.5636026958
-0.01525635195 0.02622260666 -0.06826607895 0.8732726354 0.009987710835 0.4871295001
-0.01750576878 0.01078833818 -0.008986345291 0.7711472443 -0.6366467195 -0.003589179765
0.007337536812 0.01920994663 -0.01209080855 -0.3497324497 -0.9368296106 -0.006123266311
-0.01442358971 0.02460979843 -0.05142295456 0.8911050368 -0.02429004213 -0.4531465627
0.02029201317 -0.003465507984 -0.01197795296 0.9994603747 -0.03283626093 0.0008598564772
0.01046605778 0.03497591591 -0.04288025665 0.5358445602 0.001115126606 0.8443159147
0.02018406391 0.03602659798 -0.05664146042 0.9774627615 0.01120001197 0.2108106011
0.01578047752 0.0131867187 -0.02730593204 0.7761260025 0.6305778509 4.664802605e-05
-0.004666385949 0.02002082157 -0.03900786304 -0.2503918036 0.9680067531 0.01633617353
0.02046819973 0.001984985709 -0.01179470921 0.9944256862 0.1054325625 0.001236701329
0.01916504955 0.007436821222 -0.01162776184 0.9359024915 0.3522578419 0.0009691139549
-0.007727937539 0.01086456966 -0.0744233017 0.4722459325 0.2238208492 0.8525772731
-0.01393766642 0.01511399651 -0.01179512978 0.67441704 -0.7383497559 -0.001137584904
0.01829833603 0.009422598839 -0.01157151985 0.8908726895 0.4542525994 -0.0006535191123
0.01733721733 0.01108718109 -0.01152718115 0.8332942475 0.5528235641 -0.002608450511
-0.007853192568 0.05883942986 -0.07576174927 0.3834917903 0.3030958492 0.8723915136
0.01159616089 0.03968952942 -0.04357426071 0.5434290573 -0.004204040255 0.8394445698
-0.009854744911 0.06060000229 -0.0453946619 0.5816433074 0.4120978316 -0.7013319045
0.0157778883 0.0131792357 -0.0114758184 0.7762299909 0.6303893539 -0.008732908346
0.01412056494 0.01494358778 -0.01143682432 -0.6909851263 -0.7227510568 0.01305622741
-0.00763694334 0.02575809288 -0.07589190674 0.4709711799 0.004787019767 0.8821356087
0.0129783783 0.01599028778 -0.01141582108 -0.6193353628 -0.7850731504 0.00915733942
0.01116402864 0.01725547075 -0.01139595795 -0.5379894404 -0.8429492144 0.001996005093
0.0183016758 0.009432561874 -0.0173655529 0.8964897243 0.4430613819 -0.001669135283
0.005254722118 0.04349491119 -0.04070927048 0.3270021281 -0.03584067727 0.9443437161
0.004607040107 0.02003627014 -0.01138640237 -0.2215665177 -0.9751452599 -1.992597979e-05
-0.01392885447 0.01513375998 -0.01770055676 0.6723476911 -0.7402346726 -0.001100830982
0.001721138105 0.02048675728 -0.01140897059 -0.121222422 -0.9925517718 0.01208737968
-0.009479392052 0.04806132126 -0.04641507721 0.6869832348 0.001063900877 -0.7266724869
0.01044614887 0.06060000229 -0.04342933655 -0.5156296171 -0.3938812476 -0.7609097586
-0.01707106972 0.01534749889 -0.05974736786 0.9999396884 -0.004786075476 0.009884987166
-0.01732606316 0.01118671036 -0.04132398987 0.7599261443 -0.6423119087 -0.09973799241
-0.004640836716 0.01444998074 -0.0765033493 -0.3582462919 -0.1374220679 -0.9234580497
-0.004672959507 0.02000525236 -0.01150962758 0.2606865913 -0.9653570675 0.01132401796
-0.007349398136 0.01923982239 -0.01157084846 0.40216446 -0.9155614019 0.003326623925
-0.01148058796 0.01703521156 -0.01755746555 0.5291512974 -0.8485274626 0.000222927082
-0.009323687553 0.01832714367 -0.01162748098 0.4389785634 -0.8984954205 -0.001949446076
0.01151832104 0.05003699875 -0.0435248642 0.5256857623 -0.001670609313 0.850677194
-0.01157524586 0.04057525253 -0.07313474274 0.6778164514 -0.02486155124 0.7348106977
0.01646199322 0.01943873405 -0.04819689751 0.8273234946 0.07506072689 0.5566881736
-0.006136442184 0.02205895805 -0.07654302979 0.386022884 0.02085610104 0.9222534121
0.01884918022 0.04754240799 -0.06884789276 0.9254877397 -0.006116404567 -0.3787281786
-0.0174889698 0.01082557631 -0.01198250532 0.7703146519 -0.6376545864 -0.003459120652
0.007342177391 0.01922207689 -0.02421380949 -0.3506558634 -0.9365043755 -0.000142039811
0.02029201317 -0.003465507984 -0.01497586489 0.9994587348 -0.03289720874 0.0001050592011
0.02047163963 0.001995709538 -0.01474626732 0.9944284362 0.1054068934 0.001213271496
0.01335558701 0.02322982216 -0.04496858406 0.6822931306 0.0213327062 0.7307674046
-0.01393326187 0.01512387514 -0.01474681282 0.6732689626 -0.7393968152 -0.001119671385
0.01830000496 0.009427578926 -0.01446747875 0.8914667333 0.4529217034 -0.01220630843
0.01733790016 0.01108918762 -0.01441218185 0.8333908817 0.5526820128 -0.001493623554
-0.01399289942 0.04341235733 -0.05083784103 0.8189550691 -0.02434556912 -0.5733409875
0.01028702831 0.01898537397 -0.04206638432 0.5322760092 0.5435804507 0.6490011892
0.01016875553 0.04149956131 -0.0427311821 0.4781268306 -0.003640050275 0.8782832595
-0.01339054489 0.0531411527 -0.07115718333 0.7841884728 0.02173562064 0.6201419208
-0.007688657045 0.01661297035 -0.07555064011 0.4413066636 0.1011725245 0.8916347621
0.02008228874 0.01021351862 -0.06266395187 0.9847121337 -0.06837394495 -0.1602092924
0.02040048599 0.01569428349 -0.05726169968 0.9948220732 0.02853868496 0.09754274001
0.01567318535 0.01331479626 -0.01477446671 0.7593074548 0.6507266343 0.002652628168
0.01412243875 0.01494887098 -0.0150151008 -0.6815383343 -0.7317267078 0.009029061252
0.01738649654 0.01123210096 -0.04197373581 0.8446963337 0.5196399184 0.1283061147
-0.01461962605 0.009911383629 -0.06740994263 0.8611118531 0.1781702578 0.4761740603
0.0129783783 0.01599028778 -0.01498778598 -0.621283614 -0.7835853074 -0.0008584711129
0.01830265427 0.009435484886 -0.03628888893 0.8906751309 0.4546169227 0.00461137111
0.0111644357 0.0172565794 -0.01496165355 -0.5541360227 -0.8324252927 0.001183372958
-0.01390230751 0.01519330215 -0.03549176788 0.6563529486 -0.7544477031 -0.003077381947
0.004608095884 0.02003897222 -0.01494902897 -0.2052237251 -0.9787150383 -0.0003104903977
0.001722587466 0.02049035962 -0.01497861338 -0.1208914797 -0.992661296 0.002966735888
-0.01016961765 0.02001036644 -0.07430995941 0.5909526277 0.02344308078 0.8063655584
0.01309570471 0.04348453776 -0.04478169886 0.6425137716 0.007825550065 0.7662341771
-0.001352257242 0.02051285362 -0.01503081989 0.03245638486 -0.9994642376 -0.004221475098
-0.01686142635 0.01580687904 -0.0627069397 0.9744663334 0.0471410389 0.2195292407
0.01015627956 0.04671272659 -0.0427206459 0.522179496 0.007358037962 0.8528038656
-0.004671709597 0.02000820065 -0.01439018464 0.2613200028 -0.9651871313 0.01120971323
0.02055706406 0.002262093902 -0.04742762947 0.9937200589 0.104906833 0.03892301284
-0.007349398136 0.01923982239 -0.01446686792 0.4013821656 -0.9158441229 0.01104081901
0.01346100171 0.0159265248 -0.04181614812 0.6645135144 0.66005229 0.3503609048
0.01978188515 0.02259208488 -0.06623309326 0.9562730192 0.01103684521 -0.2922671738
0.0162656819 0.05609143066 -0.04802027003 0.7817337394 0.1459011577 0.6063045546
-0.01148058796 0.01703521156 -0.01462713194 0.5296990134 -0.8481856122 -0.0003501059357
0.01885503133 0.01406928889 -0.05054031881 0.9281462196 0.1924250298 0.3186176438
0.01116809273 0.01726657867 -0.02998512268 -0.5309178928 -0.8474231641 -0.0004147906011
-0.01747216606 0.01086282873 -0.01497977734 0.7694721941 -0.6386712535 -0.003401817772
-0.01268582487 0.05646519089 -0.07199806595 0.7432777073 0.1489230029 0.6521964344
0.006658832073 0.0501514473 -0.04113737488 0.3413866454 -0.01344654108 0.9398267653
0.007339219093 0.01921435022 -0.01565142894 -0.3411832626 -0.9399847788 -0.004753628636
-0.001346010983 0.02052800512 -0.02724046516 0.03015288764 -0.9995452413 -0.0003377074932
0.02029201317 -0.003465507984 -0.01797606182 0.9994408308 -0.03343689073 9.48720269e-15
0.0008564075828 0.02770175743 -0.0776501236 -0.09336315629 0.005652969041 -0.9956160731
0.02047508049 0.002006440878 -0.01769987869 0.9944313776 0.1053794129 0.001189401093
-0.007349398136 0.01923982239 -0.02099182765 0.4000947264 -0.9164735938 0.0006014179288
0.0199196949 0.005061249495 -0.01755648994 0.9595290591 0.281609492 -0.0002805591339
-0.01146660233 0.03760051727 -0.04797679138 0.7654762626 -0.01331574485 -0.643326342
0.01916869354 0.007447849512 -0.01744990063 0.9361698569 0.3512973674 -0.01327248213
0.007714015802 0.06060000229 -0.07835755412 0.276056978 -0.485295818 -0.8296267317
0.01673815632 0.06060000229 -0.05368446732 0.7770467199 0.5494538943 0.3070811181
0.01955737178 0.03820079295 -0.05424586868 0.9537504925 -0.007857998841 0.3004966719
0.01779135513 0.02937336922 -0.05022357559 0.8780171878 -0.005153073203 0.4786013621
-0.01421611627 0.001990635713 -0.06353574244 0.83138998 0.3434965184 0.4368075584
0.01733790016 0.01108918762 -0.01802181053 0.8334201059 0.552501333 0.01237756356
-0.01789032173 0.06060000229 -0.06895003891 0.819618968 0.3957562965 0.4142483567
0.01588543968 0.0130518877 -0.01823347359 0.775524193 0.6313126878 0.002552716188
-0.01707106972 0.008086220741 -0.05703593063 0.9912926528 0.07578381747 0.1076832837
0.01859103584 0.02339554787 -0.05179595566 0.8996837289 0.0008687487926 0.436541445
-0.004670145909 0.0200118885 -0.01799408245 0.2510572934 -0.9679232014 0.009742263285
-0.01745800018 0.01089422989 -0.02398904896 0.7692388135 -0.6389613821 -1.400129768e-14
-0.01322810745 0.03818038813 -0.07138137309 0.7858099826 -0.004852691752 0.6184489653
0.001724376142 0.02049483347 -0.0242781167 -0.1240019577 -0.992281933 -0.0002826478692
-0.01563825893 -2.504289523e-05 -0.05816769409 0.9096079374 0.2492981449 0.3323610013
0.01943023777 0.05954681587 -0.05389308739 0.9153710002 0.3008569692 0.2675462878
-0.007349398136 0.01923982239 -0.01736509514 0.4021014688 -0.9155275113 0.01112586131
-0.009319038391 0.01833782101 -0.01744947815 0.4505805285 -0.892730586 0.003047662432
-0.00466713351 0.02001904154 -0.03609462833 0.2608729283 -0.9653080454 0.01121128282
-0.01745877838 0.01089250469 -0.01797907543 0.7690977958 -0.6391269961 -0.002294181725
0.02052335835 0.006915810108 -0.05722844696 0.9998981997 -0.01395547193 -0.002972366629
0.01412431383 0.01495415831 -0.0185966053 -0.6834022462 -0.7300062662 -0.007226417934
0.0129783783 0.01599028778 -0.01856308746 -0.6205411659 -0.7840858049 -0.01175210718
-0.004132455111 0.06060000229 -0.04239437771 -3.837144393e-15 1 6.677597259e-15
-0.01528743744 0.008395833731 -0.06539611435 0.8984688508 0.190556531 0.3955274107
0.02048197174 0.002027932525 -0.02361507225 0.9944267272 0.1054006653 -0.002486755295
0.01116494608 0.01725797176 -0.01853063726 -0.531438702 -0.8470636712 -0.007486182957
0.01655827045 0.02796970367 -0.04839510345 0.7878464199 0.0194259289 0.6155653108
-0.01745800018 0.01089422989 -0.02699935913 0.7695767476 -0.6385543278 4.820295486e-15
0.009293432236 0.01835168934 -0.01850930309 -0.4655558428 -0.8850185059 3.854283357e-05
-0.001162960867 0.05941538747 -0.07760508219 0.005029122884 -0.398217496 -0.9172772393
0.01633006605 0.03458699036 -0.0481366361 0.7942896321 0.005201748629 0.6075170139
-0.01574076366 0.04141246605 -0.05408148766 0.9404453865 0.0105250799 -0.3397818383
0.007340566039 0.01921787691 -0.01850257158 -0.3499933498 -0.9366603402 -0.01311724615
0.01960509396 0.01775658607 -0.05405897331 0.9494238028 0.06686313108 0.3067959653
-0.01668592358 0.02316109085 -0.05697825432 0.9704094046 0.0137484245 -0.2410737818
0.004608517468 0.02004004717 -0.01851502275 -0.2213304082 -0.9751968261 -0.002000199677
0.01830265427 0.009435484886 -0.02462366772 0.8861275451 0.4633708522 0.008088707922
0.001723327518 0.02049220896 -0.01855161715 -0.1220482957 -0.9924691983 -0.01044527925
-0.01392002773 0.0151535573 -0.02361603928 0.6724606312 -0.7401294184 0.002267932328
-0.009315380096 0.01834622192 -0.03646360397 0.4540476792 -0.8903313682 -0.03392284967
-0.001350290135 0.02051762724 -0.01861609888 0.0310026703 -0.9994145372 -0.01447125344
0.02029201317 -0.003465507984 -0.03605114174 0.9993690762 -0.03551689062 -1.464601055e-14
0.02029201317 -0.003465507984 -0.02097900486 0.9994218839 -0.0339985007 -9.598125272e-15
-0.01145241737 0.01709914207 -0.03964349365 0.5409260231 -0.8372079152 -0.08051052296
0.007842927456 0.05615411568 -0.04160669899 0.3714293745 0.1504058748 0.9161977366
0.02047852421 0.002017181277 -0.02065599632 0.9944345106 0.1053501139 0.001165178523
0.004335036278 0.05609705353 -0.04051226044 -0.3028519985 -0.2391369866 -0.9225476511
0.01992010784 0.005062519073 -0.02048926067 0.9618183854 0.2736506027 0.004554239137
0.005752459049 0.05295002747 -0.04083153915 0.3251327863 -0.01787764519 0.9454993713
0.01917051697 0.007453370571 -0.02036459255 0.9363093413 0.3509285148 -0.01319071527
-0.005432777882 0.03418924332 -0.07680808258 0.3617174806 -0.004536375949 0.9322767215
-0.01392444324 0.01514365387 -0.02065681458 0.6724089005 -0.7401788539 -0.001238870992
0.01830265427 0.009435484886 -0.02099219004 0.8919044312 0.4522238488 0.0002758913638
-0.009316709995 0.01834316635 -0.02036409855 0.4503424942 -0.8928441498 0.00457843644
0.01787565422 0.03747382736 -0.05036282349 0.85783379 -0.0002624745361 0.5139271542
-0.01148058796 0.01703521156 -0.02049048138 0.5360270985 -0.8441858034 -0.005027830885
0.002448436916 0.02604934788 -0.04015983009 0.2159470554 0.148433268 0.9650567
-0.006166665554 0.02909478378 -0.07652385712 0.3742083381 -0.002384295587 0.9273415956
-0.01745800018 0.01089422989 -0.02098240948 0.7689224333 -0.6393420716 -8.394833884e-05
0.01917279943 0.007460280101 -0.02401243019 0.9352910257 0.3538735047 0.002059119149
0.003636346102 0.05765615845 -0.04035503769 -0.2706981414 -0.2605885744 -0.9267233196
0.01511314297 0.02601035881 -0.04663331604 0.7445713078 0.01135006783 0.667446435
0.01733790016 0.01108918762 -0.02163545418 0.8272074807 0.5617293901 0.01370679239
0.01577999353 0.01318531442 -0.02153876543 0.7709737429 0.6368548656 0.003920198103
0.01794921494 0.04517076111 -0.05050432205 0.8806041288 0.002353093211 0.4738468437
0.001312131941 0.03416859436 -0.07761487961 -0.0755975141 -0.002460614532 -0.9971353776
0.01412581635 0.01495839262 -0.02146496773 -0.6840088525 -0.7294108467 -0.009576342081
0.01851724434 0.06060000229 -0.05377225876 0.7770467199 0.5494538943 0.3070811181
0.02054663467 0.01161920071 -0.05941555023 0.9995248816 -0.01941121841 -0.02394192169
0.0129783783 0.01599028778 -0.02142657375 -0.6219149256 -0.7829452841 -0.01478199429
0.01116572189 0.01726009417 -0.02138897038 -0.5316105174 -0.8469363106 -0.009441585445
0.01834246922 0.009554270267 -0.04213710213 0.9004888315 0.4243142994 0.09527454918
-0.01386631012 0.01527403736 -0.04070362854 -0.691086665 0.7193384418 0.07036638106
0.00427239573 0.06060000229 -0.07874027634 0.1232989656 -0.5995129641 -0.7908107049
0.009294744968 0.01835519505 -0.02136424828 -0.4548266185 -0.8904688505 -0.01407030538
0.007341491818 0.01922029352 -0.02135655546 -0.3508010864 -0.9364499225 -0.000374847333
0.004608703256 0.02004051828 -0.02137106085 -0.2306259874 -0.9729108503 -0.01600410301
0.01830265427 0.009435484886 -0.03336533928 0.8848045425 0.4659219839 -0.006134035543
-0.01077364874 0.05590357971 -0.04744454765 0.6816460616 0.1329559395 -0.7195007747
0.001723851562 0.02049352074 -0.02141324139 -0.1221235749 -0.9924304643 -0.01294626951
-0.01390674686 0.01518334341 -0.03251609135 0.6564415564 -0.7543737266 -0.00218257009
-0.001348714754 0.02052145004 -0.02148749256 0.03152018492 -0.9993730383 -0.01612476877
-0.01436678791 0.006745492458 -0.06639530945 0.8270579577 0.2664950243 0.4949298301
-0.004669101238 0.02001435614 -0.02160199642 0.2525407968 -0.9675743851 -0.004791157586
0.02029201317 -0.003465507984 -0.02398515511 0.9994026764 -0.03455850761 -3.453176421e-16
-0.014022017 0.05238468742 -0.05089587402 0.8091524209 -0.01469384602 -0.5874150583
-0.01293196487 0.04091302109 -0.07175786591 0.7641334412 0.005791735162 0.6450322007
-0.01627080345 0.01710107327 -0.06548886871 0.9457459938 0.04006779749 0.3224268706
-0.004668304026 0.02001625395 -0.03028421402 0.2633337925 -0.9647047806 -1.761610928e-06
-0.01745800018 0.01089422989 -0.03605699348 0.7702292376 -0.637708462 -0.008650959779
-0.01618886089 0.04662015152 -0.0659481926 0.9534918073 -0.02338117622 0.3005107221
0.01935098553 0.02968915176 -0.05358631134 0.9356199997 0.008521033387 0.352905948
-0.01270195293 0.02492128372 -0.07203542328 0.7533474836 0.004631073612 0.657606358
0.01992052174 0.005063789606 -0.02342514038 0.9615426251 0.274639403 0.002996392075
-0.009315380096 0.01834622192 -0.02401214027 0.4385785866 -0.898689848 -0.002319579712
0.01234608364 0.01842036438 -0.0434865303 0.6632940457 0.4928333774 0.5631662908
0.01863755989 0.03172634792 -0.05190512848 0.9089791432 0.001658676242 0.4168382972
-0.01621770287 0.05818330129 -0.0658206075 0.9184586477 0.1921055228 0.3457299244
-0.01567931175 0.06060000229 -0.05113959789 0.7468621576 0.3922863326 -0.5369435267
-0.01147488546 0.01704815388 -0.02342563438 0.5349336016 -0.8448866853 -0.003539894852
0.007010005474 0.0589983139 -0.04128207779 -0.3021662217 -0.36892904 -0.8789692474
0.01733790016 0.01108918762 -0.02453016472 0.8275822295 0.5611545831 0.01460093535
0.01578023529 0.01318601608 -0.0244204855 0.7759094625 0.6307451861 0.01118106248
0.0001965698451 0.04019073868 -0.04001047516 0.05165755075 0.1190690694 -0.9915412519
0.01116651106 0.01726225281 -0.02425053215 -0.5312947449 -0.8471869032 -0.0004949900832
-0.009314794064 0.01834756851 -0.03940667343 -0.4719420492 0.8807064505 0.04033423235
-0.01447803688 0.05868886948 -0.06965776825 0.8044644177 0.1828157735 0.5651684648
0.02046974373 0.04070341492 -0.06263339996 0.9968129134 0.001407796968 -0.0797623579
0.009295258522 0.01835656357 -0.02422256756 -0.4551035853 -0.8904384696 0.0002418505222
-0.001347137526 0.02052527714 -0.02436209965 0.03014788816 -0.9995453083 -0.0005304686055
0.01578072071 0.01318742228 -0.03019555378 0.776258518 0.6304147149 2.273702868e-05
-0.01573395061 0.05049069023 -0.05406509781 0.9341784468 0.01638171866 -0.3564298933
0.01861545181 0.02761554337 -0.05185164261 0.90382476 0.007941400333 0.4278290983
-0.004668835878 0.02001498747 -0.02449218035 0.2531785589 -0.9674107749 -0.004124299833
0.001726120651 0.06060000229 -0.0801627655 -0.05956118002 0.7888226823 0.6117280783
-0.01621848234 0.04352997843 -0.06582341766 0.9412629681 -0.00612553656 0.337618872
-0.01689732933 0.004742298126 -0.05674836731 0.9847273048 0.1437197716 0.09826882751
-0.007349398136 0.01923982239 -0.02462324238 0.3918017013 -0.920031875 -0.005725024199
0.01733790016 0.01108918762 -0.03615109062 0.827939821 0.5608010406 0.004224414754
0.02048542404 0.00203869617 -0.02657756424 0.9944375916 0.1051421337 -0.006245650808
-0.01147180367 0.01705514717 -0.026364645 0.5351988784 -0.8447140055 0.004517681334
0.01830265427 0.009435484886 -0.02753318405 0.8861528441 0.4632538515 0.01135808354
0.02018117237 0.04371308899 -0.0566510601 0.976468706 -0.001435552808 0.2156543655
-0.01391560698 0.01516347265 -0.02657868862 0.6726907573 -0.7398999375 0.005935269612
-0.01067196178 0.05609796143 -0.07393558121 0.6776777833 0.2331132697 0.6974317354
-0.009838399569 0.03782311757 -0.07451076253 0.5734241584 -0.02914240625 0.8187401631
0.01885283566 0.01107692671 -0.04779197311 0.932623941 0.2931765769 0.2103807962
0.01917508507 0.007467199802 -0.02766547966 0.9413968294 0.337178008 0.009110462947
-0.0114656655 0.0170690759 -0.03299284617 0.5297094445 -0.8481735844 0.003078173219
0.01733790016 0.01108918762 -0.02742863369 0.8275450939 0.5613975183 0.001394302879
0.01412882566 0.01496687651 -0.02721175098 -0.6928692375 -0.7210632384 -0.0001612444921
-0.01597094679 0.01951250458 -0.06655773926 0.9267990248 0.01486140034 0.375263516
0.009295258522 0.01835656357 -0.02708469009 -0.4550271707 -0.8904774183 0.0004913512676
-0.01074565506 0.05002213669 -0.07387836838 0.6452242819 -0.004024113648 0.7639826128
0.007342863798 0.01922386217 -0.02707473898 -0.350554866 -0.9365421965 -4.632854684e-06
0.004609075606 0.02004146147 -0.02709336138 -0.2323096468 -0.9726417941 0.0004103763735
0.01966061719 0.01046096166 -0.05053907649 0.9566099565 0.2148857147 0.1967778463
0.001724901438 0.02049614811 -0.0271466856 -0.1242437581 -0.9922517061 -0.0002008674795
0.01936824226 0.03375810242 -0.06758234406 0.9594935351 -0.005498678556 -0.2816769792
-0.004668570161 0.02001562023 -0.02738610315 0.2631443321 -0.9647558276 -0.001119605163
-0.004132455111 0.06060000229 -0.07834539604 -0.1462059161 -0.560588821 -0.815085274
-0.007349398136 0.01923982239 -0.02753270912 0.391441611 -0.9201546917 -0.009423825185
-0.009315380096 0.01834622192 -0.02766574478 0.4556516048 -0.8900962813 -0.01049880638
0.02029201317 -0.003465507984 -0.03000893593 0.9993690762 -0.03551689062 2.642581745e-14
0.003794677734 0.02375399399 -0.04036287308 0.4478735549 0.2164667767 0.8674972123
0.02048790359 0.002046428204 -0.02954421616 0.9919506339 0.1266223774 0.0008446678502
0.01917582321 0.007469436646 -0.03059300518 0.9418281948 0.3360076114 0.007650914173
-0.007311649084 0.01375482082 -0.07534299469 0.4478438671 0.1625305721 0.8792153797
-0.01146907806 0.01706133175 -0.02930763721 0.5353952929 -0.8445833278 0.005557217707
0.01745812798 0.01365814304 -0.04677341843 0.8681306561 0.3625463452 0.3389827598
0.007178668737 0.0376638546 -0.04133163643 0.3499193648 0.02547261354 0.9364334381
-0.0139111805 0.0151734004 -0.02954521847 0.6564295642 -0.7543857942 -0.001516820773
0.01373468685 0.05036407471 -0.04532844734 0.6782933196 -0.02167692972 0.7344714312
0.01830265427 0.009435484886 -0.03044692326 0.8854169169 0.464792435 -0.002208074494
-0.01745800018 0.01089422989 -0.0300138073 0.7699135988 -0.6381481414 -1.683535369e-14
0.01605426812 0.04386080837 -0.04780434513 0.7925917046 -0.01032199607 0.6096653559
0.02039598465 0.04799920273 -0.0632266655 0.9926017627 -0.003670749851 -0.1213600691
0.01733790016 0.01108918762 -0.03033130836 0.8275866618 0.561337947 -0.0001629790033
0.01761424541 0.01190186834 -0.04480634308 0.8727606539 0.4320862856 0.2271349439
0.005040553093 0.05452878189 -0.04067102814 0.2907171349 -0.002139874212 0.9568066515
-0.01191714859 0.008623513222 -0.07054349518 0.6859795786 0.2699775252 0.6756805115
-0.01666096783 0.05873981285 -0.05690088272 0.9144387382 0.3133824688 -0.2561117378
0.0129783783 0.01599028778 -0.03003847408 -0.6197071524 -0.7848271584 0.003062139871
0.009295258522 0.01835656357 -0.02995096684 -0.4549408855 -0.8905214155 0.0006319071245
0.02021082687 0.02383569717 -0.05662721252 0.9828783191 -0.005584393549 0.1841711824
0.007343551278 0.01922564983 -0.02993978548 -0.3504673579 -0.9365749361 0.0001420678112
0.001725427568 0.02049746466 -0.03001939297 -0.1243938537 -0.992232911 -0.0001392821827
0.001764029264 0.03870911217 -0.0401062603 -0.1136868554 -0.02451814694 -0.9932140552
-0.001345278919 0.0205297699 -0.03012305164 0.03015020519 -0.9995453627 -0.0001819206939
-0.007349398136 0.01923982239 -0.03044639778 0.3919977955 -0.9199650249 0.001442686298
-0.009315380096 0.01834622192 -0.03059351254 0.4560882449 -0.889875829 -0.01022359123
0.02029201317 -0.003465507984 -0.03302750015 0.9993690762 -0.03551689062 -1.730688476e-15
0.02048790359 0.002046428204 -0.03251603603 0.9919710071 0.1264583503 0.001344143626
0.01992531204 0.005078506629 -0.0329928697 0.9602217331 0.279217392 -0.003445465915
0.009295258522 0.01835656357 -0.03857920074 -0.5164094185 -0.833378182 -0.1969825329
-0.0111844635 0.03162628365 -0.07350675964 0.6703159088 -0.01629551988 0.741896919
-0.01745800018 0.01089422989 -0.03303286171 0.7702494539 -0.6377427214 -9.551408171e-15
0.01917582321 0.007469436646 -0.03352542305 0.9417362212 0.3363479694 -0.001712644922
0.01415191078 0.01503195953 -0.04092647171 0.714500321 0.679522236 0.1665497588
0.01733790016 0.01108918762 -0.03323864365 0.8277164732 0.5611464775 -0.000265969343
-0.01569720809 0.03731530762 -0.05399411138 0.9274760042 -0.00256796135 -0.3738738654
0.01578096342 0.01318812704 -0.03308979988 0.7763670786 0.6302810149 -3.995438589e-05
0.01861796379 0.01704548454 -0.05132478142 0.9104561787 0.1424906827 0.3882859152
0.01866208076 0.03574502945 -0.05196037674 0.9085590406 -0.008803179815 0.417663709
-0.01399112034 0.0289321785 -0.05078234482 0.8462466879 -0.005862408148 -0.5327590219
0.01116888499 0.01726874685 -0.03285904121 -0.5307181353 -0.8475483221 -0.0003203809477
0.01969294167 0.01801492691 -0.06640327454 0.9634575537 -0.03133610841 -0.2660217858
0.009295258522 0.01835656357 -0.0328218441 -0.4548314354 -0.8905772375 0.0007411880037
0.00734405303 0.01922695541 -0.03280945301 -0.3503749125 -0.9366094809 0.0003178290113
0.01786956978 0.02551275635 -0.07084454346 0.9110476552 0.01634741995 -0.4119768583
0.004609449029 0.02004240799 -0.0328322506 -0.2325511095 -0.9725839904 0.0006025874411
0.007445758343 0.02536397362 -0.04142733002 0.3455991493 0.04353991357 0.9373715933
-0.01704663467 0.0537609787 -0.06052993011 0.9985512556 -0.003311303621 0.05370684569
-0.001344545722 0.02053153706 -0.03301023197 0.03010895335 -0.9995466211 -5.591936675e-05
-0.01521961689 0.01585627651 -0.06792167664 0.9030371315 0.08189863871 0.4216829995
-0.00466787976 0.02001726437 -0.03318692207 0.2635346914 -0.9646499182 -4.240159739e-05
-0.01695349598 0.04205770874 -0.06259476089 0.9945675107 0.01324816485 0.1032470475
0.0129783783 0.01599028778 -0.03580206871 -0.6215349439 -0.7833736399 -0.004478148806
0.01852515316 0.01009929943 -0.04499922752 0.9118897706 0.37179144 0.1738625073
-0.007349398136 0.01923982239 -0.03336476326 0.3908941333 -0.9204263672 0.004132693161
-0.01021402295 0.007529137293 -0.07165355174 0.5898779016 0.2989288212 0.7501237371
-0.01479383278 0.05808301163 -0.05212412262 0.8683356749 0.1913553029 -0.4575765551
0.01992825413 0.005087545156 -0.03668519592 0.9608033392 0.2770509094 0.009986837649
0.01917582321 0.007469436646 -0.03646299934 0.9417851088 0.3362067606 0.002413083125
0.01996477699 0.005199747801 -0.04259845543 0.9645485861 0.260782534 0.04047832778
0.01578120708 0.013188833 -0.03598912525 0.7773200924 0.6290652422 0.007098942832
0.01413256264 0.01497741127 -0.03586401749 -0.6909896052 -0.7228646883 -8.900789179e-05
0.01116967893 0.01727091837 -0.03573797512 -0.530129311 -0.847872012 -0.008715778674
0.01982654762 0.0269275341 -0.06609172058 0.9550201265 -0.01157804014 -0.2963148779
-0.01705094719 0.04790930176 -0.0601621418 0.9997906988 0.008274087861 0.01871090782
0.009295258522 0.01835656357 -0.03569777107 -0.462563973 -0.8862857939 -0.02306647799
0.02027791977 0.04768392944 -0.05727115822 0.9929369003 -0.01750684735 0.1173448861
0.00734405303 0.01922695541 -0.03568429279 -0.3552610953 -0.9338734308 -0.04086525884
-0.006904269695 0.03762540436 -0.07619553375 0.4113487562 -0.001129583045 0.911477331
0.01898373032 0.05498761749 -0.06854385376 0.9218692522 0.02048057636 -0.3869594654
0.0129783783 0.01599028778 -0.03869191742 -0.6467492536 -0.756253408 -0.09897568311
0.004609636188 0.02004288244 -0.03570903397 -0.2427055654 -0.9668305498 -0.07957824203
0.01929062843 0.05228077698 -0.06777906036 0.9383313412 0.0176656986 -0.3452857038
-0.001343811274 0.02053330755 -0.03590245628 0.03071197288 -0.9994127809 0.01519434406
0.01180363655 0.06060000229 -0.04718318176 0.3712636427 0.7960826072 0.4779286454
-0.01701296902 0.05947500229 -0.05952134895 0.9642412309 0.2272208646 -0.136416741
-0.007349398136 0.01923982239 -0.03628826141 0.3973072948 -0.9173925266 -0.02319193107
-0.01146224689 0.01707683659 -0.03668527794 0.5367108525 -0.8426509551 -0.04336852131
0.02029201317 -0.003465507984 -0.03908033752 0.9989275744 -0.04037837215 -0.02265586502
0.02048790359 0.002046428204 -0.03847513771 0.992054532 0.1256142874 0.00698973596
-0.01389947796 0.0151996479 -0.03847317696 0.6784449733 -0.7345602674 -0.01155992263
0.001493625313 0.06060000229 -0.04204439259 -0.166235516 -0.6464192551 -0.7446528721
0.007714015802 0.06060000229 -0.0763398056 0.4056128169 -0.5921773275 -0.6962788633
-0.003463573694 0.01347133541 -0.07660758972 -0.3114027725 -0.177838717 -0.9334889951
0.01830265427 0.009435484886 -0.03921803284 0.8926180902 0.449940704 0.02804118408
-0.01745800018 0.01089422989 -0.03908668137 0.7599261443 -0.6423119087 -0.09973799241
0.0199314661 0.005097411633 -0.03964509201 0.9612010692 0.2746701642 0.0254716622
0.01917605686 0.007470142126 -0.03940610695 0.9432205439 0.331496707 0.0210935755
-0.0170576992 0.03874552917 -0.06031732559 0.9999118604 -0.01237743395 0.004803178463
0.01733790016 0.01108918762 -0.03906911278 0.8291335462 0.5577767208 0.03771859455
0.005482933521 0.0316824398 -0.04076096725 -0.3269108694 -0.01715800113 -0.9448994055
-0.0157614336 0.03181061172 -0.05411575699 0.9396066705 0.008065810966 -0.3421611426
0.001805984318 0.05824705124 -0.07755323029 -0.131648879 0.2274329818 0.9648537772
0.01578145075 0.01318954015 -0.03889398384 0.7822157358 0.6212651829 0.04656302396
-0.01000520897 0.01676200676 -0.0741928215 0.5939805194 0.09829206128 0.7984521358
0.01413256264 0.01497741127 -0.03875886536 -0.698223374 -0.7129252661 -0.0649744942
0.01117055988 0.01727332449 -0.03862234688 -0.5562930145 -0.823396888 -0.1120519826
0.01379698658 0.05889211845 -0.04539082146 0.6769333359 0.2996954711 0.672267717
0.004609823704 0.02004335785 -0.03859131241 -0.2054231446 -0.9095763665 -0.3612093093
-0.01706481934 0.02908170509 -0.06049403954 0.9997433888 -0.004632555769 0.02217421939
-0.001343618453 0.02053377247 -0.03880034924 -0.02385286253 0.9985158583 -0.04896040861
0.01608614302 0.02256974792 -0.047774683 0.7863137194 -0.006121799285 0.6177971012
-0.01700885963 0.0118898859 -0.05722601318 0.9975889133 -0.03120731162 -0.06198761027
-0.01518573952 0.05873790169 -0.06834991837 0.8687524801 0.2294189476 0.4389032636
-0.007349398136 0.01923982239 -0.03921735573 -0.3962146132 0.9169278311 0.04751139607
0.02020991993 -0.003725397468 -0.04214930153 0.9981787395 -0.04937781114 -0.03465596345
0.01079276562 0.02235540771 -0.04306446457 0.5396219597 0.1550945885 0.8274985252
-0.01863193989 0.06060000229 -0.06628852463 0.8499596549 0.412762347 0.3274077427
0.0204931736 0.002062863708 -0.04146121788 0.9938541612 0.110032892 0.01211069477
0.01918149185 0.06060000229 -0.06014958096 0.8608560607 0.5083028765 0.02355904044
0.02057046223 0.01620140362 -0.0600897274 0.9998529807 0.01071526142 -0.01338656577
0.01584206724 0.01336402464 -0.04178113747 0.7770853622 0.6019564305 0.1838118485
0.01145925236 0.01737236087 -0.04124715551 -0.6352853096 -0.6954884848 -0.3357206322
0.01847191048 0.04654820251 -0.05158566284 0.882680248 0.003389707418 0.4699617959
0.007834637324 0.01985102145 -0.04111255137 0.5069755557 0.581086892 0.6366426076
0.00546102953 0.02026819801 -0.04069175339 0.4084454518 0.6362079659 0.6545316929
0.01112489271 0.06060000229 -0.07731645584 0.4803220561 -0.1989561787 -0.8542289865
0.004230914116 0.05897419739 -0.07711047363 0.1479120918 -0.2662848221 -0.9524780347
0.0008529692888 0.02769346809 -0.04004545975 -0.04990651939 -0.03620842265 -0.9980973347
-0.001132861912 0.02838273621 -0.04006194687 0.04792347848 0.1152168993 -0.9921836555
-0.01035324478 0.04417858124 -0.07415594737 0.6469642196 0.01171940097 0.7624302947
-0.004385706902 0.02612799454 -0.04048059082 0.04809761246 0.1148390623 -0.992219033
0.01768432808 0.04810279846 -0.05005585098 0.8533857408 -0.01204553819 0.5211407511
0.01720357895 0.03757146835 -0.07186046982 0.8681116442 0.06701940369 -0.4918237212
-0.008952578545 0.01917940903 -0.04150445938 -0.4413052547 0.896039756 0.04860481347
-0.01789032173 0.06060000229 -0.05131838417 0.3968974868 0.894512461 -0.2057178704
-0.01113712502 0.01781467628 -0.04177028275 -0.551882049 0.8300589798 0.08017664351
0.02006491661 -0.004184445858 -0.04449359894 0.9535582835 -0.3012085656 8.166178375e-08
0.02052856159 0.002173213959 -0.04444038391 0.9829953004 0.1813199806 0.02903969785
0.003994949818 0.03526759338 -0.04040458679 -0.2791838573 -0.0274948286 -0.9598439499
0.007515384674 0.04716827011 -0.04147096252 0.3961455414 0.001433074895 0.918186613
0.01716764259 0.0467589035 -0.07189318085 0.8256366049 0.009157366083 -0.5641279458
0.003192806721 0.03687529755 -0.0402525444 -0.1863504159 -0.0282669411 -0.9820766276
-0.001215132117 0.04033194351 -0.04006705093 0.05165755075 0.1190690694 -0.9915412519
0.01618504047 0.04957028198 -0.04793694305 0.792105748 0.005489333665 0.6103591985
-0.01134325123 0.01368914604 -0.0726204834 0.6603157157 0.1463827791 0.7365834899
-0.002889776945 0.0398928299 -0.04020684433 0.05163048132 0.1187338125 -0.9915828635
0.019609519 0.008782331944 -0.04807317734 0.9425161817 0.2802856948 0.1819427835
-0.01610690308 0.01388933945 -0.04397793198 0.7425516831 -0.6440850584 -0.1837700614
0.0162796704 0.01389828682 -0.0443660876 0.8167772904 0.4928043801 0.3000311663
0.01421566518 0.0166285677 -0.04410963694 0.7361669302 0.5279977494 0.4234107078
-0.01704051018 0.04188341522 -0.05978235245 0.9966457894 0.0005852671951 -0.08183414846
-0.01588668633 0.03479548645 -0.05439213181 0.9364199265 -0.004569680631 -0.3508515917
0.009486935139 0.02869747257 -0.04233328438 0.499484342 0.01234590945 0.8662349396
0.00427239573 0.06060000229 -0.04187631607 -0.2670487364 -0.5420415766 -0.7967910025
0.008079237938 0.03447691727 -0.04168210983 0.3751190762 0.01773894104 0.9268068885
0.01749589539 0.03254620361 -0.04976055145 0.8761982369 -0.0005784684172 0.4819505317
0.01851724434 0.06060000229 -0.06865022278 0.8063454492 0.4889805386 -0.3327236832
0.02049696255 0.01146883202 -0.05648567581 0.9958399982 0.04002437991 0.08185809005
0.006292745113 0.04080670929 -0.0409874649 -0.3089125492 0.02182746262 -0.9508399439
0.00379876256 0.0468118 -0.04037763786 -0.2511916629 -0.01138403522 -0.9678704212
0.001607784788 0.04997638194 -0.04010789998 0.1256907505 0.02015046786 0.9918648062
0.01718514887 0.01651003043 -0.04833205032 0.816955072 0.2904002493 0.4982490397
-0.001308005214 0.05146395493 -0.04008719826 0.05493920022 0.1214784642 -0.9910724832
-0.01681441561 0.03818809509 -0.06351407369 0.9871106446 -0.0123570494 0.15956152
0.01034410858 0.05553869057 -0.04284355927 0.49014092 0.1042714565 0.8653839275
-0.004559418201 0.04913074875 -0.04055342484 0 0 1
0.0157041626 0.01657067966 -0.0459782664 0.7826970186 0.4258863652 0.4538790378
-0.002031022251 0.02259702587 -0.07755630112 -0.1804029707 0.01102259873 -0.9835310216
0.01379337311 0.0196441377 -0.04518091202 0.7193251121 0.2334642498 0.6542673973
0.01601634121 0.05937276268 -0.04774327469 0.6988138085 0.3044184792 0.6472933265
0.01293051815 0.02609169769 -0.04461193657 0.6567090957 -0.008281447837 0.7540985223
-0.007922431707 0.04666797066 -0.07573069382 0.4413550728 -0.0002517740874 0.8973325116
0.01168256187 0.02865647316 -0.04363513184 0.5407800949 -0.01235947751 0.8410732027
0.01120257378 0.03124379921 -0.04332450867 0.5226987409 -0.015069754 0.8523842612
-0.01878026352 0.06060000229 -0.0631620903 0.9278609536 0.3662026909 0.07049567394
0.009716030121 0.03857329941 -0.04245566559 0.5190221373 -0.006742463509 0.8547342044
0.008389932632 0.04413637161 -0.04181177139 0.4248025949 0.019187881 0.9050826374
0.01777614212 0.05535412598 -0.05019973373 0.8614321061 0.05217918923 0.5051851727
0.0007961392999 0.06060000229 -0.0401488533 -0.1951953019 -0.651639377 -0.7329835717
-0.01325697136 0.00803941234 -0.06867954254 0.7577616536 0.2530113988 0.6014835894
-0.001307755172 0.06060000229 -0.04027293396 0.1109625151 0.8208015051 0.5603322313
-0.003423308849 0.06060000229 -0.04039923859 0.04504067591 0.9989347436 0.01003570947
-0.01614598274 0.02087880898 -0.05504943848 0.9561045173 -0.04565682587 -0.2894470697
0.01739839745 0.05091728973 -0.04962821579 0.8480442766 0.009980058141 0.5298313915
0.02024049568 0.006046807528 -0.04842178154 0.9773201193 0.189079326 0.09536452635
-0.01430799389 0.0503468399 -0.06996363068 0.8284913336 0.01391579865 0.5598289567
0.01926456642 0.02532098579 -0.06789076233 0.9565439926 -0.002757162614 -0.2915750133
0.01361191559 0.0318253088 -0.04521223259 0.647122686 -0.008302949613 0.7623406655
0.01322018385 0.03461334038 -0.04485424423 0.6465874637 -0.005633244819 0.76281906
0.004950790882 0.0478277626 -0.07694438934 0.1310068757 -0.01029613088 -0.9913279922
-0.01848361626 0.06060000229 -0.05986927643 0.9514271549 0.3040075317 -0.04863938367
0.01203470993 0.03714606857 -0.04388948441 0.543267253 0.0006818316557 0.8395595434
0.01064064407 0.04442889023 -0.04299655151 0.5017861428 -0.006823097331 0.864964804
-0.01502438259 0.01983228302 -0.06869429779 0.8749227462 0.03087740068 0.4832771196
0.009441620827 0.05007974243 -0.04231552696 0.4887884974 0.01492008317 0.872274725
0.01665769768 0.01786866951 -0.07254962158 0.83758588 -0.04062895293 -0.5447927879
0.008689697266 0.05327474976 -0.04193672943 0.4431116077 0.02985403272 0.8959692181
-0.001307755172 0.06060000229 -0.04221705151 0.02405238343 0.9941317953 0.1054677983
-0.01662560463 0.04271448898 -0.05677288055 0.9780593132 0.01115929495 -0.2080275223
-0.006981202364 0.06060000229 -0.04257645416 -1.220039532e-13 1 3.639041625e-13
0.02057386017 0.002314467669 -0.05042638016 0.9982657408 0.05828325638 0.008280867616
0.0181506176 0.01347924137 -0.04822488022 0.8875839844 0.3113836703 0.3394626349
0.01425463581 0.03732013893 -0.04580079269 0.6918916384 0.0146232879 0.7218532539
0.01386343765 0.04001498985 -0.04544563293 0.6806963272 0.02251309256 0.7322196875
-0.0158312006 0.01806435013 -0.05394574738 0.9457310154 -0.05739943659 -0.3198408218
0.01193706417 0.04763278198 -0.04382943726 0.5460153774 -0.007273352562 0.8377435801
0.01105085659 0.05227671814 -0.04324625397 0.5172971451 0.01703243442 0.8556363479
0.01054851913 0.05925536156 -0.04296766853 -0.5462237077 -0.3412844511 -0.7649605118
-0.009854744911 0.06060000229 -0.04342034531 0.06102801268 0.9877237897 -0.1437960252
-0.01670030212 0.01615993929 -0.05655465317 0.9883618501 -0.03264039668 -0.1485781199
-0.01282953548 0.01397386932 -0.07114949036 0.7629410776 0.1393635168 0.6312675521
0.02041230297 0.006574629784 -0.05131580544 0.9910189446 0.1119679167 0.07310702544
0.0163455658 0.0253531723 -0.04807638168 0.7872565358 0.004613011232 0.6166083578
0.01623290253 0.0310653429 -0.04796443176 0.79446827 0.01671050095 0.6070757177
0.01402041435 0.04701110586 -0.04556914902 0.6945071551 -0.01860066575 0.7192453175
-0.007304703712 0.04951823807 -0.07596709696 0.4182811034 0.03373874896 0.9076908148
0.01336488342 0.05286385727 -0.044992939 0.6431378492 0.009303249787 0.7656939052
0.0129765439 0.05526847839 -0.04467307854 0.6316408645 0.06178243465 0.7727954121
-0.01443857574 0.03458028412 -0.05144733429 0.8583136963 -0.005951424194 -0.5130908099
0.01185438633 0.05750035095 -0.04377846527 0.580479561 0.2058044696 0.7878375464
-0.01700751877 0.008228755474 -0.05469163322 0.9982548315 -0.04594381157 -0.03710064152
0.007988274765 0.06060000229 -0.04460415421 -0.3657485669 -0.5041314095 -0.7823551034
0.01650187349 0.04682982635 -0.04833430862 0.7928968499 -0.02166820829 0.6089705036
-0.01660670471 0.03490884018 -0.05658927917 0.9733919037 -0.002863638181 -0.2291287879
0.00427239573 0.06060000229 -0.04380799866 -0.2024997692 -0.6244874805 -0.7543270048
-0.01289650536 0.02791771698 -0.0493993454 0.8436332992 -0.01693609301 -0.5366526113
-0.01226214981 0.03263487244 -0.04870985031 0.7718098046 -0.008894930796 -0.6357912438
0.01967400169 0.03852070999 -0.06657698059 0.9480793655 -0.00315562948 -0.3180181736
-0.01070733738 0.04239239883 -0.04727082443 0.7121724287 -0.02049167273 -0.7017054391
-0.007941571236 0.05425260925 -0.04546842575 -0.5666187811 0.0141354109 0.823858815
-0.006981202364 0.06060000229 -0.04454043388 0.06252085834 0.9848022845 -0.162035807
-0.005382192612 0.02737892151 -0.07682272339 0.3493845826 -0.003034367001 0.9369744959
0.01940549151 0.0560704867 -0.05385901388 0.9490273245 0.1672182897 0.2671800533
-0.01251117357 0.06060000229 -0.04580192439 0.5792970985 0.4660559501 -0.6687351666
0.02039711666 0.00176332444 -0.05353287125 0.9945402673 -0.05163355486 -0.09068424771
0.01770194626 0.02085388756 -0.05008345795 0.8896866644 0.03440864904 0.4552731972
0.0173988533 0.02418571854 -0.04960847473 0.8713550282 0.00211130115 0.4906485068
-0.01393400669 0.0256703167 -0.07049948883 0.8262928401 -0.0006555621473 0.5632403684
