# .PCD v0.7 - Point Cloud Data file format
VERSION 0.7
FIELDS x y z normal_x normal_y normal_z
SIZE 4 4 4 4 4 4
TYPE F F F F F F
COUNT 1 1 1 1 1 1
WIDTH 420
HEIGHT 1
VIEWPOINT 0 0 0 1 0 0 0
POINTS 420
DATA ascii
0.02025528717 -0.003581778049 -0.001497149825 0.9990032893 0.04433496277 0.005180646157
-0.01634528875 0.03544753075 -0.05576517391 0.948151836 -0.02352675547 -0.3169457172
-0.01459610832 0.0004488001168 -0.06118436575 0.8927484667 0.2674102196 0.362618187
0.01468049502 0.01438043904 -0.001430535555 0.7368158831 0.6722411918 0.07207034345
0.01681720924 0.01178802848 -0.001438161671 0.7773738247 0.6258312831 0.06344400589
-0.01693341637 0.0191730938 -0.05836990356 0.999465486 -0.02572474003 -0.02017374642
0.02045617485 0.001947487116 -0.001473915607 0.9878549616 0.1482877442 0.04640387646
-0.01703351402 0.01542979304 -0.06049382401 0.9991591647 -0.04036544429 0.007182937163
0.01682156213 0.01180076218 -0.01078965187 0.7819674782 0.6229179849 -0.02236173348
-0.01739203167 0.01104047012 -0.04058441162 0.7122758711 -0.6990409119 -0.06328417633
0.01953805494 0.006235915542 -0.001457359493 0.947186899 0.3025463451 0.1063140981
0.0182925005 0.009405188084 -0.001445939243 0.8786019116 0.4701251637 0.08391073446
-0.01040620065 0.01767184687 -0.001457367018 -0.5340105299 0.8415592364 0.08130686053
-0.01390896368 0.01517837191 -0.03103065491 0.6579498459 -0.7530084346 -0.008960897942
0.01176746432 0.01683003775 -0.001424768527 0.6187692956 0.7831638334 0.06147331823
0.009285574436 0.01833070564 -0.001422370166 0.4502131397 0.8878746616 0.09479828127
0.0009673709075 0.02052684085 -0.03942113113 -0.1060381525 -0.6622985968 -0.7416983746
0.01176875761 0.01683359528 -0.01068948131 -0.6173772325 -0.7866561389 0.004179929912
0.001916614374 0.02659738795 -0.04012170664 -0.1030538473 -0.2710166471 -0.9570422569
-0.01395306683 0.01507945442 -0.001473961592 -0.6485318615 0.759617609 0.04886218196
0.005967679381 0.01961117673 -0.00142231667 0.2418944093 0.9682402253 0.06322942956
-0.01127509308 0.01567269611 -0.07298806763 0.6839918538 0.08897604085 0.7240430982
0.009292120695 0.01834818697 -0.01565741205 -0.4432879045 -0.8961730135 0.01922923795
0.02043670209 0.01128640906 -0.05577989197 0.9917543229 0.06315736444 0.1115101357
0.0009557548165 0.02049814447 -0.001426758111 0.08530562377 0.9920724473 0.09227789525
-0.01303101556 0.001522962997 -0.06510615095 0.8292389546 0.2966255275 0.4736834942
-0.003835400701 0.02014687284 -0.001436144481 -0.1598623941 0.9832615932 0.0874108362
-0.01701609748 0.04626550947 -0.06074524961 0.9996734521 0.008682370321 0.02403342621
0.009703610738 0.03116066869 -0.04247955831 0.4716047625 -0.01759134307 0.8816345573
0.01829791896 0.009421354612 -0.01084789022 0.8860452922 0.4629179554 -0.02511387457
-0.007353030205 0.01923137856 -0.001445815027 -0.338194535 0.9396090565 0.05252882476
-0.01149467468 0.0469773941 -0.07320012665 0.664422913 0.0199949258 0.7470892822
0.01468456872 0.01439198875 -0.01073247449 -0.7026206697 -0.7111280145 0.02492270891
-0.01405295287 0.005778354936 -0.06619275157 0.850761077 0.25442623 0.459861809
0.01491537364 0.04632640521 -0.0465053126 0.7331439881 -0.01181502287 0.6799708067
0.01829500103 0.009412647486 -0.005784277618 0.8865903148 0.4625471232 0.002787921709
-0.01184412193 0.05522867203 -0.07286711884 0.6826862516 0.1179286279 0.7211326651
-0.003826310635 0.02016849375 -0.02590239255 -0.2013921061 0.9795107015 -7.18674495e-05
-0.01754775333 0.01069526577 -0.0014978185 0.719888476 -0.6940653947 -0.005814635882
-0.01147903379 0.01703873889 -0.02122411474 0.5448114368 -0.8385525397 -0.003183773003
0.02027820778 -0.003509215891 -0.005987927377 0.9993088995 0.03709303127 -0.002414633996
0.01953972816 0.006240993619 -0.005830008656 0.9510795521 0.3089008259 0.005288230387
-0.0157253108 0.01532615725 -0.06652744929 0.9220007524 0.07415391281 0.3800208019
-0.011462931 0.01707528369 -0.03594636027 -0.5414554918 0.840705037 -0.006402430954
0.02046132755 0.001963553995 -0.005896035254 0.9890115736 0.1478232483 0.002096321127
0.01176832509 0.01683241391 -0.00569968311 -0.6163016695 -0.7872472527 -0.02034736435
-0.01745800018 0.01089422989 -0.03605768871 0.7180816631 -0.6950412891 -0.03572578288
0.01681921816 0.01179390395 -0.005753193051 0.7819801819 0.6232999997 0.002026195278
0.01682299161 0.01180492866 -0.01583130169 0.7816914504 0.6236653464 -0.0001098214157
0.01518599873 0.05157090149 -0.04677488632 0.7483809965 0.03699755803 0.6622364116
0.0146823746 0.01438576853 -0.005722695291 0.7318796483 0.6814299545 0.002323265801
0.00928753686 0.01833594704 -0.005690030873 -0.4428733311 -0.89614845 -0.02794938434
0.01736097336 0.03084835625 -0.04955941137 0.8314927507 -0.02296639466 0.5550606727
0.005969591781 0.01961612451 -0.005689822122 -0.2509158406 -0.9680018505 -0.003695734368
0.009289827665 0.0183420639 -0.01067121569 -0.4428570738 -0.8960657158 0.03072206268
0.0009579517295 0.02050356452 -0.005707580209 -0.06522934065 -0.9969140101 -0.04367596007
0.01682452965 0.01180938737 -0.03100947762 0.7814814282 0.6239259813 0.00177407639
-0.003833892445 0.02015044371 -0.00574516513 -0.1812334708 0.9833333089 -0.01449250628
0.01718410683 0.06060000229 -0.06095516332 0.9143151353 0.4026257766 -0.04382142667
-0.01685911751 0.04224675369 -0.06326643372 0.9847111517 -0.02443013773 0.1724735229
0.01954559231 0.006258794308 -0.02115848509 0.9500794794 0.3110991958 0.02379649513
0.02046734047 0.001982305964 -0.01105716515 0.9883504688 0.151429608 -0.01524548099
-0.01703837903 0.04033621979 -0.06076076953 0.9995306355 -0.02512355283 0.01753042387
-0.008009219964 0.01893161742 -0.006277721087 0.3865613653 -0.9220498058 -0.01986117926
-0.01617013788 0.01732165718 -0.05483269119 0.9860569644 -0.05941924699 -0.1554381423
-0.01076355616 0.01746141179 -0.0053515534 0.5211438859 -0.8534466838 -0.006148832488
-0.01394646835 0.01509425473 -0.005896231174 0.6536448518 -0.7566793985 -0.01359027103
0.01682495546 0.0118106221 -0.03609523773 0.781479739 0.622045183 0.04846862677
0.01176913754 0.01683463017 -0.0156844763 -0.6160870396 -0.7874481149 0.01903223496
-0.01752256298 0.01075110841 -0.00599086678 0.7314061103 -0.6819416427 -0.0008353271611
0.02029201317 -0.003465507984 -0.01122886753 0.9994382043 0.03345415918 0.002023620371
0.0188060201 0.03085177612 -0.05226767985 0.9111325803 -0.02847544125 0.4111284111
0.01223970127 0.03581030655 -0.04405677223 0.6092447575 0.01955488087 0.7927410877
0.02047938601 0.002019868612 -0.02139562988 0.9882694208 0.1514105254 0.01996007885
-0.008334799647 0.01878748655 -0.01595471561 0.3824152787 -0.9237808428 0.01968525001
0.01954168034 0.006246920586 -0.01093374713 0.9499975732 0.3116696642 -0.01914761838
-0.01700549126 0.01189735079 -0.06029623032 0.9949266882 0.03906257801 0.09270922334
0.006167008911 0.01956326825 -0.01107708195 -0.3646286929 -0.9310625412 0.0129792372
-0.01415102386 0.05124860687 -0.05121592331 0.8490873942 0.04459398856 -0.5263667669
0.0009605158567 0.02050989024 -0.01070411979 -0.07775529835 -0.9966934878 0.02358399861
-0.003831907723 0.020155152 -0.01077465884 0.2617677401 -0.9649543306 0.0184605
-0.008336833239 0.01878281625 -0.01087378915 0.3830281363 -0.9233873368 0.02540222584
-0.01676445007 0.01601937675 -0.0634271431 0.9793820028 0.03105682823 0.1996155456
0.02029201317 -0.003465507984 -0.01572580687 0.999211445 0.03900471347 0.007424324356
-0.01148058796 0.01703521156 -0.01096738847 0.5436992753 -0.8385089346 0.03597033029
-0.01640370893 0.05992387962 -0.05567021179 0.9489476076 0.1694849344 -0.2660325073
-0.0139387668 0.01511152808 -0.01105755615 0.6574486331 -0.7534340146 0.009923730746
0.01507611291 0.035699941 -0.04667104848 0.7603478229 0.002593100826 0.6495109422
0.01686117522 0.01191630507 -0.04118297704 0.8306658688 0.51837547 0.2031774753
-0.003829600215 0.02016063865 -0.01580922135 0.2024373227 -0.9792902765 0.003112016343
-0.01749316978 0.01081626638 -0.01123343086 0.7346104473 -0.6784884924 0.0009253809773
0.02047336006 0.002001075208 -0.01622307301 0.988272643 0.1512618861 0.02090513974
-0.01393105817 0.01512881756 -0.01622368479 0.6600060043 -0.7509585115 -0.02129291775
0.005778775164 0.01968607725 -0.01596297026 -0.2514245306 -0.9678658056 -0.004635482618
0.01954363513 0.006252853334 -0.01604263508 0.9502005686 0.310658437 0.02470252817
0.01034410858 0.05553869057 -0.04284355927 0.5356876202 0.1292151701 0.8344712179
-0.01146771336 0.01706442833 -0.030781322 0.5401036534 -0.8414012087 -0.01822222813
0.01830084038 0.0094300704 -0.01591651583 0.8859808733 0.4637217525 0.0001684916283
-0.008259850502 0.01151053953 -0.07433769608 -0.5633357807 -0.1837022253 -0.8055471995
-0.01692139816 0.05400124741 -0.05840977859 0.9891362405 0.1129025884 -0.09414086922
-0.0174679629 0.01087214565 -0.01572941081 0.7312630093 -0.6819788299 -0.01262088893
0.005499513817 0.03535136414 -0.04087238617 0.2812740752 0.02608158289 0.9592729777
0.01177073018 0.01683898481 -0.02569829353 -0.6143099263 -0.7890541192 0.004112351098
0.01468655288 0.01439760959 -0.01574732745 0.7316143207 0.6817165611 -0.001736717032
-0.009829622904 0.05535325623 -0.04678584035 0.6408391817 0.08667726902 -0.7627661465
-0.01054068327 0.04740950584 -0.04726244164 0.7395856467 -0.01500373474 -0.6728952067
0.0009627946615 0.02051551056 -0.01570571764 -0.06330904484 -0.9979529562 0.009047766428
-0.007696453094 0.06060000229 -0.07945448303 -0.2781881245 -0.4951817709 -0.8230470103
-0.01610690308 0.01388933945 -0.04397793198 0.677338251 -0.7323188661 -0.07015676763
-0.01148058796 0.01703521156 -0.01609229875 0.5641241136 -0.8252694597 -0.02634963656
0.005959871054 0.05503952408 -0.07651107025 0.3048029468 -0.1263408525 -0.9439984919
0.02029201317 -0.003465507984 -0.02097940588 0.9994329591 0.03366886075 0.0004099334821
-0.01745800018 0.01089422989 -0.02098281097 0.7274830635 -0.6861237248 -0.001620672367
0.01724679756 0.03958982468 -0.04939019203 0.8378079604 0.01770882721 0.545677761
0.01830265427 0.009435484886 -0.02099219004 0.8856232602 0.4643990649 0.002224770007
-0.004597073317 0.02110393667 -0.07698261452 -0.3927568794 -0.01285976243 -0.9195524238
0.01849782753 0.04104769707 -0.06959898758 0.9343535894 -0.01152564722 -0.3561608197
0.01092476022 0.06053203917 -0.0454889555 0.574442356 0.2556685931 0.777592149
0.01682368151 0.01180692816 -0.02088001283 0.780695721 0.6249086453 -0.001837476775
0.014687922 0.01440147177 -0.0207691342 0.7315688647 0.6817555874 -0.004039229625
0.01993008169 0.05098500443 -0.05581287575 0.9659341469 0.006248610132 0.2587125408
0.0117698093 0.01683646584 -0.02068636852 -0.6137633977 -0.7892644418 0.01887147449
0.00929462719 0.01835487986 -0.02136467266 -0.459930839 -0.8877687081 -0.01817537353
0.006112929567 0.01959235662 -0.02122030869 -0.2527325434 -0.9672709065 -0.02265513023
0.0009644351072 0.0205195535 -0.02071423806 0.05809491489 0.9980632308 0.02224338639
-0.003827521112 0.02016558817 -0.02085068978 -0.1969092333 0.9804160865 -0.003324334615
-0.008332832416 0.01879200363 -0.02104261017 0.3814312195 -0.9243956255 -0.001718245706
-0.01392333953 0.01514612929 -0.02139648501 0.6592984091 -0.7516017364 -0.0205045761
0.01279571867 0.02169411278 -0.04448363113 0.689982271 0.1558159625 0.706856316
0.02029201317 -0.003465507984 -0.02624236043 0.9991370909 0.04121208195 -0.005161187243
0.02048456065 0.002036004702 -0.02583679199 0.9883518663 0.1512017639 -0.01728047726
-0.01789032173 0.06060000229 -0.06963632965 0.822995224 0.4049308979 0.3983840224
0.01949416842 0.00643599374 -0.02595778465 0.9494053592 0.3140523086 0.0007818674916
0.005650821149 0.06060000229 -0.07926210022 0.298387746 -0.2438796038 -0.9227607988
0.01830265427 0.009435484886 -0.02607842588 0.8854049974 0.4648150167 0.002234015301
0.01682410479 0.01180815637 -0.02593896604 0.7815053228 0.6238880181 -0.003629241844
0.01468923807 0.014405182 -0.02580101395 0.7300099799 0.6834300653 -0.002962281524
0.005816753442 0.01967610051 -0.02614950767 -0.2523040899 -0.9673661649 -0.02335271469
-0.004230628228 0.04153684921 -0.0770681015 0.2947572272 0.004307594178 0.9555624635
0.0009658849786 0.0205231301 -0.02573282433 0.07576436242 0.997112075 -0.005222199201
-0.008740911484 0.03090521202 -0.07519311829 0.4592718175 0.02119258366 0.8880429449
0.009684366703 0.04117290878 -0.04246109295 0.4314785402 -0.009289084501 0.902075375
-0.008332389116 0.01879302216 -0.02614097905 0.3816461666 -0.9240261819 -0.02284335162
0.01955174414 0.00627758654 -0.03583734131 0.9502722803 0.3109913752 -0.01633884603
-0.01147248427 0.01705360285 -0.02562972577 0.5428990205 -0.8397539099 0.008603738096
0.01832919757 0.00951467514 -0.04140841929 0.8905989938 0.4312025022 0.1445608324
-0.01391671244 0.01516099326 -0.02583787664 0.6586583807 -0.7522724819 0.01597656385
-0.01689152908 0.01574091434 -0.05738967133 0.9994892958 -0.03164987603 0.004408285436
-0.01399316883 0.03158911438 -0.05098772583 0.890865075 -0.007040005935 -0.4542134481
-0.01745800018 0.01089422989 -0.02624662145 0.7253356571 -0.6883911008 0.002424232211
0.02006491661 -0.004184445858 -0.04449359894 0.9980556557 -0.06201469851 -0.006251816483
0.009295258522 0.01835656357 -0.02636899821 -0.4602213793 -0.8876277653 -0.01769837297
0.02029201317 -0.003465507984 -0.03076337306 0.9994422727 0.03299053236 0.005173809201
0.02048790359 0.002046428204 -0.03103012609 0.9879582712 0.1547202971 0.0002897123223
-0.01592853769 0.03036151377 -0.06656218211 0.9247148407 -0.01799502161 0.3802349834
0.01960309574 0.006100097452 -0.0310147577 0.9493296254 0.3142621247 0.00354673372
-0.01745800018 0.01089422989 -0.0307683665 0.7423083256 -0.6700548595 -0.00219885305
-0.01619105377 0.02557359734 -0.06592807617 0.9472533253 0.001734503075 0.3204810901
0.01830265427 0.009435484886 -0.03117632103 0.885236411 0.4651316873 0.003001679438
-0.01631548262 0.03064218712 -0.05578418922 0.9667896825 -0.01496106848 -0.2551350159
0.01469055716 0.01440890058 -0.03084431235 0.7331044611 0.6801153987 -0.0009452877081
0.01177165318 0.01684150971 -0.03072162904 -0.616797242 -0.787063193 -0.009627690232
0.009295258522 0.01835656357 -0.0306684831 -0.4623801406 -0.8866816175 0.0005609906151
0.005976513704 0.01963406881 -0.0306676151 -0.2512573647 -0.9678258711 -0.01352108784
-0.0135493175 0.05057880838 -0.0708408541 0.7856958354 0.02825551235 0.617967378
0.01181301853 0.0169553378 -0.04038604791 0.754926292 0.5367032046 0.3768765897
0.0009666305118 0.02052498754 -0.03076297548 -0.07738441837 -0.9967673814 -0.02159720418
-0.003825137933 0.02017131148 -0.03096559101 0.1987015298 -0.9797033637 -0.02643900834
-0.008332389116 0.01879302216 -0.03125110213 0.3780489736 -0.9253895446 -0.027077008
0.02029201317 -0.003465507984 -0.03605183601 0.9997056031 0.02276498718 -0.008394193226
0.02002273814 0.03158295377 -0.06515906398 0.9748089698 -0.02557893727 -0.2215698318
0.02048790359 0.002046428204 -0.03623818461 0.9887893868 0.1481760172 0.01842326141
-0.01700058317 0.02588279819 -0.06102526283 0.9965004299 0.04485606262 0.07053245203
0.01830265427 0.009435484886 -0.03628958797 0.8870947315 0.4597061716 0.04163139618
0.01469144034 0.0144113903 -0.03590284014 0.7467819279 0.6579831187 0.09682441629
-0.01165094376 0.03394380951 -0.07307119751 0.6823657518 0.001518992934 0.7310093525
0.01177257895 0.01684404182 -0.03576002534 -0.6365443455 -0.7700422133 -0.04296842886
-0.009341534032 0.005736883958 -0.07140276167 0.6705615884 0.2820205619 0.6861570948
0.009295258522 0.01835656357 -0.03569845867 -0.4961621159 -0.8598498541 -0.1203386183
-0.01616860907 0.05584673691 -0.06587677819 0.9185800043 0.2291183797 0.3220489773
0.005976844624 0.01963491893 -0.03569735098 -0.3326180255 -0.9239616263 -0.1888389851
0.000967172881 0.02052634494 -0.03580828953 -0.06058249634 -0.7343670623 -0.6760434742
-0.003823613803 0.02017496427 -0.03604386044 -0.29717903 0.781035757 0.5492429066
4.603102803e-05 0.03469393158 -0.07761854553 -0.2154809206 0.03116862928 -0.9760104966
-0.008191961833 0.01885685076 -0.03604896763 0.4166148715 -0.9067092926 -0.06565293215
0.0001934331208 0.02792811394 -0.0776613884 -0.2661653354 0.01116388523 -0.9638627402
-0.01390136433 0.0151954174 -0.03623682022 0.6574892392 -0.7524571268 -0.03893806345
0.01530019617 0.02036993885 -0.07433955765 0.8807890109 -0.02106730146 -0.4730400481
0.01853965187 0.02112348938 -0.06952199173 0.9377150049 -0.01610002156 -0.347032216
0.02023728434 -0.00363876764 -0.04137899017 0.9985071538 -0.05424484659 -0.006400038057
0.01873168468 0.02996931171 -0.06912279129 0.9229348205 0.02308371512 -0.3842635284
0.01603013659 0.06050815932 -0.05097331937 0.8090606334 0.258425314 0.5278610126
0.02049141693 0.002057385206 -0.04071462123 0.9926114647 0.121246147 -0.004674612213
0.01957192063 0.006339123189 -0.04099723387 0.925210061 0.378196202 0.03088649893
-0.008732891202 0.01877859211 -0.04006704235 -0.4944146557 0.8686161189 0.03256050024
-0.01134731992 0.01733765348 -0.04035242335 -0.5546697116 0.8316880258 -0.02522971894
0.01001827812 0.02622163582 -0.04261713028 0.4800417166 0.07467766757 0.874061323
-0.01378116067 0.01546501605 -0.04067777379 0.6537451239 -0.756202381 -0.02784370554
0.01450704384 0.01480689171 -0.04114515577 0.7487711869 0.5892317541 0.3035583134
-0.008775599003 0.06060000229 -0.04302145958 0.461935957 0.2787028291 -0.8419856915
0.01028409398 0.01948068857 -0.04200514221 0.5070144451 0.5551256742 0.6593723063
0.01539669736 0.06060000229 -0.07113155238 0.7316158065 0.4812998668 -0.4827926572
0.006318121751 0.02029669317 -0.0401671079 0.4750017521 0.6154035183 0.6290086209
-0.003822802544 0.0201769015 -0.03968028641 -0.4708817822 0.7472229355 0.4689650646
0.0004389697512 0.04074848811 -0.07763632965 -0.03611850327 0.02595374056 -0.9990104389
0.01665769768 0.01786866951 -0.07254962158 0.8851034207 -0.04749581478 -0.4629644502
0.006022481759 0.02557299169 -0.04099239604 0.3514868103 0.2733548267 0.8953960916
-0.01615611172 0.0405668265 -0.06589856911 0.9423986583 -0.009609334058 0.334353749
-0.01698942947 0.008269329071 -0.05855150604 0.9938517496 0.06203479963 0.09170814243
0.01742150402 0.01244751239 -0.04511009598 0.8992916343 0.3721933931 0.2296663551
-0.0003547757864 0.02842775154 -0.04001890945 -0.003154930076 -0.255628884 -0.9667698382
0.01751049232 0.04583850861 -0.07138414001 0.8757376692 -0.004191066803 -0.4827690645
-0.001910948038 0.02833772087 -0.04010498428 -0.01612438805 -0.3304021669 -0.943702502
-0.0162732317 0.04644680405 -0.05572000885 0.9652179319 0.02173805636 -0.2605413612
-0.004385706902 0.02612799454 -0.04048059082 0.1618331493 -0.3815893006 -0.9100547442
-0.01681141472 0.0123275795 -0.04268556213 0.7198235149 -0.6886134894 -0.08755323933
0.02054281282 0.00221765393 -0.04593400669 0.995441745 0.09261186543 0.022776625
0.005841040373 0.03072703648 -0.04085840797 0.2986440235 -0.01528472844 0.9542421728
0.002271874666 0.03817742157 -0.0401436882 0.2032525772 0.006000639121 0.9791079523
-0.01683402443 0.03283409119 -0.06349927139 0.9854073359 0.0163775266 0.1694230179
7.920719683e-05 0.03992116165 -0.04004878616 0.1668590137 0.01717273156 0.9858312061
-0.002889776945 0.0398928299 -0.04020684433 -0.1011078421 -0.01363400162 -0.9947820456
0.01981143608 0.006602759171 -0.04584199905 0.9596967869 0.2576301874 0.1122887518
0.0188580471 0.01018139038 -0.04659036331 0.9384045058 0.271411648 0.2138520535
0.01571901868 0.0159624033 -0.0456192894 0.8453103016 0.3486285323 0.4048563207
0.006262850444 0.04072272491 -0.04099964396 0.2823589945 0.002321918877 0.9593060027
0.005620659256 0.04605843582 -0.0409092865 0.2741178173 0.03047104269 0.9612132634
0.001072344571 0.0503783493 -0.04008825874 -0.1472525036 -0.004151267008 -0.9890902219
-0.003320726275 0.0502372036 -0.04034924316 -0.07754445669 0.01403220668 -0.9968901416
0.01493007827 0.0203783474 -0.04634124279 0.785203003 0.16990125 0.5954744405
0.01214173985 0.02595762062 -0.04396203232 0.6367536064 0.0619552397 0.7685742599
0.01227211523 0.03021010208 -0.04409974289 0.6075998719 0.02564540778 0.7938291433
0.01835302448 0.06018901253 -0.06941444778 0.8803809001 0.300952598 -0.3665474109
0.01046605778 0.03497591591 -0.04288025665 0.4811440385 0.0255329553 0.8762696403
0.006356707732 0.05108430735 -0.04103542964 0.2610431118 0.05223085592 0.9639130829
0.01884333134 0.04569203949 -0.05236881256 0.9269235274 0.03213993643 0.3738713666
0.005739558077 0.05611804504 -0.04095034485 0.3195234443 0.1478769807 0.9359685716
-0.01666113281 0.00992001462 -0.06174667931 0.9709966536 0.09529784485 0.2192802303
0.000980764991 0.0603987854 -0.04132653618 -0.007432272658 -0.5779364179 -0.8160479509
0.02001551199 0.03156258249 -0.05603087044 0.9790488472 -0.01947848672 0.2026917447
-0.003851797724 0.06060000229 -0.04198736725 0.1776299363 0.5039182978 -0.8452892729
0.01482887816 0.02523087835 -0.0464000864 0.7410980832 0.06596295625 0.6681485759
0.01481338921 0.02997204475 -0.04637912445 0.7397963892 0.02662378385 0.6723038574
0.01216485214 0.04113101006 -0.04402599907 0.6300917721 -0.02548010956 0.7761025207
0.01039846182 0.04557080841 -0.04285859871 0.5795729537 -0.01388706761 0.8148020254
0.009655948877 0.05142773819 -0.04245350933 0.44377494 0.06937587469 0.8934488181
0.005562600315 0.06039979124 -0.04182576418 -0.2252273887 -0.2324203122 -0.9461783246
0.0205436395 0.002220229705 -0.05119503657 0.997259807 0.06010176261 0.04313531505
0.02041227198 0.006574534893 -0.05131559849 0.9874572012 0.1304011869 0.089015764
0.00606381135 0.06060000229 -0.04395364075 0.3851747995 0.2431976895 0.8902220272
0.01970368703 0.01058966335 -0.05076172002 0.9609557661 0.2095718345 0.1806755704
0.0181506176 0.01347924137 -0.04822488022 0.9222318958 0.2508643456 0.294203009
0.0149784085 0.04106550662 -0.04658863767 0.7404144261 -0.001165940912 0.6721496248
0.02051843643 0.04083697891 -0.06123649693 0.9983280831 -0.05740358218 0.006772529704
0.01213415956 0.04637558746 -0.04399033546 0.6018193798 -0.01407333944 0.7985082186
0.01239357789 0.05104230754 -0.04421276855 0.6083448066 0.03520548089 0.7928916511
0.009942059135 0.060062146 -0.04302158661 0.4175044889 0.2119885867 0.8836010643
0.01891492875 0.01571863572 -0.05150534058 0.9484407494 0.1689137452 0.2681945033
0.01770346642 0.01656623077 -0.0492650795 0.9057954547 0.170381641 0.3879493403
0.00093335649 0.04684946537 -0.07758719063 0.008528191756 0.01185775228 -0.9998933261
0.0171467514 0.02067569542 -0.04918182755 0.8641757012 0.1325253072 0.4854249689
-0.01453238656 0.06031542529 -0.07143534675 0.801274228 0.2073802205 0.5612067852
-0.004326209148 0.01584094048 -0.07669073486 -0.4218912306 -0.08187154819 -0.9029423233
0.01204726934 0.05632200432 -0.04393213844 0.5963830957 0.1588245678 0.7868303247
-0.01414691766 0.02634690603 -0.05116269557 0.9248386802 -0.02485219435 -0.3795468141
-0.01146660233 0.03760051727 -0.04797679138 0.8346983111 -0.02153254015 -0.550286361
-0.01663339996 0.01272220421 -0.05478038025 0.9969975543 -0.02287331894 -0.07397761874
-0.01070733738 0.04239239883 -0.04727082443 0.7493335412 -0.005111708907 -0.6621730245
-0.006265951633 0.06060000229 -0.0444921875 0.3409235884 0.3503651209 -0.8723619598
-0.01402652054 0.04116662064 -0.05103178558 0.8583934307 -0.02680183324 -0.5122913037
-0.009689434687 0.06045466868 -0.0456249218 0.6189888945 0.1305556457 -0.7744727057
-0.01299763552 0.06060000229 -0.04672063319 0.7258826386 0.1231964286 -0.6766956738
0.01752084351 0.02589886665 -0.04982086054 0.8357416057 0.01938184036 0.5487807511
0.01476734734 0.05630116208 -0.04635823441 0.7334984478 0.1075620309 0.6711262448
-0.0107355381 0.0005469968528 -0.06721572876 0.7352598258 0.3199291021 0.5975268682
-0.01698722903 0.01071702067 -0.05611556753 0.9996466219 0.0176628214 0.01986595469
-0.01592755413 0.0142869215 -0.05298688889 0.9962989132 -0.05376336691 -0.06706695098
-0.01512778616 0.02134887028 -0.05267347145 0.9732007725 -0.03069314857 -0.2278995106
-0.01632409401 0.04084309235 -0.05576890717 0.9478352834 0.01250363873 -0.3185152029
-0.01417286587 0.03621299871 -0.05119623566 0.8717407022 -0.01945107803 -0.4895812534
-0.01085226727 0.05131221008 -0.04741984177 0.7449580436 0.06020854965 -0.6643887746
0.01999614811 0.000512968272 -0.05526120758 0.9979005563 -0.05214134114 -0.03841562497
0.01867525355 0.02080613263 -0.05195249812 0.9097092538 0.1069512063 0.4012362309
0.01984868526 0.04561047745 -0.06578488159 0.9792330573 0.02881063022 -0.2006802608
0.0177343998 0.03579926682 -0.05017207845 0.829484232 0.0006488927394 0.5585297555
0.01451800887 0.06027478917 -0.04734377119 0.6909933067 0.3404067636 0.6376923125
-0.01703154755 0.006929841995 -0.05617160416 0.9966262695 0.08191658601 -0.005074638596
-0.01634037724 0.05106112137 -0.05581780701 0.9698077966 0.07608300821 -0.2316985401
-0.01598535681 0.00110311502 -0.05801952362 0.9284582543 0.2192602324 0.2998169784
-0.01416327 0.04613145256 -0.0511502552 0.8315351859 -0.01722944807 -0.5552048098
0.01991171789 0.05563461399 -0.06567579842 0.9628005876 0.1545613787 -0.2216434268
0.02053799502 0.006960777283 -0.05647318904 0.9998569534 0.01138480218 -0.0125083618
-0.01349984105 0.03053683631 -0.0709889857 0.8050094218 -0.03022463061 0.5924916054
0.02011673775 0.01573331623 -0.05566476288 0.9721589684 0.0828978397 0.21916863
0.01874271965 0.02590426826 -0.05211114502 0.9233398107 0.03104716425 0.3827266226
0.01748587942 0.04577059364 -0.04976822567 0.8175776012 0.02069513885 0.5754464156
0.004950790882 0.0478277626 -0.07694438934 0.02115232419 0.01856994035 -0.9996037898
-0.01852599444 0.06060000229 -0.06598482513 0.9141733193 0.3428615924 0.2161783308
0.02052519464 0.05549187946 -0.06105873203 0.9770827125 0.2126618114 -0.009182970679
0.017301476 0.05585641193 -0.04949987602 0.8163666203 0.1761042487 0.5500298491
0.0173767128 0.0508616155 -0.04963365173 0.8353771216 0.02551644047 0.5490846711
-0.01684215546 0.004867511749 -0.05750644302 0.9635629639 0.1226412914 0.237708915
0.01994209938 0.02558150864 -0.06548903351 0.9766958848 0.01086487103 -0.214352754
-0.01654824066 0.02115951856 -0.05652919261 0.992846219 -0.0237235563 -0.1170195641
-0.01372739013 0.02092683729 -0.07064542643 0.8067021069 0.04530033162 0.5892194758
-0.01637678599 0.02551532841 -0.05584819221 0.9623771418 -0.01898364022 -0.2710532388
-0.01426804805 0.05624883747 -0.05135321999 0.8166104518 0.1942493462 -0.5435205253
-0.01505631421 0.06039124784 -0.05069896247 0.7876556424 0.1903714441 -0.5859669805
0.01995830965 0.02095430326 -0.05569178486 0.9653754406 0.04096844158 0.2576273384
0.02001150258 0.02606071472 -0.05602718163 0.9779838251 -0.02592239758 0.2070644033
0.01891927338 0.0364505024 -0.05251784897 0.9286762197 -0.008060522038 0.3708038659
0.01964985275 0.03552490234 -0.06649902153 0.9521569226 0.009085743611 -0.3054744572
0.01851681709 0.04047037633 -0.05166903814 0.9080552752 0.02880070583 0.4178589912
-0.01607655112 0.005346560717 -0.06128350766 0.9326655855 0.1983218675 0.3013359295
-0.01789032173 0.06060000229 -0.05198986435 0.8900292704 0.2806782105 -0.3592598501
0.0198104187 0.03577089615 -0.05519031448 0.9494689702 0.02114036159 0.3131481433
0.01874347687 0.05085763931 -0.05217918396 0.9128324519 -0.007219841671 0.4082704847
-0.00429133904 0.03075868082 -0.07708633614 0.3658716215 -0.01455612643 0.9305514901
0.0201790123 0.005857917786 -0.05967311478 0.9972858307 -0.03865520149 -0.06266376314
0.01360526848 0.06060000229 -0.07483555094 0.6358149459 0.1210033952 -0.7622975357
0.0204723053 0.0113941892 -0.06020098241 0.9993909808 0.02250851006 0.02666522784
0.01992752991 0.04074557877 -0.05570267334 0.9658493397 0.01924255407 0.2583888098
0.01866201878 0.05588246632 -0.05199786949 0.9093430511 0.1474710127 0.3890340805
-0.01703037993 0.02069336732 -0.061144804 0.9999243122 -0.006544336074 -0.01041832251
-0.0169171505 0.0293908844 -0.05822557068 0.9934123018 0.005499843231 -0.1144628777
-0.01640089951 0.05613658752 -0.05609095535 0.9842703719 0.1154008288 -0.1337702647
0.02053208733 0.01608691279 -0.06084537633 0.9997917216 -0.01447029358 0.01439180357
0.02052123928 0.02045080042 -0.06079426479 0.9996811219 0.01523905776 -0.02013518284
0.02007149092 0.04589519819 -0.05626836077 0.9793697439 -0.001084377301 0.2020735728
0.01876486778 0.06010520172 -0.05277512614 0.9255873022 0.2328656747 0.2984321088
-0.01141937828 -0.001890519142 -0.06451727295 0.7972236994 0.3549362111 0.4883181945
-0.01703673045 0.03077754752 -0.06094211833 0.9994304118 0.0221518881 0.02545870896
-0.004475797097 0.05594094976 -0.07697045771 -0.323057648 -0.237201487 -0.9161709506
-0.01700244713 0.0356998682 -0.06083272362 0.9997339366 -0.005964056344 0.02228196671
-0.01689091873 0.03908327866 -0.05809642029 0.9907106356 -0.01530302903 -0.1351231063
-0.01863193989 0.06060000229 -0.05609337107 0.9717424261 0.1689396818 -0.1648515732
-0.01177004337 0.01997566414 -0.07294047546 0.6750468899 0.06898493454 0.7345425619
0.02055824979 0.02484296354 -0.06071686045 0.9995226097 -0.02178773301 0.02190541844
0.02054005814 0.03071295656 -0.06065549306 0.9996864682 -0.01721577475 0.01818192654
0.01474211836 0.04941953659 -0.07492412949 0.8241165078 0.0004077785268 -0.5664201756
0.02000621005 0.05612755748 -0.05603416443 0.9683156015 0.1694572462 0.1834370128
-0.01552410905 0.01093784444 -0.06574894651 0.9086016227 0.1435400796 0.3922235802
-0.01330659072 0.01592465655 -0.07081382879 0.7982751076 0.1000881693 0.5939185222
0.01971715927 0.01138460445 -0.06470019341 0.9933587322 -0.03070739233 -0.1108850091
0.02052729321 0.03698098946 -0.06058969688 0.9978535685 -0.007310978502 0.06507538336
0.01929562145 0.06032674069 -0.05654639435 0.9409659529 0.3190064056 0.1132165567
0.01718410683 0.06060000229 -0.0564373312 0.8438478139 0.5127168119 0.1582477103
-0.01609557756 0.02098195712 -0.06604856428 0.9395869664 0.03973720361 0.3399960105
-0.01699701118 0.05096030998 -0.06102068901 0.9989999134 0.04164935498 0.01626358697
0.005841813122 0.06036774445 -0.07736858041 0.2799880812 -0.2233257843 -0.9336660369
-0.004218735139 0.05036973 -0.07707853953 0.2815827156 0.01333370317 0.9594443114
0.01955700811 0.01614475664 -0.06628559113 0.9568646654 -0.04797479558 -0.2865456875
0.02050278053 0.04532438812 -0.06104956818 0.9991900544 0.01223364799 -0.03833501017
0.01725581264 0.05055120659 -0.07171081924 0.8770371545 0.01299669773 -0.4802467235
-0.008883578777 0.001845217907 -0.06968700562 -0.6426102589 -0.3639556211 -0.674231682
-0.01702911822 0.0552189223 -0.06095929082 0.9965100126 0.08031289547 0.02275156257
-0.01808529441 0.06023812898 -0.06084725253 0.9900825979 0.1397705431 0.01416491015
0.01984264946 0.02061849308 -0.0658831749 0.9433484269 -0.02740997939 -0.330669682
0.02055974738 0.05024344126 -0.06076294327 0.9999421271 0.005268475456 -0.009380066121
-0.01252382469 0.007213486195 -0.06929418182 0.7495797589 0.2521970062 0.6119859925
-0.01295435969 0.01060599899 -0.06999385325 0.7621169378 0.2152768939 0.6106010417
-0.01621604602 0.03571272341 -0.06584103648 0.940460423 0.003827186338 0.3398816639
-0.01598930141 0.04572051511 -0.06640290288 0.9185487895 0.00951498999 0.3951931001
0.0005634037256 0.05950407562 -0.0779313797 -0.04149486936 -0.2526186176 -0.9666757522
-0.01615971518 0.05075510073 -0.06585807037 0.924538607 0.007043065058 0.3810233057
0.01955650486 0.06017067268 -0.06132248376 0.9573476088 0.2868432162 -0.03473507252
-0.01005163879 0.009944200516 -0.0726265213 0.6649637914 0.2074260197 0.7174939739
-0.01387146587 0.02580406914 -0.07046648407 0.8355332071 0.006315559455 0.5494036526
-0.01682249832 0.05703524399 -0.06335631561 0.9812589297 0.1459890821 0.1257700315
0.01980451965 0.04078808212 -0.06609895134 0.9567784138 0.003975883557 -0.2907907481
-0.006319652081 0.006500629425 -0.07362308502 -0.5764831876 -0.3065432099 -0.7574288052
-0.01388052341 0.03574691936 -0.07040823473 0.8135377679 -0.009307234819 0.5814375938
-0.01617588902 0.06012317594 -0.06658046341 0.874914947 0.2414516259 0.4197915528
0.01978026772 0.05088982964 -0.06603216362 0.9578753434 0.006262426734 -0.2871160193
-0.005852126312 0.01075173626 -0.07521465149 -0.536181031 -0.2239220347 -0.8138604453
-0.009239509106 0.01558300591 -0.07451987305 0.5508358747 0.122682471 0.8255476064
-0.01355240512 0.04119764471 -0.07085996246 0.8175279347 0.01467368091 0.5757019707
-0.01369114959 0.0559337225 -0.07066287136 0.808697779 0.1064159019 0.5785184164
0.01754523849 0.02664996338 -0.07135006332 0.8856377228 -0.002914910978 -0.4643676639
0.01927170699 0.06010468401 -0.06570970699 0.9304755364 0.333589727 -0.1514370175
0.01691653652 0.06060000229 -0.06591961441 0.7445241294 0.6262815652 -0.2312038534
-0.009151106358 0.02088420029 -0.07494889069 0.5199242933 0.02046997145 0.8539670424
-0.01148374033 0.02586734772 -0.07323268127 0.6827650893 0.0268667572 0.7301438284
-0.01366745186 0.04611626689 -0.07076216507 0.8164315852 0.03191675228 0.5765594399
0.0178405056 0.035439888 -0.07086627579 0.8769266172 0.007585711096 -0.4805644233
-0.008971098423 0.03576543808 -0.07505613556 0.4927111335 -0.001043396801 0.8701923065
-0.008513007259 0.02587934303 -0.07534979706 0.469110741 0.02486709469 0.8827891823
-0.0111844635 0.03162628365 -0.07350675964 0.6265456137 0.03138548974 0.778752557
0.01645889282 0.02970172501 -0.07294113922 0.8840482267 -0.003372323687 -0.4673835259
0.01884918022 0.04754240799 -0.06884789276 0.9327393482 -0.002137627678 -0.3605450579
-0.009428481238 0.04054241453 -0.07477715519 0.5605567333 -0.01995475234 0.8278755683
-0.01157524586 0.04057525253 -0.07313474274 0.6882850807 -0.02214427541 0.725102254
0.01459847403 0.0305764637 -0.07506237411 0.813759083 -0.001997811639 -0.5811989019
0.0164660387 0.03938991737 -0.07292058945 0.8701145416 -0.01710502247 -0.4925526396
0.01844551277 0.05008263397 -0.06967771149 0.9245555317 0.01044606558 -0.3809041199
0.01878427601 0.05619576454 -0.06895402527 0.8901322529 0.2129307949 -0.4028958288
-0.001468553901 0.02209715462 -0.07761447144 -0.2894585247 -0.00893181678 -0.9571488835
-0.004494760434 0.0258669974 -0.07706930796 0.3541468564 -0.03876606372 0.9343859997
-0.008868519068 0.04572371928 -0.07509091949 0.5521161186 -0.01354431663 0.8336572095
-0.001644152999 0.02896533012 -0.07760241699 -0.2661653354 0.01116388523 -0.9638627402
-0.004556415975 0.03616031265 -0.07700976753 0.3157764297 -0.005343112207 0.9488185799
-0.009150317669 0.05091669083 -0.074914311 0.5655116229 0.05103735862 0.8231596397
-0.01141129494 0.0531590004 -0.0732684021 0.6898749857 0.1015093552 0.7167763632
0.01478610516 0.04056454086 -0.0749041214 0.8056644948 -0.001444447261 -0.5923703532
0.01678481865 0.05625435003 -0.0724474411 0.8161920814 0.1676262221 -0.5529303174
-0.009194238742 0.05613879967 -0.07491485723 0.5628339749 0.1477492407 0.813257695
-0.01132514286 0.05913220596 -0.07333951569 -0.6689300112 -0.1485446389 -0.7283317447
-0.01260824471 0.06060000229 -0.07563565826 -0.6259150238 -0.2321943579 -0.7445241185
0.003340007544 0.04069010544 -0.0773608017 -0.03611850327 0.02595374056 -0.9990104389
-0.004663460334 0.04574569575 -0.07701428986 0.2482162254 -0.01552367554 0.9685802605
-0.009253737259 0.0603639019 -0.07625863647 -0.4558052981 -0.2238039113 -0.8614832207
0.01180363655 0.06060000229 -0.07324403381 0.6358149459 0.1210033952 -0.7622975357
0.001333251675 0.05255357107 -0.07759459941 -0.01437875695 0.110606647 0.9937602432
0.01471832275 0.05784710693 -0.07494438171 0.63329898 0.1897631575 -0.7502815112
0.0106145581 0.06060000229 -0.07620083714 0.4940834188 -0.1502019569 -0.8563416068
0.0007016038895 0.0558547802 -0.07755915451 -0.01782580639 0.1373190873 0.9903664518
-0.004749350905 0.06030976868 -0.07734646352 -0.3283285389 -0.2728547308 -0.9042956742
0.0007938608766 0.06060000229 -0.07981714478 0.01959763906 -0.2703487774 -0.9625629699
-0.003831105028 0.06060000229 -0.07958093371 -0.1998099931 -0.2862255049 -0.9370970745
0.009083554268 0.06060000229 -0.0788795929 0.3715932987 -0.4198779043 -0.8280223221
