# .PCD v0.7 - Point Cloud Data file format
VERSION 0.7
FIELDS x y z normal_x normal_y normal_z
SIZE 4 4 4 4 4 4
TYPE F F F F F F
COUNT 1 1 1 1 1 1
WIDTH 569
HEIGHT 1
VIEWPOINT 0 0 0 1 0 0 0
POINTS 569
DATA ascii
0.02029201317 -0.003465507984 -0.03529455948 -0 -1 -5.570506183e-15
0.01992707634 0.005083927155 -0.03520717812 0.9724377703 0.2328379417 0.0122994232
0.01343501949 0.04788077545 -0.04503779602 0.6597925887 0.01183869623 0.7513545003
0.02028673553 0.03631208801 -0.05727487564 0.9836802962 0.001516517336 0.1799188015
-0.007349398136 0.01923982239 -0.0348258419 0.3387346516 -0.940814657 0.01125242089
-0.01390341854 0.0151908102 -0.03474721146 0.6109609651 -0.7916590587 -0.00162292493
0.0129783783 0.01599028778 -0.03508031845 -0.6310387639 -0.7757375193 -0.004623811377
-0.01675102615 0.02641121101 -0.05721479416 0.9855630394 0.007047054234 -0.1691621541
0.01720520401 0.03565943909 -0.04930720901 0.8248279677 0.003809848487 0.5653709479
0.01056013966 0.01767637444 -0.03499921036 -0.5148500756 -0.8572802301 -8.1784208e-05
0.01193706417 0.04763278198 -0.04382943726 0.6047442881 0.001597042484 0.7964181034
0.008007738113 0.01897233963 -0.03496502686 -0.3913101201 -0.920258822 0.0003006122464
-0.01667464447 0.05447464371 -0.05693522263 0.9718088996 -0.01382370195 -0.23536433
0.006680367947 0.0194815712 -0.0349648056 -0.3361148135 -0.9418210004 0.0001878474692
0.0152504034 0.01384560966 -0.03666479111 0.7411792423 0.6712677927 -0.00727195104
0.01836629105 0.03097205162 -0.05134360504 0.8949622295 0.00119085958 0.4461403251
0.001256183863 0.03924080276 -0.0400688324 0.0518183406 0.1191857633 -0.9915188417
0.004609589338 0.02004276371 -0.03498917198 -0.2206319008 -0.9753571401 0.0001162873378
0.0009836531878 0.02056319427 -0.0350811882 -0.05947222056 -0.9982275465 -0.002195540315
0.01749589539 0.03254620361 -0.04976055145 0.8507024314 -0.003971551874 0.5256325713
-0.003802454472 0.02021809769 -0.03531118774 0.1918962541 -0.9813274164 -0.01312743322
0.01992884254 0.005089354992 -0.03742454147 0.9718656515 0.2352390788 0.01182079275
-0.01378479767 0.03594910431 -0.07067107391 0.8040905264 0.01193982527 0.5943869665
-0.01706978798 0.02233902168 -0.06087414169 0.9999328647 -0.001565028248 0.01148114957
0.01917582321 0.007469436646 -0.03719807434 0.937262256 0.3485067544 0.009083257948
0.01830265427 0.009435484886 -0.03702045441 0.8779397609 0.4787709941 0.0003338068182
-0.01743689728 0.06006520462 -0.058779562 0.8585637087 0.4633041451 -0.2195851253
0.01682501602 0.01181079865 -0.03682217026 0.8226145568 0.5685463834 -0.007765364208
0.0129783783 0.01599028778 -0.03724627495 -0.6312424415 -0.7754062726 -0.01667610135
0.006942134857 0.04916377258 -0.04124757385 0.3140335885 -0.01584120018 0.9492797068
0.01177976561 0.01686696625 -0.03719885063 -0.5732325319 -0.8191847461 -0.01846120293
-0.01695800781 0.02930533791 -0.06265847778 0.9939400982 0.0100203332 0.1094654019
0.01671755028 0.04916922379 -0.0486252861 0.8013189895 0.01515921886 0.5980452116
0.01818227005 0.04208784866 -0.05097959518 0.8809061941 0.003099562821 0.4732807517
0.0188886795 0.05985780144 -0.0532357769 0.7608880445 0.5594450199 0.3287410127
0.01056038761 0.01767704582 -0.03716007614 -0.5154892732 -0.8567191561 -0.01740967789
-0.004672608376 0.04573204422 -0.0770178833 -0.2761895514 0.01957868813 -0.9609037447
0.009295258522 0.01835656357 -0.0371377697 -0.4542556298 -0.8907326043 -0.01572419988
0.006680367947 0.0194815712 -0.03712363052 -0.3484200309 -0.9366334269 -0.03634976958
-0.0165606184 0.04588356209 -0.06470642471 0.9728742209 -0.002288567911 0.2313233945
0.004609729886 0.02004311991 -0.03714945793 -0.2279382325 -0.9611740764 -0.1555267085
-0.01664523888 0.005314399242 -0.0589859848 0.9772738817 0.131255778 0.1664562434
-0.007349398136 0.01923982239 -0.03701981354 0.3416225302 -0.9398308374 0.003470429485
-0.009315380096 0.01834622192 -0.03719869232 0.4668330325 -0.8843211913 -0.006553655414
-0.01542040253 0.0325246315 -0.0532580986 0.9063325052 -0.01132000182 -0.4224135978
0.01993002319 0.005092978477 -0.0389046402 0.9726951917 0.2319979694 -0.006403606062
-0.004385706902 0.02612799454 -0.04048059082 0 0 1
0.01682519913 0.01181132913 -0.03900791264 0.8218347745 0.5694303111 0.01835004555
-0.003800585866 0.02022254753 -0.03894598389 0.1949177313 -0.9804901036 0.02542114831
0.01936562729 0.0337508316 -0.05362145996 0.9315921911 -0.004731063454 0.3634743546
0.01994043827 0.005124975443 -0.04112427711 0.9738521896 0.2260043919 0.02310687442
-0.01146019077 0.01708150101 -0.03890480042 0.5688965198 -0.8223042226 -0.01313450886
0.01168256187 0.02865647316 -0.04363513184 0.5637135658 -0.003181422728 0.825964221
0.002655545533 0.06009696007 -0.04074785995 0.1712736484 0.7540579837 0.6340835076
-0.005532186031 0.01981909561 -0.0390697422 0.2665249977 -0.9637922849 0.008298019434
0.009204311371 0.05118996048 -0.04218230438 -0.4324520311 0.008606306838 -0.9016158674
0.02024735451 -0.003606889009 -0.04137384033 0.9535581292 -0.301209054 1.178151193e-07
0.01701077271 0.01455793858 -0.04667258072 0.8183345613 0.405976872 0.4068308311
-0.01476374531 0.002007490396 -0.06252061462 0.8539186374 0.3421374998 0.3921286675
0.0129783783 0.01599028778 -0.03941510391 -0.6233403782 -0.7786735421 -0.07151424871
0.009223261833 0.02992769814 -0.04219242859 0.4388016726 -0.01335941966 0.8984846231
-0.008695780754 0.01611057663 -0.07497903442 0.5159586305 0.1138956005 0.849007941
0.01178071117 0.01686955833 -0.03936458969 -0.5774454232 -0.8063241555 -0.1280552207
0.01056097698 0.01767864037 -0.03932368469 -0.5560488652 -0.8123490941 -0.1757800014
0.01471832275 0.05784710693 -0.07494438171 0.6118808093 0.3443306795 -0.7120661896
0.006680367947 0.0194815712 -0.03928532028 -0.4192691407 -0.8878549027 -0.1895443467
0.0009836531878 0.02056319427 -0.03941608047 0.06574412426 0.9977925479 -0.009367040528
-0.009314208031 0.0183489151 -0.04014304733 0.4784100638 -0.8723463094 -0.1006763496
-0.01685911751 0.04224675369 -0.06326643372 0.9827244166 0.000150852107 0.1850748449
-0.01129088449 0.01746572971 -0.04107623482 -0.5774233788 0.8123472175 0.08169602146
-0.01386631012 0.01527403736 -0.04070362854 0.6095191175 -0.7898822493 -0.06762009774
0.01684279728 0.01186267233 -0.04118994331 0.8311684185 0.5463141045 0.1034406077
0.01526470184 0.01388648415 -0.04101530838 0.7478893103 0.6532131123 0.1182125603
0.01415191078 0.01503195953 -0.04092647171 -0.696098952 -0.7056327769 -0.1323957448
0.01934135246 0.02554049683 -0.05355137634 0.9355131935 0.003240111379 0.3532768978
0.01180675507 0.01694099617 -0.04080112457 -0.6044571277 -0.7785317246 -0.1688784612
-0.01137372828 0.0361761837 -0.07331153107 0.6745696342 -0.001788640006 0.7382090554
0.01059134102 0.01776081276 -0.04075727081 -0.5682235984 -0.7982019768 -0.1999888657
0.009332310677 0.01845550728 -0.04073075485 -0.4701568883 -0.8587561984 -0.2036916593
0.008373009682 0.01993492603 -0.04131810379 0.3939257923 0.5213871083 0.7569530722
0.004608000755 0.02197641563 -0.0405318718 0.3597967129 0.4702845554 0.8058404075
-0.01569413757 0.03837871552 -0.05383125687 0.9128738438 -0.003891672223 -0.4082232236
0.01922533894 0.0556079464 -0.05330423927 0.9392760441 -0.003553011059 0.3431441228
0.003794677734 0.02375399399 -0.04036287308 -0.4158172145 -0.1919540386 -0.8889598929
0.02029275036 0.03234417152 -0.05727751923 0.9871557697 -0.007410075605 0.1595887752
-0.008952578545 0.01917940903 -0.04150445938 -0.4886378288 0.8496141923 0.1984661094
-0.01681141472 0.0123275795 -0.04268556213 0.9115452315 -0.4111998188 -4.398369498e-07
-0.01193689442 0.04911571884 -0.0727901001 -0.6888343042 0.02853570823 -0.7243569664
0.01976563263 0.01380022144 -0.05321346664 0.9596906375 0.1191620632 0.2545472116
0.02006491661 -0.004184445858 -0.04449359894 0.9535613206 -0.3011989507 -1.988924486e-06
0.01998158646 0.005251389503 -0.04333390045 0.9752356218 0.2111411809 0.06583983309
-0.01704453278 0.05661376572 -0.06071152878 0.9975194635 0.070014201 -0.007275413355
0.01923736954 0.007655749798 -0.04306820297 0.9405075545 0.3303268225 0.0795596025
-0.00337755084 0.043736166 -0.07733914185 -0.2627677679 -0.05457824882 -0.9633142348
0.01741953468 0.01132925987 -0.04269215012 0.8398842138 0.516939864 0.1654318119
0.01648172188 0.01302408934 -0.04325264931 0.8109067313 0.5090262362 0.2886564811
0.01842014313 0.0389473381 -0.05146469879 0.8976214972 0.001460943122 0.4407646916
0.01544630289 0.01440563107 -0.04312546158 0.7630506059 0.5602792654 0.3222435687
0.01436394072 0.01562971115 -0.04302070618 0.732916052 0.5786572459 0.3577566946
0.01120257378 0.03124379921 -0.04332450867 0.5427287817 -0.005161911177 0.8398921504
-0.01683402443 0.03283409119 -0.06349927139 0.9880094008 -0.00717555563 0.1542268957
0.0131285553 0.01640787125 -0.04225504303 -0.6329507382 -0.6966390982 -0.3377385525
0.01935919476 0.00802454257 -0.04523141289 0.94289617 0.2981741708 0.1484553012
-0.006319652081 0.006500629425 -0.07362308502 -0.4337965182 -0.3249520854 -0.8403729666
0.01257405217 0.01766277377 -0.04308927663 0.6349383032 0.595207115 0.4925259804
0.01081204605 0.01835809135 -0.04212058258 -0.5451064339 -0.6616886496 -0.5148078347
-0.01237970257 0.04205644226 -0.0488231926 0.6872214267 -0.2140594913 -0.6941939534
0.01050187826 0.01956394863 -0.04270709991 -0.6063690375 -0.4836921206 -0.6311564964
0.008072836876 0.02310337257 -0.04167091751 -0.3635141873 -0.07641942585 -0.9284489792
0.02057214832 0.002309129953 -0.04892294312 0.9965068853 0.0835082928 -0.0006264872682
0.007445758343 0.02536397362 -0.04142733002 0.4166609485 0.01008512395 0.9090060199
0.006827009201 0.02760100746 -0.04118698502 0.3924326054 0.004692609295 0.9197687914
0.006199147224 0.02977163315 -0.04095584869 0.3592478606 0.009407828933 0.9331947639
0.003994949818 0.03526759338 -0.04040458679 0.2651037027 0.03192058849 0.963691394
0.01860393333 0.01917691231 -0.05172497559 0.9085735179 0.0559147732 0.4139658208
0.0001965698451 0.04019073868 -0.04001047516 0.0516616121 0.1190036871 -0.9915488895
0.01909346962 0.01625199127 -0.05214396286 0.9298699072 0.1295138445 0.3443372181
0.0205387764 0.00220506978 -0.04518518066 0.9872537911 0.1581445018 0.01789604537
0.02003463745 0.005414373875 -0.04479710007 0.9796246188 0.1961030701 0.04334964909
0.01866208076 0.03574502945 -0.05196037674 0.9140504029 0.002396336476 0.4055935386
0.01852515316 0.01009929943 -0.04499922752 0.8923901595 0.4127074872 0.1825166658
0.01079276562 0.02235540771 -0.04306446457 0.5429039361 0.02301592264 0.8394793526
0.01094626951 0.06017980766 -0.0434581089 0.424859773 0.5876361613 0.6886057764
0.0102859478 0.02497602463 -0.04276012039 0.4878038957 -0.009890623383 0.8728972075
0.008079237938 0.03447691727 -0.04168210983 -0.381245424 0.007515231978 -0.9244433179
0.007476528645 0.03660928726 -0.04144735336 -0.3551405821 0.01362859054 -0.9347135542
0.00688080883 0.03871842194 -0.04121591949 0.392136828 0.002540623149 0.9199033935
0.02018315983 0.05105779648 -0.05666399193 0.9795170614 -0.009873890529 0.2011189517
0.00489444685 0.04434677887 -0.04062299347 -0.2943141113 -0.02435616097 -0.9553983365
0.004162955761 0.04599668503 -0.04045841217 -0.2714216663 -0.03376968076 -0.9618679159
0.003434569359 0.04762691498 -0.04029686356 0.2249708733 0.03784594531 0.9736302124
0.01496856594 0.05512464905 -0.04652070999 0.7242114217 -0.008988749301 0.6895194117
0.001605993152 0.0499762001 -0.0401077652 0.05567126093 0.122907594 -0.9908554052
-0.008177148819 0.059637146 -0.07561555481 0.391886781 0.577578652 0.7161198584
-0.001308005214 0.05146395493 -0.04008719826 0.0552981645 0.1220095774 -0.9909872734
0.02055011368 0.00224042201 -0.04668005371 0.9912441244 0.1302599768 0.02161999791
0.01675439262 0.01381463146 -0.04532671738 0.7948312669 0.4921724523 0.3549782167
0.0147838459 0.01681350517 -0.04502518082 0.7561942317 0.379811096 0.5328356363
-0.01057628918 0.06060000229 -0.04346841431 -0.007246376048 0.9994806887 -0.03139813734
0.01383750916 0.01837920761 -0.04486526489 0.7102977438 0.3486072188 0.6115146132
0.01257366657 0.02312543678 -0.04430836105 0.6294347325 -0.0008599208054 0.7770528799
0.01691576672 0.05143362808 -0.04892160225 0.8320634229 0.009067830728 0.5546063782
0.01214173985 0.02595762062 -0.04396203232 0.608891812 0.001578769443 0.7932517058
0.01071767807 0.03376459885 -0.04302354431 0.5152459247 -0.007323269067 0.8570110891
0.01021443748 0.03618723297 -0.04273696899 0.485629998 -0.009940871536 0.8741079362
-0.01703310966 0.05663544846 -0.0620777359 0.9918330917 0.07737470018 0.1013916856
-0.01443857574 0.03458028412 -0.05144733429 0.8594353508 -0.01978776986 -0.510861353
0.009208571434 0.04088975143 -0.04218458176 0.438440701 -0.007630341866 0.8987277283
0.008683925629 0.0431192131 -0.04192634201 -0.4127209978 0.002781266801 -0.9108532497
0.008095939636 0.04515353012 -0.04169720078 -0.3835529469 0.005328523028 -0.9235035159
-0.01328823185 0.001573720574 -0.0648534317 0.7754512318 0.3752557647 0.5077976942
0.002885793209 0.06060000229 -0.07889722824 -0.1375023096 0.8052136596 0.5768223966
-0.01485878658 0.03370048904 -0.0690223465 0.8710920941 -0.008848331996 0.4910399888
0.007515384674 0.04716827011 -0.04147096252 -0.3520404043 0.02307570497 -0.9357003076
0.005040553093 0.05452878189 -0.04067102814 -0.2980224013 -0.02563521533 -0.9542145902
0.004335036278 0.05609705353 -0.04051226044 0.2831495014 0.03026654025 0.9585980891
0.02057983017 0.01171969128 -0.05865614319 0.9495338655 -0.3136645314 -7.4254857e-08
0.02058412933 0.02491799355 -0.06070076752 0.9453468772 -0.3260663763 -1.892034532e-07
0.0007961392999 0.06060000229 -0.04079462814 0.05553119978 0.9942063249 0.09203297941
-0.001307755172 0.06060000229 -0.04092070389 0.04884687982 0.9981244297 0.03689993516
0.01910974312 0.02064338303 -0.05291125488 0.9343508722 0.01532645181 0.3560246446
0.0200772934 0.02764434624 -0.05599255371 0.9721030806 -0.001238215693 0.2345507781
0.0126320858 0.05275531769 -0.0443980751 0.6362385921 0.00741288619 0.7714567409
-0.003423308849 0.06060000229 -0.04104904175 -8.718352871e-14 1 5.605796885e-13
0.01875364494 0.01078099442 -0.04710299301 0.9119991151 0.3227406211 0.253172087
0.02046917725 0.02876463318 -0.06284121704 0.9928007882 -0.02348381936 -0.1174525658
0.01790548325 0.01275834751 -0.04687425613 0.8599388399 0.4032307397 0.3129059959
0.01851724434 0.06060000229 -0.05697963333 -0.4866228827 -0.873294094 -0.02357107117
0.01523801804 0.0180939045 -0.0462796402 0.7451627851 0.2812547558 0.6046719657
0.01286166859 0.031763731 -0.04456435394 0.6440809466 -0.0002010604134 0.764957315
0.01203470993 0.03714606857 -0.04388948441 0.6032409234 0.001790052327 0.7975570099
-0.01167170048 0.05115279198 -0.07302958298 0.6734458042 -0.006175174372 0.7392108062
0.01112893963 0.04210937119 -0.04327778244 0.561523217 0.001939280223 0.8274587095
0.01059862566 0.04950326157 -0.04298680687 0.5636723815 0.001639485793 0.8259968271
0.008122857094 0.05520023727 -0.04171580124 -0.3866949812 0.003353811639 -0.9222015742
0.007562997818 0.05710799408 -0.04149759674 -0.3542752107 -0.08615185546 -0.9311642889
-0.00201098156 0.06060000229 -0.0801463623 0.01087979294 0.9909236499 0.1339848876
0.004964316368 0.06060000229 -0.04119215775 0.03875605963 0.7593410274 0.6495376601
-0.007696453094 0.06060000229 -0.04196776581 -4.631905149e-14 1 2.255188536e-14
0.02028398705 0.006180421829 -0.04914531326 0.9838075005 0.1368991605 0.1156780956
0.01905578041 0.01168240547 -0.04916591644 0.922927201 0.2570278819 0.2866043433
0.01828883934 0.01388572645 -0.04889036179 0.8828048707 0.3081906596 0.3545053985
0.01652921486 0.01750137329 -0.04774292755 0.8086787069 0.2598449484 0.5277493266
0.01549642467 0.0229920311 -0.04703191757 0.7386263737 0.01189793742 0.6740100289
0.01586153984 0.01985173416 -0.04744921875 0.76526582 0.05836155491 0.6410632992
-0.007529236317 0.05804171371 -0.07590794373 -0.4420984309 -0.3553329459 -0.8235820997
0.0101107626 0.05661767197 -0.04271060562 0.4890949777 0.01789858342 0.87204687
0.01473421097 0.02897236633 -0.04624316788 0.7197399901 0.01231498192 0.6941344884
-0.009578107834 0.02489186096 -0.07475682831 0.5623817152 0.009922794421 0.8268182053
0.01436216259 0.0318868866 -0.04586011124 0.7155990504 0.001532745977 0.6985095917
0.01879903603 0.05794688797 -0.05228624725 0.8721747622 0.2929557667 0.3917755773
0.02016832161 0.01941293526 -0.064639534 0.9744527673 0.00755617871 -0.2244653835
0.01399567509 0.03475213623 -0.04548442841 0.6985012353 0.002982059935 0.7156026353
0.013568573 0.03739775085 -0.045143013 0.6808005016 0.006319990578 0.7324416255
0.01314760494 0.04000341415 -0.04480762482 0.6588325851 0.002971192399 0.752283721
-0.004841601372 0.06060000229 -0.08048488617 -0.005898799655 0.9982314302 0.05915417046
0.01582071972 0.05723060989 -0.04744289398 0.7695245594 0.1476415546 0.6213162833
0.01233125496 0.04511839294 -0.04415123367 0.617615885 0.001230503089 0.7864789282
0.01105085659 0.05227671814 -0.04324625397 0.558894345 -0.0005797036517 0.829238672
0.01057745457 0.05445970917 -0.04297651291 0.5332849735 0.002555588161 0.8459317975
0.009650648117 0.05875111008 -0.04244845581 0.4327583975 0.3796433407 0.8176742036
0.00839966321 0.06060000229 -0.04291263866 0.325270095 0.7556682961 0.5684758495
0.006342720985 0.06060000229 -0.04303680229 0.2053682535 0.9336227636 0.2935513852
0.003117353837 0.06060000229 -0.04302006276 0.005712936789 0.9954081621 0.09555078884
0.0007961392999 0.06060000229 -0.04273355865 0.05553119978 0.9942063249 0.09203297941
-0.003423308849 0.06060000229 -0.04300006866 -2.736389595e-13 1 8.499996168e-13
-0.01676445007 0.01601937675 -0.0634271431 0.9763708061 0.03976583101 0.212411694
-0.007696453094 0.06060000229 -0.0432773819 -1.198609119e-13 1 4.390448518e-13
-0.009133200645 0.06060000229 -0.04337227631 1.198609119e-13 1 -4.390448518e-13
0.01955903053 0.03027567101 -0.05417984009 0.9528837776 0.001841873021 0.3033300413
0.02056743813 0.002294441223 -0.05118207932 0.9522342809 -0.3053684238 1.338635665e-07
0.02036631966 0.006433362961 -0.05059406281 0.9783128271 0.1779340704 0.1060352715
-0.01706219101 0.02575234985 -0.06105119514 0.9997549036 -0.00821439269 0.02055861281
0.01706244659 0.01902573395 -0.04894457626 0.8394299835 0.1020869159 0.5337935598
0.01601462936 0.02848311806 -0.04764707565 0.7636946822 0.009085643723 0.6455136586
0.01530221176 0.03439713287 -0.04684308243 0.7301454639 0.01031301208 0.6832139075
-0.01593719101 0.05009232712 -0.06666749573 0.9338906805 -0.00752531001 0.3574794633
0.01494069862 0.03724252701 -0.04645857239 0.7265390427 0.001124516937 0.6871242645
0.01303032684 0.05033460617 -0.04471536636 0.6456950894 0.002504173507 0.7635912392
-0.01289650536 0.02791771698 -0.0493993454 0 0 1
-0.01146660233 0.03760051727 -0.04797679138 0.6879758372 -0.2105832579 -0.6945098551
-0.01070733738 0.04239239883 -0.04727082443 0 0 1
0.01920616531 0.04482199097 -0.05316107178 0.9393057574 -0.006307723742 0.343023187
0.01887828318 0.06039267858 -0.05485135651 0.73749713 0.6340746087 0.2324809107
-0.007696453094 0.06060000229 -0.04458868027 -1.198609119e-13 1 4.390448518e-13
-0.01605325699 0.01036903 -0.06433851624 0.947344409 0.1200333992 0.2968679065
-0.009133200645 0.06060000229 -0.04534440804 -0.00917811134 0.9995067743 -0.03003282339
0.01679566956 0.03062549591 -0.04869410706 0.8031149491 0.003724677484 0.595812475
-0.01130105352 0.06060000229 -0.04483567429 0.008105258228 0.9993126385 -0.03617395958
0.02056821442 0.02904775238 -0.05995230103 0.9439148921 -0.3301888498 -4.12256514e-08
-0.01686137581 0.02278534889 -0.05779428101 0.9883785988 0.02333974902 -0.1502098584
0.02045828629 0.006715896606 -0.05203754807 0.9906824484 0.1123274283 0.07701191624
0.01984573936 0.06060000229 -0.06527484512 0.5762556812 0.8167754069 -0.02841345826
0.01814245796 0.01783897781 -0.05050559998 0.8848667665 0.08007483945 0.4589104768
0.0173988533 0.02418571854 -0.04960847473 0.8458632657 -0.01279765369 0.5332462432
0.01710191154 0.02745628929 -0.04914313126 0.8305666331 -0.007381795849 0.5568703413
0.01477991104 0.04775948334 -0.04630416489 0.7196608911 0.0002207692668 0.6943256823
0.01409768105 0.05297239685 -0.04558780289 0.6713642055 0.0007436345781 0.7411272162
0.01242278409 0.06046407604 -0.04524534321 -0.4128553283 -0.7193783035 -0.5586101811
0.01044614887 0.06060000229 -0.04534855461 0.2844820324 0.7931044227 0.5385678676
0.00839966321 0.06060000229 -0.0448355999 0.1782483744 0.9242839515 0.3375302861
-0.01482271862 0.02027417755 -0.0520642395 0.9116583161 -0.02464783195 -0.4102092137
-0.01648949623 0.02358175278 -0.06511372375 0.9587960029 -0.003612070862 0.2840724867
-0.01442358971 0.02460979843 -0.05142295456 0.8958508023 -0.003518314201 -0.4443410419
-0.01399112034 0.0289321785 -0.05078234482 0.8452442919 0.02211509687 -0.5339222879
-0.01349374962 0.03330820847 -0.05013082504 0.8169730207 0.02122763654 -0.5762850605
-0.01160197449 0.04675769043 -0.04810980606 0.6868567939 -0.2165865845 -0.6937708527
-0.01622447014 0.05817045593 -0.06582550049 0.9251426417 0.1261617162 0.3580423352
-0.01085226727 0.05131221008 -0.04741984177 0.7156910095 0.08492383336 -0.6932346799
-0.01141227508 0.06038200188 -0.04685634995 0.06411901909 0.9899931454 -0.1257072929
-0.01352462959 0.04282093048 -0.05019159317 0.8202751157 0.02423554874 -0.5714554862
-0.01348188496 0.06060000229 -0.04697558022 0.1106680735 0.987251036 -0.1144026633
0.02031103516 0.001494895101 -0.0543333931 0.9522354206 -0.3053648698 -8.337809204e-07
-0.01511642742 0.03639025116 -0.05266107178 0.9000125204 -0.008539789379 -0.4357803748
0.01806176567 0.02605459213 -0.05071097565 0.880101729 -0.0114691757 0.4746466103
0.002989984035 0.04660591125 -0.07743139648 0.09994470691 0.2258447874 -0.9690228003
-0.009431819916 0.04506295776 -0.0748212204 0.5725994336 -0.0005686750309 0.8198350842
-0.005308027267 0.02034640884 -0.07683422089 -0.3465363938 -0.03613529559 -0.9373402628
0.01779135513 0.02937336922 -0.05022357559 0.8662768059 0.001928040825 0.4995605851
0.0169026165 0.03867074585 -0.04887082291 0.8096147899 0.004884746408 0.5869412502
0.02054327011 0.05553889465 -0.05908386993 0.993575957 -0.01103800129 0.1126276173
0.01599641132 0.04731770325 -0.04762527084 0.7626518303 -0.002865093079 0.6468028889
0.01565253067 0.04997134018 -0.04724860001 0.7523288877 -0.008973715203 0.6587265876
-0.001485050261 0.04790840721 -0.07759245682 0.1114565299 0.04605975553 0.9927013352
0.01430762863 0.06012756348 -0.04581737137 -0.5444480002 -0.6043287299 -0.5816899185
0.009083554268 0.06060000229 -0.04607581329 0.06336558715 0.9943853542 0.08475004274
0.02040048599 0.01569428349 -0.05726169968 0.992573674 0.05622142134 0.1078733217
-0.0154328537 0.022423563 -0.0532827034 0.9146497431 -0.0127258276 -0.4040469041
-0.01479842186 0.030545681 -0.05205751038 0.8796628184 -0.01952440643 -0.4751969313
-0.01402353859 0.03865299988 -0.05082879639 0.8116727753 0.03522748647 -0.583049166
-0.01303330708 0.04689536285 -0.04956937408 0.7915927593 -0.00103157059 -0.6110481481
-0.01250911427 0.05096001434 -0.04894717026 0.7493517805 -0.01500106881 -0.662002173
-0.01175380898 0.05540761566 -0.04825428391 0.685423407 -0.2232477147 -0.6930766271
0.01801419067 0.05249833298 -0.05064745331 0.8737621228 -0.006419668698 0.4863111562
0.01968126106 -0.0004689585567 -0.05618902206 0 0 1
0.02056726837 0.007050711632 -0.05496267319 0.9957183419 0.09227196505 0.005555899756
0.02038179398 0.01112018967 -0.05507139969 0.9904960866 0.08547091264 0.1077600371
0.01543368721 0.03086530685 -0.07420605469 0.7285153265 -0.09553182713 -0.6783355284
0.01886998749 0.02419299316 -0.05237064743 0.9171040348 -0.0007201965826 0.3986473011
0.01700733566 0.04634194946 -0.04904334641 0.8063414127 -0.006002826619 0.591419895
0.02055013847 0.02481944656 -0.05929200745 0.9453468772 -0.3260663763 -1.892034049e-07
0.01614931107 0.05467380142 -0.04781431198 0.7796216138 0.005546621328 0.6262262964
-0.01550375128 0.0002875783127 -0.05890014076 0.9025535402 0.309616093 0.2992239662
-0.01684215546 0.004867511749 -0.05750644302 0.9841888361 0.1109063238 0.1381018544
-0.01694664955 0.01202779388 -0.05643375015 0.9944473394 -0.02898646739 -0.1011645877
-0.01650907516 0.01657896423 -0.05571963501 0.9757147987 -0.05742035875 -0.2113848007
-0.01614598274 0.02087880898 -0.05504943848 0.9432672621 -0.005508665885 -0.3319887451
-0.01705164146 0.04186111832 -0.06121175003 0.9995769102 -0.006256593732 0.0284052028
-0.01478926563 0.04023150253 -0.05206700134 0.8812779891 -0.01076916498 -0.4724755347
-0.01130105352 0.06060000229 -0.07507060623 0.3776583679 0.703169608 0.6024339462
-0.01308888245 0.05567517471 -0.0496602478 0.7971001699 -0.01355148871 -0.6036950192
-0.01305339527 0.06001915359 -0.04901989746 0.1073676664 0.9925303382 -0.05792850664
-0.01494458961 0.06060000229 -0.04907941055 0.3062774663 0.8807708033 -0.3611604986
0.01829705811 0.06004894447 -0.05132168961 0.567730037 0.7357688801 0.3692245389
0.02011963844 0.01485638809 -0.05522278595 0.9744544711 0.07026737847 0.2133095855
0.01977866936 0.01826704025 -0.05469327164 0.9608817351 0.03728084277 0.2744383899
0.01954002762 0.0218908844 -0.05412498093 0.9491549735 0.003177084019 0.3147931742
0.01914294052 0.02910263252 -0.05299278259 0.9290283929 -0.002717568165 0.3699984594
-0.01700958824 0.05093592072 -0.05894039154 0.9942410234 -0.00956269923 -0.1067395995
-0.009133200645 0.06060000229 -0.07825093842 0.2436449241 0.8685511924 0.4315738373
0.01711006927 0.05366581345 -0.04921210098 0.8227122982 0.003010261368 0.5684500091
0.01635642719 0.06020766735 -0.04886782074 0.6714509421 0.5580985566 0.4875239824
-0.01698942947 0.008269329071 -0.05855150604 0.9903848033 0.07347719858 0.1172136628
-0.01689152908 0.01574091434 -0.05738967133 0.9957985166 -0.02691835228 -0.08752551991
-0.01348188496 0.06060000229 -0.07532482147 0.1717853862 0.9656533453 0.1949446021
-0.01651047134 0.02353683281 -0.05616222763 0.9677457858 0.00498041735 -0.2518795137
-0.01632519531 0.02731287193 -0.05556923676 0.9616381418 -0.001753928868 -0.2743155263
-0.0148212986 0.05517925644 -0.06903304291 0.860682126 -0.0025162203 0.5091364715
-0.01588668633 0.03479548645 -0.05439213181 0.9313278466 0.002783951763 -0.3641712395
-0.01705094719 0.04790930176 -0.05946139145 0.9989255017 0.006471286614 -0.0458907899
-0.0147878685 0.04939603424 -0.05208941269 0.8662056572 0.005595037324 -0.4996563368
-0.01447886848 0.05295072174 -0.05152812195 0.8453302938 0.005639972224 -0.5342142689
-0.01662816238 0.02999593735 -0.05664193726 0.9718998742 -0.005564866838 -0.2353288481
-0.0140891695 0.05659893417 -0.0509474678 0.8171991616 0.008322555159 -0.5762952936
-0.0145816288 0.03100472069 -0.06951994324 0.8524558278 -7.061122451e-05 0.5227992508
-0.01361496449 0.06034468842 -0.05034651184 -0.6498242443 -0.6367078511 0.4151283703
-0.01494458961 0.06060000229 -0.05108051109 0.3672699376 0.8890046834 -0.2734656575
0.02046554565 0.006738197803 -0.0580085907 0.9508934117 -0.3095185288 3.918019645e-07
0.01749267769 0.05803582764 -0.04978406525 0.8270806644 0.1761585135 0.5337656345
-0.01341520023 0.04763979721 -0.07113395309 0.7907246654 0.003797049463 0.61216018
0.02054651833 0.01161884785 -0.05719687653 0.9963112623 0.08494258491 0.0121912192
0.02006733704 0.01911595726 -0.05598595047 0.9728571876 0.01745442024 0.2307471253
0.01718410683 0.06060000229 -0.06485086823 0.3610019939 0.9325227329 0.008883301888
0.01824098396 0.04955065918 -0.05111175156 0.8847504154 0.005612816895 0.4660313281
0.01803701878 0.05601537895 -0.05072148895 0.8713530566 0.004673126656 0.4906342962
-0.01583167648 0.003381325245 -0.06079986954 0.9339703922 0.2257560334 0.2770081585
-0.01643885803 0.005782763958 -0.06045936584 0.9531819757 0.1711844387 0.2492789785
-0.01701473618 0.01547094011 -0.06124816513 0.9972934722 0.02192074444 0.07017984897
-0.01686077881 0.008557872772 -0.06004748154 0.9826272766 0.09086041883 0.1618271286
0.02045017242 0.02024180603 -0.0630099678 0.9939252781 0.01972384107 -0.1082751665
-0.01707106972 0.01534749889 -0.05898514175 0.9974393353 -0.002251256299 -0.07148219576
-0.01665666389 0.03320130348 -0.05686746407 0.9750459862 0.01119354316 -0.2217206109
-0.01053635788 0.0002381085604 -0.06725798798 0.6423766985 0.4492209823 0.6209288899
-0.01568942356 0.04760972214 -0.05381752396 0.9258307457 -0.0001834307238 -0.3779383504
-0.01541410255 0.05111761093 -0.05325128555 0.8954444251 -0.008737843881 -0.445087555
0.01993471527 0.05395604324 -0.05550144577 0.9713308698 0.0004813786926 0.2377311711
0.01629220581 0.06060000229 -0.05286089071 0.4570788887 0.8464619403 0.2730953554
-0.01647036743 0.01666378021 -0.06481949615 0.9637146561 0.04826165915 0.2625354718
-0.01510030746 0.05463822937 -0.05268104172 0.87850247 -0.009822028315 -0.4776368264
-0.0111844635 0.03162628365 -0.07350675964 0.6680646551 0.01861817375 0.7438702711
-0.01479383278 0.05808301163 -0.05212412262 0.8397510288 0.2705881369 -0.4707443785
0.01991499138 0.03527840996 -0.05540662384 0.9589247408 -0.004901658592 0.2836182563
0.01939051628 0.04157339096 -0.05369331741 0.9477162851 -0.001217295129 0.3191118316
0.01899472332 0.05151112938 -0.05271290016 0.9285501795 0.01535796293 0.370889063
-0.01016961765 0.02001036644 -0.07430995941 0.5835999282 0.01889229676 0.8118215351
0.01673815632 0.06060000229 -0.051122612 0.566579875 0.7493049379 0.3428255464
0.01450361061 0.06060000229 -0.05084791183 0.1398954998 0.9847966668 0.1029794845
-0.01573132992 0.01472191143 -0.06663497925 0.9223537155 0.07142759596 0.3796863469
-0.01287999821 -0.00139745605 -0.06294860077 0.7847677318 0.4169298906 0.4585946722
-0.01496033192 0.003474367023 -0.06308082199 0.8896017607 0.2764263956 0.3635892672
-0.01663865471 0.009056067467 -0.06150197601 0.9745436617 0.09997582476 0.2006725841
-0.01699061584 0.02590390205 -0.05879367828 0.9901682858 -0.009574971454 -0.1395531648
-0.004698142052 0.05193213654 -0.07700240326 0.273581198 -0.007416717697 0.9618203161
-0.01672766304 0.03626250458 -0.05710586166 0.9843949288 0.02093612047 -0.1747235047
0.01957875443 0.04581692505 -0.05430796814 0.9502720161 -2.087495308e-05 0.3114210895
-0.01660906219 0.03965406418 -0.05655288696 0.9736854924 0.004289785251 -0.2278555676
0.02006953684 0.06004153951 -0.06256159592 -0.5168457825 -0.8472059391 0.1229330463
-0.01605379868 0.04986376953 -0.05487891006 0.9423221632 0.0004696469749 -0.3347069169
0.02041854286 0.01123143816 -0.06097340202 0.9495341808 -0.3136635768 -2.00127997e-07
0.02049311066 0.02036808205 -0.05863994598 0.9949001475 -0.01051002489 0.1003156814
0.01975290871 0.04255410767 -0.05485673523 0.9573542605 -0.004506496918 0.2888814832
0.01940831757 0.0490158844 -0.05377094269 0.95162087 0.01317208691 0.3069922083
-0.01141937828 -0.001890519142 -0.06451727295 0.6977435745 0.4472273445 0.5595905705
-0.01251023865 -0.0005169818401 -0.06436213684 0.7560759156 0.4051724965 0.5139887722
-0.01585257053 0.007113305092 -0.0633207016 0.9379652968 0.1909991132 0.2893794063
-0.001644152999 0.02896533012 -0.07760241699 0.08911501344 0.2130488105 -0.9729690225
-0.0170430069 0.03240140915 -0.05920789719 0.9969078536 0.005724590251 -0.07837066092
-0.01689091873 0.03908327866 -0.05809642029 0.9860222607 -0.002778788891 -0.1665904554
-0.01679470062 0.04237578201 -0.05754867172 0.9841174766 -0.006685352416 -0.177392498
0.01951697731 0.0218240509 -0.0671268158 0.9441732768 -0.01259840568 -0.329208298
-0.01641919518 0.05208076096 -0.0559330368 0.9670045186 0.001487326241 -0.2547548799
-0.01604662323 0.05850805664 -0.05485801315 0.8246669558 0.3604711015 -0.4358726844
-0.01690612984 0.06060000229 -0.05504178619 0.6321160957 0.7415411247 -0.2248243802
0.01993200684 0.0467602272 -0.05545775986 0.9631494322 -0.00150501719 0.2689626482
0.01958897209 0.05305676651 -0.05437620926 0.9507308542 -0.002310313004 0.3100088794
-0.01154354668 -0.0001946057379 -0.06582307053 0.6791149972 0.4568746628 0.574515764
-0.007486526966 0.007590097904 -0.07350224304 0.4655173721 0.3109763144 0.8286056409
-0.013988801 0.003808605909 -0.06531044769 0.8034152676 0.3419940601 0.4874053452
-0.01648214722 0.01305749989 -0.06391125107 0.9639325636 0.07509577041 0.2553324069
-0.01699876976 0.02249111176 -0.06234326935 0.9928773711 0.002246780244 0.1191195954
-0.01706240273 0.03236125183 -0.06067580795 0.9997929128 -0.002785771179 -0.0201586465
-0.01706002998 0.03558196259 -0.06085664558 0.9998478024 -0.007001331193 0.01597977865
-0.01700322723 0.0450065937 -0.05924941063 0.9973750076 0.007371735966 -0.07203299109
-0.01246510029 0.04499038315 -0.072297966 0.6919696748 -0.01845943345 0.7216905281
-0.01676563835 0.05140896988 -0.05745364761 0.9832008534 0.002930222913 -0.1825034127
-0.0175069294 0.06039582062 -0.05692634583 0.679572816 0.7275021891 -0.09445291167
-0.01937355804 0.06060000229 -0.05683546066 0.1038948731 0.9919443329 -0.07247272389
0.02052027416 0.03696147156 -0.05921182823 0.9991151088 0.005152407332 0.04174268948
0.01718410683 0.06060000229 -0.05515036011 0.0572432831 0.9964610125 0.06155206889
-0.01613068199 0.01383662987 -0.06528713989 0.9392549928 0.08266015979 0.3331176316
-0.01667395973 0.01973512077 -0.06429954529 0.9736454931 0.01391600082 0.227641821
-0.009758052826 0.00211430943 -0.06923163605 0.5996808418 0.4188619086 0.6818633217
-0.01688733482 0.02612259102 -0.06320498276 0.982632278 -0.009305252426 0.1853300261
-0.01702732658 0.03243387604 -0.06212244797 0.9955578928 0.0002635642387 0.09415100973
-0.01698401642 0.05388111305 -0.05912477684 0.9941484436 0.005014930829 -0.1079060823
0.02044523811 0.02451531601 -0.06293346024 0.9963797138 -0.01108919715 -0.0842881699
0.02054646683 0.04091386795 -0.05916930771 0.9959449529 0.004787690139 0.08983723544
0.02051690674 0.04462165833 -0.05916103745 0.9983895054 0.001205005792 0.0567181058
0.02018370056 0.05460365677 -0.056673172 0.9777840253 -0.002663314315 0.2095979644
-0.01150468731 0.02234106922 -0.07319827271 0.6713404325 -0.0003388103457 0.7411490464
0.02018556404 0.05807332039 -0.0566824646 0.9580619808 0.2691283022 0.09842356429
0.01984573936 0.06060000229 -0.055598526 0.7560594208 0.6282122716 0.1836395764
-0.008869870186 0.0002764206529 -0.06871138763 0.5816696513 0.4469892552 0.6796035774
-0.01389110279 0.007837918282 -0.06772594452 0.7982944745 0.2620013686 0.5422925547
-0.01141129494 0.0531590004 -0.0732684021 -0.6620424663 -0.02073778703 -0.7491793623
-0.01522512722 0.01222640514 -0.06704200745 0.8976776967 0.1266137143 0.4220707525
-0.01584342146 0.01803757095 -0.06681087494 0.927612232 0.03266994585 0.3721131841
-0.01632629013 0.02048823357 -0.06565196991 0.9545689974 0.0006944673878 0.2979891726
-0.01662478256 0.0266785202 -0.06457382202 0.9725583859 -0.001363813118 0.2326549506
0.0006553068762 0.05262758255 -0.07764961624 0.1032895733 0.2261104814 -0.9686099908
-0.01691786194 0.03587306213 -0.06296892166 0.9856471999 -0.008097027933 0.1686239469
-0.01688123226 0.03910289383 -0.06311474609 0.9896249376 -0.003016683977 0.1436432471
-0.01705094719 0.04790930176 -0.06086289215 0.9999386962 -0.006613728148 -0.008880450343
-0.01704877281 0.05085993958 -0.06104242325 0.9996818317 -0.01210247883 0.02213064238
-0.01704453278 0.05661376572 -0.0593426857 0.9944630252 0.07619397519 -0.0723724374
-0.01937355804 0.06060000229 -0.05886766052 -0.2302833598 -0.9721039309 0.04453674584
0.0195933876 0.01328633785 -0.06584432983 0.9614351802 0.01855485181 -0.2744050141
0.02054846573 0.03306508255 -0.06201989365 0.9970120319 -0.03004343763 -0.07116459866
0.02058358383 0.03713751221 -0.06124595261 0.9995189212 0.001117764129 -0.03099478626
0.02057126141 0.04098187637 -0.06120315552 0.9971682925 -0.008592538783 -0.07470986983
0.02054470634 0.04839633942 -0.05912224197 0.9956602844 0.004618850674 0.09294764307
0.01984573936 0.06060000229 -0.05688100433 0.4808118188 0.8767920311 0.007465190419
0.01718410683 0.06060000229 -0.05707969284 0.3743320342 0.9272871401 -0.00375340748
-0.008314771652 0.001631225824 -0.07000178528 -0.5544760616 -0.4459928484 -0.7025999404
-0.01159157372 0.005564949989 -0.06952536774 0.682604041 0.327802691 0.6531440262
-0.0133559866 0.009066832542 -0.06901850128 0.7668689422 0.2454647554 0.5930084986
-0.009987928391 0.0470084343 -0.07445451355 0.5959449994 0.01254539551 0.8029272512
-0.01472862911 0.01333997917 -0.06834316254 0.8618699136 0.1217752535 0.4922916206
-0.01521961689 0.01585627651 -0.06792167664 0.894766863 0.06658034358 0.4415419784
0.02048504066 0.0368635025 -0.06268917847 0.9966487772 0.007656526263 -0.08144073015
-0.01604752159 0.02452826881 -0.06640553284 0.9402998852 -0.006809381116 0.3402789417
0.02030188179 0.0583719635 -0.06375563812 0.9314900718 0.3351480724 -0.1414284828
-0.01623439407 0.02750513649 -0.06587941742 0.9508420635 -0.0145950958 0.3093321085
-0.01656519127 0.03339069366 -0.06483963776 0.9661720854 0.006345881229 0.2578201527
-0.01690603447 0.04819333649 -0.06290459251 0.9947137759 -0.002132214628 0.1026642957
-0.01746639347 0.06000979996 -0.06082730293 0.8989589741 0.429682246 -0.08512303132
0.01969294167 0.01801492691 -0.06640327454 0.948866193 -0.0338261716 -0.3138610167
0.02004679298 0.02336011887 -0.06533937073 0.973865235 -0.003780386854 -0.2270951622
-0.01202481747 0.04279120255 -0.07271437073 0.7129479015 0.01021284118 0.70114263
0.0203717289 0.03256682587 -0.06352945328 0.9930599792 0.01787497099 -0.1162426903
0.02058474731 0.04480525208 -0.06114714432 0.997251725 -0.006007751469 -0.07384377993
0.02057468224 0.04847638321 -0.06110879135 0.9997617377 -0.009810248397 -0.01949940765
0.000601780057 0.03424868011 -0.07766494751 0.09290918603 0.2170959456 -0.9717187008
0.02045403671 0.05876261902 -0.05847198868 0.9464336095 0.3209714824 -0.03522400211
0.01851724434 0.06060000229 -0.05891122627 -0.4320580718 -0.9014564296 -0.02649770024
-0.008878442764 0.004234716415 -0.07113188934 0.5595192027 0.3921565278 0.7301722533
0.01651518106 0.06060000229 -0.06883192062 0.5831359429 0.7119049602 -0.3913359168
-0.01276367188 0.01042710209 -0.07027215576 0.7224613629 0.2248074659 0.6538433929
-0.01464622402 0.01712737274 -0.06916889954 0.8632226231 0.05899131312 0.5013648651
-0.01502438259 0.01983228302 -0.06869429779 0.8752438774 0.02480807762 0.4830452509
-0.00761647892 0.03935513306 -0.07588650513 0.4491353475 -0.006884697311 0.8934372057
-0.01530007172 0.02271119308 -0.0681796875 0.8993620031 0.001719156951 0.4372013631
-0.0155590744 0.0255743084 -0.06766788483 0.9114560129 -0.005987174108 0.411353972
0.01957815361 0.05651379776 -0.0668343811 0.9470613643 0.08029743155 -0.3108489902
0.02040078735 0.05163130379 -0.06316141319 0.9896374305 -0.001026432571 -0.1435851752
-0.01577727509 0.02847304535 -0.06714717865 0.9215142911 -0.004045900466 0.388323373
-0.01571210909 0.03191388226 -0.06723645782 0.9122725324 -0.001525917798 0.4095808812
-0.0161421566 0.03426655197 -0.06610402679 0.9468930449 0.007903947802 0.3214515346
0.002191111326 0.06060000229 -0.08101637268 -3.348157545e-15 1 -9.789777457e-16
-0.0163222332 0.03709264755 -0.065597229 0.954860134 -0.0007692493375 0.297054764
-0.01649415588 0.03988676453 -0.06509685516 0.9521640297 -0.001473021464 0.3055838523
-0.01662212181 0.04272146988 -0.06458623505 0.9751756166 -0.005333522652 0.2213686299
-0.01688091087 0.05118544006 -0.06305751801 0.9848811301 0.006452156344 0.1731113206
-0.01685163021 0.0541350975 -0.0632071476 0.9897969777 0.004607973422 0.1424103563
-0.007696453094 0.06060000229 -0.07876711273 0.2093244268 0.8667807428 0.452630565
0.01880856895 0.01541415501 -0.06845022583 0.9415134727 -0.05903849615 -0.3317632239
0.02007853222 0.0357331543 -0.06502769089 0.9709219379 0.01301482147 -0.2390422659
0.02049935722 0.04457416916 -0.06255195618 0.9969864723 0.003954410135 -0.07747474931
0.02058559227 0.05211831284 -0.06105997467 0.999463609 0.005550805075 -0.03227511184
-0.01262945843 0.03184826088 -0.07212290192 0.7531265852 0.0164436035 0.6576700955
0.02057599735 0.05562401581 -0.06102681732 0.999285565 0.02216610551 -0.03061083865
-0.01031809711 0.008560684204 -0.07198434448 0.6129977083 0.2812845991 0.738317536
-0.01126521873 0.01013872147 -0.07175756073 0.679376569 0.2399720393 0.6934413442
0.0004970867932 0.05845293045 -0.07764929962 -0.1016875202 -0.5820401048 -0.8067768989
-0.01209286404 0.01196763611 -0.07147375488 0.7071906546 0.1720169674 0.6857780552
-0.01282953548 0.01397386932 -0.07114949036 0.7477935242 0.1481927153 0.6471813998
-0.0134647007 0.01617478943 -0.07078050995 0.7763055911 0.1016764828 0.6221025013
-0.01495362949 0.02687090492 -0.06886427307 0.8794235484 -0.001309883063 0.4760383458
-0.01570442677 0.03517284012 -0.06735507965 0.9135070487 -0.01056944236 0.4066855773
-0.01588148594 0.03799510956 -0.06683751678 0.9256420783 0.004521827894 0.3783732231
-0.01605547333 0.04077514267 -0.06632892609 0.9531178687 0.003823244793 0.3025751331
-0.01622768402 0.04351154709 -0.06582965088 0.9470404882 -0.02601154287 0.3200589216
-0.01656085968 0.04886989975 -0.06485532379 0.9652747221 0.004202086519 0.2612030882
-0.01682249832 0.05703524399 -0.06335631561 0.9782576707 0.08935374949 0.1871572528
-0.01565663671 0.05355944443 -0.06735931015 0.9273140268 0.003536315006 0.3742675383
-0.01937355804 0.06060000229 -0.06294853592 -0.183324428 -0.9811522665 -0.06109323994
0.01873147964 0.01954670334 -0.06910019684 0.9307098871 -0.009883671135 -0.3656246971
0.01926456642 0.02532098579 -0.06789076233 0.9302856238 -0.005299375974 -0.36679773
0.01959921646 0.03038896561 -0.06683992767 0.94935202 -0.006573423818 -0.3141457181
0.02013451004 0.03978387451 -0.06490170288 0.9826484106 0.00498915026 -0.1854109209
0.020121521 0.04355165672 -0.06482587433 0.9793004758 0.008067019258 -0.2022510848
0.02039598465 0.04799920273 -0.0632266655 0.9883142751 -0.008831781565 -0.1521738918
0.02021593666 0.05985089111 -0.06086299133 -0.4499876253 -0.8916298456 0.0500735013
0.01851724434 0.06060000229 -0.06084750366 -0.3345039502 -0.9415385049 -0.0401540933
0.01718410683 0.06060000229 -0.06095435333 0.1976772995 0.9802645017 -0.002278584069
0.01829348564 0.04238483047 -0.07001888275 0.9123400611 0.004611710758 -0.4094073096
-0.009082290173 0.009564148903 -0.0732436142 0.5506041957 0.2756320009 0.7879479804
-0.01051029778 0.0118932991 -0.0729034729 0.6418860629 0.1969980639 0.7410627808
-0.01128543901 0.01566076231 -0.0729948616 0.6684223484 0.09900404416 0.737163322
-0.01317072868 0.02039825058 -0.07146183014 0.7712325972 0.03379363516 0.6356557804
-0.01357200336 0.0230147953 -0.0709855423 0.7844323971 -0.0008306881344 0.6202137731
-0.01393400669 0.0256703167 -0.07049948883 0.8129077718 -0.01279520512 0.5822518676
-0.01427381897 0.02832676315 -0.07001260376 0.8552372331 0.006130275457 0.5182004388
-0.01512221527 0.0363782692 -0.06852826691 0.8930564893 -0.006126468745 0.4499028487
-0.01506773996 0.03966130829 -0.06860902786 0.8919526759 -0.009779466673 0.4520229929
-0.01561647987 0.04166415405 -0.06755444336 0.9264410805 -0.007343008112 0.3763681769
-0.01630913925 0.05229417038 -0.0655826416 0.9496928701 -0.001135355313 0.31318072
-0.01660903358 0.05744045258 -0.0646319809 0.9622203467 0.1313561595 0.2384901754
0.0183478241 0.02270027542 -0.06994378662 0.9145727405 0.004726004146 -0.4043938269
0.01892155838 0.02847851753 -0.06870619202 0.9122547319 -0.006269902661 -0.4095753806
0.01936824226 0.03375810242 -0.06758234406 0.9405133697 0.002424737413 -0.3397480272
0.01967400169 0.03852070999 -0.06657698059 0.9599222119 0.008693994654 -0.280131686
0.02016848755 0.04739171219 -0.06471365356 0.9847312394 0.01205713484 -0.173663501
0.01682803345 0.03847158432 -0.07239537811 0.8346625064 0.0708745563 -0.5461824765
0.02040551376 0.05518059158 -0.06309742355 0.9899547647 -0.007332785518 -0.1411941718
0.01718410683 0.06060000229 -0.06290010071 0.3737598666 0.9270311492 0.03027888093
-0.005493040085 0.008518104553 -0.07471048737 -0.3539529152 -0.2924801454 -0.8883539263
-0.007210848093 0.01018636227 -0.07451645279 -0.410667506 -0.2613787504 -0.8735178008
-0.008762116432 0.01222098446 -0.07423699951 0.5108569349 0.1952928371 0.8371892855
-0.009672639847 0.01384017181 -0.07398891449 -0.5824137478 -0.1623667858 -0.7965119291
-0.01177004337 0.01997566414 -0.07294047546 0.6877835246 0.04557503791 0.7244837743
-0.01270195293 0.02492128372 -0.07203542328 0.7579971767 0.0156703778 0.6520695664
-0.01350993252 0.041290308 -0.0710184288 0.7917586792 -0.003973561449 0.6108210906
-0.01309587097 0.02748585701 -0.07156008911 0.7684520081 0.004760469944 0.6398897164
-0.01348233223 0.03002178001 -0.07109113312 0.7779982448 0.003370521809 0.6282574079
-0.01384475231 0.032564991 -0.07061985779 0.8226777311 -0.001165305439 0.5685068098
-0.01449106216 0.03768502426 -0.0696672821 0.8524781571 -0.002192542384 0.5227582466
-0.01497200823 0.04602672195 -0.06877951431 0.8648401158 -0.004563657429 0.5020266399
-0.01585741329 0.05604251671 -0.06689127731 0.9364806968 -0.01030714069 0.3505676359
0.01665769768 0.01786866951 -0.07254962158 0 0 1
0.01854181099 0.0314601059 -0.06953939056 0.9232106741 0.008024634424 -0.3842104325
0.02002508926 0.05064124298 -0.06539412689 0.973568923 0.005204647119 -0.2283341056
0.01044614887 0.06060000229 -0.07671909714 -6.8999166e-14 1 4.443156599e-14
-0.005723834991 0.0156428833 -0.07634707642 0.3251548574 0.117471846 0.9383361253
0.02018734741 0.05461314011 -0.06455007935 0.9853680924 0.0005976566738 -0.1704387438
-0.00455185318 0.01081521893 -0.07571324158 -0.3116993025 -0.2312189246 -0.9216188766
-0.005747035503 0.01178335381 -0.0756147995 0.3572021512 0.2130477308 0.9094049085
-0.007311649084 0.01375482082 -0.07534299469 0.4267738474 0.168469494 0.8885280596
-0.009519030571 0.01787853241 -0.07468887329 0.5592012864 0.07130011447 0.8259601776
-0.01124708176 0.02466259003 -0.07345651245 0.6719586996 0.01801907412 0.7403693801
-0.0117203989 0.02707210541 -0.0730088501 0.7006105802 0.007070180572 0.7135088138
-0.01144093895 0.02938694572 -0.07325338364 0.6680901777 -0.003767914852 0.7440707744
-0.01301475811 0.03432243347 -0.07165796661 0.7641287398 -0.004266161023 0.6450496639
-0.01374311733 0.03923358917 -0.07073564911 0.7839264546 0.004410176032 0.6208380338
-0.0149213829 0.04913149261 -0.06886460114 0.8631967295 0.001136569766 0.5048664322
-0.01487181902 0.0521805172 -0.06894787216 0.8768683737 0.001776898556 0.4807272593
-0.009536809921 0.03185687447 -0.07477563477 0.559977679 0.01046467596 0.828441603
-0.01581960487 0.05893899536 -0.06700434113 0.7552602354 0.504892401 0.4179301857
-0.01715217781 0.06060000229 -0.06681588364 -0.5350933236 -0.7163720806 -0.4477568282
-0.01937355804 0.06060000229 -0.06705194092 -0.3550810756 -0.9323342598 -0.06833928392
0.01592994881 0.0200445919 -0.07362145233 0.7278119518 -0.09137213236 -0.6796623398
0.01722090721 0.02778717041 -0.07185558319 0.8706864381 0.04777171766 -0.4895130126
0.01870216942 0.03971056366 -0.06917909241 0.9000635635 -0.008485065707 -0.4356760096
0.01920715332 0.04482462692 -0.0680432663 0.9349747707 -0.008448438708 -0.3546135953
0.01951446915 0.04929561996 -0.06706223297 0.944588583 -0.007792765562 -0.3281641079
0.02007940102 0.05780074692 -0.06520133972 0.9608491505 0.146439054 -0.2352116353
-0.004640836716 0.01444998074 -0.0765033493 -0.2799825163 -0.150473331 -0.948139002
-0.006681533337 0.01711536407 -0.07612224579 0.3826333095 0.08295947239 0.9201681783
-0.00756020689 0.01874986267 -0.07585771942 0.4301081138 0.04751113317 0.9015263184
-0.008318911552 0.02063464546 -0.07553124237 0.4556246302 0.0244996459 0.8898347958
-0.008961637497 0.02275179291 -0.07514692688 0.5321024807 -0.0003077007658 0.8466799014
-0.01014706039 0.02710111618 -0.07434928894 0.5825249383 -0.001812974015 0.8128108079
-0.01255280399 0.03852853394 -0.0722116394 0.7326938975 -0.002878663151 0.6805522506
-0.01364074326 0.04566523743 -0.07085292053 0.776805141 0.009302402877 0.629672326
-0.01430799389 0.0503468399 -0.06996363068 0.8391929123 0.01908836051 0.5434987492
-0.0147717762 0.05812532616 -0.06911652374 0.8387888566 0.2888733976 0.4615034282
-0.01512527657 0.06025701141 -0.06871905518 0.6500996744 0.6877702973 0.3230207911
-0.01715217781 0.06060000229 -0.068869627 0.4757261645 0.8407335245 0.2585570676
-0.01362193584 0.06033131218 -0.07127753067 -0.4589289617 -0.775080695 -0.4343203015
