# .PCD v0.7 - Point Cloud Data file format
VERSION 0.7
FIELDS x y z normal_x normal_y normal_z
SIZE 4 4 4 4 4 4
TYPE F F F F F F
COUNT 1 1 1 1 1 1
WIDTH 441
HEIGHT 1
VIEWPOINT 0 0 0 1 0 0 0
POINTS 441
DATA ascii
0.005293417215 -0.01983908399 -0.007824975755 0.2316204605 -0.9727242676 -0.0126278082
0.02046000989 -0.001959446271 -0.008107827981 0.9942887066 -0.102609335 -0.02934778166
-0.01755615044 -0.01067665005 -0.0007489578128 0.7738752146 0.6333380988 -6.919051507e-05
-0.01395467186 -0.01507585621 -0.0007369853258 0.7029504658 0.7094700629 -0.05012855919
0.01794065857 0.03820834732 -0.07071064758 0.9250041701 -0.02491409316 -0.3791392532
0.0145297997 -0.005108590901 -0.06391842175 0.6987166323 -0.5132452244 -0.4983717562
0.01295593527 -0.01592354202 -0.007848493046 0.6258961944 -0.7797931861 -0.01328686567
0.01649361038 0.02071403885 -0.04827407455 0.8696365637 0.05231499205 0.4909128117
-0.01040612411 -0.01767201138 -0.0007286769748 -0.5084933794 -0.860325097 0.03571009119
0.02045698102 -0.001950001081 -0.003684917847 0.992959003 -0.1184520406 0.001237933562
0.0165885911 0.02852115154 -0.04845364189 0.8354096624 0.01383625674 0.5494535958
0.005291465123 -0.01983407656 -0.003556321197 0.2305106054 -0.9730576221 0.004870822579
0.009924132029 -0.01800694402 -0.007826495727 0.5141370555 -0.8576913612 -0.005349492856
0.007998956203 -0.01894919586 -0.0007109068632 0.372140749 -0.9269477404 0.04774044002
-0.01755615044 -0.01067665005 -0.008240209579 0.7739090918 0.6332963676 -0.0006545054139
-0.002175680955 -0.02039845403 -0.0007161648075 0.05765718337 0.996234999 -0.06474160901
0.01295736769 -0.01592751365 -0.01213256995 0.6267692886 -0.7791002861 0.01276726938
0.0155556612 -0.005847951412 -0.0614478302 0.7689052078 -0.4918566098 -0.4084872787
0.002119372487 -0.01956451162 -0.04820446057 0.09563562505 -0.9756539752 -0.1973655183
-0.00644954586 -0.01950892544 -0.0007215702236 -0.3142337066 -0.9484493714 0.04124278708
-0.002552094877 0.002399610639 -0.07669738007 -0.1147108852 -0.425021204 -0.89788551
0.02046556854 -0.001976778567 -0.01622401667 0.9922876427 -0.1237823705 0.006569543896
0.005290164073 -0.01983073934 -0.0007112369736 -0.2227066377 0.973639625 -0.04927102745
0.01524813175 -0.01383911324 -0.0121771148 0.7451987425 -0.6668270035 0.004536693558
-0.01019496489 -0.006934350014 -0.06682404709 -0.4470846331 -0.6384553465 -0.6264903043
0.001716016948 -0.02047404194 -0.0007127987742 0.1417829796 -0.9891395947 0.03873562852
-0.01394515038 -0.01509720993 -0.01253376134 -0.7034099007 -0.7104258922 0.0225735089
0.01524715074 -0.01383630943 -0.003580029408 0.735270745 -0.6777728921 0.0009155556965
0.01683293915 -0.01183390617 -0.03609184742 0.8227361825 -0.568077797 -0.01981894602
-0.01741296005 -0.01099407578 -0.03226751328 0.7658122646 0.6430633319 -0.001061370744
0.009920849323 -0.01799811363 -0.0007113761604 -0.5212950884 0.8523904203 -0.04101222038
-0.01750189463 -0.01079692586 -0.02023764801 0.7708375945 0.6370221115 -0.003497492673
0.02046304067 -0.001968896866 -0.01253325844 0.9938789724 -0.1094746506 0.01482865854
0.01912887383 0.03413974762 -0.06823347473 0.9305708384 -0.01498294418 -0.3658051751
0.02006326199 0.004189687252 -0.05906999016 0.9608817757 -0.1878733882 -0.2034939878
0.01295350838 -0.01591681194 -0.0007133704424 -0.6268610396 0.7780686575 -0.04067433105
-0.006445260525 -0.01951898193 -0.01227204879 -0.3135245636 -0.9494549029 0.01541867116
0.01524555874 -0.0138317585 -0.0007159814239 0.7338542798 -0.6771910544 0.05357398557
0.01681690979 -0.01178714848 -0.0007190771103 0.843748696 -0.5344202512 0.04983104484
0.02045496178 -0.001943705678 -0.0007369624972 0.9913697184 -0.1187304299 0.05558027082
0.01872511292 -0.008409928083 -0.0007247264385 0.9133065044 -0.4032050094 0.05741906849
0.01991782951 -0.005055519104 -0.0007308626175 0.9362951172 -0.3497927861 0.03156676032
0.02024829102 0.003603921652 -0.0007486322522 0.999310744 0.03709446071 0.001427558414
0.001950370811 -0.01524363359 -0.0599456075 0.06108740219 -0.8749972659 -0.4802583826
0.01074199295 0.04486359406 -0.0430557785 0.6054160254 0.004411725988 0.7958969612
0.02028341389 0.003492733955 -0.01197891665 0.9994621201 0.0326730652 0.00281802861
-0.006457257628 -0.01389814687 -0.06036582279 -0.3314208235 -0.8076634659 -0.4876883878
-0.01755615044 -0.01067665005 -0.003744979223 0.7739757352 0.6332152047 -0.0002565609519
-0.01395229212 -0.01508119202 -0.003685041428 -0.7034170866 -0.7107771685 0.0004679732979
-0.01040349785 -0.0176780014 -0.003643489083 -0.5085451467 -0.8610347501 0.0009964734027
-0.006448020299 -0.01951249504 -0.003607987444 -0.314194241 -0.9493580752 0.001106316838
0.008002759298 -0.01895921898 -0.01209069761 0.3729420389 -0.9277477147 0.01408593032
0.01851592922 -0.0007396633625 -0.06025110626 0.8926883503 -0.3350626226 -0.301397658
0.02056887341 0.05354958916 -0.06017744827 0.9995616221 -0.007770568522 -0.02856889856
-0.002174186303 -0.02040204705 -0.003580957757 -0.06595514566 -0.9978085646 0.005290290198
-0.006440388123 -0.01953043938 -0.0282076629 -0.3119406794 -0.9499868579 0.01476422867
0.001717194448 -0.02047697608 -0.00356413583 0.1402494818 -0.9901155959 0.00109067518
0.008000172615 -0.01895240211 -0.003554672321 -0.3731708922 0.9277621484 -0.0009387115638
0.01557489491 0.05239819336 -0.04716928482 0.7316945545 0.02073116155 0.6813173254
-0.01394872284 -0.01508919875 -0.008108125687 -0.7041614019 -0.7098635842 -0.01582440859
0.009922162215 -0.01800164509 -0.003557014823 -0.5101904088 0.8598792818 -0.01770218759
0.01295449977 -0.01591956107 -0.003566997369 -0.6270319597 0.7789928386 -0.001038744113
-0.002171943823 -0.0204074387 -0.007879174021 -0.06488949998 -0.9978029972 -0.01336157037
0.009929710388 -0.01802185535 -0.03211303393 0.5229296759 -0.8522769287 0.0129842559
0.01681838767 -0.01179146242 -0.003595511794 0.8359606034 -0.5483088992 0.02296128441
0.01872668107 -0.008414646626 -0.003623754621 0.9085720939 -0.417101635 0.02286867263
0.006584661007 0.05843604279 -0.04111468887 -0.3938620634 -0.01558241067 -0.9190374658
0.01873081875 -0.008427106857 -0.0123254625 0.9142615988 -0.4047921392 0.01640283185
0.01031990469 -0.01753755903 -0.04387349653 0.5165609445 -0.8519085312 -0.08611994592
0.01992026329 -0.005062995116 -0.003654401541 0.9417532377 -0.3358257383 0.01794192527
-0.002169699914 -0.02041283311 -0.01217993895 -0.06350319287 -0.9978356147 0.01707133464
0.01843019581 0.01191318941 -0.06834619904 0.8862590059 -0.1610462576 -0.434291466
0.02025087929 0.003595731258 -0.003743245284 0.9993220744 0.03679957324 0.001087686337
-0.01755615044 -0.01067665005 -0.01198823261 0.7739199017 0.6332825537 -0.001092241281
0.01826454163 0.0257408371 -0.07010064697 0.9066986176 0.03466075699 -0.4203525292
0.01597526026 -0.007081914425 -0.05895159149 0.7833094507 -0.524371059 -0.3338581987
-0.01039955743 -0.01768698724 -0.008016672929 -0.508127729 -0.8612160449 -0.01063649104
0.01210799503 0.009046047211 -0.07537413025 -0.6517737211 0.2542196459 0.7145371845
0.01884770107 0.0157563448 -0.06823406601 0.9130437111 -0.07208357069 -0.4014413287
-0.002371600159 -0.0203930378 -0.03977054071 -0.07353246831 -0.9965018099 -0.03971295625
0.008001998583 -0.01895721436 -0.007821352959 0.3726870409 -0.9277761959 -0.01832211455
-0.006446585496 -0.01951586596 -0.007938700438 -0.3136686141 -0.9494497951 -0.01253344336
0.00171896112 -0.02048137792 -0.007842184862 0.1424792332 -0.98973968 -0.01072539182
0.02024339104 0.01917836634 -0.06393994395 0.9902333103 -0.01625679814 -0.1384691577
0.01609248161 -0.01189558744 -0.04780945015 0.7447000205 -0.6518920375 -0.1430337404
-0.006624615479 -0.01946662483 -0.01980057716 -0.3128207352 -0.949687253 -0.0154048388
0.01524813175 -0.01383911324 -0.00787720871 0.7462740079 -0.6649936707 -0.02930056266
0.001720728834 -0.02048578262 -0.01212279924 0.142444545 -0.9897170997 0.01302360141
0.0168206056 -0.01179793469 -0.007911174695 0.8242643859 -0.5659575963 -0.01673980904
-0.005124341488 -0.01518789101 -0.05892985535 -0.2413159219 -0.8722445639 -0.4253892883
0.01964155388 0.05694391251 -0.05456553268 0.9485716027 0.02516950483 0.3155604707
0.01992391396 -0.00507421128 -0.008040638924 0.9499679774 -0.3123472274 0.0002268124794
0.007098815918 -0.00618008399 -0.06956269455 -0.3519314331 0.6191450762 0.7019997443
0.01872903474 -0.008421725988 -0.007973304431 0.9083322509 -0.4180475697 0.01299043272
0.01655181313 0.01275203562 -0.0718152771 0.806277534 -0.1469955361 -0.5729824173
0.016404459 0.03190944099 -0.07301988983 0.8262276255 0.003062459289 -0.5633280858
0.02026114019 0.003563245217 -0.008235525926 0.9993981563 0.03456990816 0.002871692333
-0.01039561462 -0.01769597848 -0.01239234893 -0.506452493 -0.8621747428 0.01267222535
0.01889995193 0.03492360687 -0.05249084663 0.9220722983 0.01944757026 0.3865287424
0.005295370367 -0.01984409396 -0.01209617318 0.2310832946 -0.9728410389 0.01344707985
0.01345239019 0.05665403938 -0.04510575485 -0.6823527261 -0.01628596304 -0.7308416549
0.009925477028 -0.01801055145 -0.01209858227 0.5098203291 -0.8599773822 0.02285025702
0.010107306 0.003147123933 -0.07431371689 -0.5332194772 0.3982492014 0.746374278
0.01682282384 -0.01180441125 -0.01222937155 0.8235980069 -0.5669667628 0.01533012845
0.01992756653 -0.005085433801 -0.01242932447 0.9480591096 -0.3177734208 0.01428207786
0.001753671979 -0.008719289064 -0.06869678243 0.06794588181 -0.7208041731 -0.6898004793
-0.01753516706 -0.01072316551 -0.01573688444 0.7727892275 0.6346584281 -0.002342944714
0.02030640157 0.00341995875 -0.01572352823 0.999525693 0.03062463046 0.003243619003
-0.01394217205 -0.0151038909 -0.01622471237 -0.7023713024 -0.7117882318 0.00566273977
-0.01039232683 -0.01770347643 -0.01604161215 -0.5077115188 -0.8615260953 0.001341930494
-0.006262367725 -0.01957965775 -0.01631336651 -0.3128264958 -0.9496576446 0.01702766836
-0.002167998943 -0.02041691886 -0.01648480511 -0.06534805779 -0.9977324221 0.01611350856
-0.006256570053 -0.01959329262 -0.03226862564 -0.3084354773 -0.9511460975 0.01373526756
0.001722498178 -0.02049019114 -0.01640744956 0.141559618 -0.9897846308 0.01694872258
0.005297248814 -0.01984890874 -0.01637139246 0.2311898061 -0.9728176133 0.01331032491
0.008002707163 -0.01895908165 -0.01636424573 0.3729110898 -0.9276221222 0.02131941612
0.0168268981 -0.01181630111 -0.02015741777 0.8227034125 -0.5684606773 0.003399032507
0.009926381747 -0.01801296647 -0.01637478161 0.5233762216 -0.8519532419 0.01590611145
0.01295880106 -0.01593148867 -0.01642069997 0.6259375302 -0.7797134973 0.01578196411
0.01524813175 -0.01383911324 -0.01648120085 0.7434519643 -0.6686144472 0.01529371594
0.005737298965 0.05529070663 -0.04083115768 -0.3938620634 -0.01558241067 -0.9190374658
0.01682504559 -0.01181089322 -0.01655158567 0.8234871533 -0.5669152104 0.02181863114
0.01873201036 -0.008430709839 -0.0159552331 0.9140597949 -0.4049998904 -0.02167441111
0.01993061352 -0.005094793081 -0.01608939981 0.947917127 -0.3184900346 -0.004149473182
-0.01393918959 -0.01511057917 -0.01991962115 -0.701171983 -0.7128444836 -0.01451180397
-0.01459787989 -0.01363323212 -0.04769888115 0.6986154172 0.6960498316 0.1656838278
-0.01038903507 -0.01771098328 -0.01969476604 -0.5071480585 -0.8617682059 -0.01250624065
0.01873320262 -0.008434316953 -0.01958897559 0.9085970282 -0.4175823059 -0.008744041521
-0.009895231883 -0.009560101827 -0.06401578903 -0.4911982337 -0.6874614585 -0.5349028307
0.02021113968 0.04226934052 -0.06447759247 0.9859372555 -0.009248180529 -0.1668598195
0.01993366241 -0.005104162216 -0.01975333786 0.949909014 -0.3125214101 -0.001798183441
0.02046740341 -0.001982501745 -0.01991884677 0.9918437713 -0.1266669259 -0.01419236422
-0.008980802536 -0.01170654774 -0.06204916382 -0.4284941527 -0.7384604913 -0.5206427411
0.02031549644 0.003391165257 -0.02022354889 0.9995841133 0.02883173023 0.0005760677401
-0.002166882286 -0.0204195989 -0.02007625643 -0.06408785706 -0.9979439882 0.000736833518
0.001723974317 -0.02049386978 -0.01998198366 0.1461453395 -0.989263053 0.0003894923226
0.0019781587 -0.003922964478 -0.07286258698 -0.1055736231 0.6158459919 0.7807611186
0.006498106122 -0.01397845626 -0.06023525715 0.3269026027 -0.8133682062 -0.4812139332
0.01296076912 -0.01593694327 -0.02358069971 0.6250847841 -0.7804026243 -0.01551633455
0.005298445781 -0.01985196431 -0.01993811226 0.2323905548 -0.9726225351 0.0001848569997
0.01994099871 -0.005126698812 -0.02856654994 0.9476782356 -0.3188215095 0.01608747454
0.008002663612 -0.0189589653 -0.01992961311 0.3726688329 -0.9279643091 -0.0004266895759
0.02049431801 0.04126728821 -0.06260025787 0.9968264628 -0.01104192248 -0.07883577289
0.009927136183 -0.01801498127 -0.01994230747 0.5238127347 -0.8518334455 2.347209224e-06
0.02021636677 0.05483989143 -0.05688233757 0.984974881 0.01877844954 0.1716736834
0.01020809937 0.0584821701 -0.04276985931 0.4905180283 0.01838936368 0.8712369914
0.01295984093 -0.01593437179 -0.01999817594 0.6260730939 -0.7797643239 0.000283289595
0.01524813175 -0.01383911324 -0.02007204151 0.7344703309 -0.6786332075 0.003209797781
-0.01747414112 -0.01085844946 -0.02399176407 0.7691825263 0.6390244554 -0.002446739359
-0.0139358724 -0.01511801942 -0.02435955874 -0.698936134 -0.7148941407 0.02036291057
0.02031549644 0.003391165257 -0.02774197515 0.9995852391 0.0287982684 9.769447465e-05
-0.0103850797 -0.01772000313 -0.02408445326 -0.5089528492 -0.8607943518 -0.0002848032512
-0.00644171977 -0.01952730815 -0.02385186609 -0.3117648484 -0.9500619714 -0.01359889119
0.001724867324 -0.02049608898 -0.02356163311 0.1434758479 -0.9895624327 -0.01344889736
-0.002165836573 -0.02042210918 -0.02367277018 -0.06684579022 -0.9976823244 -0.01271298578
0.005299079127 -0.01985358726 -0.02350994852 0.232316365 -0.9725397976 -0.01398029205
0.001660781786 -0.01251802731 -0.06419848394 0.1147431918 -0.7998100288 -0.589184112
0.008002620061 -0.01895885086 -0.02350006104 0.3729049236 -0.9276257694 -0.02126851869
0.00992789189 -0.01801699924 -0.02351486397 0.5138081193 -0.8578556097 -0.009217892115
0.01524813175 -0.01383911324 -0.023667998 0.7339066022 -0.6788979523 -0.02187851888
0.01682875347 -0.01182171631 -0.02376825237 0.8232615266 -0.5673789771 -0.01793196005
0.01870887629 0.05175893402 -0.05217770767 0.8967989537 -0.01552913922 0.4421656731
-0.01404273939 -0.01487833261 -0.0430026989 -0.7005056404 -0.7100857715 -0.07120424729
0.01873463631 -0.008438651562 -0.02395545928 0.9139540138 -0.4058163044 0.001089853191
0.01993732707 -0.005115420183 -0.02415593974 0.9478500068 -0.3187080065 0.002360313601
0.02046926308 -0.001988298814 -0.02435875702 0.9935350975 -0.113384283 0.005658135787
0.02031549644 0.003391165257 -0.02397970295 0.999592344 0.02855001597 0.0002061070806
-0.01744635391 -0.01092004776 -0.0277504158 0.7674110816 0.6411447353 -0.003695987088
-0.01393352509 -0.01512328434 -0.0280655508 -0.696921068 -0.7171449286 0.002043615046
-0.01038111703 -0.01772903919 -0.02848217742 -0.5054207031 -0.8627452065 0.01485333854
0.01763409805 0.0170478878 -0.04934555817 0.903968315 0.1035993573 0.414859565
-0.002165254838 -0.02042351935 -0.02799602063 -0.06304392331 -0.9979255644 -0.01303961754
-0.001662016253 -0.01531610775 -0.05992565791 -0.05575645536 -0.8704382937 -0.489109798
0.001725485911 -0.02049761772 -0.02786457411 0.1436831927 -0.9895466411 -0.01235254055
0.01893636799 0.02351285362 -0.05256637192 0.9270032642 0.009153580512 0.3749415422
0.005299701293 -0.01985518519 -0.02780344454 0.2319064999 -0.9726488214 -0.01317746193
0.008002567609 -0.01895871353 -0.02779190954 0.373016576 -0.9277168912 -0.01414226709
0.009928800106 -0.01801942476 -0.02780918312 0.5130786303 -0.8583355459 -0.003226403002
0.01296184995 -0.01593993727 -0.02788699235 0.6254892663 -0.7801357306 -0.01230526678
0.01524813175 -0.01383911324 -0.02799050395 0.7460234346 -0.6658351209 -0.01061258214
0.01683095709 -0.01182814662 -0.02810849031 0.8222633132 -0.5691072047 0.0001825097754
0.0187360719 -0.008442993641 -0.02833007654 0.9137321488 -0.4058508631 0.01945860222
0.02047081375 -0.001993137538 -0.02806468391 0.9921743544 -0.1248259573 0.002920766197
-0.007815052986 -0.01815755272 -0.04821414375 -0.3785456139 -0.9038696101 -0.1993061616
-0.01739885139 -0.01102534962 -0.03604187584 0.7735582246 0.6334200977 0.01966349509
-0.01393117301 -0.01512855911 -0.03177858098 -0.6958395937 -0.7179994932 -0.01685193201
0.02047236888 -0.001997985522 -0.03177766546 0.9918807775 -0.1260306268 -0.01699424106
-0.009690988223 -0.01255624167 -0.05992533875 -0.4622855261 -0.7652998678 -0.4478930728
-0.009451495409 -0.01620662284 -0.05230402565 -0.4380626234 -0.8498933462 -0.2928863909
0.02031549644 0.003391165257 -0.03226532427 0.9995715651 0.02926903928 -9.739120022e-05
0.02054741542 0.002656963269 -0.05189975866 0.9948290424 -0.08924965483 -0.04847345067
-0.01037780881 -0.01773658419 -0.03215394211 -0.5069356489 -0.861976906 0.00347294693
-0.002164835585 -0.02042454274 -0.0323289352 -0.06539261506 -0.9977471148 0.01498335115
0.001726105869 -0.02049914964 -0.03217709064 0.1452419764 -0.989310204 0.01304180404
0.009562270164 0.05460023117 -0.042390625 0.5378648661 0.01960305088 0.8428031242
0.00530032489 -0.01985678694 -0.03210649406 0.2315986794 -0.9727392222 0.01185147184
0.005717710257 -0.01496933603 -0.05899964523 0.2461077734 -0.8542598568 -0.4578985268
0.01294132614 0.0522725296 -0.0446425705 0.6375406374 -0.006274611258 0.7703911766
0.008002515157 -0.0189585743 -0.03209335709 0.3730311106 -0.9277395964 0.01212566605
0.01296239207 -0.01594144864 -0.03220298576 0.6251577831 -0.7803659934 0.01437576222
0.01524813175 -0.01383911324 -0.03232267316 0.742919039 -0.6693040282 0.01016953172
0.02042730331 0.01324394226 -0.05658683777 0.9965904854 0.04049327124 0.07188671265
0.01683244451 -0.01183247169 -0.03245847416 0.8228815665 -0.5679172661 0.01832774998
-0.00225099198 -0.008623791059 -0.06875489299 -0.07094401919 -0.7134224322 -0.6971336883
0.01873667812 -0.008444826603 -0.03198283386 0.9137244944 -0.4063318107 0.001417033182
0.02037032604 0.003217590094 -0.05581982994 0.9873568646 -0.1268114981 -0.09510660224
0.01994352341 -0.00513445878 -0.0322492075 0.947752105 -0.3190074634 -0.0004309191791
-0.01392834504 -0.01513490264 -0.03624393845 -0.6947025094 -0.719206804 0.01140160354
0.00977755022 -0.007092780828 -0.06690772629 0.4817021598 -0.6417639028 -0.5967429282
-0.01037463061 -0.01774382973 -0.03583378855 -0.5066903937 -0.8620292598 -0.01305374355
0.01858208504 -0.008439759636 -0.04417826538 0.8985193053 -0.4350173189 -0.05850632633
-0.00662064476 -0.01947596054 -0.03579443588 -0.3103457176 -0.9504769985 -0.01670361608
0.01873676332 -0.008445080042 -0.03564391708 0.9129415769 -0.4075248537 -0.02147488731
-0.002101642619 -0.00497954909 -0.07202656047 0.08341878928 0.6290506928 0.7728754955
0.01994359779 -0.005134687424 -0.03594078445 0.9471747279 -0.3205115265 -0.01150635184
0.005542432467 -0.01652274842 -0.05579659356 0.2511630301 -0.8879329601 -0.3853468447
0.02047423808 -0.00200381581 -0.03624297969 0.9918791298 -0.1258092897 0.01864978452
0.02031549644 0.003391165257 -0.03604294777 0.999562163 0.02958837923 -0.0001005626297
-0.001934603308 -0.02044597026 -0.03624623326 -0.06596343248 -0.9978187709 0.002554593285
0.02013655567 0.04873373795 -0.06467149353 0.9821308999 0.02755622878 -0.186170754
0.001726727416 -0.02050068601 -0.03650069936 0.142508278 -0.9897852237 0.004074507196
0.005300759342 -0.01985790316 -0.03642066786 0.2366279789 -0.9715991634 0.001505098738
0.008002462387 -0.01895843569 -0.03640591558 0.3738173948 -0.9274915186 0.004476410741
0.00993045489 -0.01802384313 -0.03642798487 0.5219451635 -0.8529546598 0.006449381704
-0.006336235046 -0.01164804808 -0.06390670649 -0.3283252 -0.7564683889 -0.565648424
0.01296271483 -0.01594235833 -0.03653015094 0.6247791036 -0.780777967 0.006069427465
0.01524813175 -0.01383911324 -0.03594100571 0.7346471201 -0.6781647335 -0.01965205473
0.01886748505 0.01833628273 -0.06870588684 0.9234313898 -0.04035781805 -0.3816355787
0.008136354446 0.04757883072 -0.04171500397 -0.5401720648 -0.00416265855 -0.8415443023
-0.01452051258 -0.008274915695 -0.05992817688 0.6400613351 0.6492185023 0.4108975829
0.008908103943 0.05085069275 -0.04202606201 -0.4991430198 -0.01666876585 -0.8663592777
-0.01742599996 -0.01096516768 -0.03983659871 0.7787551275 0.6267906141 0.02596107787
0.02031100655 0.003405379454 -0.03983162053 0.9997339936 0.0225356343 0.004907876028
0.01011445808 0.04122012329 -0.04268749619 -0.567742894 -0.005635254571 -0.8231866436
0.01137450504 0.04859030533 -0.04343360901 0.6108917332 0.005271639845 0.791696596
-0.001464629412 -0.002486626148 -0.07403688049 0.01248731651 0.5733055374 0.8192465
-0.01393652248 -0.01511656141 -0.03997726059 -0.7068602194 -0.7070748789 -0.01984302824
-0.01038811525 -0.01771307119 -0.0402658844 -0.5162996837 -0.855564993 -0.03798920092
0.001720996603 -0.0204864316 -0.04011505413 0.1402811242 -0.9893589642 -0.03860111705
-0.006445708116 -0.01951804797 -0.03987728373 -0.3116736413 -0.9494847334 -0.03658254259
0.01524424108 -0.01382799117 -0.03957004801 0.7355921881 -0.6764373887 -0.03655943031
0.020526577 0.06028550148 -0.05940518379 0.9935770468 -0.001608640978 0.1131462074
0.01682952181 -0.0118239255 -0.0397359581 0.8230706137 -0.5669505241 -0.0334943002
0.01873295021 -0.008433613698 -0.04004985873 0.912353664 -0.4093466345 -0.006791509991
0.01993829727 -0.005118401686 -0.04038403193 0.9467726019 -0.3218493945 -0.005882815162
0.02047478485 -0.002005521655 -0.03997356606 0.991151973 -0.1326617208 0.004316751398
0.01274881744 0.03550805283 -0.04448226357 0.6965536077 0.03165954632 0.7168059324
0.01326045132 0.03946453476 -0.04491241455 0.6793021614 -0.00312835061 0.7338520198
0.01283960056 0.0437315979 -0.04456245804 0.6488152602 0.015025353 0.7607976057
0.02022550106 0.03621178055 -0.06433118057 0.9754432587 0.01553191651 -0.2197025457
0.01620573235 0.04414896774 -0.04788965225 0.7869941928 0.01441189056 0.616792054
0.01338221836 0.04778721237 -0.04499567795 0.6339624835 0.004704080323 0.7733494948
0.008683483124 -0.01120166016 -0.06294855626 0.4093621578 -0.7420226048 -0.5308719975
0.005295803865 -0.0198451856 -0.04002688471 0.2345334622 -0.9712051341 -0.0418884549
0.007997979164 -0.01894662189 -0.04001054382 0.375577235 -0.9256853984 -0.0452579688
0.009926004171 -0.01801187658 -0.04003481483 0.5224436748 -0.8518954694 -0.03642411077
0.01295842075 -0.01593042199 -0.04014708392 0.6259809392 -0.7790873983 -0.03421533955
0.01460514069 -0.0007383217663 -0.06778611946 0.6805416582 -0.4430347499 -0.5835951181
0.01317586803 0.03137907791 -0.04482408142 0.7329991187 0.01449383103 0.6800751582
0.01466066933 0.04347956848 -0.04616796875 0.7083966351 -0.01467532374 0.7056619886
-0.005997138023 0.0007518768311 -0.07504145813 0.2932846716 0.5293275477 0.7961133391
0.01981684685 0.03178403854 -0.06611588287 0.9580493513 0.009766980726 -0.2864368106
0.01511258221 0.04789205551 -0.04666293716 0.7599892063 0.001123858391 0.6499347223
0.01497355843 -0.009761937618 -0.05669684887 0.7429666467 -0.5893311052 -0.3173159472
0.0165112009 0.05536193848 -0.04835035133 0.8221063605 0.01113385494 0.5692250603
-0.01799682713 -0.009699760437 -0.04381072807 0.7831146878 0.6198998123 0.04955409697
0.02045359039 -0.001939429084 -0.0437237498 0.9904632977 -0.1373956012 -0.01024229852
-0.0128642664 -0.006422235966 -0.06477667999 -0.55912424 -0.6044684187 -0.5674486894
0.02042220497 0.003053351164 -0.04433984375 0.9999463541 0.0001840810912 0.01035639836
0.02028296566 0.02453565788 -0.06403499985 0.9826193431 -0.02389505417 -0.1840876232
0.01443894005 0.02731887245 -0.04593915939 0.8055738166 0.0237730667 0.5920182998
0.01277692509 1.023685932e-05 -0.07037247086 -0.6159707319 0.4394483909 0.6538082052
0.01875716654 0.03933689626 -0.0522551918 0.8973700347 -0.006937044151 0.4412243174
0.01488796806 0.03132822227 -0.046401474 0.7912941621 0.007434943021 0.6113904404
0.01533406448 0.03545919418 -0.04687931824 0.7925081506 0.02083767985 0.6095052275
0.01644392204 0.04038412666 -0.04827205086 0.7888267735 -0.02158653387 0.6142363901
0.0170383091 0.04730478859 -0.04909158707 0.8312392239 0.02537384083 0.555335503
0.005707056204 -0.004541565895 -0.07152665456 -0.2353679654 0.6060722786 0.759788335
0.01736585045 0.05870418167 -0.0495996933 0.8374985567 0.02149632866 0.5460165522
-0.005933547497 -0.01887493038 -0.04801118088 -0.3329997054 -0.9209892511 -0.2022127482
-0.0105159533 -0.0174215169 -0.04400849342 -0.5152072459 -0.8513457151 -0.09885326035
0.008255711555 -0.002858321428 -0.07167517853 -0.4256363786 0.5357991642 0.7292139116
-0.006570479155 -0.01922637494 -0.04431975174 -0.3130930215 -0.943476532 -0.1087418662
0.0155936079 0.04624495697 -0.07402306366 0.8233552544 -0.06868795932 -0.5633543194
-0.002268346343 -0.02017527284 -0.04397914124 -0.08738805106 -0.9898144623 -0.1123862034
0.02021275139 0.04845954514 -0.05685181808 0.9916588574 0.002999163041 0.1288554058
0.00164204523 -0.02029009978 -0.043766716 0.1297110773 -0.9858748036 -0.1059523855
0.01426687082 0.007400987943 -0.07277319336 0.7008402646 -0.2578719523 -0.6650751685
0.01269953473 -0.01521492831 -0.04825014877 0.6022257117 -0.7779910159 -0.1790367876
0.005226031224 -0.01966612116 -0.04366795264 0.2436403135 -0.9652221978 -0.09479191119
0.007935159206 -0.01878107452 -0.04364808909 0.3769892335 -0.9213180628 -0.09514276099
0.0171986927 -0.004289550829 -0.05980467224 0.8246902226 -0.4573458152 -0.3327474148
0.01323907539 -0.01550594493 -0.04360676847 0.6276373439 -0.7747880868 -0.07599200666
0.02029345703 0.05455771637 -0.06384660149 0.9875005969 0.01292979921 -0.1570840267
0.02053019333 0.04731722132 -0.06011435699 0.9962081325 -0.002678918845 0.0869607961
0.01517597071 -0.01363282585 -0.04396364848 0.730153402 -0.6785691761 -0.08012417094
0.01676065318 -0.01162274027 -0.04414868037 0.8300270545 -0.5518188732 -0.08093837146
0.02020767879 0.0422815876 -0.05682328987 0.9873176894 -0.007419768253 0.1585835023
0.01988454533 -0.004953266144 -0.04411838722 0.9427409128 -0.3296802718 -0.05050237425
0.01554572296 0.02376106644 -0.0470864296 0.8437446649 0.03824523726 0.5353804649
0.01635248184 0.03208181381 -0.04808561707 0.8209389076 0.01461402696 0.5708289938
0.01715600681 0.0350717144 -0.04925367546 0.8356389387 0.02367057565 0.5487688657
0.02014394093 -0.0009738341868 -0.05214948273 0.9770834065 -0.1849193093 -0.1054175777
0.01816776276 0.05581848526 -0.05097141647 0.8697830167 -0.02188816217 0.4929486912
-0.01423022747 -0.0144578228 -0.04531391525 -0.6723952838 -0.7337572563 -0.09739030263
0.01990044022 -0.0002145181634 -0.05531054306 0.9691159916 -0.197484289 -0.1476961422
0.01726951218 0.02355318928 -0.04941037369 0.8849540786 0.02978910336 0.4647245293
0.01823273659 0.04314758682 -0.05108475494 0.8833199437 0.01038694079 0.4686555115
0.01886245155 0.04704180717 -0.05241622734 0.9228817651 0.02268296322 0.38441479
0.01916751289 0.05867907333 -0.05305313492 0.9354566424 0.04532522685 0.3505231718
-0.0106290062 -0.01679878464 -0.04751328049 -0.5021995623 -0.8455786532 -0.1810865564
0.01818006407 -0.008404613563 -0.04787368011 0.8769790724 -0.4618334785 -0.1327310989
0.02054563904 0.06021451569 -0.06205625916 0.9970671579 -0.02171310055 -0.0733868101
0.01981404686 -0.004736679554 -0.04638280106 0.9541759626 -0.2890214667 -0.07755529761
0.02034284719 -0.001594091058 -0.04827987162 0.9845562367 -0.1680076273 -0.04921843178
0.020554636 0.002634105086 -0.04808342552 0.9982997499 -0.05147951022 -0.0273398864
0.01880042712 0.02766110865 -0.05233503723 0.9031317911 0.00641867682 0.4293154651
0.01829463005 0.0312352066 -0.05119657898 0.8818792527 0.01329881946 0.4712877307
0.01376603985 0.04649395752 -0.07591625214 0.7224230203 0.07174326697 -0.6877193347
-0.00234406238 -0.01952347112 -0.04827369833 -0.07259117802 -0.9803279376 -0.1835419723
0.01772408104 0.02206915855 -0.07109299469 0.881916333 -0.01586968393 -0.4711387637
0.005577117252 -0.01899600754 -0.04780426941 0.2408189073 -0.9530760612 -0.1834455656
0.0100226366 -0.01704150362 -0.04798756752 0.5271129024 -0.8321298053 -0.1723716194
0.01441108433 -0.01361549218 -0.04838758914 0.717054836 -0.6792290193 -0.1564618214
0.01970887566 -0.004413576603 -0.04867142296 0.9623868034 -0.249960608 -0.1064487438
0.009960574309 -0.01605171267 -0.05193229993 0.5149420347 -0.8164673409 -0.2611815119
0.01931850624 0.01163327599 -0.05012339401 0.9617030419 0.12420934 0.2443344
0.02055937672 0.01813045883 -0.05973072815 0.9993130969 0.00654896875 0.03647527181
0.01872614765 0.01879771042 -0.05192061234 0.9166701066 0.07491023066 0.3925612984
0.01966166496 0.0442137146 -0.05456898117 0.945792776 -0.001428045964 0.3247675871
-0.003067232132 -0.0144386692 -0.06117050552 -0.1657443312 -0.8501745828 -0.4997319236
0.01988150215 0.04965155029 -0.05530805206 0.9572982089 -0.000669514812 0.2891015237
-0.01411948013 -0.01289394069 -0.05155051041 -0.6426156516 -0.7222228865 -0.2558109197
-0.01228821182 -0.01520236588 -0.04961619568 -0.5407074891 -0.8115401432 -0.2214452693
0.007203195731 -0.01819259389 -0.04909101613 0.3402348262 -0.9143503812 -0.2195532814
-0.01388207865 -0.0115851965 -0.05553278732 -0.6340970379 -0.703055666 -0.3219218494
0.02021752834 0.008743327618 -0.05201709366 0.9967512726 0.06021628428 0.05348737809
0.01968218613 0.03224513245 -0.05457745361 0.9410400982 0.0002638556833 0.3382949364
0.02005704975 0.03679807281 -0.0560409584 0.9703702316 0.004162377632 0.2415870201
-0.006148009062 -0.01775781663 -0.05187878863 -0.2917925851 -0.9126398368 -0.286261446
-0.004406308174 -0.01878019333 -0.05014850235 -0.1984431452 -0.9494867502 -0.2430951033
0.01587782288 -0.01127323627 -0.05085267448 0.7668946844 -0.6096960193 -0.2003579474
0.01730306403 -0.008730231126 -0.05189607302 0.8320571633 -0.5210875487 -0.1901279664
0.01973862267 0.01549228191 -0.05379413605 0.9712349051 0.09459185477 0.218529495
0.01900817337 -0.005090629816 -0.05205012512 0.9146871847 -0.3585675436 -0.1864850421
0.01685700226 0.009275961876 -0.07032910156 0.822328624 -0.1901887661 -0.5362871129
0.01970160675 0.02097509003 -0.05459148026 0.9463742159 0.02557733801 0.3220584468
0.01989197731 0.02585306549 -0.05529206467 0.9694953805 0.01300269552 0.2447644521
0.02020621681 0.03045078564 -0.05677038956 0.9872799235 0.01155171327 0.1585714684
0.02057122517 0.0409951458 -0.0600090065 0.99996824 -0.002464519185 -0.007579252867
-0.01666642761 -0.008993774414 -0.05378824997 -0.6881749413 -0.6618667232 -0.2972333948
-0.002053848207 -0.01881146526 -0.05147975349 -0.1520921632 -0.9492244417 -0.2753923258
0.001841051211 -0.01886825053 -0.05124299494 0.07998318772 -0.9603096219 -0.2672229775
0.006038440466 -0.01781269582 -0.05189043808 0.3187804005 -0.9003668684 -0.29617319
0.003711250544 0.009778120041 -0.07935527802 -0.3071699977 0.2929250112 0.9054510093
0.01247247982 -0.01458357334 -0.0512792244 0.6063920944 -0.7581968387 -0.2396376049
0.01827542623 0.003219034831 -0.06441796366 0.8972428945 -0.2529996037 -0.3618651527
0.01407545996 -0.01265623808 -0.05246285057 0.6857280811 -0.6830224211 -0.2515101808
0.02055640475 0.007653992017 -0.05572344081 0.9999199984 -0.01080459302 0.006577043782
-0.005945250988 -0.005444393873 -0.07067248154 0.290398079 0.6189544046 0.7297701013
0.01746042252 0.05200302505 -0.07146115875 0.8780806039 -0.04523235583 -0.4763701156
0.02017565536 0.01406550026 -0.0551452446 0.9806302609 0.06045876221 0.1863035948
-0.00226853615 -0.0182907877 -0.05304482269 -0.1548971468 -0.9363163713 -0.3151484202
0.0202070694 0.01929881668 -0.05672558594 0.9910542023 0.0248926406 0.1311179792
0.020230896 0.02471110344 -0.05673428726 0.9810902437 -0.003916230183 0.1935112318
0.0205262146 0.03516514715 -0.05995801163 0.9978659885 -0.01675888347 0.06310791435
-0.009967829704 -0.01501364613 -0.05476276016 -0.4818897139 -0.809916421 -0.3343915288
0.001659125298 -0.01841310374 -0.05278954951 0.05042140931 -0.9517155484 -0.302812147
-0.002124421954 -0.01092497015 -0.0662723999 -0.1454458168 -0.7670731324 -0.6248554425
0.01845932503 -0.00435497942 -0.05579411774 0.8872705361 -0.3820682151 -0.2584083487
0.01343462467 0.01236461544 -0.07515680695 -0.6711326626 0.1816358487 0.7187415166
0.02052507973 0.02371987216 -0.05981611506 0.9991372531 -0.0002163522095 0.04152953865
0.01019235118 -0.00896114405 -0.06451130676 0.5074297309 -0.6678017728 -0.5445694267
0.01905893517 0.04329105377 -0.06812643051 0.9212757268 0.02560529241 -0.3880662368
0.02056371403 0.02922666454 -0.05986309242 0.999333084 -0.003805030108 0.03631678708
-0.01090784868 -0.01346245988 -0.05682489649 -0.5519257531 -0.7486072668 -0.367375997
-0.006229902744 -0.01632154226 -0.0558251524 -0.2685036314 -0.8867401072 -0.3762948077
0.01262145114 -0.004092025757 -0.06728273582 0.6291780709 -0.5091300457 -0.5873002228
-0.002234592956 -0.01695252633 -0.05640161037 -0.06656232665 -0.916214061 -0.3951218181
0.001668128619 -0.0173255618 -0.05569757571 0.07166051871 -0.9109923506 -0.4061498581
0.002013199558 0.001085502068 -0.07607181803 -0.07936724636 0.4667272652 0.8808328446
0.009150458813 -0.01524215364 -0.05529060173 0.4349895607 -0.8345418732 -0.3381182396
0.01944095993 0.003682586789 -0.06133542824 0.9368475143 -0.2200097887 -0.2718684015
0.01315781716 -0.01222449275 -0.05560821043 0.6627460242 -0.6824418075 -0.3082870202
0.01677739271 -0.007932248274 -0.055520003 0.8155440121 -0.5076464456 -0.2778183771
0.02054026413 0.01287515799 -0.05968081792 0.9988182273 -0.02077808791 -0.04393654475
0.01057626224 -0.01356327796 -0.05707691479 0.5133811274 -0.7658489576 -0.3871888326
0.02039038086 0.008187686443 -0.05970860672 0.9934560488 -0.06559574556 -0.0935001458
0.01929612732 -0.0007456094623 -0.05753966713 0.9189240218 -0.3109300648 -0.2426955646
0.02051915932 0.02937922668 -0.06236216354 0.9962321784 -0.01385537913 -0.08561235468
0.01953579521 0.0573310318 -0.06696928406 0.9651106033 -0.03396180794 -0.2596307358
0.01930913925 0.02227662659 -0.06777236176 0.9278414114 -0.02758273791 -0.3719536366
0.01618285561 -0.003111144543 -0.06341139603 0.8121775406 -0.4136301633 -0.4114337499
-0.01266840458 -0.01064588833 -0.059420578 -0.5768811458 -0.6970664636 -0.4258009968
0.02026655006 0.03024419594 -0.06417093658 0.9877773391 -0.01313461011 -0.1553171283
0.01927433586 0.0518364563 -0.06783319855 0.9524320857 -0.01201905055 -0.3045138166
0.01011369642 -0.01229384486 -0.05992053159 0.5110493767 -0.735004817 -0.4456416201
0.01263761711 -0.01076287079 -0.05927736282 0.621558321 -0.6645530439 -0.4147704249
0.01379331322 -0.008794111061 -0.0604427948 0.679009233 -0.598670468 -0.424900144
0.02009799767 0.009127566338 -0.06222758102 0.976103828 -0.09685704952 -0.194525137
0.02015041161 0.01414791298 -0.06387838173 0.9835919525 -0.03533923605 -0.1769124342
0.01942890358 0.03898433685 -0.06737019348 0.9587307008 0.01291491453 -0.2840222672
0.01889105606 0.0469405899 -0.06876293182 0.9003458326 -0.0329551815 -0.4339254978
-0.002522741377 -0.01268286724 -0.06385643616 -0.08965920097 -0.8050325348 -0.5864161027
0.01810416222 0.05604735184 -0.07036678314 0.9316013086 -0.05255054831 -0.3596629557
0.01384568437 0.003867637396 -0.07157760111 0.6707050258 -0.3335487082 -0.6624953038
0.01710028973 -0.0002318539441 -0.06417765503 0.8375620529 -0.3488228138 -0.4204907278
0.0192338047 0.006815566778 -0.06422457314 0.9273430398 -0.1806544911 -0.3277176245
0.01979671669 0.0100960474 -0.06398345184 0.9468106259 -0.1293698722 -0.2946405858
0.01956876755 0.02694209671 -0.06694660187 0.9733827628 -0.03552891837 -0.2264148693
0.005429796423 -0.01217923192 -0.0635666384 0.2288520859 -0.7757606519 -0.5880664366
0.0126517477 -0.007887046973 -0.06328500621 0.6184035346 -0.6082281833 -0.4976299282
0.01942292976 0.01129760265 -0.06579678345 0.9400567614 -0.1133173519 -0.3216402697
0.01872570038 0.02978274918 -0.06915278625 0.9183186868 0.01328292543 -0.3956189496
0.01663836861 0.04869677734 -0.0726685257 0.8389620491 -0.03114012972 -0.5432982353
0.01763842392 0.006846526265 -0.06784902954 0.863257369 -0.2277279601 -0.4504738517
0.0172267952 0.03483319855 -0.07183130646 0.8326165231 -0.001273030673 -0.5538484494
-0.01392584991 -7.378272712e-05 -0.06913113403 -0.6009542888 -0.5180071161 -0.6087056518
-0.005891390165 -0.008853149573 -0.06744499715 -0.2874780041 -0.7022171036 -0.6513428718
0.006903279305 -0.009886578083 -0.06582210922 0.3389236588 -0.7189900566 -0.606781717
0.01655837154 0.002851596713 -0.06755997467 0.7908494775 -0.3467805982 -0.5042819853
-0.01092535448 -0.001286903024 -0.07106105804 0.4744520202 0.5127043206 0.7155624083
-0.008146366119 -0.005999476433 -0.06917639923 0.3656377493 0.641289202 0.6745792731
0.005556425691 -0.008372386575 -0.06810455322 0.2292072029 -0.6990183537 -0.6773753755
0.00985044837 -0.005110301495 -0.06881052017 -0.4988548751 0.5768868553 0.6467962351
0.01561086178 0.003322537422 -0.06926778412 0.7405792992 -0.3459739176 -0.5760593285
0.01636467218 0.01850011921 -0.07294122696 0.8269413387 -0.07450952587 -0.5573296626
0.01520974922 0.03027770042 -0.07446002197 0.77602249 -0.01844591407 -0.6304354395
-0.00280915761 -0.0072266469 -0.07009092712 0.1345639745 0.6530904015 0.7452284645
0.01125881195 -0.002434756994 -0.06999913025 -0.5666344851 0.4883828158 0.6636321161
0.0124415617 0.0337395401 -0.07699028015 0.7229765201 0.07609441375 -0.686669201
-0.006316004753 -0.002523267746 -0.07283455658 0.2871021516 0.5476706634 0.7858938853
0.0100189476 -2.033026516e-05 -0.07250625801 -0.514500698 0.458713643 0.7244796929
0.014210042 0.01753008842 -0.07533161926 0.6863008074 -0.07305593885 -0.7236394347
-0.003487227917 -0.001457179427 -0.07440137482 0.103280999 0.557173167 0.8239484797
0.006112428029 -0.001318451315 -0.07369795736 -0.3021778936 0.5255907504 0.7952627765
0.009629770279 0.006837641398 -0.07616337331 -0.4721730015 0.3137126702 0.8237942809
0.006122807662 0.003078308463 -0.07617159526 0.2970027918 -0.4049593699 -0.8647527106
0.009696828842 0.01138179207 -0.07763191223 -0.4738492729 0.1773444749 0.8625635071
0.001813187063 0.008219138145 -0.07917245102 0.09601379502 -0.3584016052 -0.9286170581
0.004143254757 0.01318437672 -0.08004122925 0.3030585142 -0.2870224122 -0.9087208988
