# .PCD v0.7 - Point Cloud Data file format
VERSION 0.7
FIELDS x y z normal_x normal_y normal_z
SIZE 4 4 4 4 4 4
TYPE F F F F F F
COUNT 1 1 1 1 1 1
WIDTH 314
HEIGHT 1
VIEWPOINT 0 0 0 1 0 0 0
POINTS 314
DATA ascii
-0.01755615044 -0.01067665005 -0.001497929901 0.7436863199 0.6685287156 -0.0001184323805
0.002050699741 -0.0172387246 -0.05573368327 0.1526112861 -0.9036140034 -0.4002393387
0.006660995695 -0.01943162558 -0.01494098186 0.3538544216 -0.9353003444 0.0005604299327
0.01235452914 -0.01635499144 -0.001425849311 0.6168519987 -0.785801623 0.04482656481
0.01731077173 -0.01099902831 -0.005042956538 0.8528149471 -0.5221936992 0.004517363691
-0.01271655297 -0.01605796933 -0.00146787405 0.6035988376 0.7887103588 -0.1166379574
0.01992573977 -0.005079821825 -0.01023468542 0.9652050369 -0.2613357435 -0.009103073909
-0.0127131176 -0.01606572644 -0.005137840192 0.6152408934 0.7882718285 -0.01030375696
0.0057050155 -0.008769087791 -0.06763560486 0.2163390287 -0.7173622491 -0.6622603931
0.009285521984 -0.01833056641 -0.00142237097 -0.4406810454 0.8957324668 -0.05885205277
0.006656063716 -0.01941882165 -0.001422010968 0.3337366332 -0.9424135418 0.02183061747
-0.003824675441 -0.02017238951 -0.02012964471 -0.2380698587 -0.971242128 0.003386913207
0.01235897128 -0.01636724138 -0.01498134406 0.6188418927 -0.7853701532 -0.0151140458
-0.008043875138 -0.01578258197 -0.05527851359 -0.4257194035 -0.8304792706 -0.359259197
-0.00834253335 -0.01876967287 -0.001449379086 -0.4080324756 -0.9128196127 0.01642722094
0.02026958656 0.003536507368 -0.009732843399 0.9998394206 -0.01753996219 0.003671894292
0.001692299522 -0.0204203043 -0.001425879143 -0.1364866214 0.989398297 -0.04962269742
0.001631927676 -0.01522018452 -0.05997398682 0.05574404141 -0.8679085361 -0.4935862384
0.006661878665 -0.01943389765 -0.01993224287 0.3515726954 -0.936061126 -0.01364581353
-0.008194648334 -0.01885064398 -0.01999620465 -0.4195275885 -0.9077425042 0.0003853879725
-0.003835009376 -0.02014781221 -0.001436138918 -0.2535001936 -0.96400735 0.08017157228
0.01991843796 -0.005057388067 -0.001461726308 0.9650877643 -0.2437247612 0.09593668711
0.0152459569 -0.01383289623 -0.001431968659 0.7620664757 -0.6423823997 0.08123754729
-0.01742599996 -0.01096516768 -0.03983659871 0.7465760078 0.6648825775 0.02356740638
0.01730896982 -0.01099373198 -0.001440754245 0.8551073215 -0.5131321938 0.07407307523
0.001693768948 -0.02042397261 -0.004990913987 0.1355236013 -0.9904885839 0.02378484165
0.01915865898 -0.007417473078 -0.001452975184 0.9128630353 -0.4063934075 0.0390573558
0.02045546627 -0.001945279479 -0.001473928183 0.9897470176 -0.1351110226 0.04632334938
-0.01750189463 -0.01079692586 -0.02023764801 0.7408200344 0.6716903369 -0.004215206843
0.012241594 -0.01604316139 -0.04524577268 0.6068283723 -0.7855142058 -0.1213538583
0.02024893856 0.003601874113 -0.001497264773 0.9995843208 -0.0280473154 -0.006673351548
0.02027108383 -0.001370308439 -0.049821153 0.9784712966 -0.1898829044 -0.08086040083
-0.01755615044 -0.01067665005 -0.005243170579 0.7437112506 0.6685005283 -0.0007870274818
-0.008340622663 -0.0187740771 -0.005073161324 -0.4198371788 -0.9075988404 0.00104321487
-0.003832774374 -0.02015313572 -0.005026798937 0.2384721279 0.9711289396 -0.00629499476
0.006657565753 -0.01942272928 -0.004977370845 0.3513557293 -0.9360717207 0.01785735669
0.008255711555 -0.002858321428 -0.07167517853 -0.4220806867 0.5316576017 0.7342942792
0.01355743599 -0.01191484133 -0.05556344477 0.6362795569 -0.698899192 -0.3266316656
0.009287027041 -0.01833458519 -0.004978629271 0.4387504881 -0.8982804169 0.02429612648
0.01235588845 -0.01635873127 -0.004990809441 0.6190110496 -0.7851393438 0.01953282554
0.01524774297 -0.01383800252 -0.005012210131 0.7617096208 -0.6479055704 0.004101877595
0.0191608696 -0.00742416652 -0.005085711638 0.9134886917 -0.4068626727 0.00108427172
0.001697886775 -0.0204342529 -0.01498156389 0.1362030747 -0.9905132791 -0.01822543276
-0.000183749944 -0.01379722691 -0.06258707428 -0.02195377739 -0.831595314 -0.5549479845
-0.01155746651 -0.009459483147 -0.06261292648 0.4380453197 0.7470797979 0.4999880732
0.01466345406 0.02932354736 -0.0461703167 0.7997875067 0.02923224656 0.5995710299
0.01992148018 -0.00506673336 -0.005116301537 0.9715732678 -0.2365342433 0.009845665219
0.02045799065 -0.00195314908 -0.005159034888 0.9894655747 -0.144532652 0.008257665879
0.006808110094 -0.01902120438 -0.04497712326 0.3372028891 -0.9314604032 -0.1366591703
0.02025217247 0.003591635704 -0.005240682284 0.9998165293 -0.01799346694 0.006568318075
-0.01755615044 -0.01067665005 -0.009739171346 0.7436825861 0.6685324241 -0.0007804490422
-0.01270830584 -0.01607659066 -0.01027783036 -0.6138513684 -0.7894030911 0.005409008479
-0.008338706136 -0.01877847934 -0.01014865649 0.4146237803 0.9099641346 -0.007238412361
0.01578305626 0.03969776917 -0.04737082672 0.8158962023 0.001636330066 0.5781960823
-0.003829643965 -0.02016059256 -0.01005580906 -0.2378006832 -0.9710431539 -0.02293530812
0.01994637171 0.004559735775 -0.05991196569 0.963852907 -0.1709000646 -0.2044033797
0.001695827 -0.02042911112 -0.009984099358 0.1354395994 -0.9906065635 -0.01883484322
0.00665954419 -0.01942787186 -0.009957009276 -0.3421184835 0.9396501327 -0.003545621745
-0.01270349042 -0.0160874637 -0.01542204507 -0.6125192538 -0.7897781907 0.03271961492
-0.01340952849 -0.009885100126 -0.05921247959 0.5894553646 0.7018553241 0.3999268398
0.009289134502 -0.0183402133 -0.009959509492 0.4405271562 -0.8977150941 -0.006590483707
0.01731502893 -0.01101150597 -0.01513769754 0.8522688202 -0.5231038608 -0.0004571310066
0.01235765159 -0.01636358637 -0.00998390314 0.6176527848 -0.786238102 -0.01829438096
0.01524813175 -0.01383911324 -0.01002684331 0.7602033242 -0.649146402 -0.02645476435
0.0173131566 -0.01100603207 -0.01008815547 0.8525258 -0.5221828285 -0.0229096893
0.01499486446 0.05441698456 -0.0465477829 0.7366056668 0.05270661789 0.6742656035
-0.003826773299 -0.02016742282 -0.01508908908 -0.2379548617 -0.971276183 0.0002453966083
0.01916396713 -0.007433541298 -0.01017360914 0.9121155829 -0.4099326555 -0.0006176127537
0.009291244189 -0.01834584618 -0.01494464366 0.4393824334 -0.8983000695 0.0002498365585
0.02046152544 -0.001964170903 -0.01032023954 0.9891367687 -0.1469390445 0.004167732656
-0.0175404129 -0.01071153665 -0.01498718929 0.7422466286 0.6701199977 -0.003021741684
0.01993000412 -0.00509292078 -0.01535721938 0.9653705028 -0.2605262542 0.01363316701
0.02030180693 0.003434504449 -0.01497456431 0.9995721598 -0.02904771387 0.003424576038
-0.01739984004 -0.01102315903 -0.03528617732 0.7441664244 0.6677914397 0.01645982829
-0.008336788336 -0.01878288587 -0.015228525 -0.4196407057 -0.9075346253 0.01681017583
0.01149094257 0.004235370064 -0.07380704498 -0.5877169811 0.3444651151 0.7320741319
0.01983832995 0.04980690893 -0.05532740021 0.9819656886 -0.007829927493 0.1888970053
0.01524813175 -0.01383911324 -0.01504594962 0.7612984592 -0.6484011844 0.0007484093581
0.01916706594 -0.007442923864 -0.01526574326 0.9124534706 -0.4088527443 0.01637368186
0.02046506246 -0.001975201885 -0.01548569647 0.9885125477 -0.1491396473 0.02450119668
-0.01746858533 -0.01087076505 -0.02474323845 0.7392211451 0.6734504223 -0.004077668579
-0.01269935767 -0.01609679508 -0.01983681901 -0.611470582 -0.7908201077 -0.02659482111
0.001699868817 -0.02043919969 -0.01998620248 0.1338541493 -0.9910010384 9.288626284e-05
0.009293356657 -0.01835148668 -0.01993690538 0.4392789058 -0.8981319911 -0.01982345772
0.01236010879 -0.01637039518 -0.01998603117 0.6189283124 -0.7854474564 -0.0001932461224
0.01524813175 -0.01383911324 -0.02007242537 0.7610674641 -0.6486504528 0.005376348968
-0.009527787685 -0.01785842133 -0.04538479805 -0.4231478069 -0.8938847467 -0.1480405117
0.02031100655 0.003405379454 -0.03983162053 0.9990868043 -0.04246126294 0.004753793722
0.01731683683 -0.01101678737 -0.02019447978 0.8520846596 -0.5229683363 0.02135069239
-0.003692869186 0.00323436141 -0.07695851898 -0.1969391552 -0.3976055378 -0.8961723079
0.01930913925 0.02227662659 -0.06777236176 0.9525577291 -0.03851081198 -0.3019117256
0.02049157651 0.05383252335 -0.05934825643 0.9986016308 0.01630174172 0.05028952262
0.01179079676 0.04429759598 -0.04380911827 0.682365397 0.03892485784 0.7299741916
0.01916972542 -0.007450976054 -0.01963586871 0.912311163 -0.4091990685 -0.01563534928
0.01779684877 0.02454811382 -0.05033017254 0.8946739421 0.02498453619 0.4460205267
0.01993366241 -0.005104162216 -0.01975333786 0.9698252547 -0.2417150971 -0.03182431779
0.01562828529 -0.009985709906 -0.05457936716 0.7903933545 -0.5617722263 -0.2443160063
0.02046740341 -0.001982501745 -0.01991884677 0.9882586971 -0.1520789086 -0.014722538
0.02031549644 0.003391165257 -0.02022354889 0.9994182566 -0.03405218082 -0.001896677928
-0.01269472539 -0.01610725749 -0.02499608684 -0.6088078944 -0.7928699108 -0.02665055767
-0.008473437377 -0.0187277407 -0.02500327138 0.4190940443 0.9079428067 -0.0002045296602
0.0191728344 -0.007460386157 -0.02474297667 0.9121454144 -0.4095637952 -0.01575565575
0.01993793869 -0.00511729908 -0.02489071178 0.9695276961 -0.2427751184 -0.03280683361
0.006349703014 -0.01409767139 -0.06003991175 0.2737185014 -0.8392791557 -0.4697751386
0.02046957302 -0.001989266336 -0.02509977579 0.9878782972 -0.1552302573 0.0001927214862
-0.00707389307 -0.01432481742 -0.05920492268 -0.3412163801 -0.8274807492 -0.4459226297
0.02031549644 0.003391165257 -0.02473182233 0.9995860707 -0.02694252788 0.01008897639
-0.003822841909 -0.02017672687 -0.02517907397 -0.2377815327 -0.9713177215 0.001351515208
0.001700942993 -0.02044185845 -0.02499978813 0.1338097875 -0.9910070015 -0.0002524897659
0.006662583086 -0.01943570582 -0.02493235715 0.351522456 -0.9360773757 -0.01382424087
0.009295472781 -0.01835713832 -0.02493787956 0.439403407 -0.8980621078 -0.02022613385
-0.008331290642 -0.01879551442 -0.02978934129 -0.4164684211 -0.9090309875 -0.01472134557
0.01236108454 -0.01637309885 -0.0249995691 0.6178398264 -0.7863030171 0.001230537858
0.01524813175 -0.01383911324 -0.02510785294 0.7608405012 -0.6489109976 0.006020707158
0.01731864781 -0.01102207788 -0.0252601045 0.8517086863 -0.5236517071 0.0195244289
-0.0174296627 -0.01095704913 -0.03000820494 0.7364922507 0.6764418367 -0.002367722213
0.02031549644 0.003391165257 -0.03000269079 0.9995185064 -0.03102826228 4.840636399e-05
-0.01269033639 -0.01611717399 -0.03016623974 -0.6067014941 -0.794462825 0.02724181878
0.006663289269 -0.01943751812 -0.02994466654 0.3501587768 -0.9366902929 -0.0003552674305
-0.003821806351 -0.02017916393 -0.03024091959 -0.2386132568 -0.9708583129 0.02231254981
0.001701670557 -0.02044364524 -0.03002565527 0.1336916588 -0.9910228435 -0.0005139095562
0.01496140575 -0.008616315365 -0.05875347137 0.7354125082 -0.5758036682 -0.3572374259
0.009297594309 -0.01836280251 -0.02995092058 0.4396466884 -0.8981688886 -0.001853885228
0.01236186284 -0.01637525713 -0.03002536047 0.6191086329 -0.7853047677 -0.0009604858771
0.01723142728 -0.01117286873 -0.03012905381 0.8521897274 -0.5232328973 -6.018592387e-05
0.01524813175 -0.01383911324 -0.03015562344 0.7607038746 -0.6490891102 0.003597539579
0.01917570305 -0.00746907107 -0.02986092186 0.9125249245 -0.4090210581 -0.000190373968
0.01994222387 -0.0051304636 -0.03003879865 0.9539535659 -0.2999541697 -0.0003002982519
-0.003686776177 -0.019826609 -0.04502559315 -0.1590656409 -0.9779448091 -0.135359049
0.02047174644 -0.001996045351 -0.03029170926 0.9878521133 -0.1546747677 0.01496390251
0.009562270164 0.05460023117 -0.042390625 -0.5349997432 0.00438357806 -0.8448408483
-0.01250858307 -0.01626856123 -0.03501037598 0.605933664 0.795509351 0.00304424219
0.01942702484 0.006203875065 -0.06332373428 0.9247135713 -0.1985928616 -0.3247548097
-0.008329460502 -0.01879971862 -0.03490987873 -0.4165161721 -0.9089061299 -0.02009789727
0.01741870079 -0.01086819992 -0.03515037308 0.8516362957 -0.5241072588 -0.005215470001
0.01917610168 -0.007470279217 -0.03499411774 0.9119384221 -0.4102425318 0.008329428742
0.01994359779 -0.005134687424 -0.03520224857 0.9701863566 -0.2412598924 0.02306724418
0.02047361437 -0.002001870672 -0.03475324249 0.98876105 -0.1487341278 -0.01515735163
0.02031549644 0.003391165257 -0.03528698985 0.9995251872 -0.03061219622 -0.003506211995
0.01481255817 0.00097708565 -0.06887076569 0.7221187815 -0.3901425531 -0.5712558566
-0.003820798397 -0.02018153487 -0.03531624519 -0.2328304055 -0.9724925228 0.006949487468
0.001702400059 -0.02044543695 -0.03506491947 0.1349499834 -0.9908513783 -0.001431122838
0.006663935767 -0.01943917741 -0.03497035429 0.3499731432 -0.936753403 -0.003443977313
0.01730747668 0.04435008494 -0.04957208506 0.8251050543 0.0258713636 0.5643866776
0.009299657504 -0.0183683122 -0.03497722117 0.4396936083 -0.8981325539 -0.005238930772
0.01236218437 -0.01637616022 -0.03506467946 0.6189706024 -0.7854118154 -0.001916642443
-0.002933534765 -0.006116753483 -0.07093764801 0.09582134318 0.6492356277 0.7545272493
0.01698031831 0.008896767378 -0.06985439682 0.838331359 -0.199558685 -0.507323234
0.01524813175 -0.01383911324 -0.03521690623 0.7604293493 -0.649420424 -0.0005635752261
0.005737298965 0.05529070663 -0.04083115768 -0.4646886573 0.005951300286 -0.8854541399
0.006584661007 0.05843604279 -0.04111468887 0.4422129872 0.01242082611 0.8968240614
0.008522229195 0.04921476173 -0.04187053299 -0.5422170645 -0.004426875728 -0.8402267894
0.01020809937 0.0584821701 -0.04276985931 0.5718962514 0.0565545288 0.8183741582
-0.01288044262 -0.01594703157 -0.04015516118 -0.6599760337 -0.7499187516 -0.04531556934
0.02047310162 -0.002000271469 -0.03997502422 0.9867164473 -0.1622613994 -0.007867081859
-0.002121059299 -0.0007929819028 -0.07495816549 0.1005774948 0.5743460992 0.8124104418
0.01221178691 0.04004973094 -0.0441707751 0.7403533833 0.0001299063013 0.6722178597
0.01289764595 0.04943253581 -0.04462242254 0.6602866213 0.03516773756 0.750189848
0.0122181921 0.05474863625 -0.04406619453 -0.6377434636 -0.03421790747 -0.7694884076
0.02056889343 0.002588969072 -0.05036256536 0.9957187258 -0.07627428778 -0.05221543889
-0.008339385748 -0.01877680333 -0.04004963875 -0.4143698305 -0.9090084822 -0.04473502924
-0.003662944293 -0.02018675232 -0.03996324272 -0.172344465 -0.9836710402 -0.05185238714
0.001691245593 -0.02041769862 -0.0401255393 0.1361747327 -0.9898297636 -0.0411519295
0.019965765 -0.0004182227875 -0.05451707331 0.9608332947 -0.2244789742 -0.1625071381
0.006654708505 -0.01941518195 -0.04001679389 0.3499714424 -0.9358802766 -0.04059676624
0.009291293621 -0.01834597778 -0.04002442169 0.439780044 -0.8972336228 -0.03956436599
0.01235349697 -0.01635219622 -0.04012469506 0.6205879168 -0.7835043004 -0.03149045657
0.01523778105 -0.01380952406 -0.04029962063 0.7575666622 -0.6520216811 -0.030991606
0.01731764645 -0.01101906766 -0.03980895318 0.8488391567 -0.5271748941 -0.03948059147
0.0191720047 -0.007457875411 -0.04014477412 0.9105869986 -0.4127951666 -0.02077181688
0.01993829727 -0.005118401686 -0.04038403193 0.968366487 -0.2495319266 -0.0004054919023
0.01274881744 0.03550805283 -0.04448226357 0.7494550858 0.009260580759 0.6619904199
0.00177411297 -0.01195551423 -0.06493733978 0.08766060832 -0.7731531711 -0.628131986
0.02052507973 0.02371987216 -0.05981611506 0.9976141038 0.0004845778431 0.0690352453
0.01317586803 0.03137907791 -0.04482408142 0.7544361286 0.004980445662 0.6563545711
0.01466066933 0.04347956848 -0.04616796875 0.735469258 0.03557043171 0.6766237617
0.01511258221 0.04789205551 -0.04666293716 0.7278868792 0.01588936719 0.6855131065
0.01670690441 0.05785267258 -0.04864354134 0.8018383862 0.09431700033 0.5900504266
0.02048972257 0.04128355026 -0.05920797348 0.9958551279 0.0002506990769 0.090953292
0.01797698339 0.04005134455 -0.05069575246 0.8650588962 -0.01931681419 0.5012982812
0.0173140254 0.03455116653 -0.04960185909 0.8357083702 -0.02241919183 0.5487156822
-0.01799682713 -0.009699760437 -0.04381072807 0.7534039575 0.6536031039 0.0720101343
0.02045308447 0.002955594003 -0.04508648968 0.9998723449 -0.01212036171 -0.01041108384
0.01533406448 0.03545919418 -0.04687931824 0.8079681934 -0.00265947045 0.5892200995
0.01766242981 0.04921559525 -0.0501653684 0.8332589591 0.008773595662 0.5528132878
-0.002693625808 -0.01342621851 -0.06282790756 -0.1496977597 -0.8392771707 -0.5226895938
0.01799673589 0.05430394236 -0.05078803507 0.8662606143 0.002005946107 0.4995883548
-0.0129705987 -0.01548552227 -0.04512154579 -0.6353104036 -0.7641285656 -0.1117507329
0.009696828842 0.01138179207 -0.07763191223 0.4843458728 -0.1816210266 -0.8558170822
-0.00757417957 -0.01872136688 -0.04517099826 -0.3370043508 -0.9318220868 -0.1346687274
0.01843195915 0.04245419312 -0.06973110962 0.8888049943 0.003907503123 -0.4582689315
0.01629464316 -0.005738098204 -0.05991361618 0.8067173228 -0.4755570957 -0.3507885544
0.01721870025 -0.01072793794 -0.04497756672 0.8407620118 -0.5320650184 -0.1001301937
0.01909817187 -0.00723436451 -0.04460564295 0.9110582879 -0.4073140672 -0.06378124084
0.01986104584 -0.004881070614 -0.04487319183 0.9585790807 -0.2798864584 -0.05281776588
0.02043318494 -0.001875796994 -0.04523229599 0.9821026452 -0.1859838932 -0.02973862336
0.01554572296 0.02376106644 -0.0470864296 0.8236167279 0.03250608462 0.5662144824
0.01760243773 0.02933628368 -0.05015614605 0.8565408908 0.025934705 0.5154270982
0.001767678115 -0.02008526854 -0.04510735286 0.06707574311 -0.9905279752 -0.1198130839
0.01512349129 -0.01348280144 -0.0454452095 0.7445251513 -0.65713456 -0.1177135043
-0.007736546135 -0.01008772717 -0.06499899673 -0.3005339556 -0.7492989245 -0.5901105517
0.01988405482 0.02965677706 -0.06574447378 0.9743120871 0.01872846975 -0.224421927
0.01789500093 0.01883933687 -0.05036521435 0.9105818176 0.1010089581 0.4007966365
0.01916751289 0.05867907333 -0.05305313492 0.9284715266 0.02999923023 0.3701900464
0.009149053097 -0.01796614838 -0.04586867332 0.429683973 -0.8935065236 -0.1304521965
0.01822527742 0.003783865213 -0.0649120388 0.8550686149 -0.2908841077 -0.4292366476
0.01918816185 0.04588924789 -0.05310909271 0.9173295031 -0.01361718644 0.3978959097
0.01964155388 0.05694391251 -0.05456553268 0.9547312737 0.005695037078 0.2974151335
-0.01290986991 -0.01471059728 -0.04934317875 -0.6302488973 -0.7556766343 -0.1781548535
-0.008909900427 -0.01700319517 -0.05047971106 -0.4408158725 -0.8572103869 -0.2662174283
0.01862705154 -0.006734545422 -0.05033671875 0.8982116993 -0.4047475061 -0.171450283
0.01961218357 -0.004116520584 -0.05021696091 0.9496056185 -0.2937591945 -0.1093375733
0.01969126797 0.01043501568 -0.05072070313 0.9853572713 0.1328648215 0.1068549814
0.0154195207 -0.003920497815 -0.06382239532 0.7669220264 -0.4619975824 -0.4454086206
0.01920829773 0.03386779022 -0.05316722488 0.9263314608 -0.002921310127 0.3766981427
0.004143254757 0.01318437672 -0.08004122925 0.3582701368 -0.203087717 -0.9112617013
0.01927433586 0.0518364563 -0.06783319855 0.9519081016 -0.007445199237 -0.3062932175
0.01966887283 0.03814912224 -0.05457264519 0.9529273668 -0.01560662996 0.3027967417
0.01987515259 0.0434582653 -0.05530482674 0.9451465777 0.002522879113 0.3266367735
0.02028296566 0.02453565788 -0.06403499985 0.9917350836 0.009267456384 -0.1279673327
0.02009575081 0.05528139114 -0.0560748024 0.971012084 0.01768217677 0.2383754881
-0.01544549656 -0.0117321496 -0.05103483963 -0.6721702084 -0.7074960871 -0.2182578697
-0.006105255842 -0.01847100258 -0.04955305862 -0.2878414972 -0.9339520302 -0.2118510747
-0.002728106009 -0.01906765832 -0.05001249864 -0.1280115955 -0.964507811 -0.2309495919
0.001988254239 -0.0192365 -0.04971879959 0.08571869041 -0.9730592888 -0.2140278642
0.02011386045 0.01426724148 -0.05517540614 0.9933071654 0.06401832598 0.09613807335
0.005839038372 -0.01862008349 -0.04910558828 0.2710190589 -0.9368589567 -0.221006708
0.00798988088 -0.01758505758 -0.05010887082 0.4070823244 -0.8787955971 -0.2490025697
0.01197913257 -0.01531820854 -0.04973520978 0.5936912873 -0.7798002138 -0.1986008105
0.01628922462 -0.01084126455 -0.05002320827 0.8052090034 -0.5648606258 -0.1804741928
0.01922900391 0.02254238129 -0.05322700882 0.9415717507 0.01142654793 0.3366185857
0.01995704587 0.02940484047 -0.05581032054 0.9845445957 0.003637374266 0.1750962838
0.01995193863 0.03423508644 -0.05568283653 0.9752695346 0.00134396527 0.2210147704
0.01251817173 -0.006522370921 -0.06488937293 0.6026209183 -0.5792725941 -0.5489000734
0.02053293101 0.06026183955 -0.06028887558 0.9974479265 0.06579925587 0.02771447047
0.02051006031 0.007802968979 -0.05497162437 0.998338334 -0.03026771124 -0.04903505399
0.02003858185 0.01985757446 -0.05601421738 0.9872876897 0.01752025389 0.1579748664
-0.00371984521 -0.01721645273 -0.0552061348 -0.2051378974 -0.9002967238 -0.3839065669
0.02006143665 0.02528208447 -0.05601317596 0.976163546 -0.0176597917 0.2163165811
0.02053019333 0.04731722132 -0.06011435699 0.9997265285 -0.008027364547 -0.0219642806
-0.01666642761 -0.008993774414 -0.05378824997 -0.686130444 -0.6665001121 -0.2915520783
-0.01173498376 -0.01402363904 -0.05426966222 -0.5345578387 -0.7850129964 -0.3130535298
0.02041325569 0.003081683477 -0.05503055445 0.9910664139 -0.1060038923 -0.08093539425
0.0205262146 0.03516514715 -0.05995801163 0.9993965529 0.005447883534 0.03430525779
-0.01388207865 -0.0115851965 -0.05553278732 -0.5835737992 -0.7365435343 -0.3419725764
-0.00226853615 -0.0182907877 -0.05304482269 -0.08245139154 -0.9478707111 -0.3078033189
0.001659125298 -0.01841310374 -0.05278954951 0.07425991852 -0.9498322399 -0.3038160309
0.00664237959 -0.0165274381 -0.05478343855 0.3267179622 -0.8753658902 -0.3563564668
0.01097687356 -0.01431287495 -0.054718057 0.5077847479 -0.7983969938 -0.323599892
0.01791482067 -0.005974916697 -0.05527088674 0.8636726487 -0.4273719531 -0.2672503874
0.01932589722 -0.003236997128 -0.05411577225 0.9231613107 -0.3379816815 -0.183143598
0.02054886246 0.02927751859 -0.06069611613 0.999476215 0.02544290998 -0.0199988472
0.02029345703 0.05455771637 -0.06384660149 0.995496352 0.004872867628 -0.09467453905
0.01905618954 -0.002408406734 -0.05652698708 0.9115746146 -0.3330157423 -0.2411062783
0.014210042 0.01753008842 -0.07533161926 0.7318332109 -0.08325116029 -0.676379624
0.02054026413 0.01287515799 -0.05968081792 0.9985645143 -0.03596821815 -0.03968876605
0.02053972689 0.0181956234 -0.06054394277 0.9998916881 0.01167325515 -0.008963657509
-0.002869058847 -0.009073699474 -0.06820252991 -0.1643310772 -0.7158930473 -0.6785959342
0.01996161079 0.04012581253 -0.06498522568 0.9760915622 -0.02209437084 -0.2162339035
0.02013655567 0.04873373795 -0.06467149353 0.9827270753 0.007526054856 -0.1849076904
0.01953300953 0.00093125844 -0.05856416702 0.9412937025 -0.2471563034 -0.2299563598
0.02029291979 0.008500979741 -0.06054826482 0.9807013845 -0.07180700075 -0.1818475987
0.02022550106 0.03621178055 -0.06433118057 0.9921621812 0.01050731826 -0.1245142661
0.01994852543 0.04319862747 -0.06549967194 0.9674531947 -0.005417304224 -0.2529920334
0.01953579521 0.0573310318 -0.06696928406 0.9749260299 0.03115475604 -0.2203375077
-0.009134570599 -0.01229571676 -0.06081738663 -0.3889477483 -0.7861762162 -0.4802568127
-0.002952472813 -0.0152038089 -0.05972186947 -0.1066467411 -0.8677248063 -0.4854689826
0.01186928265 -0.01092579878 -0.05987581928 0.5974505549 -0.6851376826 -0.4167003604
0.01810032463 -0.001378576905 -0.06085611649 0.8661019947 -0.3617037912 -0.3450184084
0.01916932869 0.002065340757 -0.06107493973 0.9184856032 -0.2559807918 -0.3014266592
0.01994803874 0.01480859947 -0.06480436325 0.9660210228 -0.07178411165 -0.2482950357
0.02011487293 0.01960457325 -0.06482472992 0.9712565153 -0.01527365486 -0.2375447261
0.01889105606 0.0469405899 -0.06876293182 0.9169448086 0.008264218157 -0.3989284656
0.01778229237 0.05402518845 -0.07091397095 0.8895386696 -0.02746715577 -0.4560334535
0.01799431133 0.02390499783 -0.07059682083 0.8889519606 -0.02412867987 -0.4573644264
0.007489904761 -0.01250409913 -0.06192097664 0.3714960942 -0.7844893483 -0.4965552481
0.01960982323 0.01069682503 -0.06489011765 0.9385843716 -0.1038819545 -0.3290409046
0.01817783451 0.03448647308 -0.07003239059 0.8655549558 0.004562047769 -0.5007931771
-0.01191460276 -0.006730643511 -0.06543093872 -0.4469009852 -0.65066505 -0.6139336301
-0.01270536709 -0.0009991941676 -0.0696613884 -0.4613580365 -0.5599077423 -0.6882238606
-0.00351934135 -0.0113986462 -0.0652736791 -0.1907655901 -0.75160276 -0.6314283656
0.01059429359 -0.009361080488 -0.0636548996 0.5019512686 -0.6841749742 -0.5291025691
0.016177848 -0.0004142413991 -0.06565299661 0.8091235735 -0.3834106402 -0.445326087
0.01881657028 0.008136436939 -0.0660529747 0.8949967137 -0.184489974 -0.4061333917
0.01872570038 0.02978274918 -0.06915278625 0.942288837 0.0111377451 -0.3346157472
0.01794065857 0.03820834732 -0.07071064758 0.8670705278 -0.01055033644 -0.4980736794
0.01663836861 0.04869677734 -0.0726685257 0.8732387272 -0.02805077335 -0.4864846138
0.006791675091 -0.01047946004 -0.06507398006 0.3125426011 -0.7416606645 -0.5935120733
0.01807087517 0.01391377513 -0.06954304504 0.8563948012 -0.1191196064 -0.5023927387
0.01789175129 0.01884623814 -0.07048260117 0.8706653334 -0.06811853411 -0.4871362668
0.0155936079 0.04624495697 -0.07402306366 0.8264068013 0.01029610417 -0.5629793859
-0.007615665913 -0.006303832531 -0.06908138275 0.302419241 0.6407845535 0.7056470497
0.01594617653 0.00471152246 -0.06951504135 0.8051433601 -0.2736049505 -0.5261981572
0.01580710411 0.03109357071 -0.0737399559 0.8250536893 -0.00128676334 -0.5650528772
0.01376603985 0.04649395752 -0.07591625214 0.8146741115 -0.01960003877 -0.5795877246
0.001334226797 -0.009676972389 -0.06777874756 0.01316687862 -0.7480985051 -0.6634570521
0.006714706779 -0.005672925472 -0.07007784748 -0.2799498208 0.6444896243 0.7115203595
0.01056880736 -0.004925591588 -0.06841239738 -0.5010940464 0.5649104561 0.6555767943
0.01189049709 -0.000853959389 -0.07046247005 -0.6081206669 0.4469904139 0.6560402612
-0.0103658247 -0.0006492004395 -0.07193047333 0.3695506815 0.5504421288 0.7486292518
0.001754897133 -0.006674401999 -0.07062995275 -0.08659486204 0.6573219348 0.7486181963
0.01414054012 0.002982028008 -0.07086132812 0.6814118319 -0.3611500236 -0.6365913727
0.01592498016 0.01218232727 -0.07254547882 0.7781537862 -0.1912113562 -0.5982598952
0.01581332684 0.01764404488 -0.07362313843 0.8043316971 -0.08834986619 -0.5875753758
0.0124415617 0.0337395401 -0.07699028015 0.7578300253 0.0444479739 -0.6509362721
-0.006156571388 -0.0008856954575 -0.07393800735 -0.2842741753 -0.5379960329 -0.7935669233
0.0130347681 0.00868073082 -0.07443971252 -0.6592794246 0.2509916751 0.7087692285
0.01439836216 0.01190125942 -0.07419315338 0.7336336918 -0.2024630288 -0.6486835347
0.001941603308 -0.000858107686 -0.07489444351 -0.07608632766 0.5401516872 0.8381211282
0.006719863892 -0.000793093048 -0.07375988579 -0.3507337452 0.492235749 0.7966742166
0.01247088718 0.01282797146 -0.07612046051 -0.6282484127 0.1403306977 0.7652523944
0.006667565465 0.003813332707 -0.07628351021 -0.3961567783 0.3973172128 0.8277673824
0.009131627083 0.008285667419 -0.07702942657 -0.4695746113 0.2952822167 0.8320505375
0.00244587489 0.008738798777 -0.07923339335 0.1669318285 -0.3587622765 -0.9183808543
