# .PCD v0.7 - Point Cloud Data file format
VERSION 0.7
FIELDS x y z normal_x normal_y normal_z
SIZE 4 4 4 4 4 4
TYPE F F F F F F
COUNT 1 1 1 1 1 1
WIDTH 555
HEIGHT 1
VIEWPOINT 0 0 0 1 0 0 0
POINTS 555
DATA ascii
0.01886748505 0.01833628273 -0.06870588684 0.9307079774 -0.03345310571 -0.3642300791
0.008001389503 -0.01895561028 -0.006398838997 0.3751867203 -0.9268926487 0.01024415139
0.009902017593 -0.01794735527 -0.04221147728 0.4724924824 -0.8795506773 -0.05604873031
0.01411477852 -0.0149272747 -0.0007145467997 -0.690762555 0.7226094754 -0.02612735429
-0.01755615044 -0.01067665005 -0.0007489578128 1 2.174211719e-15 4.529658844e-15
-7.995354384e-05 -0.01793466187 -0.05444168854 0.00317861887 -0.9363153731 -0.3511458649
0.02042195797 -0.001840786994 -0.04598736 0.981478462 -0.186993231 -0.0416360444
-0.01395467186 -0.01507585621 -0.0007369853258 0.6211347091 0.7837032048 -0.0009797481136
0.003908221483 -0.02020266342 -0.01210234547 0.2015837822 -0.9794706221 0.001131040692
0.005307846546 -0.01987490273 -0.01209471416 0.2578378669 -0.9661878526 0.0008172030724
-0.01147980881 -0.01703697968 -0.0007308858633 0.569917807 0.8215984518 -0.01302601849
0.001725795671 -0.02049838305 -0.03001930189 0.07702167836 -0.9969795379 -0.0099730719
-0.00554549551 -0.01978778648 -0.0007202352881 0.233047568 0.9724601969 -0.003161724843
0.01524813175 -0.01383911324 -0.01576337481 0.7355117593 -0.6774644267 -0.008025117403
0.02026655006 0.03024419594 -0.06417093658 0.9599020575 0.2803355845 8.401420522e-07
-0.01395348167 -0.01507852364 -0.002210964918 -0.6211972962 -0.7836535847 0.0009891201881
0.01412418604 -0.01495379591 -0.03586676025 0.686068534 -0.7275070523 -0.006592084327
0.01829735756 -0.009419677734 -0.03409727859 0.881292485 -0.4725682724 0.001668475937
-0.009332439423 -0.01830704308 -0.0007264680862 0.4700757136 0.8826252688 -0.001207594496
0.008002488613 -0.01895850563 -0.03424787712 0.3774941444 -0.9259894689 0.006455569396
0.00172466135 -0.02049557972 -0.0221289072 -0.07671011891 0.9970534336 9.035463044e-05
0.01849363518 -0.0006801415682 -0.06064550018 0.9006922869 -0.3118808477 -0.302462793
-0.002151350021 -0.02045119095 -0.0007160336375 0.1097579126 0.9933643357 -0.03435836417
-0.01755615044 -0.01067665005 -0.003744931698 1 -0 1.805953975e-15
-0.005730228901 -0.01935321808 -0.04572796631 -0.2668276419 -0.9543867323 -0.1339737839
-0.003809523582 -0.02020126534 -0.0007179302573 0.1914838404 0.9810810972 -0.02852752442
0.02034679222 -0.001606392741 -0.0482767601 0.9756558695 -0.2058592386 -0.07561480189
0.009925929308 -0.0180117588 -0.01423596764 0.4843990498 -0.8747897036 0.01002671844
0.02047478485 -0.002005521655 -0.03997356606 0.9859254868 -0.1671452286 -0.003661567184
0.009923475266 -0.0180051775 -0.006403050184 -0.4837652627 0.875193541 0.00272698343
-0.0005661692619 -0.02054290581 -0.0007145305276 0.04690588643 0.9986034165 -0.02431160968
0.01176968479 -0.01683931351 -0.0007123528719 0.5864531723 -0.809644406 0.02342247949
0.006608825207 -0.01929548836 -0.04364618301 0.328822896 -0.9406247627 -0.08426481426
0.00800275898 -0.01895921898 -0.01209054375 0.3759175177 -0.9266528776 0.000681411615
0.001716016948 -0.02047404194 -0.0007127987742 -0.09077508379 0.994731325 -0.04763900924
-0.003999755144 -0.01599538612 -0.05797315979 -0.1867513323 -0.8815014777 -0.4336808557
0.00992413187 -0.0180069437 -0.007826401711 -0.4837370182 0.8751992789 -0.004971859547
0.01487602615 -0.01277536869 -0.04994897842 0.7326807646 -0.6587731344 -0.1708708709
-0.007352035522 -0.01923369217 -0.003614620447 -0.3340670695 -0.942549286 -0.0001910540438
0.01632040215 -0.01255638599 -0.03240694809 0.7849080926 -0.6194695562 0.01329492489
-0.01147669125 -0.01704405403 -0.003654484034 -0.5718433705 -0.8203546216 -0.003668034403
0.02025087929 0.003595731258 -0.003743210316 -0.1287963738 -0.9916676505 0.002600975094
0.02047236824 -0.001997985005 -0.03177726364 0.9860508156 -0.1664432477 0.0006590217403
0.01177038956 -0.01684124565 -0.002137072325 0.5870724593 -0.8095337323 0.001031382041
0.01931850624 0.01163327599 -0.05012339401 0 0 1
0.005303040504 -0.01986256218 -0.0007111575603 -0.2375263755 0.9710454942 -0.02553172805
0.003902158022 -0.02018729401 -0.0007116134167 0.2022368001 -0.9791064849 0.0212312955
0.006665293694 -0.01944236183 -0.0007109399438 -0.3403075817 0.9399683656 -0.02549944109
0.02046797371 -0.001984280467 -0.04221934891 0.9846263606 -0.1739264094 -0.0161410685
0.001717488855 -0.02047770977 -0.004276997149 0.07794866617 -0.9969568474 0.001024611128
-0.002187333345 -0.02036444855 -0.04249294662 -0.1104618392 -0.9911729997 -0.07330939041
-0.009331372261 -0.01830949593 -0.002179414511 -0.4701892843 -0.8824938935 0.01125010858
0.005312061787 -0.01988572502 -0.02207784081 0.2599695711 -0.9656168044 9.594336191e-05
0.007998956203 -0.01894919586 -0.0007109068632 0.3748406409 -0.9268706323 0.02013268278
0.02058392334 0.002541389227 -0.05035454559 0.9960628932 -0.08515154901 -0.02465616635
0.003912712336 -0.02021404648 -0.02209172821 0.2023888696 -0.9793051697 0.0003607372968
0.009922490597 -0.01800252819 -0.004268450618 0.4849541306 -0.8745386507 0.001280518655
0.009920849323 -0.01799811363 -0.0007113761604 -0.4826745029 0.8750808771 -0.03547933019
0.01297606182 -0.01598384762 -0.0007132116556 -0.6176393298 0.7860151667 -0.02649181118
0.001699766487 -0.01656997967 -0.05750744247 0.07139204691 -0.9024947171 -0.4247428179
-0.000561591804 -0.02055407715 -0.01644737625 -0.03871975226 -0.9992363777 0.00523854324
0.01524555874 -0.0138317585 -0.0007159814239 0.7473263809 -0.6640386162 0.02357958113
0.02045496178 -0.001943705678 -0.0007369624972 0.985437656 -0.1700336944 0.001081121882
0.01734448624 -0.01110855675 -0.03833649826 0.8262778227 -0.5632523827 -0.003422437547
0.02057287598 0.007601045132 -0.05571389008 0.9548640899 0.2970430438 1.473482914e-07
0.01550367212 0.001265974671 -0.06810535812 0.7514370162 -0.3690070777 -0.5469700058
0.01630296135 -0.01250582123 -0.0007179570794 0.7982106316 -0.6015919385 0.03077218025
0.02031549644 0.003391165257 -0.03604294777 0 0 1
0.01733085823 -0.01106847572 -0.0007201971412 0.8256220165 -0.5641995485 0.005211077604
-0.007392023325 -0.01914075279 -0.04216630363 -0.3394273307 -0.9389205212 -0.05672161801
0.01177144575 -0.01684414387 -0.004274305463 0.5862053079 -0.8101618909 0.001023455369
0.01829200935 -0.009403721809 -0.0007229675651 0.876405225 -0.4813360593 0.01514858777
0.005317560673 -0.01989984322 -0.03785552216 0.2616725758 -0.9650966232 -0.0107689802
0.01520974922 0.03027770042 -0.07446002197 0 0 1
0.01915821648 -0.007416134357 -0.000726485312 0.9369729591 -0.3493995686 0.001270988413
0.003912712336 -0.02021404648 -0.03788109589 0.1999245964 -0.9797484035 -0.01110052549
0.02024958611 0.003599826574 -0.002245897293 -0.08354859556 -0.9965001717 0.002653283875
0.01918816185 0.04588924789 -0.05310909271 0.9102921224 -0.01245513293 0.4137790733
-0.007352725506 -0.01923208809 -0.00216872859 -0.3311083684 -0.943298362 0.02356795718
0.01524813175 -0.01383911324 -0.0258279314 0.7412751988 -0.671177354 -0.005660310547
0.02047486305 -0.0020057621 -0.03773361588 0.9859335815 -0.1671372315 0.0003446246877
0.01991782951 -0.005055519104 -0.0007308626175 0.9721157002 -0.2341195662 0.01338260857
0.01411518288 -0.0149284153 -0.00214365983 -0.6912245714 0.7226391163 -0.001139956944
0.01414054012 0.002982028008 -0.07086132812 0.6895492189 -0.3586766573 -0.6291843373
-0.01755615044 -0.01067665005 -0.002246901989 0 0 1
0.01508191204 -0.00896569252 -0.05793877029 0.7552932438 -0.5640167891 -0.3337921171
0.01889105606 0.0469405899 -0.06876293182 0 0 1
0.001725485861 -0.02049761772 -0.02786421967 0.08737411435 -0.9961719876 -0.002671192317
0.00800261116 -0.01895882797 -0.02421457291 0.3768027383 -0.9262668125 0.007034798266
0.01829651165 -0.009417154789 -0.01591688013 0.8809949494 -0.4730726602 -0.007082185087
0.01524635506 -0.01383403397 -0.002147955894 0.7478898715 -0.6638103787 0.004064629964
-0.007351618528 -0.01923466015 -0.02607791901 -0.3384810224 -0.9409731494 0.000359888159
-0.01147824955 -0.01704051781 -0.002192660093 -0.5753061233 -0.8177412869 0.01794581356
-0.01761260605 -0.01055150175 -0.04216927528 0.9115458997 0.4111983375 -4.276629415e-07
0.02046988297 -0.001990233064 -0.02584015656 0.9858945375 -0.1673658451 0.0007967992586
0.01697444344 0.05372271347 -0.04901331329 0.8447725489 0.00258414942 0.5351192977
0.01993366241 -0.005104161739 -0.01975309753 0.973517665 -0.2282606784 -0.01266564457
-0.005544639587 -0.01978979874 -0.002160718918 -0.2354395111 -0.9717859044 0.01415600966
0.0189798851 -0.006876283169 -0.04762173843 0.9235143674 -0.3675295898 -0.1097415774
-0.01395229244 -0.01508119202 -0.003685003042 -0.6212954339 -0.7835757451 0.001017560505
-0.003487227917 -0.001457179427 -0.07440137482 0.2085421389 0.537059223 0.8173601209
-0.003808603287 -0.02020345688 -0.002153802633 0.1918063402 0.9814288694 -0.002775292913
0.005315384865 -0.01989425755 -0.02994946098 0.2613452938 -0.9652148541 -0.007676123499
-0.002150444269 -0.02045337486 -0.002148112774 0.1169805735 0.9930995739 -0.008293473279
0.0201531353 0.003905168533 -0.05824660492 0.974608717 -0.1415980003 -0.1734585112
0.003912712336 -0.02021404648 -0.02996914482 0.2026997309 -0.9792092378 -0.00787957411
0.01917238998 -0.007459039688 -0.0240122261 0.9348458361 -0.3550529542 0.0008138758695
0.008082310915 -0.01305569744 -0.06066349792 0.4070156634 -0.7849267173 -0.4671491178
-0.01742966652 -0.01095704174 -0.0300077486 9.712475154e-07 -0.9998657371 0.01638620877
-0.0005657534599 -0.02054392052 -0.002143611431 -0.04656708914 -0.9989144981 0.001154030244
0.009921505451 -0.01799987888 -0.002134143233 -0.483419893 0.8749913048 -0.02637088504
0.02047423744 -0.002003815174 -0.03624251938 0.9859467282 -0.1670597733 0.0002850706673
0.0117802639 -0.01686833191 -0.02211454391 0.5877757037 -0.8090200263 0.002513809586
0.008301838875 0.006018405437 -0.07661925507 -0.4348182174 0.3684689834 0.8216834707
0.001716605633 -0.02047550869 -0.002138413191 -0.08679472499 0.9960699746 -0.01764316631
-0.01755615044 -0.01067665005 -0.008240104675 -0 -1 -2.838362328e-15
0.005303640842 -0.01986410522 -0.002133488894 -0.2447047484 0.9695104689 -0.01300141555
0.003902915716 -0.0201892128 -0.00213485384 0.2015911025 -0.97946905 0.001186342041
0.008002541542 -0.01895864391 -0.02994110012 0.3772082911 -0.9261066954 -0.006347745923
-0.005543784142 -0.0197918129 -0.003601265669 -0.2383879361 -0.9711685471 0.001686721107
0.006665886879 -0.01944390678 -0.002132836103 -0.3333503811 0.9427143679 -0.01292841968
0.01178372669 -0.01687783051 -0.03431427956 0.5873094199 -0.8093011624 0.00996362401
-0.002143012285 -0.02047129059 -0.03232324219 -0.1072346813 -0.9942242968 0.004332516455
0.007999564171 -0.01895079803 -0.002132736444 0.375768156 -0.9267129317 0.001197974596
0.00667194128 -0.0194596529 -0.02994172096 0.3239973739 -0.9460303442 -0.007231157356
0.01297646999 -0.01598498249 -0.00213965416 -0.6236499163 0.7815881595 -0.01344361521
0.02021113968 0.04226934052 -0.06447759247 0.9623124751 0.2719461348 -9.52077384e-07
0.01298007011 -0.01599499321 -0.02788151741 0.625683112 -0.7800662309 -0.00416157383
0.0163037529 -0.01250811195 -0.002153882742 0.7988175059 -0.6015676534 0.002636417586
0.01733154488 -0.01107049847 -0.002160604954 0.8264323363 -0.5628171817 0.01569756406
0.02049431801 0.04126728821 -0.06260025787 0.962312045 0.271947657 -7.469329871e-08
0.02056162643 0.02359672928 -0.05979489136 0.9586699615 0.2845204825 4.465961412e-08
-0.009309415817 -0.01835991955 -0.03205768776 -0.4616745217 -0.8870488218 0.001011762257
0.01829269218 -0.009405762672 -0.002168915987 0.8764571419 -0.4809531301 0.02251588536
0.01631562805 -0.0125425415 -0.02373076439 0.793208316 -0.6089344539 -0.004404348807
0.003912712336 -0.02021404648 -0.03643952179 0.2023630904 -0.9792766516 0.008149799902
-0.01266840458 -0.01064588833 -0.059420578 -0.6236049898 -0.6653699825 -0.4103652069
0.005317560673 -0.01989984322 -0.03641492081 0.2442203326 -0.9696992671 0.00630559214
0.01915910149 -0.007418811798 -0.002179465055 0.9369701237 -0.3492215394 0.01145877974
0.02030646515 0.00341975832 -0.01572340679 0.9535508635 0.3012320546 -5.570938276e-07
0.01558150721 -0.01041414499 -0.05395635796 0.7623018226 -0.5931955351 -0.2588725333
0.0199190464 -0.00505925703 -0.002192589998 0.9736095642 -0.2274716439 0.01846801834
0.003904052138 -0.02019209385 -0.004269868135 0.2017920378 -0.9794276048 0.001241134206
-0.003657419443 -0.01682062721 -0.05632562256 -0.1643195389 -0.900197099 -0.4032917952
0.005304541826 -0.01986641693 -0.004267146826 0.2592698876 -0.9658041239 0.001232729158
0.02045597076 -0.00194685328 -0.002210893869 0.985446956 -0.169979748 0.001087301024
-0.009307799339 -0.0183636322 -0.03425776672 -0.4609221113 -0.8874077783 0.007631669466
0.02044001007 0.02400650787 -0.06312076569 0.9586698756 0.2845207717 2.349360291e-07
0.008908103943 0.05085069275 -0.04202606201 -0.4946247432 0.007732415334 -0.8690722485
0.01297828007 -0.01599001408 -0.009987899303 0.6343679898 -0.7729988704 -0.007071057557
-0.009330304146 -0.01831194878 -0.00363242054 -0.46985686 -0.8827419427 0.001092555645
0.003912712336 -0.02021404648 -0.02781759262 0.202842103 -0.9791630032 -0.009741371891
0.02006233215 0.03677968979 -0.06527359009 0.9611164359 0.276143435 9.550959268e-08
0.005314477444 -0.01989192581 -0.02779953766 0.2466847396 -0.9690759048 -0.006207246077
-0.003807222843 -0.02020674229 -0.004307761073 -0.1867544557 -0.9824063645 -0.0007129334076
0.006666777372 -0.01944622135 -0.004265841007 0.319729648 -0.9475080735 0.001184403016
0.005313872814 -0.01989037514 -0.02636767387 0.2465364816 -0.9691126328 0.006361458367
0.004159025669 -0.01692531395 -0.05581459427 0.1961000639 -0.8985760135 -0.3925632597
0.003912712336 -0.02021404648 -0.02638466454 0.202456376 -0.9792359747 0.01040776675
0.008000476837 -0.01895320415 -0.004265640259 0.3751678952 -0.9269561175 0.001186018642
0.02034601593 0.01883802795 -0.05745033646 0.9574194726 0.2887004562 -8.969186026e-08
0.01916972542 -0.007450975418 -0.01963562775 0.9355022939 -0.3532246511 -0.008234310066
0.01297699165 -0.0159864316 -0.004279490948 0.6346440172 -0.7728040372 0.0009442009448
-0.01392975998 -0.01513172865 -0.03400954247 0.6242243988 0.781244693 -0.0007934668993
0.01173151588 -0.01252323055 -0.05754842758 0.5695478383 -0.7294808115 -0.3787783066
0.01411579037 -0.01493012762 -0.004287498593 0.6908895514 -0.722959774 0.0008904921062
0.00172527951 -0.02049710751 -0.02642893505 -0.08807151592 0.9960840633 -0.007742544559
0.01524754858 -0.01383744717 -0.004296066165 0.7427217074 -0.6696002203 -0.0001015134122
-0.009323894501 -0.01832666779 -0.01235480976 -0.4676186568 -0.8838838828 0.009059443359
0.01630493736 -0.01251154947 -0.004307920337 0.795553341 -0.6058822708 -0.001247229244
0.01733223343 -0.01107252121 -0.003601076365 0.8280583641 -0.5606399789 0.001469598748
0.01916529465 -0.007437560558 -0.01235505962 0.9363504848 -0.3509496901 0.009060054351
0.01872570038 0.02978274918 -0.06915278625 0.9387094444 0.01101542117 -0.344533365
0.01829337692 -0.009407804489 -0.003614928484 0.8782813497 -0.4781441844 -9.802300655e-05
0.009926004171 -0.01801187658 -0.04003481483 0.4818021699 -0.8760493585 -0.0201044922
0.01915998459 -0.007421488762 -0.00363250351 0.9369220885 -0.3495359464 0.001273642496
0.01727368546 -0.01090034294 -0.04421693802 0.8205580829 -0.566337139 -0.07711470362
0.01904058456 0.007427258492 -0.06512541199 0.9273923046 -0.1672446169 -0.3346232978
-0.01144855881 -0.01710789871 -0.03003949928 0.5753505288 0.8179068314 -0.0004290654174
0.008001998901 -0.01895721436 -0.007821258545 0.3751536065 -0.926928306 -0.007980417094
-0.009339529037 -0.01829076385 -0.04162561417 -0.4578443873 -0.887907795 -0.04470195404
0.009238375664 -0.01820466995 -0.04365782166 0.4558179141 -0.886787914 -0.0764017332
-0.01409609795 -0.01475865746 -0.04376876068 -0.6352393913 -0.768535183 -0.07631899038
-0.005108912945 -0.0171071434 -0.05488447571 -0.2623338675 -0.895240462 -0.3601742038
0.01992026329 -0.005062994957 -0.003654366493 0.9727370474 -0.2318808931 -0.003726673988
0.02045698166 -0.001950001001 -0.003684880733 0.9854615131 -0.1698952071 0.00110673021
-0.01755615044 -0.01067665005 -0.00599229002 0 0 1
-0.00417419529 -0.01173695278 -0.06474974823 -0.198881431 -0.7826235564 -0.5898699394
0.02001185989 0.01460024261 -0.06475978851 0.9642162447 -0.08544483705 -0.2509705425
-0.01395050764 -0.01508519506 -0.005896318197 0.6214683953 0.7834386187 -0.0009820299006
0.01178372669 -0.01687783051 -0.03215517807 0.5870553248 -0.8095222686 0.006304144852
0.01411862612 -0.01493812227 -0.01429955435 0.6903645578 -0.7233602818 0.01211115702
0.003920543671 -0.0123032856 -0.06407470703 0.1887517371 -0.7916776626 -0.5810501357
0.02045849514 -0.00195472312 -0.005896111965 0.985487227 -0.1697461463 0.001082224628
0.01994352341 -0.00513445878 -0.0322492075 0.9737367088 -0.2272191627 0.01443170014
-0.01393652248 -0.01511656141 -0.03997726059 -0.6339609908 -0.7730881763 -0.02069139375
-0.01147435331 -0.01704936123 -0.005847458839 -0.5752531631 -0.8179254082 -0.009045713751
-0.002365662217 -0.0199345665 -0.04620534706 -0.1122270452 -0.9826239107 -0.1478355183
-0.009328702927 -0.01831562614 -0.005812187195 -0.4692523766 -0.8830490222 -0.005160556689
0.001726105809 -0.02049914932 -0.03217667961 0.07668136165 -0.9969998009 0.01055299989
0.007941545486 -0.01879790497 -0.04364474869 0.3831744975 -0.9194508413 -0.0882465578
0.006670042992 -0.01945471573 -0.01209101391 0.3220643078 -0.9467174305 0.0008297693398
-0.00735199523 -0.01923378468 -0.005783776283 -0.3280846723 -0.9446254372 -0.006575049043
0.01524813175 -0.01383911324 -0.01361109924 0.746175088 -0.6657491011 -0.0009340207899
0.02051915932 0.02937922668 -0.06236216354 0.9599024862 0.2803341167 7.838470379e-08
0.01917610168 -0.007470279217 -0.03572782898 0.9340061653 -0.3571343601 -0.009355855779
-0.005542500257 -0.01979483223 -0.005762349606 -0.2344387617 -0.9721307336 -0.00055123844
0.01733636093 -0.01108466339 -0.01224831486 0.8253362786 -0.5646087865 0.00607828004
0.01733326435 -0.01107555532 -0.005762047768 0.8255346112 -0.5643463501 -0.002408882213
0.01793982697 -0.003727785587 -0.05864354706 0.8644942554 -0.4031157378 -0.3002455402
-0.01398938084 -0.01499800777 -0.04223663712 -0.6341413721 -0.7703642608 -0.06635982073
0.01829463005 0.0312352066 -0.05119657898 0.8885518199 0.01307773962 0.4585898342
0.01829440403 -0.009410866261 -0.005784212112 0.8751229173 -0.4838751187 -0.004974854615
0.019543293 0.01612997246 -0.06665632629 0.9320710929 -0.0710220715 -0.3552454688
-0.002143012285 -0.02047129059 -0.02366841316 -0.1073727021 -0.9941933465 -0.007119868486
0.0191613121 -0.0074255054 -0.005812315702 0.9367837185 -0.3498740882 -0.004938342824
0.003907418251 -0.02020062733 -0.04004821587 -0.2022149646 0.9790627559 0.02335012096
0.01971259117 0.005299832821 -0.06159591675 0.9554587282 -0.1659303528 -0.2440609282
0.005312617302 -0.01988715076 -0.04002108002 -0.2613652766 0.9649549224 0.02345612732
0.01312808323 -0.01214559078 -0.05604401398 0.6463082646 -0.6863668691 -0.3334458699
0.01992208862 -0.005068602562 -0.005847269058 0.9736863436 -0.2277041096 -0.009259743679
0.02025281906 0.003589587927 -0.005989418268 0.9535442188 0.3012530876 -4.973411879e-07
-0.003805842161 -0.02021003151 -0.006462006092 -0.1862478855 -0.9824687889 0.008173365271
0.01992879105 0.02022167778 -0.06574893188 0.9568700175 -0.04557410678 -0.2869194495
0.00531025362 -0.01988108253 -0.01779547691 0.2455518345 -0.969367744 -0.005520278456
-0.002147726297 -0.02045992661 -0.006444935322 -0.1090828072 -0.9940055136 0.007347120044
0.003911257982 -0.02021035957 -0.01780661583 0.2023407758 -0.9792753931 -0.008826938128
-0.01751853561 -0.01076003599 -0.01798666573 0.8446863497 0.5352556237 -0.00252741764
0.02038267422 0.01338964319 -0.06214771843 0.9870352583 -0.07681790805 -0.1409269592
-0.0005645059347 -0.02054696465 -0.006431504726 -0.04615395893 -0.9988595371 0.01222444903
-0.005836464405 -0.0153746891 -0.05819602585 -0.2937170144 -0.854796688 -0.4278468623
0.01177814388 -0.0168625164 -0.01782512474 0.5872603177 -0.809334312 -0.01016320188
0.001718372136 -0.0204799099 -0.006415879011 -0.08861159075 0.9960582333 -0.003997730664
-0.002143012285 -0.02047129059 -0.02582871437 -0.1073071847 -0.9942058532 -0.006315822988
0.003905188799 -0.0201949749 -0.006405171394 0.2018809296 -0.9793495604 0.01088709172
0.00530544281 -0.01986873055 -0.006401100636 0.2440789416 -0.9697282722 0.007249023998
0.006667667389 -0.01944853783 -0.006399141788 0.3342002535 -0.9424745306 0.007207618033
0.008002585411 -0.01895875931 -0.02635996437 0.3768933281 -0.9262182268 0.008438937501
-0.005536503792 -0.01980893898 -0.01585629845 -0.2460938957 -0.9692377406 -0.003999580451
0.01177250195 -0.01684704208 -0.006411828041 0.587102752 -0.8094266577 0.01178322209
0.02046740341 -0.001982501388 -0.01991859818 0.9857054819 -0.1684754623 0.0008494538128
0.01297747421 -0.01598777485 -0.00641963768 0.6232926067 -0.7819566294 0.007082097931
0.02027499199 -0.001382496238 -0.04981786728 0.9833593044 -0.1582171076 -0.08928507929
0.02032671738 0.04186035919 -0.05760590744 0.9623125377 0.2719459132 8.675170944e-07
0.01829661179 -0.009417456627 -0.01809131241 0.8813351088 -0.4724841 0.002683523361
0.0163081007 -0.0125207181 -0.01005407381 0.7870239542 -0.6169220266 0.0007131964424
0.01997338867 0.004474205971 -0.0598933754 0.970290127 -0.1433677978 -0.1948916211
-0.005933547497 -0.01887493038 -0.04801118088 -0.2702066007 -0.9425089494 -0.1966348728
0.01411639786 -0.01493183994 -0.006431642532 0.6909149442 -0.7228167046 0.0131358844
0.01829708481 -0.009418868065 -0.02826256371 0.881066751 -0.4729267805 0.007851145354
0.01524813175 -0.01383911324 -0.006444498062 0.7432066603 -0.6690119689 0.00817591647
-0.007351847649 -0.01923412895 -0.01374286461 -0.3277640575 -0.9447507298 -0.004096490522
0.01630612373 -0.01251498699 -0.006462243557 0.7948249509 -0.6067937027 0.007395930688
0.01358375708 -0.01485487016 -0.04630835597 0.668817843 -0.7316663085 -0.1317084122
-0.01394872284 -0.01508919811 -0.008108031273 -0.6216611096 -0.7832856538 0.001024393943
-0.01147201443 -0.01705466843 -0.008040811539 -0.5750602446 -0.8181066571 0.002685651803
-0.01145952606 -0.01708300972 -0.01975377655 -0.5747676917 -0.8182241795 -0.01230010785
0.01297924709 -0.01599270344 -0.01427292585 0.6344741724 -0.772864481 0.0110913735
-0.009327100754 -0.01831930542 -0.007992350101 -0.46854661 -0.8834382883 0.0009300853968
0.02004712677 0.04905554771 -0.05607993507 0.9634897809 0.2677451065 4.171376767e-07
-0.01747414112 -0.01085844946 -0.02399176407 0.9329007873 0.3601321028 0.0009948248599
-0.007351954937 -0.01923387909 -0.007953371525 -0.3301324452 -0.9439096925 0.006860103539
0.008002689362 -0.01895903587 -0.01778971291 0.3762240131 -0.9264897019 -0.008504369362
-0.005541215897 -0.01979785347 -0.007923834324 -0.2362640993 -0.9716626943 0.007133288436
0.00172693491 -0.02050119877 -0.0379441452 0.08749598958 -0.9961327019 -0.008005747299
-0.002143012285 -0.02047129059 -0.01576385307 -0.09560241489 -0.9953761446 -0.009301023846
-0.003804921627 -0.02021222305 -0.007898451805 -0.1744417483 -0.9846238158 -0.009274574265
0.02054563904 0.06021451569 -0.06205625916 0.9657893644 0.259327792 5.010855801e-07
0.001465857387 -0.01792568207 -0.0543478508 0.05475109442 -0.9360454269 -0.3475935506
0.01917105675 -0.007455006361 -0.0218231163 0.9352537485 -0.3538997006 -0.00744498888
-0.002146820068 -0.02046211243 -0.007877586365 -0.09568710864 -0.9953956866 -0.005603960275
-0.004885407448 -0.0138604126 -0.06139525986 -0.2445788402 -0.8345101152 -0.4937348058
0.01816776276 0.05581848526 -0.05097141647 0.8801608378 -0.001553628972 0.4746730304
-0.0005640899539 -0.02054798126 -0.007861200809 -0.04580373822 -0.9989004377 -0.009996652382
0.009619777679 0.002250784636 -0.07416617584 -0.4711995881 0.4160220509 0.7777509893
0.00171896103 -0.02048137856 -0.007842089891 -0.08858702778 0.9960662885 0.002070595057
0.003905946732 -0.02019689751 -0.007828990459 0.2019324113 -0.9793627972 -0.008474241776
0.005306043625 -0.01987027359 -0.007824024677 0.2441316821 -0.969729633 -0.00491534566
0.02031549644 0.003391165257 -0.01797197533 0.9535595884 0.3012044345 -4.701255518e-08
0.006668261051 -0.01945008087 -0.007821630478 0.3342851972 -0.9424589354 -0.004956014087
0.01177320671 -0.01684897423 -0.007837127209 0.5871167709 -0.809442614 -0.009826088948
0.02047174644 -0.001996044874 -0.03029132843 0.9860508156 -0.1664432477 0.0006590217403
0.001724970311 -0.02049634361 -0.02427799606 0.07779707349 -0.9968630979 0.01454576994
0.02056887341 0.05354958916 -0.06017744827 0.9646488022 0.2635387796 2.704173378e-07
0.01412187624 -0.01494728565 -0.02577511883 0.6911651579 -0.7226179801 -0.01067611316
0.01297779655 -0.01598867035 -0.007846699238 0.6233199211 -0.7819474616 -0.005517537089
0.02057122517 0.0409951458 -0.0600090065 0.9623119946 0.2719478353 -5.447061387e-08
0.003910356998 -0.01628685951 -0.05741233826 0.2006190184 -0.8895446215 -0.4104416838
-0.005524448395 -0.01983729744 -0.03614950562 -0.2370903163 -0.9714806097 0.003688741962
0.02058045959 0.01806053925 -0.06051902771 0.9574196734 0.2886997905 7.737702058e-08
0.01466066933 0.04347956848 -0.04616796875 -0.6558295455 -0.2846030449 -0.6992057738
0.01411680222 -0.01493298149 -0.007861366272 0.6907198327 -0.7230275614 -0.01171572161
0.0155556612 -0.005847951412 -0.0614478302 0.7595386711 -0.5025979614 -0.4129119716
0.01524813175 -0.01383911324 -0.007877108574 0.7358217329 -0.6771431209 -0.006600845907
-0.009321221352 -0.01833280849 -0.01599328041 -0.4665192019 -0.884510475 0.001026605653
0.01630691338 -0.01251727867 -0.007898740768 0.7868030536 -0.6171249907 -0.009884367079
-0.00379450202 -0.02023703384 -0.03967202759 -0.1900229182 -0.9816765678 -0.01422697601
0.01733429718 -0.01107859039 -0.007923420906 0.8262820673 -0.563215917 0.006765806185
0.001723974317 -0.02049386978 -0.01998198366 0.0769637406 -0.9969897206 -0.009385077148
0.007725917816 -0.01822966766 -0.04808613586 0.3876937743 -0.9040191707 -0.1801190619
-0.002158623397 -0.01855574512 -0.05226051903 -0.08280852132 -0.9538142831 -0.2887577916
0.006584661007 0.05843604279 -0.04111468887 -0.4156273066 0.03002726172 -0.9090392212
0.01829542923 -0.009413928986 -0.007953898907 0.8760615662 -0.4821390959 0.00761737657
-0.005560366154 -0.01975280476 -0.04200308609 -0.2404557216 -0.9692235232 -0.05279022748
-0.002143012285 -0.02047129059 -0.01791739655 -0.09448898505 -0.995523656 -0.002117080299
0.01916263962 -0.007429522514 -0.007992521763 0.9366337633 -0.3503079935 0.001226015569
0.01992391396 -0.005074211121 -0.008040548325 0.9736530599 -0.228017443 0.002786509028
0.02046001053 -0.001959446073 -0.00810773468 0.9855157998 -0.1695799912 0.001111274092
0.01736585045 0.05870418167 -0.0495996933 0.8627856234 0.02019564656 0.505166412
0.0199422245 -0.005130462646 -0.03003842545 0.9738097481 -0.2273643639 0.0001431924353
0.01178238773 -0.01687415695 -0.02641141129 0.5827132558 -0.8126435354 0.007466315546
-0.01146343231 -0.01707414436 -0.01608994389 -0.5759290706 -0.8174987966 0.001192955525
0.02026036835 0.003565687656 -0.008235560417 0.9535495973 0.3012360628 -3.462833264e-07
-0.01755615044 -0.01067665005 -0.009739048004 1 -0 5.676724656e-15
-0.003803540349 -0.02021551228 -0.0100537076 -0.1748277056 -0.9845982467 0.001251352861
-0.01394753265 -0.0150918684 -0.009582865715 -0.6217228025 -0.7832367776 0.0009524142666
-0.01146967506 -0.01705997658 -0.01023484564 -0.574598938 -0.8183064482 0.01451266095
0.01889318275 0.04084890747 -0.05244979858 0.8951589199 -0.006694505309 0.4456968607
0.01994642258 0.04941793823 -0.06565704346 0.9634891353 0.2677474296 1.721951881e-06
0.02046678352 -0.001980571151 -0.01844021034 0.9856636432 -0.1687200658 0.0008496444952
-0.009325497627 -0.0183229866 -0.01017321539 -0.468156771 -0.8836158592 0.007228496465
-0.007351914644 -0.0192339716 -0.01012372255 -0.3398358921 -0.9404370621 0.009470939531
-0.0007525541484 -0.02008800411 -0.04609897423 -0.05017377055 -0.9872343 -0.1511655704
0.01178372669 -0.01687783051 -0.03647602463 0.5824808805 -0.8128389645 0.00297349137
0.01546663348 -0.01301287651 -0.04597749837 0.7479165428 -0.6523590218 -0.1226725387
-0.005539931774 -0.01980087471 -0.01008602571 -0.2455015819 -0.9693742589 0.006520695488
-0.007351766586 -0.01923431587 -0.01809029007 -0.3400218745 -0.9404135499 0.002734977637
-0.002145460248 -0.02046538925 -0.0100271492 -0.09540028039 -0.9954389088 0.0004067221871
0.01524813175 -0.01383911324 -0.01002665234 0.7349860673 -0.678082202 9.042270142e-05
0.008002567291 -0.01895871353 -0.0277915535 0.3770067622 -0.9261755432 -0.008047629595
0.00213807869 -0.01960804176 -0.04819561005 0.1176532635 -0.9724864427 -0.2010667262
0.002135931492 -0.01571038246 -0.05910762787 0.1277957184 -0.8777759261 -0.4617116826
-0.01739885139 -0.01102534962 -0.03831245804 0.9115445363 0.4112013599 5.668729375e-14
0.01993061352 -0.005094793081 -0.01608939981 0.9738848414 -0.2270392537 0.001221891538
0.01177743721 -0.01686057854 -0.01639671898 0.587569139 -0.8090897897 0.01167129169
-0.0005634658337 -0.02054950428 -0.01000635147 -0.04409122992 -0.9990244056 -0.002490088837
0.01524813175 -0.01383911324 -0.02007204151 0.7346602616 -0.6784140171 0.005359247762
-0.002143012285 -0.02047129059 -0.02007265091 -0.09526162123 -0.9954379241 0.005344424457
0.0116387291 -0.01648010445 -0.04594330025 0.5666275323 -0.8136957106 -0.1297402414
-0.007351807117 -0.01923422241 -0.01591597033 -0.339282757 -0.9406504708 -0.007993903863
0.001719844803 -0.02048357964 -0.009982003212 0.07787379527 -0.9969215367 -0.009117103447
-0.00379450202 -0.02023703384 -0.03023427677 -0.1721814601 -0.9849806589 0.01290915892
0.003907083988 -0.02019977951 -0.009965305805 0.2018761532 -0.9793883139 -0.006674529695
0.005306944847 -0.01987258816 -0.009959004402 0.2583287644 -0.9660352584 -0.006490689729
0.02014671516 0.05509484482 -0.06481523132 0.9646486098 0.2635394841 2.231699288e-07
0.006669152021 -0.0194523983 -0.009955956936 0.3210812739 -0.9470295969 -0.006462057778
0.008002692223 -0.0189590416 -0.009955501556 0.3752967586 -0.9268823966 -0.006431625612
0.02045563889 -0.001945816994 -0.04372216797 0.983137358 -0.1814559956 -0.02268605367
-0.008324975014 -0.009449017525 -0.06546131134 -0.3906210201 -0.6877603903 -0.6118830478
-0.01741296196 -0.01099407005 -0.0322671814 0.911555639 0.4111767467 4.697664673e-07
0.009924982309 -0.01800922871 -0.009962032557 0.4847618917 -0.8746033942 -0.008649351234
0.01992878532 -0.005089176178 -0.01389285851 0.9737051083 -0.227587882 -0.01010534582
0.01632139206 -0.0125592556 -0.03967137146 0.7970225578 -0.6038613158 -0.01032248448
0.01177426386 -0.0168518734 -0.009975663662 0.5871950385 -0.8094073806 -0.007853595235
0.01396154118 0.008315414429 -0.0735052948 -0.6659324058 0.2581104088 0.6999378885
0.01177920294 -0.0168654232 -0.01996908951 0.5872839142 -0.8093393306 -0.008212922352
0.01411741018 -0.01493469429 -0.01000655746 0.6895887986 -0.7241849879 -0.004836536724
0.01829619503 -0.009416211605 -0.01012432337 0.8812897314 -0.4724954332 0.008744999671
-0.01002078724 -0.01303101254 -0.05885646057 -0.5033869223 -0.7485268978 -0.4316353667
0.005250091553 -0.01972661591 -0.04365800095 0.2455999607 -0.9659705343 -0.08112697575
0.01916396713 -0.007433541059 -0.01017342758 0.9365382562 -0.3504888702 0.007324385935
0.00384001708 -0.02002978325 -0.0436891098 0.1943300772 -0.976915165 -0.0887275693
0.009523799896 -0.01487180233 -0.0558174057 0.4684683321 -0.8031841048 -0.3680118416
0.01992573929 -0.005079821348 -0.01023450756 0.9734272936 -0.228511475 0.01489328559
0.02046101952 -0.001962595463 -0.009582504272 0.9855250016 -0.1695268225 0.001061948072
0.02026958656 0.003536508083 -0.009732809067 0.9535495973 0.3012360628 -3.462833264e-07
-0.01755615044 -0.01067665005 -0.01198823261 0.9115414 0.4112083122 -2.789264025e-08
0.007997979164 -0.01894662189 -0.04001054382 -0.3780701213 0.92549015 0.02304269246
-0.01394574594 -0.01509587431 -0.01179582548 0.6219381672 0.783065722 -0.0009956097743
0.02046253586 -0.001967321038 -0.01179535961 0.9855569421 -0.1693408478 0.001091381
0.02028341389 0.003492733955 -0.01197891665 0.01592191323 -0.9996814949 0.0195806386
-0.01146733475 -0.01706528854 -0.01242959213 -0.5720594831 -0.82012616 0.01187557957
-0.007351874352 -0.01923406601 -0.01229484463 -0.3281645282 -0.9446065917 0.005140952769
0.007030775547 -0.003840573311 -0.07156867218 -0.3297080945 0.5808246933 0.7442682635
-0.005538646698 -0.01980389786 -0.0122489481 -0.2366520558 -0.9715788283 0.005512243417
-0.002144099951 -0.02046866798 -0.01217743492 -0.1081759274 -0.9941216331 0.004488583953
-0.01228821182 -0.01520236588 -0.04961619568 -0.5896935239 -0.7809148409 -0.2059940756
0.01165282726 -0.007986558437 -0.06433774567 0.5806814808 -0.622192875 -0.5250571818
-0.003797085404 -0.02023088264 -0.02012518597 -0.1739346106 -0.9847002993 0.01058639335
-0.000562841475 -0.0205510273 -0.01215224648 -0.04425746929 -0.9989929241 0.0073765816
0.001973449111 -0.02047745323 -0.03408928172 0.1055386464 -0.9942902023 0.0157666639
0.01994359779 -0.005134687424 -0.03594032288 0.9737041031 -0.2275387406 -0.01124460697
0.001720728815 -0.02048578262 -0.01212264967 -0.07774509938 0.9969728682 -0.0008941636299
0.01581332684 0.01764404488 -0.07362313843 0.7242726307 0.07914634076 -0.6849562126
0.009925477028 -0.01801055145 -0.01209843111 0.4846060316 -0.8747323572 0.0005453053488
0.01524813175 -0.01383911324 -0.01791685295 0.7349489348 -0.6781161351 -0.002927545446
-0.01740181732 -0.01101877785 -0.03377478027 0.911555668 0.4111766823 4.706667959e-07
0.01578390217 -0.001920880556 -0.06518062592 0.7551681156 -0.4549127716 -0.4719909824
0.001479590992 -0.02052289391 -0.03602705765 0.07613627585 -0.9970153714 -0.01279127524
0.008002514839 -0.0189585743 -0.0320929451 0.37773347 -0.9259143222 0.0003058297392
0.01177532101 -0.01685477448 -0.01211492443 0.5877427537 -0.8090474973 0.0007763231419
0.01994038582 -0.005124816895 -0.02783061218 0.9730109235 -0.2305610451 -0.009557578618
0.01297876358 -0.0159913578 -0.01212984467 0.6342804057 -0.7730983277 0.002709735158
-0.002143012285 -0.02047129059 -0.03811723328 -0.112537332 -0.9936463712 -0.001495963465
0.01411801815 -0.01493640804 -0.01215248966 0.6900501269 -0.7237303081 0.006727813957
0.02059015274 0.01271228504 -0.05965075302 0.9561507813 0.2928748597 -6.390721726e-08
0.01524813175 -0.01383911324 -0.01217695999 0.7426082143 -0.6697210343 0.002603122998
0.01630928612 -0.01252415848 -0.01221013069 0.7946997473 -0.6069881536 0.004206316227
0.00902255249 -0.01762835121 -0.04810163498 0.4237994457 -0.8862174798 -0.1871165634
0.01503785324 -0.004325174451 -0.06402789497 0.7322226271 -0.4865909245 -0.4765283797
0.01829634285 -0.009416652679 -0.01229556084 0.8750696423 -0.4839830829 0.003673780203
-0.0005553105474 -0.02056940842 -0.03803641129 -0.04729951273 -0.9988725324 -0.004052166865
0.01992756653 -0.005085433483 -0.01242917824 0.9727160718 -0.2316782934 0.01219065567
-0.0175462532 -0.01069859028 -0.0142373333 0.9115609181 0.4111650429 4.978427236e-07
-0.01394395924 -0.01509988117 -0.01400963306 -0.6221126942 -0.7829270114 0.001044307195
-0.009316937447 -0.0183426466 -0.02182273865 -0.4647932433 -0.885386945 -0.007562973222
-0.01146577454 -0.01706883049 -0.01389332485 -0.5754472725 -0.8177789615 -0.009899829311
0.01829671383 -0.009417758465 -0.0202674675 0.8808417285 -0.4732805549 0.01110701318
-0.009322825432 -0.01832912445 -0.01380978394 -0.4666006079 -0.8844397212 -0.007088889142
-0.005537789822 -0.01980591393 -0.01369147491 -0.2361527085 -0.9717158972 -0.0003367790847
0.01632120132 -0.01255869961 -0.03385693359 0.7849852765 -0.6194558739 -0.008516806446
-0.003801236868 -0.02022099686 -0.01364758396 -0.1929673368 -0.981204208 -0.00138172901
-0.01394217205 -0.0151038909 -0.01622471237 0.6222963113 0.7827811098 -0.001017397234
0.008002663612 -0.0189589653 -0.01992961311 0.3764672442 -0.926404703 -0.006836689401
0.01561086178 0.003322537422 -0.06926778412 0.7553402603 -0.352693076 -0.5523302322
-0.002143192768 -0.02047085571 -0.01361153221 -0.1090880985 -0.9940159247 -0.005668176669
-0.007474643707 -0.0114738369 -0.06350899124 -0.3513465215 -0.7541297665 -0.5548368382
-0.0005622168183 -0.02055255222 -0.0142992754 -0.04441517745 -0.9989539793 0.01087379157
0.01524813175 -0.01383911324 -0.032322258 0.7408519257 -0.6716387093 0.006314139491
0.01175892925 -0.01680981255 -0.04226648331 0.5779773401 -0.8141143657 -0.05621382248
0.001721613169 -0.02048798609 -0.01426441741 0.07802196325 -0.9968463085 0.01449173506
0.01659265709 0.04885587692 -0.04844132614 0.8238314977 0.0009583569997 0.5668339659
0.003909359694 -0.02020554733 -0.0142404933 0.2018239662 -0.9793797389 0.009078204148
0.005308748722 -0.01987721825 -0.01423154163 0.259118093 -0.965807427 0.00859231921
0.006670934439 -0.01945703411 -0.01422718668 0.3220749109 -0.9466791144 0.008148992151
0.01916751289 0.05867907333 -0.05305313492 0.9081448363 0.006695583412 0.4186025866
0.009926683426 -0.01801377201 -0.0178011198 -0.483180104 0.875510685 -0.004245884674
0.008002733231 -0.01895915031 -0.01422674751 0.3759139705 -0.9266217622 0.007797220058
0.01632139206 -0.0125592556 -0.03603484535 0.7898163497 -0.6133101136 -0.006390485539
0.01411686707 -0.01278023696 -0.0521960144 0.6743213644 -0.6929223495 -0.2552436385
-0.009424355984 -0.01809595585 -0.0438694725 -0.4752420377 -0.8749477786 -0.09279757724
-0.007815052986 -0.01815755272 -0.04821414375 -0.3522696316 -0.9138258661 -0.2020603699
-0.004895757198 -0.009975868225 -0.06665014648 -0.2515282388 -0.7248286294 -0.6413711898
0.01177637911 -0.01685767555 -0.01425529575 0.5874737843 -0.8091854104 0.009670793907
0.01631007767 -0.01252645302 -0.01364807606 0.7984494298 -0.602059188 -0.001800616816
0.01733704948 -0.011086689 -0.0136907692 0.8251699036 -0.5648803877 -0.002185831421
0.006689468384 -0.01139823723 -0.06404853821 0.3168921115 -0.7594107659 -0.5682206246
-0.01394038296 -0.01510790253 -0.018440979 0.6224457543 0.7826623066 -0.000998420156
0.01829640961 -0.009416853905 -0.01374365997 0.8748975169 -0.4843015473 -0.002519192068
0.01916617966 -0.007440241814 -0.01381005764 0.9359655108 -0.3520228361 -0.006963148784
0.006048892498 -0.01916234525 -0.04610855103 0.3080812024 -0.9396717497 -0.1486706952
0.01594328785 -0.01146303558 -0.05008389664 0.7813313861 -0.6002776196 -0.1708450894
-0.01393117332 -0.01512855816 -0.03177818108 -0.6238411527 -0.781550777 0.0007740115688
0.01145584488 0.006208851337 -0.07484143829 -0.5509614637 0.3086186129 0.7753683107
0.02046405029 -0.001972048521 -0.01400905609 0.9855828027 -0.1691900516 0.001124931573
0.008002462387 -0.01895843506 -0.03640544891 0.3774453847 -0.9260119611 0.006068721204
0.01738379383 -0.006694097757 -0.05593377304 0.831534322 -0.4883764475 -0.2646490446
0.02029724312 0.003448952675 -0.01422540283 0.9535509757 0.3012316994 -5.504156256e-07
-0.001464629412 -0.002486626148 -0.07403688049 0.06162118689 0.581568617 0.8111601402
-0.00379985404 -0.02022428989 -0.01580545378 -0.1756884197 -0.9843869032 -0.01077051399
0.01290144062 -0.002643962383 -0.06830484009 -0.5914689967 0.5176636411 0.6182141867
0.01994359779 -0.005134687424 -0.03815937996 0.9738267523 -0.2272913298 0.000328605524
0.01631126595 -0.01252989626 -0.01580602074 0.7862854886 -0.6177903376 -0.009498902842
0.01733808422 -0.01108972788 -0.01585548544 0.830817996 -0.5565183414 -0.005365935043
0.01916750908 -0.007444264889 -0.01599358606 0.9359512872 -0.3521278214 0.001088723939
0.0158123579 -0.01108343697 -0.05162145233 0.7783758472 -0.5908077248 -0.21231409
0.01663836861 0.04869677734 -0.0726685257 0.7240437103 0.07053830564 -0.6861377799
0.02046556854 -0.001976778567 -0.01622401667 0.9856236379 -0.1689528565 0.0009883243582
0.01524813175 -0.01383911324 -0.03015504456 0.744820825 -0.6671722365 0.01109709109
0.01922900391 0.02254238129 -0.05322700882 0.9255344864 0.02200531459 0.3780233864
0.001722498149 -0.02049019051 -0.01640724564 -0.08856062326 0.9960329995 -0.008676403373
-0.007351726294 -0.01923441029 -0.02026633453 -0.3390614131 -0.9406864463 0.01209825674
0.003910498381 -0.02020843315 -0.01637969208 0.2019614648 -0.9793329154 0.01089070967
0.005309651375 -0.01987953568 -0.01636942482 0.2453034377 -0.9694215755 0.006930536982
0.02031549644 0.003391165257 -0.0262360611 1 -0 -2.250773124e-14
0.006671769619 -0.01945920753 -0.01636442375 0.3356150234 -0.9419766804 0.006518413786
0.02031549644 0.003391165257 -0.03377507401 -0 -1 -2.796334677e-15
0.01917610168 -0.007470279217 -0.03205851269 0.9341462019 -0.356890483 0.0002378265687
0.008002707481 -0.01895908165 -0.01636403656 0.3760918216 -0.9265367436 0.009198069663
-0.008684321404 -0.01613721085 -0.0537635498 -0.4057923623 -0.8564536509 -0.3190919971
0.004143254757 0.01318437672 -0.08004122925 0 0 1
0.00528839159 -0.01982495117 -0.04219672775 0.2451609369 -0.9679240842 -0.05494617563
0.009562270164 0.05460023117 -0.042390625 -0.5167680073 0.004577444191 -0.8561132365
0.003880198956 -0.02013163185 -0.04222629166 0.1997751702 -0.9782847221 -0.05521669855
0.009926381588 -0.01801296616 -0.01637457561 -0.4833264739 0.8754330194 0.003542338292
0.01297973061 -0.01599404907 -0.01641707802 0.6196782262 -0.7848510371 0.002783076285
-0.01392740059 -0.01513702011 -0.03773458481 -0.6253141476 -0.7803726127 -0.0008955734354
0.01411923504 -0.01493983746 -0.01644768906 0.6860913773 -0.7274844793 0.006704793329
0.01893793869 0.02906762505 -0.05252072144 0.9057921833 0.01351308926 0.4235066908
0.01966166496 0.0442137146 -0.05456898117 0.9380000336 -0.09489330587 0.3333934575
0.00929318428 -0.01424770355 -0.05741177368 0.4525668544 -0.796096295 -0.4017635268
0.01829725456 -0.009419373989 -0.03190715504 0.8810076859 -0.4730003639 -0.009803730807
0.01710613537 -0.01040761042 -0.0479659462 0.820145376 -0.5549801457 -0.1391351862
-0.01146108913 -0.01707946396 -0.01828772354 -0.5758267859 -0.8174421289 0.01455605166
-0.009319615364 -0.01833649635 -0.01817794991 -0.4655972443 -0.8849642332 0.007583671562
0.009927136183 -0.01801498127 -0.01994230747 0.4833985274 -0.8753539459 -0.009018491053
-0.005535216808 -0.01981196594 -0.018022295 -0.2469106785 -0.9690379225 0.0007884318654
0.003955333769 -0.01837382078 -0.05192680264 0.2027961476 -0.937249763 -0.2836134769
0.0124729681 0.003217680216 -0.07258839417 -0.6038661233 0.3666730054 0.7077404978
0.01631483269 -0.01254023933 -0.02228816414 0.7859983573 -0.6181232663 0.01141095714
0.005341537952 -0.01194619465 -0.06404138184 0.2410626593 -0.7723063665 -0.5877343537
-0.003798470259 -0.02022758484 -0.01796448898 -0.1738883113 -0.9847635543 -0.001896656022
-0.0005611749291 -0.02055509567 -0.01788024902 -0.04602855988 -0.998921748 -0.006059124229
0.001723088324 -0.02049166203 -0.01783659554 -0.0878736535 0.9961293061 0.002150919431
-0.002143012285 -0.02047129059 -0.02799099541 -0.1141994695 -0.9934539931 0.002764922209
0.006671787739 -0.01945925331 -0.01779012871 0.3358472572 -0.9419001526 -0.005542773364
0.0129800539 -0.01599494648 -0.01784732056 0.6246235046 -0.7809153369 -0.004088282384
0.01817256546 -0.009047366142 -0.04588785934 0.8866933908 -0.4535851386 -0.08964012872
0.007875016928 -0.01456404781 -0.05818943596 0.3882003461 -0.8203659888 -0.4198810971
0.01411964035 -0.01494098186 -0.01788058281 0.6917262164 -0.7221160836 -0.007950054116
-0.008208081961 -0.01539608574 -0.05609520912 -0.401047925 -0.8419940558 -0.3608414775
0.007297839165 0.004290994167 -0.07633496857 0.3833390842 -0.4244805891 -0.8202849359
0.01631245422 -0.01253334141 -0.01796512794 0.7858588271 -0.6184027281 -0.001992421804
0.009131627083 0.008285667419 -0.07702942657 -0.4982154104 0.2798479227 0.8206500746
0.01829681587 -0.009418061256 -0.02244516754 0.8748510287 -0.4843502552 0.006364582873
0.01733911896 -0.01109276962 -0.01802137375 0.8313531763 -0.5557438729 0.0008025592723
0.0191688385 -0.007448290348 -0.0181782856 0.935565983 -0.3530702158 0.007596990193
-0.009312106133 -0.01835374069 -0.02839643478 -0.4622640104 -0.8866823369 0.01031591388
0.02047081375 -0.001993137538 -0.02806468391 0.9859990925 -0.1667493423 0.0006681580436
0.01993244171 -0.005100412846 -0.01828709793 0.9737718899 -0.2270408267 0.01485831054
0.01942890358 0.03898433685 -0.06737019348 0.9172694744 -0.1024563341 -0.3848628469
0.01631364346 -0.01253678942 -0.02012589836 0.7860048379 -0.6181317204 0.0104676147
-0.0175018959 -0.01079692268 -0.02023746872 -1.181095889e-06 -0.9998657385 0.01638611854
-0.0002510723273 -0.01878852081 -0.0518671697 -0.01555156328 -0.9587679678 -0.2837642205
-0.01393918991 -0.01511057854 -0.01991937637 -0.6225576668 -0.7825732906 0.000998145539
-0.009318544388 -0.01833895493 -0.01963527298 -0.4654345352 -0.88504281 -0.00836169387
0.01992983246 -0.005092394352 -0.04187033463 0.9722321583 -0.2324702551 -0.02687398245
-0.00553392911 -0.01981499386 -0.02018996334 -0.2475832171 -0.968842209 0.006879293298
-0.0005605491698 -0.02055662346 -0.02003093243 -0.04598812984 -0.9989361446 0.003416262097
0.01908830833 0.01761536598 -0.05253901291 0.9121852737 0.06154114388 0.4051304902
0.006671814919 -0.01945932388 -0.01993006897 0.3231887764 -0.9463086208 -0.007000638411
0.01298007011 -0.01599499321 -0.01999414158 0.6350609463 -0.7724470831 -0.004806061046
0.01412024975 -0.01494269896 -0.02003129673 0.6910524224 -0.7228041811 0.0008155827249
0.01734015274 -0.0110958128 -0.02018893719 0.8313576058 -0.5556898323 0.007303529632
0.02031549644 0.003391165257 -0.0202232914 1 -6.437032808e-21 -1.130894997e-14
0.01206210359 -0.01058558369 -0.06034052785 0.5959600288 -0.6706034614 -0.4417268858
0.01691601753 0.01935619354 -0.07225931549 0.7248722183 0.07832957293 -0.6844156231
-0.01739885139 -0.01102534962 -0.03604187584 0.911556229 0.4111754387 2.003500436e-07
-0.01749079704 -0.01082152557 -0.02173870087 -0.05941025806 -0.9981067256 0.01591809053
0.01757779884 0.03365051651 -0.04988890457 0.870141079 0.002014338713 0.4927985847
0.01818304825 0.000274037689 -0.06235947418 0.8930020255 -0.3096405593 -0.3266038985
0.005737298965 0.05529070663 -0.04083115768 0 0 1
-0.0139374032 -0.01511458588 -0.0221384716 0.622771359 0.7824033435 -0.0009178799865
0.01734448624 -0.01110855675 -0.03614884949 0.8265217149 -0.5628933459 0.003596656719
-0.01145717955 -0.01708833504 -0.02195432568 -0.5759679755 -0.8174714296 0.001163184888
0.01829698372 -0.009418565273 -0.02607933044 0.8806391773 -0.4737873621 0.0004182282532
0.01993549442 -0.005109788418 -0.0219535656 0.9739559044 -0.2267346138 0.001145107259
0.01412289619 -0.01495016003 -0.03009310436 0.69227755 -0.7216207226 0.003914907644
0.01584472752 -0.006698041916 -0.05977514648 0.7655422148 -0.5168902688 -0.383105165
0.02046833324 -0.001985398829 -0.02213769722 0.9857746906 -0.1680704671 0.0007599383633
0.02031549644 0.003391165257 -0.02172517967 1 -0 -1.130894997e-14
0.009442662716 -0.008319113731 -0.06593941116 0.4776695833 -0.6531788399 -0.5875280184
0.01423033333 -0.01092951298 -0.05617642212 0.698475365 -0.6361245156 -0.3278380167
0.009928043127 -0.01801740313 -0.02422979403 0.4829138609 -0.8756117827 0.009910045087
-0.009585003853 -0.01772702217 -0.04614531326 -0.4804100485 -0.8652033838 -0.1436290008
-0.007351686001 -0.0192345047 -0.02244392776 -0.3278001338 -0.9447151978 0.007763205856
-0.005532640457 -0.01981802559 -0.02235913658 -0.2375502173 -0.9713589035 0.005636918468
0.009929710388 -0.01802185535 -0.03211262512 -0.4899137105 0.8717404345 0.007291853448
-0.003795699596 -0.02023418236 -0.02228738022 -0.1739455523 -0.9846882951 0.01148504423
0.02056957436 0.03501423264 -0.06160399246 0.9611165818 0.2761429271 -5.309704453e-08
-0.002143012285 -0.02047129059 -0.02222943878 -0.1081002304 -0.9941383734 0.001798520092
0.01338221836 0.04778721237 -0.04499567795 -0.6568527686 -0.2816836317 -0.6994274602
0.02053829384 0.01820037842 -0.05894242859 0.957419262 0.2887011547 -1.560191103e-07
-0.0005599229932 -0.02055815125 -0.02218312836 -0.04472161378 -0.9989554977 0.009375008507
0.01369904041 0.0352097168 -0.04524678802 0.6666535814 0.01501649955 0.7452164163
