# .PCD v0.7 - Point Cloud Data file format
VERSION 0.7
FIELDS x y z normal_x normal_y normal_z
SIZE 4 4 4 4 4 4
TYPE F F F F F F
COUNT 1 1 1 1 1 1
WIDTH 555
HEIGHT 1
VIEWPOINT 0 0 0 1 0 0 0
POINTS 555
DATA ascii
-0.009329236666 -0.01831440036 -0.00508559831 -0.4830280683 -0.8755999513 0.002934378116
0.01163970733 -0.01438658071 -0.05356045437 0.5821224932 -0.7607742762 -0.2869771831
0.01094509411 -0.01665915966 -0.04740907192 0.5377574928 -0.8281983752 -0.1578110586
0.003179755628 -0.02029719591 -0.001423955634 -0.1997803517 0.9794211476 -0.02867100924
-0.006449114203 -0.01950993443 -0.001443146989 0.3400546001 0.9398847503 -0.03129736583
0.01561086178 0.003322537422 -0.06926778412 0.7509594512 -0.3450258933 -0.5630426588
0.0002048434168 -0.02054341269 -0.001427802652 -0.05324891032 0.9981001081 -0.03099560787
0.01692195702 0.004148329735 -0.06777999878 0.8045157073 -0.3008943672 -0.5120713392
-0.0001505535915 -0.01191053033 -0.06519080734 -0.001195097807 -0.7896254874 -0.613587941
0.01873248672 -0.008432152152 -0.01740817308 0.9068258613 -0.4215045828 0.0008625957853
0.01992391396 -0.00507421128 -0.008040638924 0.9654908949 -0.2604328281 0.001440099189
-0.00297998029 -0.02032732201 -0.001433969826 0.1548989063 0.9879298437 -0.0009760598408
0.00598446548 -0.019653234 -0.001422105625 -0.2869997927 0.9546607833 -0.07908165346
-0.01393859291 -0.0151119175 -0.02065894222 -0.695874529 -0.7181629158 0.0008161933064
0.003190217018 -0.02032354164 -0.02281828594 0.1956574705 -0.9806722629 0.0002589567282
-0.00808594656 -0.01381161165 -0.05935784721 -0.3960578125 -0.8033450943 -0.4447188648
-0.01755615044 -0.01067665005 -0.007490790367 0.7740926632 0.6330722751 -0.000207830084
-0.009322290897 -0.01833035183 -0.01453752327 -0.4834588718 -0.875366491 0.001012746636
-0.006443713069 -0.01952262068 -0.0173328023 -0.33514675 -0.9421657799 0.0005470328994
0.02045748615 -0.001951574981 -0.004421929836 0.9987440618 -0.05006583959 -0.001926319249
0.008642391086 -0.01864028168 -0.001422096312 -0.4062882977 0.9114673972 -0.06447482464
0.02027419567 0.003521917224 -0.01048148489 0.9994369089 0.03323483674 0.004616350726
0.02046203041 -0.001965745846 -0.01105774117 0.9991982615 -0.03942966306 -0.00693799777
-0.01755120182 -0.01068762016 -0.01348771858 0.7734930385 0.6338023015 -0.001778210576
0.01872550488 -0.008411107659 -0.00144945848 0.9075512921 -0.4198987077 0.005977254984
0.01116343498 -0.01725385284 -0.001423930511 -0.5341682157 0.8447972736 -0.0313350266
0.01297626591 -0.01598441505 -0.001426432908 -0.6402945381 0.7645400624 -0.07417140643
0.0146804688 -0.01438037062 -0.001430535987 -0.6986446587 0.7154680743 -0.001037054656
0.01533406448 0.03545919418 -0.04687931824 0.7592360188 0.02447363955 0.6503550636
0.008651274443 -0.01866394711 -0.03857204437 0.4236765425 -0.9056697456 -0.01613998557
0.01457405529 -0.0145087429 -0.03777891998 0.6959312516 -0.718092845 -0.004728521259
0.01681727934 -0.01178822684 -0.001438160479 0.8083229678 -0.5879422435 0.0306251212
0.02024893856 0.003601874113 -0.001497264773 0.9993039916 0.03728476961 0.001173993524
-0.004885407448 -0.0138604126 -0.06139525986 -0.2533160438 -0.8289992367 -0.4985892572
0.01901694965 0.002540510297 -0.06193684578 0.9155241751 -0.2602550547 -0.3067291823
0.002943626046 -0.01179599237 -0.06499184227 0.1594124615 -0.7833983756 -0.6007284346
0.02045546627 -0.001945279479 -0.001473928183 0.9977629499 -0.04798668559 0.04654432171
0.01873674631 -0.008445029259 -0.03491081429 0.9061712332 -0.4229104885 -0.0006440250688
0.02006233215 0.03677968979 -0.06527359009 0.9739654668 -0.001975308894 -0.2266878199
0.01991843796 -0.005057388067 -0.001461726308 0.9656093582 -0.2599781454 -0.003151397158
0.01650872803 -0.004083373547 -0.06169810867 0.7845546877 -0.4603652433 -0.4153766783
-0.01394931793 -0.01508786392 -0.007370755672 -0.684683748 -0.7284386542 -0.02419281404
-0.01755615044 -0.01067665005 -0.004494017839 0.773987835 0.6332004668 1.498801083e-15
0.009186392546 -0.01186759758 -0.06154790783 0.4407641182 -0.7530746434 -0.4884726948
0.01116520421 -0.01725867367 -0.004984075665 0.540821039 -0.8411371803 0.0009207225339
-0.01147591209 -0.0170458231 -0.004385448813 -0.5334091278 -0.8458541339 0.002342349773
0.0168209753 -0.01179901361 -0.008630593777 0.8108718874 -0.5850350962 0.01485659536
0.02021113968 0.04226934052 -0.06447759247 0.9722337196 0.02111511417 -0.2330573887
0.0002058756153 -0.02054594707 -0.004997665008 0.04705735802 -0.9988915324 0.001145221613
0.003168026924 -0.02026766062 -0.04152044392 0.1859069516 -0.9810737705 -0.05415590676
0.01117232132 -0.01727815342 -0.03862173939 0.5331876371 -0.8458512243 -0.01570509303
0.01828553867 0.009817564964 -0.06797034073 0.8791694134 -0.1753858439 -0.4430586284
0.005985958099 -0.01965709082 -0.004977703015 0.2880259932 -0.9576219475 0.001110333711
0.01872746563 -0.008417006095 -0.005073414604 0.9075204795 -0.4199931593 0.003510753825
0.003190217018 -0.02032354164 -0.03862212753 0.1916679074 -0.9813987959 -0.01094607913
-0.009320150852 -0.01833526707 -0.01744962406 -0.4831451799 -0.8755396888 0.0009941959681
0.02046771336 -0.001983467042 -0.02065816498 0.9991233161 -0.04186087259 0.0005163007673
0.0002085614502 -0.02055254316 -0.01428658462 0.0491757731 -0.998789886 0.0007119556896
0.01428744888 -0.01398383204 -0.04736569087 0.7007748476 -0.6995530253 -0.1397861862
0.00864390405 -0.01864429569 -0.004977667888 0.4085650679 -0.9127284652 0.001155059185
0.01251284631 -0.008955849965 -0.06209808858 0.5981891042 -0.6397672445 -0.4825636419
-0.01146811485 -0.01706351757 -0.01169794607 -0.5320219501 -0.8466189876 0.01374534203
0.02050042725 0.01832595253 -0.06217037201 0.9977017741 -0.01941581482 -0.06491684042
0.01297715251 -0.01598687935 -0.004992873192 0.6415824807 -0.7670536192 0.0008159391119
0.01992939472 -0.005091048241 -0.01462494707 0.9652398058 -0.26099805 0.01386128214
0.01468186792 -0.01438435046 -0.005007211685 0.6986033729 -0.7155084454 0.0009959543639
-0.01416316271 -0.01460824013 -0.04454133797 -0.6781760406 -0.7306141005 -0.07924830708
0.01681912676 -0.01179361963 -0.005033876022 0.8114770236 -0.5843833457 0.001070263102
-0.009326566219 -0.0183205328 -0.00871924901 -0.4819719897 -0.8760695994 0.01431984851
0.01992087173 -0.005064864159 -0.004385307312 0.9655645338 -0.2601634614 0.0003232560053
-0.01147201443 -0.01705466843 -0.008040902297 -0.533210527 -0.8459789345 0.002485236838
0.02030095482 0.01898746872 -0.06390052795 0.9815568012 -0.01020273003 -0.1908982724
0.01106762981 -0.00851827836 -0.06427935791 0.530452477 -0.6512549482 -0.5426667137
0.01194643784 0.05262496948 -0.04384716034 0.6027006523 0.005809663622 0.797946221
0.02045950508 -0.001957871675 -0.007370489836 0.9986002196 -0.050339807 -0.01623284165
0.020256917 0.003576613784 -0.007486884356 0.9993680697 0.03539530182 0.003260973879
0.01966166496 0.0442137146 -0.05456898117 0.9507570277 0.01440462617 0.3096022949
0.01916751289 0.05867907333 -0.05305313492 0.9175074669 -0.0008643550915 0.3977176148
0.003183569431 -0.0203068018 -0.008545372367 0.1944097198 -0.9808606754 0.01082572217
-0.00644636476 -0.01951638508 -0.008660635471 -0.3347493462 -0.942173 0.01590324444
-0.002975414038 -0.02033826208 -0.008605433226 -0.1551885193 -0.9878168994 0.01158864725
0.0002069081217 -0.02054848337 -0.008568582058 0.04795834023 -0.9987847882 0.01135537207
-0.004406308174 -0.01878019333 -0.05014850235 -0.2135660221 -0.9409334475 -0.2627428429
-0.002970048845 -0.02035108662 -0.02009891844 -0.1554526135 -0.987843199 0.0005469200421
-0.007488081932 -0.01891749382 -0.04440488434 -0.3808308323 -0.916868997 -0.1196625232
0.005987451077 -0.01966094923 -0.008534322143 0.2879120407 -0.9575696345 0.01292485483
0.00864541769 -0.01864831066 -0.008534258246 0.4233685074 -0.90595345 0.002730071479
0.0205130291 0.05375400162 -0.06195934486 0.9987077822 -0.01016537589 -0.04979388333
0.01116697383 -0.01726349497 -0.008545223713 0.541399616 -0.8406879144 0.01141430398
-0.003259897828 -0.01965596151 -0.04702247429 -0.1651728627 -0.9716611713 -0.1690931508
0.01297795773 -0.0159891181 -0.008560374975 0.6241697224 -0.7812887382 0.0002552867856
0.0111714747 -0.01727583075 -0.02568161678 0.5428789259 -0.8398109733 -3.118973524e-05
0.01468256831 -0.01438633275 -0.008584968328 0.697725013 -0.7162938041 0.01014852347
-0.002968757153 -0.02035416222 -0.03453841972 -0.1549673515 -0.9878505468 -0.01167977128
0.01872942686 -0.00842290616 -0.00869837141 0.9070245697 -0.4208409924 0.01411698037
-0.01755615044 -0.01067665005 -0.01048870468 0.7738609183 0.6333543981 -0.001218829423
0.02014671516 0.05509484482 -0.06481523132 0.9639556216 0.01928464533 -0.2653632642
-0.002973586321 -0.0203426404 -0.01147578549 -0.1552759606 -0.9877834931 0.01315852408
0.0189798851 -0.006876283169 -0.04762173843 0.9252140579 -0.3608571639 -0.1173075206
-0.01394634151 -0.01509453901 -0.01105817223 -0.684472444 -0.7290380627 0.0009882019597
0.01552778339 0.0084314785 -0.0718363266 0.7450436678 -0.2338842408 -0.6246663869
-0.009324429035 -0.01832544041 -0.01162754631 -0.482296482 -0.8758795105 0.01500621812
0.0002102172524 -0.02055661058 -0.02001315546 0.04904266926 -0.9987965404 0.0005362301439
0.01283960056 0.0437315979 -0.04456245804 0.6474161617 -0.005355491338 0.7621178598
-0.01666642761 -0.008993774414 -0.05378824997 0.7411960807 0.6082443232 0.284019741
-0.00644548142 -0.01951846218 -0.01154948831 -0.3349896338 -0.9420921526 0.01563077748
0.0002077345401 -0.02055051279 -0.01142673111 0.04774260863 -0.9987619558 0.01397136077
0.01368937778 -0.01372798777 -0.05060722542 0.6470960799 -0.7294882221 -0.2216158776
-0.009313717842 -0.01835003948 -0.0262031498 -0.482264232 -0.8760253033 0.000937295021
-0.006440165997 -0.01953096199 -0.02893429661 -0.3332722774 -0.9428305548 0.0003660732745
0.003185095906 -0.02031064653 -0.0113957119 0.1940702416 -0.9808951256 0.01347196876
0.005988645911 -0.01966403723 -0.01138100433 0.2879659289 -0.9574742039 0.01785420519
0.009811362743 -0.0156500144 -0.05346934891 0.4690163208 -0.8284949089 -0.3059736536
0.008646252394 -0.01865053177 -0.0113809526 0.4317381481 -0.9018553191 0.01609828986
0.01855770779 0.006452807426 -0.0657598381 0.8962958668 -0.2098815215 -0.390644936
0.01296201897 -0.01594479847 -0.04159395027 0.6299039588 -0.7754508122 -0.04355502888
0.01116794229 -0.01726614189 -0.0113955605 0.5416374234 -0.8404916699 0.01423567456
0.01297860241 -0.01599091005 -0.01141579628 0.6143552291 -0.7888706488 0.01583514722
0.01369904041 0.0352097168 -0.04524678802 0.7027941316 0.007721246978 0.7113513835
0.01468297362 -0.01438747501 -0.0114486177 0.6976577276 -0.7163395221 0.01146229377
0.0001005342454 -0.02028726721 -0.04457141209 0.04564613472 -0.9918299212 -0.1191211059
0.01682245398 -0.01180333138 -0.01150934601 0.8108831692 -0.5849275894 0.01811631813
0.01488796806 0.03132822227 -0.046401474 0.7663274901 -0.006237624894 0.6424198549
0.01794065857 0.03820834732 -0.07071064758 0.8983201911 -0.008661823846 -0.4392559698
0.01873058081 -0.008426386356 -0.01159976435 0.9070821785 -0.4206895975 0.01490583731
0.01505372047 0.0002630785853 -0.06794479942 0.7285903726 -0.4052400684 -0.5522106083
0.01992695713 -0.005083562613 -0.01169755745 0.9650678758 -0.2616865784 0.01281131107
0.02029263306 0.003463547111 -0.0134765377 0.999469065 0.03229319228 0.004328722745
0.01011445808 0.04122012329 -0.04268749619 -0.5659071953 -0.008576126268 -0.8244243424
-0.01394336367 -0.01510121775 -0.01474789858 -0.6999370374 -0.7138488995 0.02253646717
0.01396154118 0.008315414429 -0.0735052948 -0.6597629179 0.2596160624 0.7052037948
-0.01146499395 -0.01707060146 -0.01462543917 -0.5327287424 -0.8461706247 0.01397715794
-0.006444597602 -0.01952054119 -0.01444006324 -0.3354806913 -0.9420468881 0.0006052301816
0.01687017059 0.02485691833 -0.04878915024 0.8485354139 0.00316934312 0.529129102
0.01884800148 0.05337062836 -0.05237937546 0.9292151354 -0.007128652225 0.3694704513
-0.01002078724 -0.01303101254 -0.05885646057 -0.4925792279 -0.7520458923 -0.4379414117
0.003186623156 -0.0203144927 -0.01424771714 0.1954990053 -0.9807032516 0.00112745638
-0.002971939266 -0.02034658384 -0.01434782743 -0.1554496613 -0.987843443 0.0008572462208
0.01117232132 -0.01727815342 -0.03501714007 0.5406204536 -0.8412641535 0.002036942316
0.00598984158 -0.01966712618 -0.01422936416 0.288168463 -0.9575795118 0.000644567191
-0.0002770761251 -0.01935994244 -0.04982799149 -0.005301769119 -0.9719298048 -0.2352112789
0.02047102833 -0.001993806541 -0.04147016525 0.9984909695 -0.05060589904 -0.02132667029
-0.01774491501 -0.01025819969 -0.04296933746 0.792900177 0.6059287038 0.06449585438
0.00864683795 -0.01865209579 -0.01422937107 0.4332558786 -0.9012708764 0.0003885788444
0.01116864753 -0.01726807594 -0.0142476182 0.5425165125 -0.8400450475 0.0003896636945
0.01297924709 -0.01599270344 -0.01427292585 0.6129683781 -0.7901074202 0.0001789039879
0.01682986832 -0.01182496905 -0.02593706942 0.8095375047 -0.5870677374 0.0007072331469
0.01468337893 -0.01438861775 -0.01431399155 0.6961024284 -0.7179423429 0.0004487873958
0.01682393408 -0.01180765128 -0.01438977337 0.8100590666 -0.5863475427 0.0009315928054
0.01873153353 -0.00842926836 -0.01450288892 0.906954721 -0.4212271757 0.0008947087291
0.01484879065 -0.01160162473 -0.0530722971 0.719751403 -0.6480293124 -0.2490299741
0.02046455669 -0.001973625004 -0.01474728251 0.9990557285 -0.0403309651 0.01615749222
-0.01752962399 -0.01073545313 -0.01648666 0.7728107828 0.6346280455 -0.003276866141
0.01905618954 -0.002408406734 -0.05652698708 0.9300775889 -0.291757757 -0.2232332634
0.02006143665 0.02528208447 -0.05601317596 0.9621787144 0.01211613454 0.2721494459
0.0203109808 0.003405461788 -0.01647259092 0.9995446376 0.02991337345 0.003963272006
-0.01394097948 -0.015106565 -0.01770211983 -0.6989125364 -0.7146884007 0.02723520364
0.02005704975 0.03679807281 -0.0560409584 0.968512264 -0.002200595828 0.2489561242
-0.01146187019 -0.01707769012 -0.01755502892 -0.5318238482 -0.8468540515 0.001268820047
-0.002970971942 -0.0203488884 -0.01722207642 -0.1554565868 -0.9878424747 0.0007034083728
0.0002093889862 -0.02055457544 -0.0171485796 0.04907754981 -0.9987947697 0.0006340614058
-0.0093180089 -0.01834018517 -0.02036429787 -0.4828307264 -0.8757131596 0.0009755384838
0.0002127078325 -0.0205627265 -0.02862678146 0.04814274142 -0.9987551478 -0.01305492832
0.003188151658 -0.02031834221 -0.01710182428 0.1955287672 -0.9806975311 0.0009239806334
0.005990865588 -0.01966976976 -0.01707986355 0.2883508917 -0.9575247055 0.0004490049606
0.008647423744 -0.0186536603 -0.01707993174 0.4334125285 -0.90119561 0.0002294791673
0.01116935325 -0.0172700119 -0.01710181427 0.5426123626 -0.8399831852 0.0002694035014
0.01297989225 -0.01599449778 -0.01713219929 0.61290179 -0.7901590953 -1.836275447e-06
0.01468378472 -0.01438976145 -0.01718152905 0.6959043076 -0.7181344145 0.000396661651
0.02001249886 -0.002164880832 -0.0507234993 0.9740567427 -0.2033119387 -0.09938670719
0.01889105606 0.0469405899 -0.06876293182 0.9156746703 0.01423640043 -0.401668051
0.01682541609 -0.01181197405 -0.01727231646 0.8099590754 -0.5864857135 0.0008967095573
0.01993183231 -0.005098539352 -0.01755443096 0.9651762862 -0.2615974625 0.001226439858
0.02046642876 -0.001979463398 -0.01770136738 0.9989577765 -0.04144386257 0.01912503421
-0.01750744343 -0.01078462601 -0.01948712158 0.7715202661 0.6361927659 -0.003904299879
0.01766876221 0.04210903549 -0.05012901497 0.8582821669 0.01093285497 0.5130615895
0.02031549644 0.003391165257 -0.0194727335 0.9995800483 0.02890545087 0.002049861361
-0.01145874405 -0.01708478451 -0.02048716354 -0.531717463 -0.8469208844 0.00124705034
-0.006442827702 -0.01952470207 -0.02022814894 -0.3347614281 -0.942302772 0.0005215940183
-0.0120177803 -0.01581609154 -0.04801901245 -0.5633009859 -0.8055701954 -0.1837080824
0.003189665079 -0.02032215405 -0.01995847273 0.1955865685 -0.9806862599 0.0005948508773
0.005991486073 -0.01967136335 -0.01993299007 0.2884707896 -0.9574886753 0.0002005525641
0.008648010015 -0.01865522575 -0.01993307257 0.4335819682 -0.9011141253 0.0001005759388
-0.002968757153 -0.02035416222 -0.02874974632 -0.1553832015 -0.9878542655 0.0001036816039
0.02047392559 -0.002002842665 -0.03549766159 0.999172111 -0.04068281068 -3.953792042e-05
-0.01739885139 -0.01102534962 -0.03755536079 0.7675529347 0.6406451425 0.02088764792
0.008765360355 -0.01489196944 -0.05659960365 0.4199885901 -0.8208350262 -0.3870910022
0.01153390121 0.003630571723 -0.07352482605 -0.5658782259 0.3709705827 0.7363169564
0.02055240154 0.02926540089 -0.06151785278 0.9971673353 0.0284460281 -0.06962850698
0.01117005944 -0.01727194977 -0.01995858622 0.5426851424 -0.8399361923 0.0001705933562
0.01298007011 -0.01599499321 -0.01999414158 0.6128400744 -0.7902069389 -0.0001921440544
-0.01353076935 -0.01238246822 -0.05462728119 -0.6481838391 -0.6924788573 -0.3167502849
0.0153171463 -0.002847380877 -0.06504066467 0.7393191995 -0.4591472103 -0.4925352379
0.01468419075 -0.0143909061 -0.02005166912 0.6956855954 -0.7183463233 0.0003349595167
0.0168268981 -0.01181630111 -0.02015741777 0.8098277734 -0.5866670571 0.0008611658843
0.01873344135 -0.008435038686 -0.02031606388 0.9066969024 -0.421781935 0.0008523726737
0.01993427277 -0.005106036901 -0.02048645782 0.9651475012 -0.26170381 0.001190322784
0.005992728829 -0.0196745553 -0.02564873552 0.2885255891 -0.9573128822 -0.01746510585
0.01511258221 0.04789205551 -0.04666293716 0.7335583992 0.00370408022 0.679616329
-0.0174852457 -0.01083383179 -0.02248961353 0.7700904784 0.6379225732 -0.003930091702
0.02031549644 0.003391165257 -0.02247653961 0.9995960745 0.02841975099 7.447048757e-05
0.01775836372 0.03021655369 -0.05026402664 0.8619139275 0.01069197327 0.5069418737
-0.01393634176 -0.0151169672 -0.02361884499 -0.6944697089 -0.7195215382 0.0007612165207
-0.01145561409 -0.01709188747 -0.02342229366 -0.5316390818 -0.8469701395 0.001212263055
-0.00931586504 -0.01834510899 -0.02328199005 -0.4825290911 -0.8758794216 0.0009566144703
0.02046895313 -0.001987331688 -0.02361805725 0.9991366796 -0.04154126342 0.0004678558341
-0.01746303082 -0.01088307858 -0.02549459457 0.7686111035 0.6397041482 -0.003946428743
-0.0064419415 -0.0195267868 -0.02312654877 -0.3343317657 -0.942455329 0.0004725037726
-0.002969124854 -0.02035328674 -0.02297879124 -0.155436923 -0.9878457391 0.0003982878833
0.01317586803 0.03137907791 -0.04482408142 0.6926454663 0.005718414708 0.7212555426
0.0002110464126 -0.0205586462 -0.02288075256 0.04906345314 -0.9987955939 0.000373180721
0.005992107153 -0.01967295885 -0.02278913355 0.2884918701 -0.9574823445 -3.080019721e-05
0.008648597002 -0.01865679407 -0.02278923035 0.4336813417 -0.901066309 2.502686461e-05
-0.00930725956 -0.01836487103 -0.03499197769 -0.4811485827 -0.876638707 -0.0007865754254
-0.00931156826 -0.0183549757 -0.02912823105 -0.4819986796 -0.8761714618 0.0009177976096
0.01298007011 -0.01599499321 -0.02860016155 0.623253985 -0.782011013 -0.003639469567
0.01801642036 0.02111475754 -0.05066690445 0.8785184403 0.02623809056 0.4769873296
0.01117076683 -0.01727388906 -0.0228183732 0.5427795096 -0.8398752253 9.945855267e-05
0.01468459702 -0.01439205194 -0.02292485332 0.6954475392 -0.718576811 0.0002947136406
6.135612726e-05 -0.02056959457 -0.03829894714 0.006030174877 -0.9999703472 -0.004789749119
0.01683131552 -0.01182919288 -0.0288325243 0.8094216539 -0.5872276813 0.000486300211
0.01682838202 -0.01182063246 -0.02304552031 0.8096842696 -0.586865156 0.0008199540689
0.01994359779 -0.005134687424 -0.03815937996 0.9646572865 -0.2634427577 -0.005850889117
0.01873439741 -0.008437928438 -0.02322700596 0.9065677471 -0.4220594863 0.0008425602711
0.01868446493 -0.008287858009 -0.04375086689 0.9045493296 -0.4228277324 -0.05483811728
0.01993671608 -0.00511354208 -0.02342147827 0.9651344743 -0.2617518958 0.001179677499
0.02031549644 0.003391165257 -0.02548378372 0.9995900717 0.02863010569 7.431642665e-05
-0.01393446445 -0.0151211772 -0.02658233643 -0.6930516003 -0.7208876295 0.0007106429065
-0.002869058847 -0.009073699474 -0.06820252991 -0.1113417309 -0.7128597021 -0.6924117735
-0.01145248127 -0.01709899807 -0.02636087227 -0.5315894121 -0.8470013579 0.001181807415
0.01717864609 0.01332174397 -0.07108507538 0.8441899238 -0.09955871534 -0.5267176044
0.01886748505 0.01833628273 -0.06870588684 0.9210786916 -0.03939388882 -0.3873785816
-0.01529740429 -0.008373215675 -0.0584191246 0.7081428781 0.6060849048 0.3622081617
-0.006441054344 -0.01952887249 -0.0260284481 -0.3338348117 -0.9426315046 0.0004062224693
-0.002968757153 -0.02035416222 -0.02586225414 -0.1554129967 -0.9878495559 0.0002353597725
0.0002118765414 -0.02056068516 -0.02575181293 0.04910389632 -0.9987936449 0.0002493645686
0.01810416222 0.05604735184 -0.07036678314 0.9263617659 -0.00501777011 -0.3766015145
0.003190217018 -0.02032354164 -0.02568168068 0.1957075376 -0.9806623066 -8.933854166e-06
0.008649184704 -0.0186583643 -0.02564884663 0.4322083108 -0.9016370145 -0.01570574036
0.006008607864 -0.01573084688 -0.05737132835 0.2811508914 -0.8691385531 -0.4068812501
0.01298007011 -0.01599499321 -0.02572769356 0.6127364958 -0.7902871554 -0.00044582211
0.02031549644 0.003391165257 -0.03453080559 0.9995717987 0.02926113118 7.415523541e-05
0.006243726015 -0.01634635925 -0.05577910042 0.3195295074 -0.8720933061 -0.3706132207
0.014685004 -0.01439319944 -0.02580152512 0.6952065541 -0.7188099762 0.0002553891719
0.01873535347 -0.00844082129 -0.02614145041 0.9064346898 -0.4223453135 0.0007676789007
0.0199391613 -0.00512105608 -0.0263599453 0.9651213811 -0.2618004116 0.001124391564
0.02057220364 0.01277088547 -0.05887199593 0.9999933911 0.001432561016 -0.003341497673
0.02047019291 -0.001991200984 -0.02658149433 0.9991497731 -0.04122525842 0.0004571229155
-0.01744079399 -0.01093237352 -0.0285025301 0.7670860224 0.6415319121 -0.003979947667
0.01873667812 -0.008444826603 -0.03198283386 0.9062227555 -0.4228004912 0.0002490909968
0.02031549644 0.003391165257 -0.02849493217 0.9995840262 0.0288404067 7.433807903e-05
-0.01393258476 -0.01512539291 -0.0295498209 -0.6916210147 -0.7222602805 0.0006776553747
0.01179859447 0.03580638885 -0.04371773911 -0.6423802057 -0.02235020715 -0.7660601409
-0.01144934368 -0.01710611725 -0.02930335522 -0.5315615444 -0.8470188725 0.001163697545
0.01376603985 0.04649395752 -0.07591625214 0.7223160184 0.07218481745 -0.6877855201
0.003190217018 -0.02032354164 -0.02854901218 0.1943391452 -0.9808726761 -0.011004085
0.01968218613 0.03224513245 -0.05457745361 0.9542370241 0.00705058694 0.2989682109
-0.003524056355 -0.01839896011 -0.05212014262 -0.1746086777 -0.9406410171 -0.2910434446
0.00599335146 -0.01967615414 -0.02851223803 0.288170716 -0.9574860648 -0.01334444393
0.008649773121 -0.01865993643 -0.02851236534 0.4326344776 -0.9014852088 -0.01232181572
0.01117216372 -0.01727772141 -0.02854876423 0.5421215108 -0.8401951535 -0.01328049644
0.01468535304 -0.01439418316 -0.02868214512 0.6949725143 -0.7190362865 0.000151778036
-0.006111720562 -0.01090423679 -0.06503952789 -0.2936963753 -0.7581462245 -0.5821999153
-0.009324462891 -0.01832536411 -0.04088360405 -0.4772272713 -0.8779538309 -0.03809465086
0.01873631144 -0.008443718076 -0.02905984735 0.9062976181 -0.4226396802 0.0005728652083
0.01994161129 -0.005128580332 -0.02930231094 0.9650886961 -0.2619218668 0.0008627640212
0.01872570038 0.02978274918 -0.06915278625 0.907782015 0.01713876521 -0.419091966
0.02047143555 -0.001995075524 -0.02954893208 0.9991619172 -0.04093013421 0.0004329083249
-0.01741853142 -0.01098172474 -0.03151387978 0.7656146576 0.6432891021 -0.003650652762
0.01968591118 0.04412791443 -0.0665217514 0.9659866708 0.006926818902 -0.2584990734
0.01338221836 0.04778721237 -0.04499567795 0.6767380007 -0.005098816506 0.7362062757
0.02042730331 0.01324394226 -0.05658683777 0.9978634329 0.02050054299 0.06203464399
0.02031549644 0.003391165257 -0.03151044941 0.9995779334 0.02905080946 7.428441567e-05
-0.01393070221 -0.01512961483 -0.03252175808 -0.6903272255 -0.7234970262 0.0006121754079
-0.0114462018 -0.01711324883 -0.03225019646 -0.5315330422 -0.8470367993 0.001133872944
-0.009309415817 -0.01835991955 -0.03205768776 -0.4817131329 -0.8763286058 0.0007950957928
0.008136354446 0.04757883072 -0.04171500397 -0.4707027918 0.006783562183 -0.8822657565
-0.006439276099 -0.01953305435 -0.03184454536 -0.3326821013 -0.9430389728 0.0003393896087
-0.002968757153 -0.02035416222 -0.0316416502 -0.1538747344 -0.9880898021 -0.001053106323
-0.01740033436 -0.01102206373 -0.0345301342 0.7645713514 0.6445365143 -0.001824927736
-0.01229854441 -0.01149528456 -0.0584967823 -0.5830748677 -0.7040619963 -0.4053645323
0.0155936079 0.04624495697 -0.07402306366 0.7223160184 0.07218481745 -0.6877855201
0.0002135403603 -0.02056477118 -0.03150610352 0.04688685316 -0.9988095719 -0.0134559281
0.003190217018 -0.02032354164 -0.03142072392 0.1953035569 -0.9806992571 -0.009245965546
0.01966811752 -0.004288360119 -0.04943824768 0.9425029295 -0.3153948576 -0.110518377
0.005994131168 -0.01967815717 -0.03209803581 0.2885575195 -0.9574205183 0.008972690095
0.01918816185 0.04588924789 -0.05310909271 0.9254238468 -0.00173871728 0.3789296512
0.008650509993 -0.01866190434 -0.03209818331 0.4229539256 -0.9061337449 -0.005622562781
0.01117232132 -0.01727815342 -0.03142040873 0.5429102355 -0.8397006005 -0.0123035631
0.01298007011 -0.01599499321 -0.03147702026 0.6233479283 -0.7819365271 -0.003553584277
0.005510493994 -0.01842850828 -0.05036660671 0.2570952773 -0.9275569591 -0.2711827907
0.01953579521 0.0573310318 -0.06696928406 0.9493226823 0.06030019438 -0.3084644734
0.01137450504 0.04859030533 -0.04343360901 0.5733140426 -0.0004832982833 0.8193355692
0.01468567491 -0.01439509058 -0.03156715631 0.6959704296 -0.7180019666 -0.009916501794
0.01683224487 -0.01183189344 -0.03173248053 0.8093557172 -0.5873187357 0.0001603496985
0.01994352341 -0.00513445878 -0.0322492075 0.965030394 -0.2621375304 0.0005036937205
0.006584661007 0.05843604279 -0.04111468887 0.3958903349 0.004853449512 0.9182849704
0.02047268009 -0.001998955846 -0.03252083397 0.9991703616 -0.0407242399 0.0003531450738
-0.01392881727 -0.0151338439 -0.03549861526 -0.6895909108 -0.7241969208 -0.001787603669
-0.01144305468 -0.01712039089 -0.03520185661 -0.5313401479 -0.8471580342 -0.000955190747
-0.006438384771 -0.01953515005 -0.03475965023 -0.3319480227 -0.9432971885 -0.0009614659208
0.0003686460495 -0.02056712265 -0.03481700668 0.04673538018 -0.9989049436 -0.002172080566
0.01520974922 0.03027770042 -0.07446002197 0.7229765201 0.07609441375 -0.686669201
0.003190217018 -0.02032354164 -0.03501749166 0.1934522539 -0.9811074056 -0.002117562368
0.008301838875 0.006018405437 -0.07661925507 0.4481795465 -0.3391461696 -0.8271124287
0.01298007011 -0.01599499321 -0.03508023198 0.6243253239 -0.7810446535 0.01367988012
0.01468599749 -0.01439599943 -0.03445700359 0.7022486491 -0.711930907 -0.001103810598
0.01683289146 -0.01183376718 -0.03463735867 0.8089045837 -0.5879258859 -0.004065366232
0.01994359779 -0.005134687424 -0.03520157051 0.9649252629 -0.2625242795 -0.0004896213139
0.005737298965 0.05529070663 -0.04083115768 -0.3938620634 -0.01558241067 -0.9190374658
-0.008530741692 -0.01649415874 -0.05295430183 -0.4077110126 -0.8690897004 -0.2800978809
0.002746408463 -0.0192059164 -0.0496785717 0.1298409722 -0.9646071504 -0.22950897
-0.0002707410157 -0.005551924706 -0.07177353668 0.02449363249 0.6380753635 0.7695842335
0.005994773865 -0.01967980814 -0.03569102955 0.2918145299 -0.9563389385 0.01612807434
0.01782513428 -0.005705360651 -0.0560674448 0.8714211223 -0.4159534881 -0.2600152368
0.008651200533 -0.01866374922 -0.03569117165 0.4243120568 -0.9055085251 0.003686376599
0.01931850624 0.01163327599 -0.05012339401 0.9479365133 0.155324451 0.2780120173
-0.01244287872 -0.01485135984 -0.05042605782 -0.5994541771 -0.7649180997 -0.2357010613
0.008908103943 0.05085069275 -0.04202606201 -0.4466906924 -0.01886095691 -0.8944896252
0.009562270164 0.05460023117 -0.042390625 -0.4859026405 -0.0009278777253 -0.8740124501
0.01020809937 0.0584821701 -0.04276985931 -0.4483299868 -0.0003796792742 -0.8938680433
-0.01392692804 -0.0151380806 -0.03848085403 -0.6894802128 -0.7237564021 -0.02817279749
-0.01144007301 -0.01712715721 -0.03815884781 -0.5324120439 -0.8463132268 -0.01706861809
-0.009306478977 -0.01836666393 -0.03793195534 -0.4794636506 -0.8774956965 -0.01076617346
-0.006578021844 -0.01234397221 -0.06278673681 -0.3178793843 -0.7824699076 -0.5354377095
-0.005891390165 -0.008853149573 -0.06744499715 -0.2565398253 -0.7123052462 -0.6533058658
0.01978184032 -0.00463773632 -0.04714369965 0.948611649 -0.3049112947 -0.08464657009
0.006453441143 -0.006562710285 -0.0695345459 -0.314831282 0.6484260864 0.6931268818
-0.002968757153 -0.02035416222 -0.03744050694 -0.1551719085 -0.9877404023 -0.0170463028
-0.006437535167 -0.019537148 -0.03768007946 -0.3288191419 -0.9443261848 -0.0112262443
-0.003692869186 0.00323436141 -0.07695851898 0.1501540147 0.4778886027 0.8654919152
0.01683293915 -0.01183390617 -0.03754774284 0.8094812046 -0.5870259966 -0.01185996566
0.0204751749 -0.002006736398 -0.03847988319 0.9991615511 -0.04088635097 -0.002121571085
0.01074199295 0.04486359406 -0.0430557785 0.5674759196 0.009283103498 0.8233376614
0.01248994637 0.05687230301 -0.04428522873 0.6118803144 0.02686948654 0.7904938403
-0.01182234764 -0.01625961113 -0.04645539474 -0.5472561361 -0.8266723838 -0.1308567592
-0.01743957424 -0.01093507671 -0.04059866905 0.77638243 0.6274189397 0.05979796358
0.02050453472 0.0352406044 -0.05913502121 0.9941319128 0.007039181646 0.1079453098
0.005994805336 -0.01967988968 -0.03857190514 0.3300944471 -0.9439031953 -0.009187703195
0.01298007011 -0.01599499321 -0.03869132423 0.6314496979 -0.7753603244 -0.009361960997
-8.062644303e-05 -0.01984237766 -0.04755567741 -0.02405274272 -0.9838626733 -0.1773011721
0.01180541248 -0.01187199192 -0.05854560394 0.5741186777 -0.7107625084 -0.4064534421
0.0203087616 0.003412486553 -0.04059063339 0.999608127 0.02694557511 0.007584745089
0.01232178879 0.0397060318 -0.04413259506 -0.6330996965 -0.004686715328 -0.7740560761
0.01393621445 0.05192008972 -0.04543798065 0.6565877748 0.002632884529 0.7542450278
0.0152313962 0.05671846962 -0.04680683517 0.7492829123 0.03238898174 0.6614575354
-0.01396798515 -0.01504599476 -0.04148201752 -0.6624989701 -0.7475796733 -0.04711418851
0.01632834244 0.005972018719 -0.06972930145 0.7887563184 -0.2842685869 -0.5450273761
-0.01146690845 -0.01706625557 -0.04113077736 -0.5314504033 -0.8456993407 -0.0485087008
-0.006449884653 -0.019508286 -0.04061047745 -0.3267068113 -0.944562126 -0.03263509845
-0.002819714975 -0.02033887482 -0.04077963562 -0.1569254504 -0.9866295157 -0.04400683855
0.02037677479 -0.001699888468 -0.04751087379 0.9839350054 -0.159447438 -0.08030205294
0.003140090942 0.009088151455 -0.07925352478 0.07541531672 -0.2060818189 -0.9756243201
0.0172267952 0.03483319855 -0.07183130646 0.8518330157 -0.02747993084 -0.5230921207
0.0147839674 -0.01424353886 -0.04128405533 0.6952294245 -0.7181270793 -0.03081469239
0.01682781315 -0.01181893516 -0.04046591377 0.8001312349 -0.5988681878 -0.03386592195
0.01873100948 -0.008427778959 -0.04078568077 0.9058181172 -0.422967283 -0.02433549044
0.01993564701 -0.005110258818 -0.04112627411 0.9634527108 -0.2668422159 -0.02353945215
0.01723845434 -0.008538864613 -0.05266989231 0.8406903632 -0.5006850299 -0.2062867275
0.01499108505 0.03946040344 -0.04653153038 0.7408210859 -0.00371067814 0.6716921539
0.01843195915 0.04245419312 -0.06973110962 0.9404434023 -0.01401087333 -0.3396614528
0.009281641324 -0.002784689903 -0.07110218811 -0.4524420228 0.5319384108 0.7157777191
0.01466066933 0.04347956848 -0.04616796875 0.7212354405 -0.003870063131 0.6926791912
0.01620573235 0.04414896774 -0.04788965225 0.7563373891 -0.003608892294 0.6541717892
0.01557489491 0.05239819336 -0.04716928482 0.7487467666 0.007685523057 0.6628115963
0.01864373207 0.02448332596 -0.05190573502 0.8915734328 -0.01320821447 0.4526835065
0.0001911103576 -0.0205096941 -0.04163316441 0.04037816433 -0.9979759584 -0.04912830526
0.02051595974 0.04736844063 -0.05926202011 0.9979886166 0.02391830999 0.05870805461
0.005975731373 -0.01963060474 -0.04146552944 0.2869553866 -0.956389899 -0.05454326005
0.008633607984 -0.01861708212 -0.0414653244 0.4330740016 -0.8999028156 -0.0512038246
0.01115399456 -0.0172282486 -0.04151913548 0.5441486669 -0.8379013577 -0.04270296279
0.01554572296 0.02376106644 -0.0470864296 0.831537915 0.01771451637 0.5551854572
0.01102433348 -0.01055682135 -0.06165982628 0.5374095724 -0.6989206521 -0.4719119342
0.02037987614 0.00318735528 -0.04359821892 0.9995497528 0.0145822248 0.02622308768
0.01519701242 0.02758163738 -0.04675748444 0.7803588528 0.01742840409 0.6250890429
0.007963359118 0.000173521176 -0.07386418915 -0.386208319 0.4743696102 0.7910857142
0.01659265709 0.04885587692 -0.04844132614 0.7913534565 0.009470469241 0.6112855447
0.01736585045 0.05870418167 -0.0495996933 0.8709802062 -0.01521937413 0.4910823262
-0.006061839581 -0.01483802319 -0.05905199814 -0.2744441738 -0.8418331734 -0.4647551007
0.0175711031 0.05477059937 -0.04999236488 0.8671342007 0.008982252093 0.4979935714
0.01247088718 0.01282797146 -0.07612046051 0.6116402187 -0.1648060054 -0.7737798288
-0.01824873924 -0.009141321182 -0.04465211868 0.9115462991 0.411197452 -9.024261982e-07
-0.01160755062 -0.01674707794 -0.04414751434 -0.5471617925 -0.829021331 -0.1154885516
-0.009424355984 -0.01809595585 -0.0438694725 -0.4928965329 -0.8662292006 -0.08185340554
-0.00620885547 -0.01945967484 -0.04329173533 -0.3021850904 -0.949748466 -0.08162121333
-0.003076646984 -0.02009525967 -0.04402920532 -0.1677389839 -0.9800982551 -0.1061651715
0.002645948966 -0.008983293374 -0.06832561493 0.1264072846 -0.7118191593 -0.6908941184
0.01678441811 -0.01169215584 -0.04340624237 0.796418992 -0.6015647293 -0.06194082407
0.01988454533 -0.004953266144 -0.04411838722 0.9600168165 -0.2766080996 -0.04307750242
0.02044639874 -0.001917003393 -0.04447595024 0.995788122 -0.08247783821 -0.04004275538
0.01635248184 0.03208181381 -0.04808561707 0.8024175648 -0.01141738703 0.596653748
0.002346737474 -0.01427079511 -0.06158138371 0.1275503095 -0.8403663417 -0.5267972383
-0.01133114529 -0.01371694851 -0.05580308533 -0.5349651701 -0.7690178854 -0.3498910669
0.01673421478 0.03649291229 -0.04861844635 0.8206964447 -0.009939375361 0.571278001
0.02037102699 0.008249899864 -0.05271617508 0.9930539728 0.05352023944 0.1047825892
0.01748396111 0.04575370026 -0.04974184799 0.8532561206 -0.0207659768 0.5210784652
0.01785789108 0.05059654236 -0.05033141708 0.8562178233 0.0001344197645 0.516614964
0.003084776103 -0.02005800724 -0.04444882488 0.1822021229 -0.9774039769 -0.1071627378
0.005900448918 -0.01943609762 -0.04438776398 0.283313841 -0.9539194279 -0.09884833108
0.008563324213 -0.01843062878 -0.04438627148 0.4185838083 -0.9034178941 -0.09286390082
0.01853674126 0.04819436646 -0.05172336197 0.9100695502 -0.007168826469 0.4143935589
0.01414054012 0.002982028008 -0.07086132812 0.6835089229 -0.3426611372 -0.6445144664
0.01108285785 -0.01703447437 -0.04444479465 0.5288062999 -0.8421563095 -0.1055303154
0.01289051199 -0.01574596453 -0.04452549362 0.615333964 -0.782323243 -0.09661498947
0.01459724259 -0.01414393783 -0.04465311527 0.6994544045 -0.7087804409 -0.09161780757
0.0205262928 0.002723832726 -0.04657476044 0.9996682614 -0.0131555894 0.02214266476
0.01649361038 0.02071403885 -0.04827407455 0.8647772173 0.04457984584 0.5001729719
0.01757779884 0.03365051651 -0.04988890457 0.8577407311 -0.02145246732 0.5136347241
0.01793297958 0.03823464203 -0.05046418381 0.8526806548 0.004948139491 0.5224090513
-0.01459787989 -0.01363323212 -0.04769888115 0.6715704317 0.7215114487 0.1685656688
-0.00705765152 -0.01870003891 -0.04686695099 0.3718442391 0.9130458014 0.1675685721
0.01584472752 -0.006698041916 -0.05977514648 0.7723014291 -0.5128039542 -0.3749434719
-0.009671182632 -0.017529109 -0.04691835594 -0.4787486433 -0.8636476229 -0.1578370046
-0.005730228901 -0.01935321808 -0.04572796631 -0.2609250603 -0.9544301429 -0.1448489397
0.01577418836 -0.01244028187 -0.04701614126 0.7561446555 -0.6362991856 -0.1528679378
0.01718530655 -0.01064043808 -0.04645842743 0.831435568 -0.5427118372 -0.11907459
0.01844220098 -0.008326288223 -0.04646310043 0.8953222527 -0.4363124726 -0.08960742221
0.02057373619 0.002573638439 -0.04959748459 0.9957466672 -0.08516899442 -0.03513996394
0.01763409805 0.0170478878 -0.04934555817 0.9079197667 0.1627538257 0.3862549539
0.01326681519 0.0008831213713 -0.07050970459 0.6486046545 -0.4045506026 -0.6447098666
0.01800463867 0.02660275078 -0.05059420776 0.8782222261 0.001300728937 0.4782510112
0.01859160614 0.03597942352 -0.05181446838 0.8891052374 -0.01729794614 0.4573758387
0.01889318275 0.04084890747 -0.05244979858 0.9252309055 0.001867487813 0.3793998998
0.01942073631 0.05130963135 -0.05382233047 0.9430778322 0.0172080263 0.3321266118
0.01107961051 -0.01354550584 -0.0564323616 0.5364103502 -0.7579692153 -0.3711422974
0.01964155388 0.05694391251 -0.05456553268 0.9488867344 0.04316793023 0.3126507559
0.01746042252 0.05200302505 -0.07146115875 0.8789002532 -0.0121318394 -0.4768513012
0.002922278464 -0.01964879894 -0.04741925526 0.1647079083 -0.9702160503 -0.1776291663
0.01912887383 0.03413974762 -0.06823347473 0.9113913592 -0.01515668268 -0.4112615534
0.005064188957 -0.01924931335 -0.04735938072 0.2166365787 -0.9609569814 -0.172134461
0.006431281328 -0.01883369923 -0.04734403229 0.3280932838 -0.9289443533 -0.1715143887
0.008419562101 -0.01804924774 -0.04734785557 0.4198147473 -0.8917804908 -0.1687694705
-0.003183816353 -0.01157081572 -0.06521703593 -0.1536907351 -0.7829071005 -0.6028562266
0.01275115156 -0.01535845566 -0.04749679184 0.6042920911 -0.7777972231 -0.1728078367
0.01893793869 0.02906762505 -0.05252072144 0.9137676174 0.002238168346 0.4062311314
0.01920829773 0.03386779022 -0.05316722488 0.9212647938 -0.0006082041449 0.3889354829
0.0194453373 0.03892713928 -0.05385159302 0.9437139283 0.016492864 0.3303513387
0.02004712677 0.04905554771 -0.05607993507 0.968866244 0.01026909001 0.2473716777
0.02009575081 0.05528139114 -0.0560748024 0.9678894166 -0.01044857374 0.2511591218
-0.01515133667 -0.01239190865 -0.05016526794 0.6913045877 0.6813335028 0.2405880815
-0.00904957819 -0.01713683224 -0.0499100008 -0.4148150029 -0.88038737 -0.2298838665
-0.006105255842 -0.01847100258 -0.04955305862 -0.2577647459 -0.9380194751 -0.2316825415
0.02044443512 0.05400507736 -0.0585020256 0.9914553552 0.000432499916 0.1304457419
-0.003463973761 -0.01916680908 -0.04930293083 -0.1977115164 -0.9525422217 -0.2314594396
0.01540405679 -0.01210423899 -0.05001913261 0.7328974664 -0.648420536 -0.205942012
0.01706014252 -0.01027235222 -0.0487235527 0.8205236052 -0.5505464917 -0.1537516626
0.01762790362 -0.008938522339 -0.04986999257 0.8642133448 -0.4739160567 -0.1689345018
0.01884574604 -0.00647021389 -0.0499160347 0.924915348 -0.3625492406 -0.1144099959
0.02052916145 0.00271475029 -0.05267236519 0.9970100524 -0.05607257454 -0.05316786449
0.01908830833 0.01761536598 -0.05253901291 0.9159576423 0.05128639305 0.3979840493
0.01922900391 0.02254238129 -0.05322700882 0.9142523655 -0.0031820455 0.4051326779
0.01956980801 0.005751853943 -0.06245982552 0.9478135945 -0.1735188449 -0.2674707471
-0.0001800464392 -0.01575931978 -0.05925269127 0.002544540603 0.8708125678 0.4916085811
0.01691601753 0.01935619354 -0.07225931549 0.8506743004 -0.02815437596 -0.5249386304
0.01945870399 0.02731295013 -0.0538901825 0.949963766 0.01822611895 0.3118279202
0.02008864021 0.04270281601 -0.0560406723 0.9798622604 0.00617598178 0.199579077
0.020526577 0.06028550148 -0.05940518379 0.9712016344 -0.2378846057 0.01335288868
0.01348511219 -0.0131521244 -0.05290990448 0.6757168299 -0.6886298839 -0.2630506584
-0.01573965645 -0.01107239056 -0.05190441132 0.6995402634 0.6680038403 0.2537997029
0.008834961653 -0.01712609418 -0.0503720595 0.4530780644 -0.8614499777 -0.2293996591
0.01194267011 -0.01522322774 -0.05048138905 0.5912768195 -0.7768854932 -0.2164270158
0.01973862267 0.01549228191 -0.05379413605 0.9664044409 0.05968564187 0.2500001614
-0.0004332581212 -0.01447875659 -0.06148453013 -0.003710564332 -0.8428648893 -0.5381124511
0.01970160675 0.02097509003 -0.05459148026 0.9671525277 0.0250124246 0.2529631726
0.02020621681 0.03045078564 -0.05677038956 0.9827486693 0.004516329396 0.1848909291
0.02043671703 0.04147111511 -0.05839093018 0.9924887218 -0.01369005422 0.1215677572
-0.011936903 -0.01417698431 -0.05350295067 -0.5790520041 -0.7592692754 -0.2969999057
-0.005986480872 -0.01751704407 -0.05289419174 -0.2702855321 -0.91021173 -0.3137839028
-0.01265054369 -0.008818049431 -0.06202507782 -0.5961168426 -0.6534916394 -0.4664690636
-0.000447941795 -0.01894036484 -0.05136605644 -0.06845160586 -0.9611630726 -0.2673572993
0.00259390974 -0.01882188606 -0.05120601654 0.1384517312 -0.9502898936 -0.2788910832
0.02054005241 0.007706556797 -0.05417969513 0.9954588829 0.07406346592 0.05980146655
0.01939292145 -0.003442908168 -0.05332848549 0.9256362353 -0.3338357562 -0.1781887982
0.02003943825 -0.0006479615122 -0.0537181778 0.968389444 -0.2172139789 -0.122637564
0.01145584488 0.006208851337 -0.07484143829 -0.5723962672 0.3262109031 0.7522957929
0.02059573364 0.04090842056 -0.06084206009 0.9995235772 0.02781074645 0.01338585383
0.02017565536 0.01406550026 -0.0551452446 0.9823985529 0.05406894448 0.1788005386
0.0202070694 0.01929881668 -0.05672558594 0.9881083724 0.02746800139 0.1512856681
0.02054563904 0.06021451569 -0.06205625916 0.9881427125 0.03580791493 -0.1493042963
0.009619777679 0.002250784636 -0.07416617584 -0.4805468883 0.4324848393 0.7629099239
-0.00280915761 -0.0072266469 -0.07009092712 0.08712745436 0.6856109287 0.7227354019
-0.0004593516861 -0.01827593486 -0.05342925898 -0.04779303943 -0.9454299002 -0.3223013019
0.005571356869 -0.01739509277 -0.05359457779 0.2860223243 -0.90311184 -0.3202814925
0.01494581866 -0.00856703496 -0.05876175785 0.7179482213 -0.5796770338 -0.385389268
0.008129134973 -0.01660196177 -0.05317505264 0.3941097001 -0.8601039664 -0.3238807053
0.003308625579 -0.01672427607 -0.05664011002 0.1664060116 -0.9027785188 -0.3966106219
0.02037032604 0.003217590094 -0.05581982994 0.9929345957 -0.09419503676 -0.07216774688
0.02056458092 0.007627709627 -0.05649531364 0.9997874209 -0.01957310082 -0.006481254011
0.01812190119 -0.002707932552 -0.05930878703 0.8742897437 -0.3697551146 -0.3144814768
0.02049787807 0.02381152534 -0.05901978302 0.994679029 -0.0009839965955 0.1030177703
-0.005997138023 0.0007518768311 -0.07504145813 -0.2835085161 -0.4724600621 -0.8345084847
0.02054178429 0.029301754 -0.05905264282 0.9885165555 0.001007950197 0.1511092437
0.0198184185 4.125466198e-05 -0.05611486435 0.9587793406 -0.2192446219 -0.1807594305
0.02055866051 0.04721478271 -0.06181903076 0.9927474021 0.0164547142 -0.1190875221
-0.01423338795 -0.01078792477 -0.05643829346 0.6685081173 0.6649106872 0.3331526304
-0.009257475853 -0.01480509186 -0.05625733948 -0.462946886 -0.8099285188 -0.3601332742
-0.005851560752 -0.01659281031 -0.05550875092 -0.2765702362 -0.8919063052 -0.3577877125
0.01499651368 -0.005719352404 -0.06251447932 0.7279767248 -0.5222804896 -0.4441542282
-0.002987367153 -0.01717869568 -0.05573080699 -0.1388445094 -0.9191165029 -0.3687099894
0.01953300953 0.00093125844 -0.05856416702 0.9387067392 -0.2530757976 -0.2340561864
-0.0002651644846 -0.01747933769 -0.05551041794 -0.03666653895 -0.9274106667 -0.3722432272
0.0147191693 -0.0108665123 -0.05516919708 0.6971670423 -0.6520254675 -0.2980283623
0.01642391491 -0.008401324272 -0.05571440315 0.7902262379 -0.5421704825 -0.2856460413
0.02055937672 0.01813045883 -0.05973072815 0.9988270844 0.02087997259 0.04368617957
0.02047912216 0.03532905197 -0.06249638176 0.996946609 -0.02384089435 -0.07435771966
0.02049431801 0.04126728821 -0.06260025787 0.9922777381 0.001259839116 -0.1240294453
0.02013655567 0.04873373795 -0.06467149353 0.984421637 -0.01038106395 -0.175517162
-0.007364928722 -0.01550773811 -0.05677435684 -0.3551186797 -0.8530454666 -0.3823665194
0.01312808323 -0.01214559078 -0.05604401398 0.6120743877 -0.7060531259 -0.3561655897
0.01529994965 -0.009597839355 -0.05633023453 0.7283559144 -0.6013226 -0.3284947377
0.02006326199 0.004189687252 -0.05906999016 0.9698983979 -0.1584209907 -0.1849321157
0.02039038086 0.008187686443 -0.05970860672 0.995187223 -0.05181790342 -0.08317028314
0.01739906311 -0.002090768576 -0.06199279404 0.837804047 -0.387281149 -0.3848346274
0.02050974655 0.02377153683 -0.06226477242 0.9892557611 0.01034043466 -0.1458290594
-0.003687232971 -0.01548471324 -0.05903506088 -0.185323579 -0.8692898736 -0.4582469713
-0.002269120455 -0.01638658714 -0.05779537201 -0.09990357558 -0.8954235264 -0.4338617106
0.009131627083 0.008285667419 -0.07702942657 0.5255066953 -0.28858524 -0.8003507184
0.0001613219678 -0.0166082325 -0.05760062981 0.05991254424 -0.8994789844 -0.4328372022
0.01401329041 -0.01030904579 -0.05777890778 0.6836683274 -0.6272925597 -0.3729633531
0.01692922306 -0.005337901115 -0.05918914413 0.8174593421 -0.4691765884 -0.334116077
0.007030775547 -0.003840573311 -0.07156867218 -0.3555947812 0.5724555139 0.7388146156
0.02038267422 0.01338964319 -0.06214771843 0.9896024644 -0.04322878926 -0.1371795695
0.02004169846 0.03101411724 -0.06514340973 0.9728045779 0.0003988187963 -0.2316270581
0.01927433586 0.0518364563 -0.06783319855 0.9330781228 5.821054499e-05 -0.3596737597
-0.0098402071 -0.01157992268 -0.06136673355 -0.4414746773 -0.7462476817 -0.4982113074
0.002874738336 -0.01561758995 -0.0590749054 -0.1553250234 0.8739657194 0.4604976204
0.005717710257 -0.01496933603 -0.05899964523 0.2328622571 -0.8586807339 -0.4565551078
0.01685700226 0.009275961876 -0.07032910156 0.8231178365 -0.2009192746 -0.5311388447
0.008383801699 -0.01386623526 -0.05901602936 0.4136190074 -0.8008910294 -0.4330044755
0.01833834171 -0.0002030519396 -0.06150248718 0.8913474569 -0.3201405176 -0.3209513359
0.02009799767 0.009127566338 -0.06222758102 0.9793118 -0.09606711395 -0.1780997134
0.02012592125 0.02506480789 -0.06494923401 0.9677028217 0.01448204973 -0.2516774106
0.01942890358 0.03898433685 -0.06737019348 0.9512144086 0.0110913051 -0.3083312046
-0.002818161249 -0.01376370207 -0.06227544022 -0.1243784316 -0.8307674623 -0.5425453247
0.005051009496 -0.01390120824 -0.06121458689 0.2122008684 -0.8290957309 -0.5172727138
0.007441571712 -0.01340660381 -0.06064418411 0.3623497478 -0.8032086039 -0.4728198376
0.01400783587 -0.00808343029 -0.06115302658 0.6900074299 -0.5800909512 -0.4328790074
0.01979671669 0.0100960474 -0.06398345184 0.9610346349 -0.1167917423 -0.2505436477
0.02001185989 0.01460024261 -0.06475978851 0.9608750171 -0.04756157839 -0.272868279
0.01992879105 0.02022167778 -0.06574893188 0.9725994776 -0.01053222975 -0.2322484195
0.01956876755 0.02694209671 -0.06694660187 0.9673037712 0.006753083666 -0.2535306888
-0.01191460276 -0.006730643511 -0.06543093872 0.5227431883 0.6408312466 0.562205365
-0.009064114571 -0.009610411167 -0.06471722031 -0.4544903957 -0.6862114241 -0.5679369345
0.006421999693 -0.0127505846 -0.06232175827 0.3101300824 -0.7903901432 -0.5283017638
0.01618285561 -0.003111144543 -0.06341139603 0.7622034164 -0.4610352403 -0.4544144135
0.01717816607 0.0001625243823 -0.06444939168 0.827456478 -0.3564326016 -0.4339027282
0.01798085403 0.003320712328 -0.06522756958 0.8582057107 -0.2929089021 -0.4215297537
0.01942292976 0.01129760265 -0.06579678345 0.9302420215 -0.1289608713 -0.3435387534
0.019543293 0.01612997246 -0.06665632629 0.9489531063 -0.05914302556 -0.3098226987
0.01930913925 0.02227662659 -0.06777236176 0.9412057874 -0.01965986036 -0.3372612573
0.01663836861 0.04869677734 -0.0726685257 0.8202174631 -0.05856826746 -0.569045755
0.005784716964 -0.01106007123 -0.06492837524 0.3020833049 -0.7474443673 -0.5916693288
0.008004900932 -0.01076131535 -0.06407511139 0.386306147 -0.7294262417 -0.5645395635
0.008933139324 -0.009056300163 -0.06545966339 0.4388095188 -0.6802440861 -0.5871236578
0.01211276499 -0.006356657187 -0.06561977386 0.5979943223 -0.5778592308 -0.5554111089
