# .PCD v0.7 - Point Cloud Data file format
VERSION 0.7
FIELDS x y z normal_x normal_y normal_z
SIZE 4 4 4 4 4 4
TYPE F F F F F F
COUNT 1 1 1 1 1 1
WIDTH 554
HEIGHT 1
VIEWPOINT 0 0 0 1 0 0 0
POINTS 554
DATA ascii
-0.01297860241 -0.01599091005 -0.01141579628 -0.6145213062 -0.7887407681 0.01586080015
0.00644746844 -0.01951378981 -0.005051356316 0.3344995195 -0.9423832134 0.004893933211
-0.0203109808 0.003405461788 -0.01647259092 0.9995446376 -0.02991337345 -0.003963272006
-0.01931850624 0.01163327503 -0.05012339401 0.9479365067 -0.1553244444 -0.2780120432
0.01754925728 -0.0106919322 -0.001497838497 0.7733354533 -0.6339903887 0.002909237694
-0.008651200533 -0.01866374922 -0.03569117165 -0.4243120568 -0.9055085251 0.003686376599
-0.01942488098 0.03899833679 -0.0673727951 0.9383014551 -0.00948840798 0.3456882259
-0.02024764442 0.003605969191 -0.00449209249 0.9993063689 -0.03715318029 -0.002534225151
0.006443713069 -0.01952262068 -0.0173328023 0.33514675 -0.9421657799 0.0005470328994
-0.01908830833 0.01761536598 -0.05253901291 0.9160470978 -0.05145662324 -0.3977561195
-0.02047912216 0.03532905197 -0.06249638176 0.9969862737 0.02117908427 0.07463120353
0.01752168179 -0.01075306034 -0.007488942862 0.7717454749 -0.6359247596 0.002936359769
-0.02045950508 -0.001957871675 -0.007370489836 0.9954248894 0.0927575879 0.02291984777
-0.01992087173 -0.005064864159 -0.004385307312 0.9631007586 0.2688910733 -0.0115982523
-0.0205262928 0.002723832726 -0.04657476044 0.9996682614 0.01315558894 -0.02214266494
-0.0191608696 -0.00742416652 -0.005085711638 0.9381856717 0.3461089913 -0.004026359754
-0.01094509411 -0.01665915966 -0.04740907192 -0.5492457945 -0.8206094411 -0.1578898427
-0.01829166603 -0.009402701378 -0.005061239004 0.9078029266 0.4193845958 -0.003226037735
-0.01992939472 -0.005091048241 -0.01462494707 0.9600467424 0.2795579993 -0.01255298989
-0.01829204941 -0.009403843403 -0.04068898392 0.9062999307 0.4219635192 0.02381646731
-0.0155936079 0.04624495697 -0.07402306366 0.7223161625 -0.07219575496 0.6877842207
0.00644636476 -0.01951638508 -0.008660635471 0.3347493462 -0.942173 0.01590324444
-0.01681792291 -0.01179008007 -0.005033936262 0.8087731525 0.5881205729 -0.0004237423611
-0.01440046692 -0.002450737238 -0.06670523071 0.7004629027 0.4735766335 0.5339259257
-0.02054125214 0.02930358124 -0.059052948 0.9885788048 -0.001349791609 -0.1506987885
-0.01468186792 -0.01438435046 -0.005007211685 -0.6988832354 -0.7152352702 0.0008552931011
0.006389207363 -0.008291788578 -0.06784242249 0.2822239636 -0.6878122816 -0.6687779151
-0.01945870399 0.02731295013 -0.0538901825 0.9499369719 -0.018278802 -0.3119064522
-0.02027419567 0.003521917224 -0.01048148489 0.9994291596 -0.03342202963 -0.004931817757
-0.007297839642 0.004290992737 -0.07633496857 0.3730212244 0.405669716 0.8344382827
-0.00864390405 -0.01864429569 -0.004977667888 -0.4085650679 -0.9127284652 0.001155059185
-0.014685004 -0.01439319944 -0.02580152512 -0.695274553 -0.7187441935 0.0002832227806
-0.02042730331 0.01324394131 -0.05658683777 0.9978634328 -0.02050054594 -0.06203464358
0.01147201443 -0.01705466843 -0.008040902297 0.533210527 -0.8459789345 0.002485236838
-0.01683293915 -0.01183390617 -0.03754774284 0.8223955679 0.5687895913 0.01199711028
-0.003181662281 -0.02030199814 -0.004984162966 -0.1937030115 -0.9810596611 0.001041514608
-0.0001911103576 -0.0205096941 -0.04163316441 -0.04037814418 -0.9979759586 -0.04912831685
-0.0002058756153 -0.02054594707 -0.004997665008 -0.04705735802 -0.9988915324 0.001145221613
0.009306478977 -0.01836666393 -0.03793195534 0.4794636494 -0.8774956969 -0.01076618458
0.002977697452 -0.02033279069 -0.005019204259 0.1548824787 -0.9879324564 0.0009377360398
0.01753547001 -0.01072249603 -0.004493341208 0.7725448164 -0.6349535136 0.002922708897
-0.0002135403603 -0.02056477118 -0.03150610352 -0.04688685316 -0.9988095719 -0.0134559281
0.009329236666 -0.01831440036 -0.00508559831 0.4830280683 -0.8755999513 0.002934378116
-0.02057373619 0.002573638439 -0.04959748459 0.9957466616 0.08516905928 0.03513996756
-0.01619478607 0.001554863691 -0.06733995056 0.7952495374 0.3508922208 0.4944217054
0.01147591209 -0.0170458231 -0.004385448813 0.5334091278 -0.8458541339 0.002342349773
-0.01772408104 0.02206915855 -0.07109299469 0.8872667835 0.02012727838 0.4608172605
-0.01298007011 -0.01599499321 -0.03147702026 -0.6233479283 -0.7819365271 -0.003553584277
-0.02025400639 0.003585828424 -0.007487074137 0.9993578329 -0.03566544415 -0.003449344146
-0.01992391396 -0.00507421128 -0.008040638924 0.9606285064 0.2778232914 -0.002662993503
-0.0191217289 -0.007305677176 -0.04385538673 0.9343821189 0.3519727146 0.05518391138
0.01394931793 -0.01508786392 -0.007370755672 0.6823685801 -0.7306304944 -0.02349896652
-0.02046455669 -0.001973625004 -0.01474728251 0.9967998742 0.07713592174 -0.02097761673
-0.003185095906 -0.02031064653 -0.0113957119 -0.1940702416 -0.9808951256 0.01347196876
0.01244287872 -0.01485136032 -0.05042605782 0.5996946111 -0.7647304625 -0.2356983096
-0.01916308212 -0.00743086195 -0.0087194345 0.9299134009 0.3677120315 -0.006994908673
-0.01888186836 0.01303686714 -0.06773225403 0.9260372793 0.1158830118 0.3592020112
0.009322290897 -0.01833035183 -0.01453752327 0.4834588718 -0.875366491 0.001012746636
-0.01829166603 -0.009402701378 -0.008677648783 0.904652922 0.4261314246 -0.003885826197
-0.01681921577 -0.01179384017 -0.008630736113 0.8178413429 0.5754382771 -0.002515362193
0.01750789165 -0.01078363037 -0.01048510075 0.7707334893 -0.6371508181 0.002953554283
0.01396798515 -0.01504599524 -0.04148201752 0.6624989591 -0.7475796833 -0.04711418324
-0.01210799313 0.009046053886 -0.07537413025 0.5957804068 0.257750257 0.76066452
0.006441054344 -0.01952887249 -0.0260284481 0.3338348117 -0.9426315046 0.0004062224693
-0.02031549644 0.003391165257 -0.03151044941 0.9995779334 -0.02905080946 -7.428441567e-05
-0.01297795773 -0.0159891181 -0.008560374975 -0.624393357 -0.7811100284 0.0002433066877
-0.01116697383 -0.01726349497 -0.008545223713 -0.541399616 -0.8406879144 0.01141430398
-0.01296201897 -0.01594479847 -0.04159395027 -0.6299039361 -0.7754508298 -0.04355504459
-0.02046203041 -0.001965745846 -0.01105774117 0.9970685691 0.07545728891 0.01266751893
-0.005987451077 -0.01966094923 -0.008534322143 -0.2879120407 -0.9575696345 0.01292485483
-0.003183569431 -0.0203068018 -0.008545372367 -0.1944097198 -0.9808606754 0.01082572217
-0.005510493994 -0.01842850828 -0.05036660671 -0.2693420462 -0.9257685143 -0.265344154
-0.0002069081217 -0.02054848337 -0.008568582058 -0.04795834023 -0.9987847882 0.01135537207
-0.01992878914 0.02022167778 -0.06574893188 0.9725994723 0.01053221811 0.2322484419
0.002975414038 -0.02033826208 -0.008605433226 0.1551885193 -0.9878168994 0.01158864725
-0.02037677479 -0.001699888408 -0.04751087379 0.9839350022 0.159447437 0.08030209371
-0.005991486073 -0.01967136335 -0.01993299007 -0.2884707896 -0.9574886753 0.0002005525641
-0.008563324213 -0.01843062735 -0.04438627148 -0.420438783 -0.9019337669 -0.09872542654
0.009326566219 -0.0183205328 -0.00871924901 0.4819719897 -0.8760695994 0.01431984851
-0.005064188719 -0.01924931335 -0.04735938072 -0.2137374874 -0.9619152211 -0.170397752
-0.008933139801 -0.009056300879 -0.06545966339 -0.4317227074 -0.6853189103 -0.5864754854
0.0002770761251 -0.01935994244 -0.04982799149 -0.01622302812 -0.9708356452 -0.2391964955
-0.01829166603 -0.009402701378 -0.01157225561 0.9077977484 0.4192680059 -0.01084376356
-0.01468297362 -0.01438747501 -0.0114486177 -0.6980299828 -0.7159747301 0.01159003714
-0.01116794229 -0.01726614189 -0.0113955605 -0.5416374234 -0.8404916699 0.01423567456
-0.003189665079 -0.02032215405 -0.01995847273 -0.1955865685 -0.9806862599 0.0005948508773
-0.02020332623 0.01931122971 -0.05672761154 0.9881129261 -0.02748905411 -0.151252098
-0.01723845434 -0.008538864732 -0.05266989231 0.8387199905 0.5026043068 0.2096131872
-0.01584472752 -0.006698041439 -0.05977514648 0.7643766579 0.5194192838 0.3820103827
0.00369286871 0.003234359741 -0.07695851898 -0.1501538134 0.4778889095 0.8654917807
-0.008646252394 -0.01865053177 -0.0113809526 -0.4317381481 -0.9018553191 0.01609828986
-0.02055023956 0.02927280331 -0.06151912689 0.9964522816 -0.03752370837 0.07533141254
-0.02038267422 0.01338964319 -0.06214771843 0.9896024527 0.04322879593 0.1371796518
-0.005988645911 -0.01966403723 -0.01138100433 -0.2879659289 -0.9574742039 0.01785420519
0.01146499395 -0.01707060146 -0.01462543917 0.5327287424 -0.8461706247 0.01397715794
-0.0111714747 -0.01727583075 -0.02568161678 -0.5428789259 -0.8398109733 -3.118973524e-05
-0.0002077345401 -0.02055051279 -0.01142673111 -0.04774260863 -0.9987619558 0.01397136077
0.003614552339 -0.005211049557 -0.07157923126 -0.1483654929 0.6360675895 0.7572355658
-0.02043431091 0.04147962952 -0.05839228439 0.990631977 0.009200776764 -0.1362484193
0.002973586321 -0.0203426404 -0.01147578549 0.1552759606 -0.9877834931 0.01315852408
-0.005990865588 -0.01966976976 -0.01707986355 -0.2883508917 -0.9575247055 0.0004490049607
-0.008633607984 -0.01861708212 -0.0414653244 -0.4330739902 -0.899902821 -0.0512038263
0.00644548142 -0.01951846218 -0.01154948831 0.3349896338 -0.9420921526 0.01563077748
0.009324429035 -0.01832544041 -0.01162754631 0.482296482 -0.8758795105 0.01500621812
-0.01855770779 0.006452807426 -0.0657598381 0.8931740729 0.2147503295 0.3951232358
-0.01886457062 0.003015680552 -0.06279875183 0.8975618256 0.2738982563 0.3454888052
0.01146811485 -0.01706351757 -0.01169794607 0.5320219501 -0.8466189876 0.01374534203
0.0152974062 -0.008373209953 -0.0584191246 0.708142914 -0.6060847801 -0.3622083001
-0.02029263306 0.003463547111 -0.0134765377 0.9994646457 -0.03240788291 -0.004489010386
0.01749409771 -0.01081421089 -0.01348227024 0.7697069394 -0.6383904769 0.002970939312
-0.01916662312 -0.00744158268 -0.01453780746 0.9251370671 0.3796320305 -0.0009635446074
-0.008768477249 -0.01199127617 -0.0617030365 -0.4351102515 -0.7561746347 -0.4887524843
-0.01829166603 -0.009402701378 -0.01446862698 0.9085712918 0.4177295431 -0.0004863145182
-0.01117232132 -0.01727815342 -0.03862173939 -0.5331876371 -0.8458512243 -0.01570509303
-0.01682272005 -0.01180408072 -0.01438993764 0.8236316502 0.5671243403 -0.0009420838431
0.01774491501 -0.01025819874 -0.04296933746 0.7929002207 -0.6059286387 -0.06449592939
0.01824873924 -0.009141320229 -0.04465211868 0.9115461352 -0.4111978155 6.121243136e-07
-0.01468337893 -0.01438861775 -0.01431399155 -0.696401531 -0.7176522002 0.000476681241
-0.01917372322 -0.007463077307 -0.02620357037 0.9247980458 0.3804577346 -0.0006976658473
-0.01956980801 0.005751853943 -0.06245982552 0.9482942713 0.1698559428 0.268117388
-0.002574838758 -0.01682296848 -0.05667020893 -0.1010702336 -0.9065893369 -0.4097323298
-0.01297924709 -0.01599270344 -0.01427292585 -0.6131060851 -0.7900005677 0.0001772623586
-0.0002110464126 -0.0205586462 -0.02288075256 -0.04906345314 -0.9987955939 0.000373180721
-0.01745507812 0.05202193451 -0.07146475983 0.8785385365 0.01224988613 0.477514377
-0.01116864753 -0.01726807594 -0.0142476182 -0.5425165125 -0.8400450475 0.0003896636945
-0.01829620552 -0.009416242599 -0.03775504112 0.9072561397 0.4205457134 0.005253551182
-0.01499651337 -0.005719351451 -0.06251448059 0.7244926708 0.5259980584 0.4454620214
-0.00864683795 -0.01865209579 -0.01422937107 -0.4332558786 -0.9012708764 0.0003885788444
-0.00598984158 -0.01966712618 -0.01422936416 -0.288168463 -0.9575795118 0.000644567191
0.00930725956 -0.01836487103 -0.03499197769 0.4811485827 -0.876638707 -0.0007865754254
-0.003186623156 -0.0203144927 -0.01424771714 -0.1954990053 -0.9807032516 0.00112745638
0.0120177803 -0.01581609154 -0.04801901245 0.5637553497 -0.8051525129 -0.1841448794
-0.01180541248 -0.01187199192 -0.05854560394 -0.5685016004 -0.7161277399 -0.404928377
-0.0002085614502 -0.02055254316 -0.01428658462 -0.0491757731 -0.998789886 0.0007119556896
0.002971939266 -0.02034658384 -0.01434782743 0.1554496613 -0.987843443 0.0008572462208
-0.002746408343 -0.0192059164 -0.0496785717 -0.1254472275 -0.9659363729 -0.2263402673
0.006444597602 -0.01952054119 -0.01444006324 0.3354806913 -0.9420468881 0.0006052301816
-0.01915453911 -0.002710553646 -0.05571623993 0.9219379317 0.324053847 0.2121781194
0.01394336367 -0.01510121775 -0.01474789858 0.6961395782 -0.7175809651 0.02161587602
0.01298938179 -0.01361110973 -0.05289644241 0.6254258153 -0.7305991213 -0.2739844404
0.01748029613 -0.01084480619 -0.01648090982 0.7693248365 -0.6388518396 0.002760977064
0.01393634176 -0.0151169672 -0.02361884499 0.6923771525 -0.7215354685 0.0006681145964
-0.02046642876 -0.001979463398 -0.01770136738 0.996649094 0.07790602868 -0.02492457048
-0.02001185989 0.01460024261 -0.06475978851 0.9608749655 0.04756154203 0.2728684672
-0.01918816185 0.04588924789 -0.05310909271 0.92537474 0.001816587002 -0.3790491927
-0.01993183231 -0.005098539352 -0.01755443096 0.9594048028 0.2820303705 -0.00113779196
-0.01916839504 -0.00744694829 -0.01744995022 0.9250331172 0.3798853489 -0.0009240022572
-0.01829166603 -0.009402701378 -0.01736720657 0.9083927148 0.4181177477 -0.0004741518525
-0.003190217018 -0.02032354164 -0.03142072392 -0.1953035569 -0.9806992571 -0.009245965546
-0.01968218613 0.03224513245 -0.05457745361 0.9542814128 -0.007401462224 -0.2988180108
-0.01468378472 -0.01438976145 -0.01718152905 -0.6961454836 -0.7179006097 0.0004246246188
-0.01297989225 -0.01599449778 -0.01713219929 -0.6130126953 -0.790073057 -3.414786445e-06
-0.02055937672 0.01813045883 -0.05973072815 0.998820442 -0.02095080508 -0.04380397708
-0.01993564701 -0.005110258818 -0.04112627411 0.958410579 0.2844665349 0.02297721886
-6.135612726e-05 -0.02056959457 -0.03829894714 -0.006030174877 -0.9999703472 -0.004789749119
-0.01116935325 -0.0172700119 -0.01710181427 -0.5426123626 -0.8399831852 0.0002694035014
-0.02047268009 -0.001998955846 -0.03252083397 0.9968281753 0.07958351815 -0.0002294694587
-0.01520974922 0.03027770042 -0.07446002197 0.7229782971 -0.07609364926 0.6866674148
-0.008647423744 -0.0186536603 -0.01707993174 -0.4334125285 -0.90119561 0.0002294791673
-0.003190217018 -0.02032354164 -0.02854901218 -0.1943391452 -0.9808726761 -0.011004085
-0.0002093889862 -0.02055457544 -0.0171485796 -0.04907754981 -0.9987947697 0.0006340614058
-0.01829166603 -0.009402701378 -0.02026843929 0.9082141258 0.4185055408 -0.0004626343955
-0.01824720097 -0.009270038605 -0.04364634705 0.898041539 0.4361863748 0.05712128047
0.002970971942 -0.0203488884 -0.01722207642 0.1554565868 -0.9878424747 0.0007034083728
0.009320150852 -0.01833526707 -0.01744962406 0.4831451799 -0.8755396888 0.0009941959681
0.01394097948 -0.015106565 -0.01770211983 0.6956711788 -0.71788075 0.02624575729
0.01739977551 -0.01102330256 -0.03453000069 0.7643182378 -0.6448381677 0.001169954779
-0.02031549644 0.003391165257 -0.0194727335 0.9995800483 -0.02890545087 -0.002049861361
-0.01372555447 -0.008013139248 -0.06168535614 0.6814896512 0.5845184024 0.4403522369
0.01746648502 -0.01087542152 -0.01948147678 0.7684869767 -0.6398594158 0.00277390212
0.01393446445 -0.0151211772 -0.02658233643 0.6915654986 -0.7223134943 0.0006140179351
0.005730228901 -0.01935321808 -0.04572796631 0.247451648 -0.9596580852 -0.1335067093
-0.007881334424 -0.01662151432 -0.05343118668 -0.380732626 -0.8709228836 -0.3107024273
-0.008649773121 -0.01865993643 -0.02851236534 -0.4326344776 -0.9014852088 -0.01232181572
-0.02046771336 -0.001983467042 -0.02065816498 0.9967434042 0.08063724872 -0.0004693845558
-0.01993427277 -0.005106036901 -0.02048645782 0.9593212447 0.2823146164 -0.001098572458
-0.02006402969 0.009236755371 -0.05131801224 0.9548635809 -0.2970446801 1.068757791e-07
0.01573965645 -0.01107239056 -0.05190441132 0.713366562 -0.6562706941 -0.245798544
-0.01917016888 -0.007452318907 -0.02036466026 0.9249540713 0.3800778657 -0.000884352914
-0.002140386343 -0.005604835272 -0.07158086395 0.09796294017 0.638077235 0.7637150676
-0.01682615614 -0.01181411934 -0.02015755844 0.8234111312 0.5674446242 -0.0008410630164
0.002968757153 -0.02035416222 -0.03453841972 0.1549673515 -0.9878505468 -0.01167977128
-0.01468419075 -0.0143909061 -0.02005166912 -0.6958687642 -0.7181688737 0.0003630809523
-0.01298007011 -0.01599499321 -0.01999414158 -0.612924179 -0.7901417046 -0.0001935297024
-0.006008607864 -0.01573084688 -0.05737132835 -0.2800974344 -0.8700130588 -0.405737236
0.01393258476 -0.01512539291 -0.0295498209 0.690749342 -0.7230940557 0.0005772079805
-0.01488796806 0.03132822227 -0.046401474 0.7662856073 0.006155713993 -0.6424706027
0.00620885547 -0.01945967484 -0.04329173533 0.3021850721 -0.9497484714 -0.08162121824
-0.008648010015 -0.01865522575 -0.01993307257 -0.4335819682 -0.9011141253 0.0001005759388
-0.01428744888 -0.01398383204 -0.04736569087 -0.6847665403 -0.7138832227 -0.1465111931
-0.0002102172524 -0.02055661058 -0.02001315546 -0.04904266926 -0.9987965404 0.0005362301439
0.008785678387 -0.006414561749 -0.06836964798 -0.4677580149 0.6079816492 0.64153001
-0.02053067589 0.04113863373 -0.06172963524 0.9980200397 -0.04844460492 0.04011384544
0.002970048845 -0.02035108662 -0.02009891844 0.1554526135 -0.987843199 0.0005469200421
0.006442827702 -0.01952470207 -0.02022814894 0.3347614281 -0.942302772 0.0005215940183
0.0093180089 -0.01834018517 -0.02036429787 0.4828307264 -0.8757131596 0.0009755384838
-0.01317586803 0.03137907791 -0.04482408142 0.6926215795 -0.005810897638 -0.721277742
0.01393859291 -0.0151119175 -0.02065894222 0.6931834379 -0.7207608437 0.0007263495202
-0.01466066933 0.04347956848 -0.04616796875 0.713104314 0.007542771307 -0.7010173635
-0.02001249822 -0.002164880554 -0.0507234993 0.9746992191 0.2022435238 0.09517872309
-0.01864270973 0.02448671532 -0.05190623856 0.8915762065 0.01316655145 -0.4526792572
-0.02031549644 0.003391165257 -0.02247653961 0.9995960745 -0.02841975099 -7.447048757e-05
-0.01552778435 0.008431476593 -0.0718363266 0.7450435861 0.2338841769 0.6246665083
0.01745266342 -0.0109060607 -0.02248443127 0.7675849615 -0.6409422596 0.002519272196
0.0001505535021 -0.01191053057 -0.06519080734 0.02011166394 -0.792312538 -0.6097838659
-0.02046895313 -0.001987331688 -0.02361805725 0.996767873 0.0803345924 -0.0004008515814
-0.01858795357 0.03599192429 -0.05181626892 0.8891195938 0.01722688843 -0.457350612
-0.01134883165 0.05767789078 -0.04352762032 0.5612260061 -0.09793268056 -0.8218482586
-0.01993671608 -0.00511354208 -0.02342147827 0.9592518784 0.2825502834 -0.001082223012
0.004406308174 -0.01878019524 -0.05014850235 0.2174547649 -0.9400351125 -0.2627687433
-0.01793297958 0.03823464203 -0.05046418381 0.8527507996 -0.004998528032 -0.5222940633
-0.003190217018 -0.02032354164 -0.03862212753 -0.1916679074 -0.9813987959 -0.01094607913
-0.01917194557 -0.007457695007 -0.02328238297 0.9248768751 0.3802657648 -0.0008449710444
-0.01194643784 0.05262496948 -0.04384716034 -0.6058221378 0.01072382585 0.7955278354
-0.01893728828 0.02906981659 -0.0525210495 0.9137545433 -0.002193517358 -0.4062607822
-0.01829166603 -0.009402701378 -0.02317276955 0.9080354845 0.4188930113 -0.0004516661391
0.003687232892 -0.01548471324 -0.05903506088 0.195519158 -0.8630446551 -0.4657533491
-0.01682787657 -0.01181914616 -0.0230456295 0.823279335 0.5676359 -0.0007883428342
-0.01812190119 -0.00270793279 -0.05930878703 0.8720948087 0.3750541687 0.3143008353
-0.01468459702 -0.01439205194 -0.02292485332 -0.6955726209 -0.7184557222 0.000323081683
-0.01298007011 -0.01599499321 -0.02285916901 -0.6128411559 -0.7902060447 -0.0003528951766
-0.01829166603 -0.009402701378 -0.02608064747 0.9078548415 0.4192843835 -0.0004387740417
-0.02013488102 0.04873976135 -0.06467255402 0.9845891454 0.009748738479 0.1746115028
-0.02003862 0.03102465725 -0.06514537048 0.9728242908 -0.0002449415673 0.2315444647
-0.01117076683 -0.01727388906 -0.0228183732 -0.5427795096 -0.8398752253 9.945855267e-05
-0.008648597002 -0.01865679407 -0.02278923035 -0.4336813417 -0.901066309 2.50268646e-05
-0.005992107153 -0.01967295885 -0.02278913355 -0.2884918701 -0.9574823445 -3.080019721e-05
-0.003190217018 -0.02032354164 -0.02281828594 -0.1956574705 -0.9806722629 0.0002589567282
-0.01179859447 0.03580638885 -0.04371773911 0.6676566266 -0.006748839691 -0.7444387699
0.002969124854 -0.02035328674 -0.02297879124 0.155436923 -0.9878457391 0.0003982878833
0.0064419415 -0.0195267868 -0.02312654877 0.3343317657 -0.942455329 0.0004725037726
-0.01117216372 -0.01727772141 -0.02854876423 -0.5421215108 -0.8401951535 -0.01328049644
0.00931586504 -0.01834510899 -0.02328199005 0.4825290911 -0.8758794216 0.0009566144703
0.01145561409 -0.01709188747 -0.02342229366 0.5316390818 -0.8469701395 0.001212263055
-0.02031549644 0.003391165257 -0.02548378372 0.9995900717 -0.02863010569 -7.431642665e-05
-0.01468599749 -0.01439599943 -0.03445700359 -0.7022486491 -0.711930907 -0.001103810598
-0.01970160675 0.02097509003 -0.05459148026 0.9671755042 -0.02500646762 -0.2528758998
0.01743882847 -0.01093672943 -0.02549023247 0.7666979434 -0.6420030672 0.002515012473
-0.02047019291 -0.001991200984 -0.02658149433 0.9967922548 0.08003162368 -0.0003741971705
0.0126505456 -0.008818046093 -0.06202507782 0.5961170575 -0.6534915213 -0.4664689543
-0.02037102699 0.008249899864 -0.05271617508 0.9930539722 -0.0535202317 -0.1047825992
-0.01682959938 -0.01182417893 -0.02593713474 0.823138385 0.5678404447 -0.0006546301587
-0.01298007011 -0.01599499321 -0.02572769356 -0.6127669375 -0.7902635516 -0.0004464574624
-0.01561086082 0.003322539091 -0.06926778412 0.7505700993 0.3397261327 0.5667721596
-0.01889105606 0.0469405899 -0.06876293182 0.9155837358 -0.01435972954 0.4018709007
-0.005992728829 -0.0196745553 -0.02564873552 -0.2885255891 -0.9573128822 -0.01746510585
-0.003190217018 -0.02032354164 -0.02568168068 -0.1957075376 -0.9806623066 -8.933854166e-06
-0.02009799767 0.009127565384 -0.06222758102 0.979311801 0.09606711189 0.1780997093
-0.02006233215 0.03677968979 -0.06527359009 0.9771719857 -0.001938364896 0.2124409401
-0.0002118765414 -0.02056068516 -0.02575181293 -0.04910389632 -0.9987936449 0.0002493645686
-0.01829434681 -0.009410696983 -0.03482918739 0.907628542 0.4197742405 -0.0001295809647
-0.01247088909 0.01282796574 -0.07612045288 0.6116401227 0.1648060914 0.7737798864
0.002968757153 -0.02035416222 -0.02586225414 0.1554129967 -0.9878495559 0.0002353597725
0.009313717842 -0.01835003948 -0.0262031498 0.482264232 -0.8760253033 0.000937295021
8.062644303e-05 -0.01984237766 -0.04755567741 0.01936725313 -0.9853293217 -0.1695613085
0.01145248127 -0.01709899807 -0.02636087227 0.5315894121 -0.8470013579 0.001181807415
-0.02031549644 0.003391165257 -0.02849493217 0.9995840262 -0.0288404067 -7.433807903e-05
-0.01635248184 0.03208181381 -0.04808561707 0.8025018544 0.01118700794 -0.596544738
0.01742497921 -0.01096743202 -0.02849934483 0.7657848804 -0.6430918504 0.00252764575
0.01392881727 -0.0151338439 -0.03549861526 0.6895694895 -0.7242173005 -0.001794662029
-0.01682781315 -0.01181893516 -0.04046591377 0.8063120676 0.5911796576 0.01916929816
-0.01884665108 0.0533754921 -0.05238005066 0.9291670492 0.00724357564 -0.3695891304
-0.002943626285 -0.01179599285 -0.06499184227 -0.1540504934 -0.7829220372 -0.6027449951
-0.02047143555 -0.001995075524 -0.02954893208 0.99681515 0.07974613533 -0.0003327166185
-0.01994161129 -0.005128580332 -0.02930231094 0.9591087525 0.2830367928 -0.0007582007211
-0.01917550373 -0.007468466997 -0.02912867355 0.9247093455 0.3806737115 -0.0003895306253
-0.01117232132 -0.01727815342 -0.03501714007 -0.5406204536 -0.8412641535 0.002036942316
-0.01829166603 -0.009402701378 -0.02899252224 0.9077133821 0.4195903973 -0.00056081079
-0.01683126974 -0.01182905912 -0.02883253622 0.8230332418 0.5679930794 -0.0003802931314
-0.02037032604 0.003217589855 -0.05581982994 0.990092897 0.09140590583 0.1065880659
-0.01468535304 -0.01439418316 -0.02868214512 -0.6949987758 -0.7190108993 0.0001680982627
-0.01298007011 -0.01599499321 -0.02860016155 -0.6232597215 -0.7820064402 -0.003639661257
-0.00599335146 -0.01967615414 -0.02851223803 -0.288170716 -0.9574860648 -0.01334444393
0.007364928722 -0.01550773811 -0.05677435684 0.3398105956 -0.8550957238 -0.3915865962
-0.0002127078325 -0.0205627265 -0.02862678146 -0.04814274142 -0.9987551478 -0.01305492832
-0.006584443092 0.05843675613 -0.04111476898 0.4276188226 -0.026428677 -0.903572724
-0.005179712653 -0.0175738225 -0.05344332504 -0.2492155364 -0.9119672464 -0.3258947037
0.002968757153 -0.02035416222 -0.02874974632 0.1553832015 -0.9878542655 0.0001036816039
0.006440165997 -0.01953096199 -0.02893429661 0.3332722774 -0.9428305548 0.0003660732745
-0.02039038086 0.00818768692 -0.05970860672 0.9951872228 0.05181791063 0.08317028129
-0.01920829773 0.03386779022 -0.05316722488 0.9212305378 0.0006547214605 -0.3890165389
0.00931156826 -0.0183549757 -0.02912823105 0.4819986796 -0.8761714618 0.0009177976096
0.01144934368 -0.01710611725 -0.02930335522 0.5315615444 -0.8470188725 0.001163697545
-0.0152313962 0.05671846962 -0.04680683517 0.7247368016 -0.05746680932 -0.6866251774
0.01741111183 -0.01099817276 -0.03151223373 0.7649141387 -0.6441280987 0.002313636692
-0.01994352341 -0.00513445878 -0.0322492075 0.9590699738 0.2831687501 -0.0004942134727
-0.01829166603 -0.009402701378 -0.03190884686 0.9076674944 0.4196895978 -0.0006010030351
-0.02020621681 0.03045078564 -0.05677038956 0.9828126524 -0.004866068351 -0.1845416261
-0.01108285785 -0.01703447437 -0.04444479465 -0.5289309961 -0.8423377716 -0.1034363568
-0.01683224487 -0.01183189344 -0.03173248053 0.8229350299 0.5681354734 -0.0001430244778
-0.01468567491 -0.01439509058 -0.03156715631 -0.6959741756 -0.7179983716 -0.009913893779
-0.02052916145 0.002714750409 -0.05267236519 0.9970100529 0.05607260361 0.0531678244
-0.002593909681 -0.01882188606 -0.05120601654 -0.138597865 -0.9481763049 -0.2859236378
-0.01117232132 -0.01727815342 -0.03142040873 -0.5429102355 -0.8397006005 -0.0123035631
-0.008650509993 -0.01866190434 -0.03209818331 -0.4229539256 -0.9061337449 -0.005622562781
-0.005994131168 -0.01967815717 -0.03209803581 -0.2885575195 -0.9574205183 0.008972690095
-0.01401329041 -0.01030904579 -0.05777890778 0.6823497169 0.6297963806 0.3711541229
-0.01497639465 -0.01306229305 -0.04843528748 0.7222852184 0.672419397 0.1617288401
0.002968757153 -0.02035416222 -0.0316416502 0.1538747344 -0.9880898021 -0.001053106323
0.006439276099 -0.01953305435 -0.03184454536 0.3326821013 -0.9430389728 0.0003393896087
0.009309415817 -0.01835991955 -0.03205768776 0.4817131329 -0.8763286058 0.0007950957928
0.0114462018 -0.01711324883 -0.03225019646 0.5315330422 -0.8470367993 0.001133872944
0.01393070221 -0.01512961483 -0.03252175808 0.690022362 -0.7237878569 0.0005274320777
-0.0204751749 -0.002006736398 -0.03847988319 0.9968217073 0.07962421802 0.002543194793
-0.01459724259 -0.01414393759 -0.04465311527 -0.6948890142 -0.7136861425 -0.08821194931
-0.01966166496 0.0442137146 -0.05456898117 0.9509304711 -0.01484970733 -0.3090480954
-0.01145759964 1.44554774e-05 -0.07150276184 0.5651029496 0.4538252523 0.6889857014
-0.02031549644 0.003391165257 -0.03453080559 0.9995717987 -0.02926113118 -7.415523541e-05
-0.005737298965 0.05529070663 -0.04083115768 0.3785997064 -0.005555191172 -0.9255438413
-0.01455916023 -0.008934117635 -0.0589729983 0.7163676172 0.5795543799 0.3885024552
-0.02047392559 -0.002002842665 -0.03549766159 0.9968296185 0.07956546255 0.0002209269194
-0.01994359779 -0.005134687424 -0.03520157051 0.959063535 0.2831907695 0.0003520081519
-0.01632834244 0.005972018242 -0.06972930145 0.7886912823 0.2800031219 0.547324687
-0.01917610168 -0.007470279217 -0.03499344444 0.9246480625 0.3808220279 0.0007372699815
-0.0205044241 0.06036800385 -0.0594181385 0 0 1
-0.002645948609 -0.008983292421 -0.06832561493 -0.1408020623 -0.7080581186 -0.6919743348
-0.01298007011 -0.01599499321 -0.03508023198 -0.6243253239 -0.7810446535 0.01367988012
-0.01775710106 0.03022080994 -0.05026464081 0.8619234426 -0.01067190862 -0.5069261183
-0.01218877411 -0.009497496605 -0.06177212715 -0.6042752678 -0.6414239141 -0.4726804028
-0.008135061264 0.04758298874 -0.04171546936 0.4704733653 0.006861000696 -0.8823875221
-0.003190217018 -0.02032354164 -0.03501749166 -0.1934522539 -0.9811074056 -0.002117562368
-0.0185344162 0.04820259476 -0.05172450638 0.9100642002 0.007101056041 -0.414406475
-0.0003686460495 -0.02056712265 -0.03481700668 -0.04673538018 -0.9989049436 -0.002172080566
0.003183816512 -0.01157081509 -0.06521703593 0.1622137348 -0.776036903 -0.6094697937
0.006438384771 -0.01953515005 -0.03475965023 0.3319480227 -0.9432971885 -0.0009614659208
-0.003140087605 0.009088160515 -0.07925352859 -0.07541460372 -0.2060819332 -0.975624351
-0.01070008469 -0.003080095768 -0.06991210175 0.5281229217 0.5304483226 0.6631068968
0.01144305468 -0.01712039089 -0.03520185661 0.5313401479 -0.8471580342 -0.000955190747
-0.01785789108 0.05059654236 -0.05033141708 0.8562726384 -0.0001620968438 -0.5165240967
0.01416316223 -0.0146082406 -0.04454133797 0.6781760781 -0.7306140628 -0.07924833402
-0.009562270164 0.05460023117 -0.042390625 0.4877753475 -0.01162029009 -0.8728918486
-0.008908103943 0.05085069275 -0.04202606201 0.4466269833 -0.01876915857 -0.8945233683
-0.005784716845 -0.01106007099 -0.06492837524 -0.30157572 -0.7467741881 -0.5927734787
-0.01499108505 0.03946040344 -0.04653153038 0.7286268452 -0.007672828788 -0.6848679056
-0.02031549644 0.003391165257 -0.03755647659 0.999556696 -0.02976356158 0.0007361029374
-0.005994773865 -0.01967980814 -0.03569102955 -0.2918145299 -0.9563389385 0.01612807434
0.01739885139 -0.01102534962 -0.03755536079 0.7675324931 -0.6406683831 -0.02092593785
-0.02008864021 0.04270281601 -0.0560406723 0.9837761665 -0.003064571319 -0.179374086
-0.01137450504 0.04859030533 -0.04343360901 -0.5761148597 -0.01248096069 0.8172734512
-0.01074199295 0.04486359406 -0.0430557785 0.5678698253 -0.008612766348 -0.8230733149
-0.01147616673 0.04247872353 -0.04362532234 0.6296951995 0.006588369178 -0.7768143595
-0.01457405529 -0.0145087429 -0.03777891998 -0.6959312516 -0.718092845 -0.004728521259
0.002968757153 -0.02035416222 -0.03744050694 0.1551719085 -0.9877404023 -0.0170463028
0.006437535167 -0.019537148 -0.03768007946 0.3288191419 -0.9443261848 -0.0112262443
0.0004916430265 0.0012835235 -0.07630657578 0.05771736889 -0.5004609915 -0.8638330286
0.01144007301 -0.01712715721 -0.03815884781 0.5324120291 -0.8463132364 -0.01706860087
-0.005975731373 -0.01963060474 -0.04146552944 -0.2869554179 -0.9563898888 -0.05454327429
0.01392692804 -0.0151380806 -0.03848085403 0.6894802139 -0.7237564017 -0.02817278013
-0.01650872803 -0.004083374023 -0.06169810867 0.8003223622 0.4499240185 0.3962984913
-0.01393533516 0.05192309952 -0.04543834305 -0.655391193 0.01191698427 0.7551955837
-0.01338091373 0.04779161072 -0.04499620819 -0.6728701289 -0.01264755112 0.7396525057
-0.01916751289 0.05867907333 -0.05305313492 0.9174778376 0.001122860364 -0.3977853148
-0.01232178879 0.0397060318 -0.04413259506 0.6472306454 -0.01154280233 -0.7622068324
-0.009131626129 0.00828567028 -0.07702942657 -0.5255069391 -0.2885849445 -0.8003506648
-0.0203087616 0.003412486553 -0.04059063339 0.999608127 -0.0269455749 -0.007584745511
-0.02050974655 0.02377153683 -0.06226477242 0.9892417267 -0.01058732522 0.1459065271
-0.01298007011 -0.01599499321 -0.03869132423 -0.6314496975 -0.7753603251 -0.0093619297
-0.008651274443 -0.01866394711 -0.03857204437 -0.4236765328 -0.9056697489 -0.01614005994
-0.005994805336 -0.01967988968 -0.03857190514 -0.3300944502 -0.9439031945 -0.009187670295
0.01743957424 -0.01093507671 -0.04059866905 0.7763824691 -0.6274188861 -0.05979801847
-0.01557489491 0.05239819336 -0.04716928482 0.7487134652 -0.007653780005 -0.6628495807
-0.01511258221 0.04789205551 -0.04666293716 0.7360728318 -0.008136764073 -0.6768534401
-0.01369646263 0.03521813202 -0.04524784851 -0.7027530355 0.007702393947 0.7113921874
-0.01484879065 -0.01160162473 -0.0530722971 0.7189480002 0.6463754132 0.2555632959
-0.02047102833 -0.001993806541 -0.04147016525 0.9935955852 0.1040019222 0.04417480239
-0.01916995621 -0.007451673508 -0.04088238335 0.9238722904 0.3818674756 0.02524325916
0.002819714975 -0.02033887482 -0.04077963562 0.156925448 -0.9866295153 -0.04400685467
0.006449884653 -0.019508286 -0.04061047745 0.3267067972 -0.9445621303 -0.03263511419
0.009324462891 -0.01832536411 -0.04088360405 0.4772272411 -0.8779538474 -0.03809464816
0.01146690845 -0.01706625557 -0.04113077736 0.5314503779 -0.8456993569 -0.0485086966
-0.01736585045 0.05870418167 -0.0495996933 0.8709822531 0.01538070377 -0.4910736693
-0.01679095936 -0.002600956559 -0.06270209503 0.8283320037 0.3896590252 0.4025319064
-0.01757065296 0.0547722187 -0.04999258232 0.8671486004 -0.008942979227 -0.4979692038
-0.01659265709 0.04885587692 -0.04844132614 0.7913850778 -0.009563607993 -0.6112431562
-0.01620573235 0.04414896774 -0.04788965225 0.7720645764 -0.001901415192 -0.6355412453
-0.01533406448 0.03545919418 -0.04687931824 0.759305766 -0.02454964756 -0.6502707655
-0.01519701242 0.02758163738 -0.04675748444 0.7804293534 -0.01748873579 -0.6249993348
-0.02021113968 0.04226934052 -0.06447759247 0.9681516611 -0.02748606086 0.2488511154
-0.01163970757 -0.01438658094 -0.05356045437 -0.5777928372 -0.7630176686 -0.2897576136
-0.02037987614 0.003187355399 -0.04359821892 0.9995497528 -0.01458222477 -0.0262230877
-0.02006143665 0.02528208447 -0.05601317596 0.9621807634 -0.01213645654 -0.2721412959
-0.008004899979 -0.01076131439 -0.06407511139 -0.3817809178 -0.7316326552 -0.564762772
-0.01115399456 -0.0172282486 -0.04151913548 -0.544148639 -0.837901375 -0.04270297894
-0.003168026924 -0.02026766062 -0.04152044392 -0.1859069361 -0.9810737742 -0.0541558927
-0.01748396111 0.04575370026 -0.04974184799 0.8533040048 0.02084339676 -0.520996956
-0.01766753101 0.0421133213 -0.05012961197 0.8583017245 -0.01090551672 -0.5130294528
-0.01673421478 0.03649291229 -0.04861844635 0.8207124434 0.00982692385 -0.5712569622
-0.0172267952 0.03483319855 -0.07183130646 0.851590914 0.02773939546 0.5234724836
-0.01554572296 0.02376106644 -0.0470864296 0.8316019964 -0.01775773644 -0.5550880853
-0.0124415617 0.0337395401 -0.07699028015 -0.7231081879 0.07646316182 -0.6864895728
-0.02044639874 -0.001917003393 -0.04447595024 0.9929559391 0.1124081461 0.03745546303
-0.01988454533 -0.004953265905 -0.04411838722 0.957059629 0.2868264792 0.04204090202
-0.02050042725 0.01832595253 -0.06217037201 0.9977209765 0.01934131213 0.06464338133
-0.01912887383 0.03413974762 -0.06823347473 0.9111017635 0.01520680723 0.4119008734
-0.01678441811 -0.01169215584 -0.04340624237 0.805853028 0.5888581049 0.06202442681
0.003076646864 -0.02009525919 -0.04402920532 0.1677389826 -0.9800982612 -0.1061651168
0.009424355507 -0.01809595585 -0.0438694725 0.4928965081 -0.8662292139 -0.08185341383
0.0005898873508 -0.00266675365 -0.07393296814 -0.05953915201 0.5559323631 0.8290924538
0.0004593516861 -0.01827593486 -0.05342925898 0.00424881576 -0.9482199171 -0.3175861086
0.0116075511 -0.01674707794 -0.04414751434 0.5471617823 -0.829021333 -0.1154885861
-0.01757779884 0.03365051651 -0.04988890457 0.8578006488 0.02142964111 -0.5135356048
-0.01967842865 0.04415439224 -0.06652654266 0.96949354 0.001894156626 0.245109543
-0.01687017059 0.02485691833 -0.04878915024 0.8485761589 -0.00326148794 -0.5290631958
-0.02054005241 0.007706556797 -0.05417969513 0.9954588828 -0.07406346154 -0.05980147431
-0.01649361038 0.02071403885 -0.04827407455 0.8648018732 -0.04462910662 -0.5001259471
-0.01844220098 -0.008326287905 -0.04646310043 0.9025383673 0.4214752654 0.08822185782
-0.01289051247 -0.015745965 -0.04452549362 -0.6096794207 -0.7863018337 -0.1001020994
-0.005900449157 -0.0194360981 -0.04438776398 -0.2833138717 -0.9539194185 -0.09884833397
-0.003084776103 -0.02005800724 -0.04444882488 -0.1822021898 -0.9774039645 -0.1071627368
-0.01717864609 0.01332174397 -0.07108507538 0.8441899801 0.09955869895 0.5267175172
-0.0001005342454 -0.02028726721 -0.04457141209 -0.04564609612 -0.9918299224 -0.1191211106
0.007488081932 -0.01891749382 -0.04440488434 0.3797513833 -0.9182323981 -0.1124195267
0.01459787989 -0.01363323164 -0.04769888115 0.6689899723 -0.7229517809 -0.1726068928
-0.01964155388 0.05694391251 -0.05456553268 0.9404489971 -0.008523947761 -0.339827936
0.006702495416 -0.01830305227 -0.04936367289 0.319026025 -0.921752421 -0.2204424408
-0.01942073631 0.05130963135 -0.05382233047 0.9430917014 -0.01721815959 -0.3320867023
0.003854588032 -0.01823240948 -0.05241173458 0.1920884208 -0.9336499262 -0.3023240875
-0.01889172363 0.04085398483 -0.05245052719 0.9251581506 -0.001666591035 -0.3795782118
-0.01467336528 -0.0001675162117 -0.06814641571 0.7132258584 0.4220402624 0.5596346056
-0.01800454903 0.02660305214 -0.05059424973 0.8782287073 -0.001374804698 -0.4782389022
-0.01801642036 0.02111475658 -0.05066690445 0.8785315238 -0.02627216466 -0.476961356
-0.01762790362 -0.008938522339 -0.04986999257 0.8606450958 0.4816947662 0.1651065455
-0.01763409805 0.0170478878 -0.04934555817 0.9079197658 -0.1627538286 -0.3862549549
-0.01978184032 -0.00463773632 -0.04714369965 0.9492426342 0.3007713913 0.09205971691
-0.02054286957 0.060224823 -0.06205792618 0.9881859228 -0.03777038173 0.1485327584
-0.01667919588 -0.01138485718 -0.04638249779 0.8077720063 0.5773929188 0.1188351933
0.003259897768 -0.01965596151 -0.04702247429 0.1698965669 -0.9699096195 -0.1743860273
0.00705765152 -0.01870003891 -0.04686695099 0.3714748371 -0.9123347023 -0.1721970858
0.01182234764 -0.01625961113 -0.04645539474 0.5479047756 -0.8263502422 -0.1301753971
-0.02009575081 0.05528139114 -0.0560748024 0.9679445118 0.01052233018 -0.2509436245
-0.002346737593 -0.01427079535 -0.06158138371 -0.1441408477 -0.8416382255 -0.5204502986
-0.01953430748 0.05733647537 -0.06697023773 0.9493496384 -0.06034444349 0.3083728462
-0.02004712677 0.04905554771 -0.05607993507 0.9690998629 -0.01021674224 -0.2464570428
-0.0194453373 0.03892713928 -0.05385159302 0.9437043888 -0.01650115102 -0.3303781752
-0.0189798851 -0.006876282692 -0.04762173843 0.9215429957 0.3704092669 0.1164280121
-0.01275115156 -0.01535845566 -0.04749679184 -0.6181315215 -0.7679587969 -0.1677876883
-0.008419562101 -0.01804924774 -0.04734785557 -0.4184438299 -0.8934460699 -0.1632754771
-0.006431281567 -0.01883369923 -0.04734403229 -0.3308959227 -0.9276078053 -0.1733541111
-0.002922278404 -0.01964879894 -0.04741925526 -0.1647078973 -0.9702160498 -0.1776291791
0.01002078724 -0.01303101254 -0.05885646057 0.5144379986 -0.7448298108 -0.4249495248
-0.02044222355 0.05401317596 -0.05850329018 0.9917409556 -0.0007364314298 -0.1282549592
-0.01922900391 0.02254238129 -0.05322700882 0.914332361 0.003257443031 -0.4049515065
-0.01966811752 -0.004288360119 -0.04943824768 0.9425029334 0.3153948471 0.110518374
-0.01884574604 -0.00647021389 -0.0499160347 0.9272104135 0.3536425649 0.1233603886
-0.01706014252 -0.01027235222 -0.0487235527 0.8177971463 0.5534159557 0.1579196239
-0.01540405679 -0.01210423899 -0.05001913261 0.7314505571 0.6487050025 0.2101473347
0.003463973761 -0.01916681004 -0.04930293083 0.1693614666 -0.9591699412 -0.2265164838
0.009433779399 -0.0168600591 -0.05021836726 0.4497416487 -0.8600359022 -0.2409786221
0.01515133667 -0.01239190865 -0.05016526794 0.7032304858 -0.6739247586 -0.2264780421
-0.0001613219678 -0.0166082325 -0.05760062981 -0.06662316928 -0.8996205707 -0.4315601721
-0.01145584488 0.006208851337 -0.07484143829 0.5723962582 0.3262106487 0.7522959101
-0.01102433348 -0.0105568223 -0.06165982628 -0.5221460606 -0.7062932921 -0.4780306234
-0.02050409412 0.04741114044 -0.05926892281 0.9980053849 -0.02378540683 -0.0584765429
-0.01368937778 -0.01372798777 -0.05060722542 -0.6669909629 -0.7143503696 -0.2117229437
-0.01860675144 -0.005746722937 -0.05302056885 0.9025490585 0.380021861 0.202456371
-0.01194267011 -0.0152232275 -0.05048138905 -0.5789484459 -0.7809296696 -0.23445159
-0.02003943825 -0.0006479616314 -0.0537181778 0.9685533506 0.216534512 0.1225447352
-0.01017294693 -0.01662854385 -0.04964040756 -0.5051506691 -0.8374594648 -0.2085292457
-0.008567364597 -0.01722560425 -0.05051838989 -0.4288914944 -0.8725424216 -0.2339269298
-0.0204956913 0.05381746674 -0.06196961784 0.998739398 0.01036190302 0.04911461917
-0.009619777679 0.002250785112 -0.07416617584 0.4812730121 0.4295894758 0.7640871482
-0.02049868298 0.03526097107 -0.05913838959 0.9943246925 -0.02073110275 -0.104348585
-0.02017565536 0.01406550121 -0.0551452446 0.9824008849 -0.05433825981 -0.1787060572
-0.01939292145 -0.003442908287 -0.05332848549 0.925957347 0.3344327321 0.175378845
0.000447941795 -0.01894036484 -0.05136605644 0.03634836219 -0.9633410311 -0.2658060465
0.006556629658 -0.01740918732 -0.05269803238 0.3290985557 -0.8970335497 -0.2949999175
0.001009685978 -0.01755896473 -0.05529813194 0.04140872938 -0.9279222832 -0.3704666698
0.008530740738 -0.01649415874 -0.05295430183 0.422292018 -0.8630299848 -0.2772159751
0.01666642761 -0.008993775368 -0.05378824997 0.7292550901 -0.6218167053 -0.2855363351
-0.02055866051 0.04721478271 -0.06181903076 0.9941353502 0.002885215083 0.1081044911
-0.02049712086 0.02381407928 -0.05902022171 0.9940698075 0.006453156668 -0.1085521746
-0.02056458092 0.007627709627 -0.05649531364 0.9997874209 0.01957310436 0.006481253503
-0.01348511219 -0.0131521244 -0.05290990448 -0.6637008665 -0.6993772378 -0.265278418
-0.009811362743 -0.01565001488 -0.05346934891 -0.4557180194 -0.8355496584 -0.3068841069
-0.002313381672 -0.01811537266 -0.05353162575 -0.1243808236 -0.9284162128 -0.3501039081
0.01353076935 -0.01238246822 -0.05462728119 0.6492006529 -0.6894193477 -0.3213090029
-0.005045196533 -0.00489206171 -0.07150564575 0.2320784209 0.62750075 0.7432243371
-0.02014671516 0.05509484482 -0.06481523132 0.9642063615 -0.01886953116 0.264480686
-0.02057220364 0.01277088547 -0.05887199593 0.9999933911 -0.001432556598 0.003341496441
-0.0198184185 4.125466943e-05 -0.05611486435 0.9596292749 0.2169882839 0.1789629551
-0.01782513428 -0.005705360651 -0.0560674448 0.8680102695 0.4219424303 0.2617685191
-0.01432139802 -0.01118628192 -0.05538790131 0.6979597624 0.6493312163 0.3020283789
0.002987367193 -0.01717869568 -0.05573080699 0.1296957991 -0.918046233 -0.3746599975
0.005851560752 -0.01659281031 -0.05550875092 0.2845421737 -0.8906041959 -0.3547674135
0.009257475853 -0.01480509186 -0.05625733948 0.4758019744 -0.8042037298 -0.3561865271
0.01133114529 -0.01371694851 -0.05580308533 0.5207730006 -0.7735886056 -0.3610486826
0.0142333889 -0.01078792286 -0.05643829346 0.6710525222 -0.6587816773 -0.3401399919
-0.02006326199 0.004189687252 -0.05906999016 0.9695577377 0.1582281719 0.1868733233
-0.01953300953 0.0009312583804 -0.05856416702 0.9475445347 0.2341561951 0.2175551219
-0.01895783997 -0.002106259584 -0.05733773422 0.916503363 0.3069240602 0.2565525421
-0.01529994965 -0.009597838402 -0.05633023453 0.7254636598 0.6046463627 0.3287936351
-0.01107961051 -0.01354550521 -0.0564323616 -0.5447231223 -0.7487105594 -0.3777687364
-0.008765360355 -0.01489196944 -0.05659960365 -0.4204390241 -0.8210197143 -0.386209342
-0.0055488259 -0.01653934415 -0.0557909317 -0.2543199261 -0.8935618038 -0.3699576706
0.01229854441 -0.01149528456 -0.0584967823 0.5859623464 -0.6972207397 -0.412954439
-0.01927281952 0.05184191132 -0.06783418274 0.9329963216 -6.261390921e-05 0.3598858986
-0.01692922306 -0.005337900877 -0.05918914413 0.8212292015 0.4639627935 0.3321462401
-0.016105793 -0.007465787411 -0.0581280365 0.7826379379 0.5233744572 0.3369822484
0.002269120455 -0.01638658714 -0.05779537201 0.1134285357 -0.8960451963 -0.4292283465
0.006647668839 -0.01470495192 -0.05886147944 0.3286617344 -0.8375089469 -0.4365320473
-0.01691601944 0.01935618401 -0.07225931549 0.8506744107 0.02815457655 0.524938441
-0.01810416222 0.05604735184 -0.07036678314 0.9262588928 0.005228411609 0.3768515984
-0.02012592125 0.02506480789 -0.06494923401 0.9677017174 -0.0147125587 0.251668287
-0.02030095482 0.01898746872 -0.06390052795 0.9815567961 0.0102026962 0.1908983
-0.01916932869 0.002065340281 -0.06107493973 0.9250356268 0.2641592557 0.2729999576
-0.01833834171 -0.0002030519992 -0.06150248718 0.8902778041 0.3230092974 0.3210458305
-0.008383801699 -0.01386623526 -0.05901602936 -0.3910404493 -0.8078353552 -0.4410095304
-0.002874738216 -0.01561758947 -0.0590749054 0.1464870497 0.8768997211 0.4578082824
0.0001800464392 -0.01575931978 -0.05925269127 -0.03035416672 -0.8759532461 -0.481440064
-0.01153390217 0.003630570769 -0.07352482605 0.5658782997 0.3709703913 0.7363169961
0.008352565765 -0.01318441486 -0.06023525238 0.3907137616 -0.7882204482 -0.4754485056
0.0098402071 -0.01157992268 -0.06136673355 0.4613340324 -0.7328392891 -0.5001174731
-0.01843195915 0.04245419312 -0.06973110962 0.9405885962 0.01411828258 0.3392547226
-0.01956473923 0.0269556675 -0.06694919586 0.9673275785 -0.006934011122 0.2534349528
-0.01979671669 0.01009604645 -0.06398345184 0.9610346251 0.1167916625 0.2505437225
-0.007441571712 -0.01340660381 -0.06064418411 -0.3638162826 -0.8014752752 -0.4746315369
-0.005051009337 -0.01390120792 -0.06121458689 -0.2028087462 -0.8311598522 -0.5177276432
0.000782189656 -0.0142621212 -0.06179700279 -0.004689888904 -0.8431808522 -0.5376095752
0.003836969058 -0.01384643459 -0.06182905324 0.1858990705 -0.8282967594 -0.5285508623
0.006578022003 -0.01234397189 -0.06278673681 0.3194630257 -0.7913476699 -0.5212602426
-0.01663091087 0.04872273254 -0.07267359161 0.8202453309 0.05798845535 0.5690649666
-0.01872570038 0.02978274918 -0.06915278625 0.9075243837 -0.01734339432 0.4196411557
-0.01930913925 0.02227662659 -0.06777236176 0.9412092488 0.01950516368 0.3372605795
-0.019543293 0.01612997246 -0.06665632629 0.9489530761 0.0591429787 0.3098228
-0.01942292976 0.01129760265 -0.06579678345 0.9302419911 0.1289607583 0.3435388782
-0.01798085403 0.003320712566 -0.06522756958 0.8564337667 0.2982215771 0.4214084649
-0.01717816607 0.0001625242879 -0.06444939168 0.8312010133 0.356619694 0.4265293301
-0.005747183323 -0.01301517773 -0.06231996536 -0.3112349067 -0.7901668109 -0.5279860261
0.009064116955 -0.009610406399 -0.06471722221 0.4575501321 -0.6908315636 -0.5598210672
0.01191460323 -0.006730641365 -0.06543094254 0.5227429707 -0.6408315293 -0.5622052451
-0.01826454163 0.0257408371 -0.07010064697 0.9317900024 0.01418596725 0.3627204842
-0.01886748505 0.01833628273 -0.06870588684 0.9210787385 0.0393940148 0.3873784572
-0.01828553867 0.009817565441 -0.06797034073 0.879169469 0.1753856715 0.4430585864
-0.01531714582 -0.002847379923 -0.06504066467 0.739054638 0.4619799382 0.4902782666
-0.01362324667 -0.004736659288 -0.06556726074 0.6594956343 0.5319442489 0.531131645
-0.01211276468 -0.006356656392 -0.06561977641 -0.5825471784 -0.5865186347 -0.5627030088
-0.01106762981 -0.008518277884 -0.06427935791 -0.527097881 -0.6519666748 -0.5450754799
0.006111720562 -0.01090423679 -0.06503952789 -0.311170476 0.7574902807 0.5739175981
-0.01376603985 0.04649395752 -0.07591625214 0.7223161625 -0.07219575496 0.6877842207
-0.01638644409 0.03196918297 -0.0730321579 0.8001348793 -0.03996307313 0.5984873664
-0.01815210724 0.01538271904 -0.06981180573 0.8795342034 0.1040196613 0.464326927
-0.01755796623 0.007090114117 -0.06829201508 0.8550963583 0.2254719258 0.4668753888
0.003544624925 -0.009374422073 -0.06768506877 0.1531468385 -0.722801882 -0.6738720095
0.01392583466 -7.381890714e-05 -0.0691311264 0.6047877526 -0.4045712939 -0.6859692722
-0.01685700226 0.009275961876 -0.07032910156 0.8231178725 0.2009190846 0.5311388608
-0.01290144157 -0.002643964529 -0.06830484009 0.6056870626 0.4978923579 0.6206821909
-0.01128531027 -0.00474141717 -0.06801356506 0.5462142489 0.5530011609 0.6291579375
-0.009563251495 -0.006494100571 -0.06779738617 0.473128616 0.6126201065 0.6331239356
-0.008323108673 -0.007385419369 -0.06771372223 -0.3816427128 -0.6571594477 -0.6499925384
-0.005556425929 -0.008372387409 -0.06810455322 -0.248789481 -0.6975755749 -0.6719316271
0.0002457231581 -0.00967352581 -0.06789496613 -0.0292709428 -0.7324208797 -0.6802226598
0.01148488331 -0.001924607277 -0.07019164276 0.4952545253 -0.5270125933 -0.6906378802
-0.01516167021 0.01204179573 -0.0733693161 0.7452530953 0.1467529249 0.6504317051
-0.01492354584 0.005403203487 -0.07128308105 0.7173228248 0.3063882638 0.6257588967
