# .PCD v0.7 - Point Cloud Data file format
VERSION 0.7
FIELDS x y z normal_x normal_y normal_z
SIZE 4 4 4 4 4 4
TYPE F F F F F F
COUNT 1 1 1 1 1 1
WIDTH 455
HEIGHT 1
VIEWPOINT 0 0 0 1 0 0 0
POINTS 455
DATA ascii
-0.02024764442 0.003605969191 -0.000748636961 0.9993008089 -0.03736502649 -0.001322177824
-0.01562022495 0.03170501804 -0.04724354553 0.8053766005 -0.007266184542 -0.5927189334
-0.01629301103 -0.01246834819 -0.0007180459897 0.8039697867 0.5930141709 -0.04434833917
-0.02045496178 -0.001943705678 -0.0007369624972 0.9901028944 0.122029047 -0.06931933516
0.0128642664 -0.006422234535 -0.06477668762 0.5554459371 -0.611737955 -0.5632552577
0.01147201443 -0.01705466843 -0.008040902297 -0.5151487478 0.8570911127 0.004073351257
0.002978610635 -0.02033060296 -0.003585033258 -0.1586439497 0.9873204646 -0.005513383948
-0.01295350838 -0.01591681194 -0.0007133704424 0.6029850127 0.7962419022 -0.0490704349
-0.008135061264 0.04758298874 -0.04171546936 0.5281618805 -0.004507221049 -0.8491317406
-0.01629406876 -0.01247139263 -0.003590372509 0.8039729912 0.5946653865 -0.0007123801064
-0.01829166603 -0.009402701378 -0.0007229698896 0.9185011988 0.3920644648 -0.05139069188
0.01145775731 -0.01708702342 -0.04038679504 0.5195835478 -0.8533735171 -0.04226792172
0.01748374685 -0.01083715661 -0.01573118146 0.7694560312 -0.6386954701 0.002347873053
-0.02045698102 -0.001950001081 -0.003684917847 0.9932365986 0.1160093663 -0.004783938019
-0.011781919 0.007627452612 -0.07510778427 0.6220840084 0.2594860241 0.7387005413
-0.01991782951 -0.005055519104 -0.0007308626175 0.9603934644 0.2777849734 -0.02190666799
-0.007336401145 -0.01920696735 -0.01209093014 -0.3565586964 -0.9341394761 0.01579035328
-0.01915821648 -0.007416134357 -0.000726485312 0.929779464 0.3658466651 -0.04082114524
-0.009920849323 -0.01799811363 -0.0007113761604 -0.4424294365 -0.8961384466 0.03452648611
0.01147980881 -0.01703697968 -0.0007308858633 0.5086172154 -0.8604850314 0.02956414869
-0.0161923933 0.008853719234 -0.07108271408 0.797313064 0.2056470357 0.5674514735
-0.0006132877602 -0.01965205595 -0.04827526262 -0.02068067976 -0.9803493366 -0.1961822821
-0.007332124949 -0.01919577885 -0.0007109234035 0.3560000429 0.932950946 -0.05353972158
0.01753891691 -0.01071485519 -0.003744473298 0.7726081915 -0.6348807331 0.001742744948
-0.019543293 0.01612997246 -0.06665632629 0.9510072945 0.04571049623 0.3057706271
-0.02052228292 0.04734568787 -0.06011895879 0.9995613706 0.003907189524 -0.02935643437
-0.009922162215 -0.01800164509 -0.003557014823 -0.4435243187 -0.8962616485 0.001111811042
-0.004602599263 -0.02002492809 -0.0007113854885 0.2047805165 0.9769184558 -0.06078873938
-0.01123199081 -0.006800139904 -0.06610173035 -0.5097262493 -0.6261287827 -0.590035506
-0.02031549644 0.003391165257 -0.03604294777 0.999562163 -0.02958837923 0.0001005626297
-0.0009552882115 -0.02049699656 -0.0007133760254 0.05108230184 0.9951712889 -0.08381350796
-0.005535291195 0.002471968055 -0.07608991241 0.2860978339 0.419186527 0.8616441754
-0.01959828377 -0.0004800637513 -0.05642510509 0.9465040582 0.2535758652 0.1995729149
-0.008908103943 0.05085069275 -0.04202606201 0.4931128776 -0.01200858393 -0.8698824541
0.002980436802 -0.02032622814 -0.0007169819474 -0.1499748251 0.9847260469 -0.0884430004
0.009327100436 -0.01831930606 -0.007992443562 0.4295656521 -0.902876822 -0.01693501928
0.00644954586 -0.01950892544 -0.0007215702236 -0.2688428294 0.9622118617 -0.04326506959
0.01739885139 -0.01102534962 -0.03604187584 0.7727010983 -0.634569291 -0.0159633211
0.009332439423 -0.01830704308 -0.0007264680862 0.4301778618 -0.9016331117 0.04477431348
0.01459787989 -0.01363323164 -0.04769888115 0.713392136 -0.6830201822 -0.1567006414
-0.01917238998 -0.007459040324 -0.02401252365 0.929334957 0.3692374412 -0.0004996810363
-0.007337239265 -0.01920914459 -0.01992984104 -0.3567400523 -0.9342035595 -0.000494475556
0.01395467186 -0.01507585621 -0.0007369853258 -0.6842644067 0.7279618544 -0.04305531757
-0.0009595387446 -0.02050753106 -0.01213266532 -0.06066137574 -0.9980031523 0.01760413513
-0.01797852135 0.0107895155 -0.06896014404 0.8548458303 0.1580896704 0.4942127704
0.01755270386 -0.01068429089 -0.0007489395142 0.7730686701 -0.634317021 0.002597731289
-0.02024764442 0.003605969191 -0.003743374825 0.9993107435 -0.03710776892 -0.001025386056
0.002969002287 -0.02035357857 -0.02369949341 0.1460131306 -0.9892826469 -0.000101566367
-0.01992026329 -0.005062995116 -0.003654401541 0.9608439518 0.277088426 -0.0009510804703
-0.01915998522 -0.00742148908 -0.003632541259 0.9299960482 0.3675684054 -0.0009042754001
0.01279346371 -0.01405573177 -0.05206618118 0.59084283 -0.7632588394 -0.2614205317
-0.01829166603 -0.009402701378 -0.00361503307 0.9159757754 0.401210816 -0.004273182747
-0.02031549644 0.003391165257 -0.02774197515 0.9995852391 -0.0287982684 -9.769447465e-05
-0.01295449977 -0.01591956107 -0.003566997369 0.6046749421 0.7964718317 -0.0009141798641
-0.007333326578 -0.01919892597 -0.003554755847 0.3565444883 0.9342779514 -0.0008587579289
0.006445260525 -0.01951898193 -0.01227204879 0.3052161142 -0.9521311475 0.01701180393
-0.004603957415 -0.02002838993 -0.003557062109 0.2129607618 0.9770468991 -0.005202972136
-0.01916263962 -0.007429522673 -0.007992615064 0.9299061383 0.3674675305 0.0155623913
-0.01611225939 0.04748384476 -0.07334832764 0.8264496326 -0.002419603042 0.5630054621
-0.007337240855 -0.01920914777 -0.0277922039 -0.3566945409 -0.9340831391 -0.01605283963
-0.0009563504193 -0.02049962913 -0.003567026138 0.03879666581 0.9989029699 -0.02622356511
0.006448020299 -0.01951249504 -0.003607987444 0.3054557088 -0.9521914018 0.0053239379
0.009330304464 -0.01831194814 -0.003632458925 -0.4297482183 0.9029481219 -0.001076090721
-0.01916529465 -0.007437561035 -0.0123552084 0.9297740626 0.3677068132 -0.01766046613
-0.01345219898 0.0566546936 -0.04510583115 0.682373757 -0.01628508248 -0.7308220384
0.01147669125 -0.01704405467 -0.00365451924 0.5086031916 -0.8610003837 0.001064306686
-0.009927136183 -0.01801498127 -0.01994230747 -0.440131108 -0.8979334402 0.0003804767387
0.01395229212 -0.01508119202 -0.003685041428 0.685901001 -0.727692903 0.001689872968
-0.01974393272 -0.004521277587 -0.04790854899 0.9593819352 0.2658415541 0.09441700353
-0.02025919978 0.00356938831 -0.008235652447 0.9993912594 -0.03476144265 -0.002958488062
-0.01992756653 -0.005085433801 -0.01242932447 0.9604023613 0.2784262876 -0.010300818
-0.01363641453 0.006885743618 -0.07324162674 0.6695154671 0.2713639484 0.6914554554
-0.02046000989 -0.001959446271 -0.008107827981 0.9927783044 0.1192182021 0.01335135603
-0.02017565536 0.01406550121 -0.0551452446 0.9792902949 -0.07684452058 -0.1873110728
-0.01992391396 -0.00507421128 -0.008040638924 0.962375674 0.2717076986 0.002826395044
-0.01829166603 -0.009402701378 -0.007954284191 0.9168446645 0.3992228249 0.004122764869
-0.01829166603 -0.009402701378 -0.01229626338 0.9156785645 0.4016617607 -0.01416320647
-0.01629532168 -0.01247501691 -0.007899936941 0.8047255944 0.5935186986 0.01233986182
0.01090554047 -0.016532715 -0.04786376635 0.5412047824 -0.822617425 -0.1743500952
0.00307967337 -0.02008850002 -0.04403144201 0.1452611164 -0.9856164602 -0.08636782599
-0.01736585045 0.05870418167 -0.0495996933 0.8580427268 0.009464697336 -0.5134910889
0.01751823425 -0.01076070245 -0.008237947305 0.7715532759 -0.636160069 0.002430841651
0.01452051544 -0.008274909019 -0.05992817688 0.6713881954 -0.6277475739 -0.3939173448
-0.01295593527 -0.01592354202 -0.007848493046 -0.6030594242 -0.7975808578 -0.01356857386
-0.009924132029 -0.01800694402 -0.007826495727 -0.4432348017 -0.8963260077 -0.01194146271
-0.004608034054 -0.02003878307 -0.01209867843 -0.2137075132 -0.9767670692 0.01597470575
0.01750099564 -0.0107989192 -0.01198353052 0.7704451612 -0.6375041506 0.001646682454
-0.007335129897 -0.01920364793 -0.007821538846 -0.3564593182 -0.9340812355 -0.02071231268
-0.009925477028 -0.01801055145 -0.01209858227 -0.4422779648 -0.8968127433 0.01082152146
-0.004610017776 -0.02004388905 -0.04003464794 -0.2140600437 -0.9759680576 -0.04080010018
0.006446585496 -0.01951586596 -0.007938700438 0.3053542178 -0.9521406557 -0.01367382668
-0.01853786087 -0.005538174152 -0.05380399704 0.8855049656 0.412189922 0.2144304643
-0.004605995218 -0.02003358523 -0.007826601267 -0.2131454045 -0.9768973858 -0.01550916536
-0.0009579441018 -0.02050357882 -0.007848555671 -0.06095075759 -0.9980208776 -0.01547039242
-0.0200360864 0.01986584981 -0.05601556778 0.9814380586 -0.01515099694 -0.1911799792
-0.02054986954 0.05361915588 -0.06018868065 0.9999049208 0.01308482311 0.004351649707
0.002975870768 -0.02033716774 -0.007888112386 0.1463097936 -0.9892376904 -0.001495413568
-0.01989197731 0.02585306549 -0.05529206467 0.9638128845 -0.01220978187 -0.2662999153
0.01394872284 -0.01508919875 -0.008108125687 0.6840292083 -0.7293417039 -0.01283437649
-0.01237142785 0.0004214762847 -0.07100095622 0.5593427108 0.4487529656 0.6969623431
-0.02028341389 0.003492733955 -0.01197891665 0.9994584518 -0.03277585512 -0.002923445927
-0.02046304067 -0.001968896866 -0.01253325844 0.9923490719 0.1205719929 -0.02656527938
-0.01629699951 -0.01247991806 -0.01221205881 0.8046004305 0.5936047645 -0.01585972342
-0.009562270164 0.05460023117 -0.042390625 -0.5370173661 0.01515723803 0.8434350044
-0.01917610168 -0.007470279217 -0.03572828801 0.9289950485 0.3696117202 0.01885142154
-0.01295736769 -0.01592751365 -0.01213256995 -0.6032387647 -0.7974073099 0.01563889096
0.001246500611 -0.01113749218 -0.06616921997 0.04903306526 -0.7768043767 -0.6278301672
-0.01669491577 0.02362248166 -0.04863572566 0.867352168 -0.04516235329 -0.4956415828
0.002973129153 -0.02034373569 -0.01219370969 0.1591677052 -0.9870155723 0.02158475617
-0.006237550259 -0.01019146538 -0.06581156158 -0.2817422873 -0.7384969752 -0.6125712214
0.009323894501 -0.01832666842 -0.01235495885 0.439665272 -0.8981412223 0.00606574849
0.01146733475 -0.01706528854 -0.012429739 0.5065069674 -0.8621468902 0.01238675354
0.01394515038 -0.01509720993 -0.01253376134 0.6829188092 -0.7301823274 0.0213463984
-0.02028296566 0.02453565788 -0.06403499985 0.9831949257 0.02242547777 0.181176257
-0.02030640157 0.00341995875 -0.01572352823 0.9995240142 -0.03066921211 -0.003338333013
-0.02046556854 -0.001976778567 -0.01622401667 0.9925525181 0.1216371429 -0.006626037035
0.006316002369 -0.002523274183 -0.07283455658 -0.2522927474 0.5684518087 0.7830778446
-0.01993061352 -0.005094793081 -0.01608939981 0.9603945887 0.2786422826 -0.0008439669617
-0.02037032604 0.003217589855 -0.05581982994 0.9858868137 0.1175124359 0.119239331
-0.01916750908 -0.007444264889 -0.01599358606 0.9295321751 0.3687189834 0.004030720108
-0.02022550106 0.03621178055 -0.06433118057 0.975036704 -0.01139793206 0.2217510156
-0.01178993416 0.04430045891 -0.0438094635 0.6401082175 -0.02899645686 -0.7677373739
-0.01829166603 -0.009402701378 -0.01591761255 0.9169229937 0.3990591856 0.001997509931
-0.01930913925 0.02227662659 -0.06777236176 0.9265384538 0.01892257187 0.3757238745
-0.01858795357 0.03599192429 -0.05181626892 0.8939653648 0.01371167401 -0.44792624
-0.01629871612 -0.01248493332 -0.01652823141 0.8042583645 0.5940025511 -0.01815082647
-0.02014394093 -0.0009738340676 -0.05214948273 0.9713866986 0.2074650812 0.1156119451
-0.01295880106 -0.01593148867 -0.01642069997 -0.6039301292 -0.796785415 0.0200350079
-0.008864028136 -0.01308419037 -0.05986422221 -0.4408108002 -0.769395505 -0.4622947061
-0.009926381747 -0.01801296647 -0.01637478161 -0.4434038686 -0.8961999391 0.01478778261
-0.007337151766 -0.01920891889 -0.01636445014 -0.3566129814 -0.9339448547 0.02396226069
-0.004610075037 -0.02004398505 -0.01637476142 -0.2132516572 -0.9768404923 0.01750380783
-0.007337241809 -0.01920914904 -0.03209368292 -0.3567199314 -0.9341125938 0.01358501656
-0.01916972542 -0.007450976054 -0.01963586871 0.9294200759 0.3684882644 0.01986759928
-0.0009611348642 -0.02051148669 -0.01642082712 -0.06290014411 -0.9977983392 0.02102489428
0.002971202532 -0.0203483394 -0.01650341654 0.1588504876 -0.9870441957 0.02258933984
-0.009909343719 -0.0138371253 -0.0574419117 -0.4650266017 -0.786922431 -0.4055901222
0.006262367725 -0.01957965775 -0.01631336651 0.3045745878 -0.9523336358 0.01717459389
-0.01816686249 0.05582172394 -0.05097185135 0.8654080685 -0.01169222872 -0.5009312995
0.009321221352 -0.01833280849 -0.01599328041 0.4290858425 -0.9032611599 -0.002148664026
-0.0190855093 -9.387183189e-05 -0.05918306541 0.9278119311 0.2794187242 0.2471643119
0.01146343231 -0.01707414436 -0.01608994389 0.5077040874 -0.8615311494 0.0007988990463
-0.02051915932 0.02937922668 -0.06236216354 0.998170924 3.748342157e-05 0.06045498399
-0.01273234251 -0.0124611454 -0.05585347875 -0.6353798479 -0.7029629993 -0.3195864053
0.01394217205 -0.0151038909 -0.01622471237 0.682899691 -0.7304942131 0.005120221096
-0.006268713951 -0.01841086197 -0.04959633255 -0.3201202417 -0.9168725386 -0.2384696602
-0.02031549644 0.003391165257 -0.02022354889 0.9995841133 -0.02883173023 -0.0005760677401
-0.02046740341 -0.001982501745 -0.01991884677 0.9920935126 0.124853857 0.01272700304
-0.01815210724 0.01538271904 -0.06981180573 0.8726748213 0.08142901766 0.481464403
-0.02034284719 -0.001594091058 -0.04827987162 0.9844946447 0.1629404607 0.06496692088
-0.01993366241 -0.005104162216 -0.01975333786 0.9620107097 0.2729901844 0.003428360907
-0.01829166603 -0.009402701378 -0.01954301389 0.9152932908 0.4024473017 0.01656385025
0.006624615479 -0.01946662483 -0.01980057716 0.3046200057 -0.9523398605 -0.01598256138
0.009318544388 -0.01833895556 -0.01963551521 0.4288455049 -0.9031348984 -0.02094965908
0.01145952574 -0.01708301099 -0.01975401688 0.5144246594 -0.8575217075 -0.0048775986
0.01393918959 -0.01511057917 -0.01991962115 0.6808655822 -0.7322957329 -0.01284595545
0.00931532828 -0.01834634145 -0.02401212374 0.4285445353 -0.9035205708 0.0003991962395
0.01746302986 -0.01088308016 -0.02023210398 0.7680249218 -0.6404159361 0.002268978196
-0.004917412043 -0.01808626595 -0.05206067047 -0.2784528181 -0.9084507274 -0.3117391602
-0.01630014801 -0.0124891173 -0.0201290528 0.8061111534 0.5917605848 -0.00205390808
-0.01960982323 0.01069682455 -0.06489011765 0.9356220052 0.1338347968 0.3266492163
-0.01353141689 -0.008925904393 -0.06066145039 0.6520595735 0.6249565998 0.4292406796
-0.01541966934 -0.01258657722 -0.04818723755 0.7681277038 0.619085931 0.1634394099
-0.01295984093 -0.01593437179 -0.01999817594 -0.6005010545 -0.7996239083 0.000298052996
-0.01326045132 0.03946453476 -0.04491241455 0.7049963504 0.001154263022 -0.7092099926
-0.004611761212 -0.02004828453 -0.0199421339 -0.215287977 -0.9765505899 0.0001797876196
-0.0009624664883 -0.02051478767 -0.01999829992 -0.0598535715 -0.9982050102 0.002075494379
-0.000822308965 -0.004239580274 -0.07273120117 0.05209131014 0.606757045 0.7931786581
0.00397631979 -0.01414954138 -0.06128288269 0.2208126239 -0.8279440783 -0.5155098333
0.01145483112 -0.01709366481 -0.02415678279 0.5088782476 -0.8608384469 0.0003123762944
0.002970048845 -0.02035108662 -0.02009891844 0.1609794413 -0.9869548988 0.002376394499
-0.02031549644 0.003391165257 -0.02397970295 0.999592344 -0.02855001597 -0.0002061070806
-0.01314449596 -0.01362255605 -0.05236665726 -0.6506705509 -0.7125267396 -0.2625518608
-0.02046926308 -0.001988298814 -0.02435875702 0.992026478 0.1244670326 -0.01978445488
-0.01993732707 -0.005115420183 -0.02415593974 0.9601943612 0.2793285068 -0.001540764092
0.003614552339 -0.005211049557 -0.07157923126 -0.1239053866 0.6321236113 0.7648968526
-0.01829166603 -0.009402701378 -0.02389957937 0.9154295016 0.4023553047 0.009951701928
-0.02021113968 0.04226934052 -0.06447759247 0.9733826741 0.008916114692 0.2290123855
-0.01644392204 0.04038412666 -0.04827205086 0.7892606955 -0.00614657088 -0.6140275029
-0.01630158202 -0.01249330711 -0.02373490016 0.804407869 0.5939359105 0.01296589645
-0.01926819515 0.03079393387 -0.06763629532 0.9177367664 0.001771205184 0.3971852091
-0.01296076912 -0.01593694327 -0.02358069971 -0.6021143816 -0.7982404224 -0.01644687275
-0.00992789189 -0.01801699924 -0.02351486397 -0.4511413722 -0.8924290426 -0.006470401463
-0.007337239981 -0.01920914618 -0.02350032075 -0.3566546412 -0.9339273152 -0.02402575228
-0.0009634098344 -0.02051711612 -0.02358086332 -0.06147571921 -0.997948882 -0.0178539897
-0.00461268874 -0.02005066013 -0.02351463254 -0.2130134554 -0.9769142557 -0.01624207097
-0.0008939931648 -0.01256163502 -0.06424335153 -0.04006165878 -0.8112086209 -0.5833829248
0.00644171977 -0.01952730815 -0.02385186609 0.3035402475 -0.9527292394 -0.0130504588
-0.008716732502 0.007152038336 -0.07682434082 0.4090114926 0.3095436017 0.8584243459
0.0139358724 -0.01511801942 -0.02435955874 0.6798399531 -0.7331337115 0.01823730119
0.01744574833 -0.01092139101 -0.02398694706 0.7668512094 -0.6418213625 0.002135736462
0.017428442 -0.01095975494 -0.02774692154 0.7658738005 -0.6429860735 0.002496201771
-0.02047081375 -0.001993137538 -0.02806468391 0.9924555424 0.1225954183 -0.001536158201
-0.01289667447 -0.0157587187 -0.04379768499 -0.6042595195 -0.7936415511 -0.07073557366
-0.01994099871 -0.005126698812 -0.02856654994 0.9598832366 0.2801652711 -0.01147140252
0.006389207363 -0.008291788578 -0.06784242249 0.3088908028 -0.6931193609 -0.651284902
-0.02056128597 0.02923498058 -0.05986451912 0.99932456 0.01984111967 -0.03093143542
-0.01296271483 -0.01594235833 -0.03653015094 -0.6024310385 -0.7981034169 0.01038170888
-0.01917505836 -0.007467119217 -0.02839722761 0.9293014389 0.3688018866 -0.01959602125
-0.01829166603 -0.009402701378 -0.02826438014 0.9149798076 0.4031836015 -0.01596668771
-0.02055937672 0.01813045883 -0.05973072815 0.9996798034 0.009333131283 -0.02351984892
-0.01630328168 -0.01249827247 -0.02806917848 0.805955899 0.5919747375 -0.0009995300612
-0.01296184995 -0.01593993727 -0.02788699235 -0.6018335493 -0.7984807907 -0.01499352751
-0.009928800106 -0.01801942476 -0.02780918312 -0.4421675692 -0.8968779493 -0.009888619446
-0.00461359489 -0.02005298678 -0.02780891768 -0.21444769 -0.9766072563 -0.0158257741
-0.004586078882 -0.0150428257 -0.05943349266 -0.234421362 -0.8570768213 -0.4587656781
-0.0009642405377 -0.02051915635 -0.02788726934 -0.06176511 -0.9979354624 -0.01760352233
0.002968757153 -0.02035416222 -0.02802770106 0.1601577049 -0.9870905563 0.001320281136
0.006440388123 -0.01953043938 -0.0282076629 0.3037804957 -0.9526156536 0.01551860218
0.003487229109 -0.001457176566 -0.07440137482 0.09491751603 -0.5500999747 -0.8296870994
0.009312105815 -0.01835374133 -0.02839679019 0.4394171874 -0.8982016935 0.01209351905
0.01145012824 -0.01710433706 -0.02856756465 0.5054078283 -0.8627624927 0.01427614116
0.01393352509 -0.01512328434 -0.0280655508 0.6839620239 -0.7295137841 -0.002364043582
-0.02005704975 0.03679807281 -0.0560409584 0.9752723927 -0.01185709073 -0.2206879457
-0.02031549644 0.003391165257 -0.03226532427 0.9995715651 -0.02926903928 9.739120022e-05
-0.01994307327 0.04942998505 -0.06565916443 0.9699049591 -0.03390842831 0.2411111546
-0.02003153992 0.03104890124 -0.05603941091 0.9753052983 -0.0006384400085 -0.2208600633
-0.02047236888 -0.001997985522 -0.03177766546 0.9921391847 0.1240393543 0.01655526473
0.01393117301 -0.01512855911 -0.03177858098 0.6833290771 -0.7299534222 -0.01514508937
0.0174145813 -0.01099048233 -0.03075850296 0.7649242634 -0.644116969 0.00204972753
-0.01994352341 -0.00513445878 -0.0322492075 0.9600528119 0.2798075677 -0.002514629307
-0.01886748505 0.01833628273 -0.06870588684 0.9230530149 0.0386377469 0.3827273915
-0.01917610168 -0.007470279217 -0.03205851269 0.9291735207 0.3696438381 3.774666055e-05
0.003145473633 -0.01697906767 -0.05605755888 0.1164233543 -0.9119680425 -0.393395338
-0.02054026413 0.01287515799 -0.05968081792 0.9992097329 0.001762772221 0.03970897062
-0.01829166603 -0.009402701378 -0.03190884686 0.9147862328 0.4039377312 -0.000676498033
-0.01630434026 -0.0125013522 -0.03241320716 0.8040463208 0.5943656107 -0.01546074703
-0.01296239207 -0.01594144864 -0.03220298576 -0.6021120459 -0.7982586187 0.0156288797
-0.02045359039 -0.001939429084 -0.0437237498 0.9884556708 0.148876132 0.02812977474
-0.009929710388 -0.01802185535 -0.03211303393 -0.4423010302 -0.8968158174 0.009549259115
-0.004614503105 -0.02005531851 -0.0321127367 -0.214018586 -0.9767260252 0.0142237987
-0.0009650730954 -0.02052120103 -0.03220324368 -0.0641673157 -0.9977947288 0.01697748017
0.002968757153 -0.02035416222 -0.03236562792 0.1579930682 -0.9872388321 0.01994188362
0.003530971766 -0.01522937679 -0.05956601143 0.1495890998 -0.8672005743 -0.4749592248
0.006256570053 -0.01959329262 -0.03226862564 0.3026769965 -0.9529672901 0.01549127805
-0.01889105606 0.0469405899 -0.06876293182 0.9192421223 0.002817564868 0.3936825904
0.009309415817 -0.01835991955 -0.03205768776 0.4277536229 -0.9038926318 0.002224469825
0.0114462018 -0.01711324883 -0.03225019646 0.506847274 -0.8620293111 0.003362681055
0.01740417099 -0.01101355934 -0.03302023888 0.7648118688 -0.6442522454 0.001360005596
-0.01732037989 0.006180163066 -0.06813852692 0.8370729785 0.2472839235 0.4880158705
-0.006584443092 0.05843675613 -0.04111476898 0.3938502645 -0.01559117889 -0.9190423735
-0.005737298965 0.05529070663 -0.04083115768 0.3938502645 -0.01559117889 -0.9190423735
-0.02047423808 -0.00200381581 -0.03624297969 0.9921511006 0.1235328904 -0.01938604113
-0.01994359779 -0.005134687424 -0.03594078445 0.9597191874 0.2808292946 0.008601659888
-0.01829481125 -0.00941208299 -0.03556041972 0.9144827171 0.4042426033 0.01758629811
0.00662064476 -0.01947596054 -0.03579443588 0.3015651071 -0.9532948016 -0.01695604542
0.009306994438 -0.01836548042 -0.03572671763 0.4255698029 -0.9048951718 -0.007420977002
-0.007967346478 -0.01149784126 -0.06304355164 -0.3802672725 -0.7484360216 -0.5433602149
0.01144226678 -0.01712217903 -0.03594085948 -0.5157562883 0.8566209776 0.01399827681
-0.01224358006 -0.004351788473 -0.06741165314 0.5889201581 0.5287478187 0.611227283
0.01392834504 -0.01513490264 -0.03624393845 0.6866460864 -0.7269366286 0.008960465729
-0.01020809937 0.0584821701 -0.04276985931 -0.4905366713 0.01839503162 0.8712263752
-0.01630467002 -0.01250230853 -0.03604156685 0.8044594502 0.5937450176 0.01765919404
-0.00993045489 -0.01802384313 -0.03642798487 -0.4433877035 -0.8963250193 0.002967192959
-0.007337242603 -0.01920915063 -0.0364062678 -0.3565608229 -0.9342238491 0.009496281969
-0.004615127603 -0.02005692196 -0.03642769178 -0.2142910438 -0.9767513675 0.006009550781
-0.0009659077724 -0.020523251 -0.03653030523 -0.05831253501 -0.9982146866 0.01292623896
0.002968757153 -0.02035416222 -0.03598877048 0.1589662247 -0.9869584546 -0.02535248052
-0.0129408865 0.0522740345 -0.04464275169 -0.654417386 -0.03188952614 0.7554607488
-0.01237770939 0.04819095802 -0.0442149086 -0.6219804406 0.002596271541 0.7830284739
-0.01095792484 -0.0146126709 -0.0542996254 -0.5324518036 -0.7902029325 -0.3034376415
-0.01829210472 0.0312437191 -0.05119780731 0.8826930633 0.00585195921 -0.4699135139
-0.01011445808 0.04122012329 -0.04268749619 0.593400303 -0.02103059675 -0.8046327077
-0.02031100655 0.003405379454 -0.03983162053 0.9997339936 -0.02253563411 -0.004907876146
0.01739885139 -0.01102534962 -0.03907029152 0.7753412887 -0.6310153347 -0.02579793419
-0.01274752855 0.03551226044 -0.04448279381 0.6870658387 -0.02969248355 -0.725988216
-0.01988454533 -0.004953265905 -0.04411838722 0.9524871347 0.2996463924 0.05459210384
-0.02047478485 -0.002005521655 -0.03997356606 0.9916917705 0.1286367642 -0.0001232855913
-0.01993829727 -0.005118401686 -0.04038403193 0.9585736761 0.2844287429 0.0153882321
-0.0191720047 -0.007457875411 -0.04014477412 0.9278753015 0.3727477491 0.01032183942
-0.004105302632 -0.004498137772 -0.07204323959 0.1522609338 0.613525208 0.7748570366
-0.01829358991 -0.009408439 -0.03995505524 0.913318047 0.4069036632 0.01671986444
-0.02042730331 0.01324394131 -0.05658683777 0.9956797592 -0.04533081003 -0.08103662627
-0.0163010949 -0.01249194739 -0.03968065474 0.8037416734 0.5940766562 0.03274521243
-0.008458808661 0.003270888925 -0.0752505722 -0.4318306526 -0.4162316578 -0.8001709158
0.006997376919 -0.011662673 -0.06344232082 0.3334831595 -0.7605023425 -0.5571581188
0.002974792639 -0.02033970833 -0.0396231149 0.1605378987 -0.9861741286 -0.04108735881
-0.009860449314 -0.01783560244 -0.04367603111 -0.4555814737 -0.8843832466 -0.1015470036
0.006445708116 -0.01951804797 -0.03987728373 0.2996575775 -0.9533176515 -0.03729331767
-0.01988150215 0.04965155029 -0.05530805206 0.9640897592 -0.008913386992 -0.2654269912
0.00931847318 -0.01833911896 -0.04014497375 0.4277509784 -0.903610222 -0.0227522988
-0.01897535133 -0.006862558365 -0.04762515767 0.9108070072 0.3978750943 0.1101181411
0.01393652248 -0.01511656189 -0.03997726059 0.6899645744 -0.7235934581 -0.01901035301
-0.01507192087 0.0002032878995 -0.06793387985 0.7326432517 0.405051376 0.5469618347
-0.0165112009 0.05536193848 -0.04835035133 0.805040269 -0.01663400583 -0.5929869097
-0.01557489491 0.05239819336 -0.04716928482 0.7504190947 0.004488419282 -0.6609470753
-0.01639640013 0.04750054423 -0.0482820371 0.7869202134 0.001788127688 -0.6170521699
-0.01543320084 0.04381426811 -0.0470288105 0.7521064498 -0.009319552367 -0.6589757462
-0.01402174568 -0.005892006159 -0.06380895042 0.6642746314 0.5434938521 0.5131799361
-0.01317586803 0.03137907791 -0.04482408142 0.727764339 -0.0193035835 -0.6855555692
-0.01295842075 -0.01593042199 -0.04014708392 -0.6039131324 -0.7962755275 -0.03513136657
-0.009926004171 -0.01801187658 -0.04003481483 -0.4438330919 -0.8955008959 -0.0330201742
-0.0009599901636 -0.0205086298 -0.04014764214 -0.06188829828 -0.9971399071 -0.04338022857
-0.007332677603 -0.0191972003 -0.04001095104 -0.3551562189 -0.9337608743 -0.04421187415
-0.005405156612 -0.01415113735 -0.06064872742 -0.280050424 -0.8248885219 -0.4910505946
0.01748029709 -0.01084480381 -0.0413692131 0.7726616708 -0.6336070856 -0.03919188029
-0.0165486927 0.03520087433 -0.04846222305 0.8006550186 -0.01675573937 -0.5988912976
-0.01952186902 0.007586232662 -0.0635589091 0.952415026 0.1614568331 0.2585291268
-0.01443894005 0.02731887245 -0.04593915939 0.7858573484 -0.02612688256 -0.6178556578
-0.01912887383 0.03413974762 -0.06823347473 0.9289168255 0.02147899495 0.369664962
-0.01912575102 -0.004978743672 -0.05161165714 0.9234393307 0.3481585181 0.1613860242
-0.0191217289 -0.007305677176 -0.04385538673 0.9198117931 0.3873889607 0.0622579992
-0.02042220497 0.003053351243 -0.04433984375 0.9999463541 -0.0001840810453 -0.01035639836
0.007815052986 -0.01815755272 -0.04821414375 0.4114899939 -0.889522591 -0.1985586687
-0.01920829773 0.03386779022 -0.05316722488 0.9277611482 0.004309454547 -0.3731496757
0.01404273891 -0.01487833309 -0.0430026989 0.6891325282 -0.7226744973 -0.05327222071
0.01799682713 -0.009699759483 -0.04381072807 0.7864988947 -0.6134269164 -0.07160242145
-0.01785789108 0.05059654236 -0.05033141708 0.8704177782 -0.01865822487 -0.4919601225
-0.0165885911 0.02852115154 -0.04845364189 0.8260219855 -0.01627121434 -0.5634029881
-0.01822232246 -0.009195814451 -0.04439351781 0.886733367 0.453634703 0.08899152835
-0.01623242569 -0.0122927688 -0.04408700307 0.7957013729 0.6006221078 0.07818189529
0.007081031322 -0.004642363548 -0.070913414 0.3158637668 -0.6029157484 -0.7326135961
-0.00741169405 -0.01900522423 -0.04335533218 -0.3645409136 -0.9275708897 -0.0819888218
-0.004825898511 -0.0197588847 -0.04388274002 -0.2085891131 -0.9732201563 -0.09660801878
-0.0008794660833 -0.02030967246 -0.04380265723 -0.04942351143 -0.9935963326 -0.1016053365
0.006570479155 -0.01922637494 -0.04431975174 0.2956353295 -0.9500694452 -0.09983887681
-0.01826454163 0.0257408371 -0.07010064697 0.9073366859 -0.04181836809 0.4183196893
0.009378139496 -0.01820209122 -0.04311466217 0.4431973764 -0.8937756685 -0.06885593689
-0.01800454903 0.02660305214 -0.05059424973 0.8860926276 -0.01051707542 -0.4633888718
0.01089522457 -0.01716132545 -0.04430643717 0.516893472 -0.8483727117 -0.1143891635
-0.01916751289 0.05867907333 -0.05305313492 0.9336973763 -0.0642589349 -0.3522499095
-0.0191336937 0.05234256172 -0.05310119057 0.9271130912 -0.005654023716 -0.37473904
-0.0185344162 0.04820259476 -0.05172450638 0.8950631879 0.01996602051 -0.445492141
-0.0154195207 -0.003920497974 -0.06382239532 0.7759001537 0.4491405066 0.4430031115
-0.0182302742 0.04315615845 -0.05108594894 0.8902033657 -0.008117947841 -0.4554910171
-0.02054286957 0.060224823 -0.06205792618 0.9985525283 0.02257879145 0.04881645531
-0.01793297958 0.03823464203 -0.05046418381 0.8646117533 -0.0255095547 -0.5017925654
-0.01330675411 0.003099853754 -0.07172486115 0.637169357 0.3535761965 0.6848350778
-0.01649361038 0.02071403885 -0.04827407455 0.8444532167 -0.02854326208 -0.534868252
-0.02026655006 0.03024419594 -0.06417093658 0.9812530272 0.01334074255 0.1922615959
0.01423022747 -0.0144578228 -0.04531391525 0.6776843822 -0.7270712091 -0.1100515111
0.00280915761 -0.0072266469 -0.07009092712 -0.1087607611 0.6708826927 0.7335444837
-0.0200243988 0.05554256312 -0.05611027273 0.9755830613 -0.03603883177 -0.2166538554
-0.01918816185 0.04588924789 -0.05310909271 0.9262025952 0.0167334123 -0.3766546768
-0.01916853046 0.03989056206 -0.0531510601 0.9375729512 0.003516641106 -0.3477708935
-0.01763409805 0.0170478878 -0.04934555817 0.9203962424 -0.1109342818 -0.3749191141
-0.020554636 0.002634105086 -0.04808342552 0.999225975 0.03472271388 0.0184874027
-0.02002457555 0.04292951711 -0.05607246653 0.9757501949 0.0209029791 -0.2178867198
-0.01919799614 0.02819138336 -0.053205616 0.9256687255 0.003967531609 -0.3783142469
-0.01893585682 0.0235145483 -0.05256662369 0.934648515 -0.01081673556 -0.3554084294
-0.01836398697 0.01998005295 -0.05130221176 0.9135371123 -0.03783398553 -0.4049920171
-0.01931850624 0.01163327503 -0.05012339401 0.961494066 -0.1230729865 -0.2457279006
-0.01758359861 -0.009561154604 -0.04806007195 0.8462544997 0.5117405854 0.1482393167
-0.01385104084 -0.01418374729 -0.04833608246 -0.6840295254 -0.710212711 -0.1664377169
-0.01210592333 -0.01567413616 -0.04821632195 -0.5777405865 -0.8006354082 -0.1587411662
-0.009003367053 -0.01757576921 -0.04811165619 -0.4411882296 -0.8743806755 -0.2020182676
-0.004833908588 -0.01915099478 -0.04793210506 -0.2367243309 -0.9558098425 -0.1743248005
0.003196683836 -0.01943439026 -0.04822337494 0.1250258309 -0.9690364446 -0.2129246596
0.005933547497 -0.01887493038 -0.04801118088 0.2798576037 -0.9392652314 -0.198646789
-0.0205044241 0.06036800385 -0.0594181385 0.9935608039 0.0103036029 -0.1128306908
-0.020230896 0.02471110344 -0.05673428726 0.9837619283 0.0004121698812 -0.1794778498
-0.02021275139 0.04845954514 -0.05685181808 0.9821227833 0.001306759668 -0.1882369012
-0.01908830833 0.01761536598 -0.05253901291 0.9462362839 -0.1165575469 -0.3017469691
-0.01794634914 -0.001385454983 -0.06131914711 0.8766609577 0.3481539007 0.3320458202
-0.02021752834 0.008743327618 -0.05201709366 0.9967512726 -0.06021628329 -0.05348738027
-0.02054741542 0.002656963348 -0.05189975866 0.9933201426 0.09361918397 0.06745771013
0.01544549656 -0.0117321496 -0.05103483963 0.7054948577 -0.6786556633 -0.2042143394
-0.01710028954 -0.0002318536788 -0.06417765503 0.816666646 0.3796986644 0.4346084601
-0.01973862267 0.01549228191 -0.05379413605 0.9686201285 -0.116714285 -0.2194375135
-0.01730306403 -0.008730231206 -0.05189607302 0.8227700357 0.5273538375 0.212008015
-0.02015041161 0.01414791298 -0.06387838173 0.9785223271 0.05623392277 0.1983224679
-0.01967842865 0.04415439224 -0.06652654266 0.9745007494 0.02438115442 0.2230557076
-0.01535498352 -0.01152324657 -0.05187649612 0.772627971 0.5953935617 0.2203463753
0.01088442421 -0.01474285889 -0.05410945892 0.5267480914 -0.7921021858 -0.3084000252
0.003641393304 -0.01874168777 -0.0508464241 0.1801151229 -0.9446301369 -0.2742853386
0.007417327722 -0.01724700419 -0.05203194936 0.3353987406 -0.8935294615 -0.2985176479
0.01037224913 -0.01591908693 -0.05165374947 0.48554678 -0.8347577875 -0.259660857
-0.01810416222 0.05604735184 -0.07036678314 0.93737006 0.01796299002 0.3478716742
-0.02055611706 0.04104860878 -0.06001791763 0.9998897178 0.01276062489 -0.007597276399
-0.02052457492 0.02372157478 -0.05981640752 0.9990624653 -0.006796596216 -0.04275507909
-0.02052231344 0.03517872492 -0.05996025721 0.9968871138 0.007185082404 -0.07851405513
-0.000586718601 -0.008567924118 -0.06896519012 -0.05016477568 -0.7169349468 -0.6953328536
-0.01975211096 0.003936137021 -0.0602027092 0.9559586262 0.1855592758 0.2274002204
-0.02055640475 0.007653992017 -0.05572344081 0.9999546043 -0.006042191307 0.007367587352
-0.01177257919 -0.01121078269 -0.05975293096 -0.5594114299 -0.7056076283 -0.4349445102
-0.01163085238 -0.01506400077 -0.05174303182 -0.5281833685 -0.811992086 -0.2483770952
-0.008691075404 -0.01674192492 -0.05189994113 -0.4367573028 -0.8573173774 -0.2724884821
-0.009696827888 0.01138179493 -0.07763191223 0.4863173485 0.1691888894 0.8572459135
-0.003333285809 -0.01874535561 -0.05117451859 -0.1377329186 -0.9560366245 -0.2588891961
-0.009242998314 -0.009055039978 -0.06521192474 -0.4508014704 -0.6938948181 -0.5615051341
-0.0003195499877 -0.01892638206 -0.05132320913 0.01670957814 -0.9645966108 -0.2631998642
0.003495660454 -0.01815869188 -0.05276982117 0.1766468249 -0.9344538274 -0.3091794684
0.01666642761 -0.008993775368 -0.05378824997 0.6894816379 -0.6592287522 -0.3000542006
-0.02029345703 0.05455771637 -0.06384660149 0.9895622168 -0.02688852872 0.1415755141
-0.01924021816 -0.002973775387 -0.05491600609 0.926436739 0.3187919314 0.2002165655
-0.0009089373499 -0.01846722698 -0.05282610321 -0.0444696488 -0.9487441248 -0.3129010004
0.01388207912 -0.01158519554 -0.05553278732 0.6162415391 -0.7106827445 -0.3393764903
-0.02032668877 0.04804953766 -0.0636859436 0.9927147344 -0.01045599392 0.1200338631
-0.02049431801 0.04126728821 -0.06260025787 0.9954137825 0.01214216167 0.09488924831
-0.0179387296 -0.005275782108 -0.0563795255 0.8559829827 0.4300809336 0.2869207623
-0.018592556 0.008845615387 -0.06698053741 0.9035257559 0.1785863491 0.3895486162
-0.01603552024 -0.008755908092 -0.05592808278 0.7774571382 0.5634724699 0.279390719
-0.008086184084 -0.01563967109 -0.05559850502 -0.3766671326 -0.8542957688 -0.3581907462
-0.004350604087 -0.01692327046 -0.05562111282 -0.2182940925 -0.8945202311 -0.3901041469
-0.0007202819894 -0.01717060961 -0.05620483725 -0.03956136169 -0.9089628054 -0.4149958037
-0.001242657289 0.000986717701 -0.07611068726 0.06701131979 0.4686094283 0.880860197
0.007215483308 -0.01586586475 -0.05595804882 0.3954478155 -0.8424217944 -0.3659870838
0.01090784868 -0.01346245988 -0.05682489649 0.5599341986 -0.7365437146 -0.3794430784
-0.01953430748 0.05733647537 -0.06697023773 0.9653053197 0.0343981699 0.2588482289
-0.02039038086 0.00818768692 -0.05970860672 0.9899383968 0.07802621325 0.1180418599
-0.01927281952 0.05184191132 -0.06783418274 0.9453487639 -0.003877791412 0.3260378465
-0.0202433904 0.01917836634 -0.06393994395 0.989101869 0.02710463348 0.1447163834
-0.01692485412 -0.004549284339 -0.0600785319 0.8162447675 0.4586626742 0.3512449728
-0.01559713999 -0.007476922671 -0.05915711848 0.7779566998 0.526647144 0.3426750047
-0.01401329041 -0.01030904579 -0.05777890778 0.7070077518 0.6159489069 0.3474866658
0.005836464405 -0.01537469006 -0.05819602585 0.2874709699 -0.862302301 -0.4168874947
0.007324047327 -0.0137291472 -0.06007582092 0.324069038 -0.8185495171 -0.4742952104
0.01112960116 -0.01171006616 -0.05965378062 0.4884208417 -0.7406572453 -0.4613804573
-0.01942488098 0.03899833679 -0.0673727951 0.9618373754 0.01920166676 0.2729471731
-0.0004095009292 -0.01528663858 -0.06004126612 0.01588870656 -0.8740163533 -0.4856366575
0.003544624925 -0.009374422073 -0.06768506877 0.1672583198 -0.7238814855 -0.6693431478
-0.01745507812 0.05202193451 -0.07146475983 0.8647958845 0.03012005989 0.5012193733
-0.01843195915 0.04245419312 -0.06973110962 0.9272844856 -0.01069971459 0.3742044881
-0.01956473923 0.0269556675 -0.06694919586 0.9740471135 0.03334510472 0.2238756901
-0.01886457062 0.003015680552 -0.06279875183 0.9073424525 0.2619923946 0.3287699182
0.01068036079 -0.009615643978 -0.06329302979 0.5021839998 -0.6898591636 -0.5214456489
-0.01794065857 0.03820834732 -0.07071064758 0.9258695554 0.02696691077 0.3768797582
-0.01798085403 0.003320712566 -0.06522756958 0.8717692089 0.2792725106 0.4025236777
-0.01209267368 -0.008346899891 -0.06333917923 -0.5844746332 -0.6290572827 -0.5125195978
-0.00436760647 -0.01230643885 -0.063832804 -0.1627425983 -0.7864098769 -0.5958811561
0.002984089762 -0.01271310782 -0.06373283577 0.1270542833 -0.802219822 -0.583352866
-0.0172267952 0.03483319855 -0.07183130646 0.823042406 0.008042616538 0.5679229826
-0.01888186836 0.01303686714 -0.06773225403 0.9102821675 0.09627512127 0.402638146
0.008324978828 -0.009449008942 -0.06546131134 0.3512133556 -0.7234920218 -0.5943134469
0.01019496489 -0.006934348822 -0.06682404709 0.4240107349 -0.6433745173 -0.6374042102
-0.01376603985 0.04649395752 -0.07591625214 0.7224491695 -0.07166270782 0.6877002645
-0.01638644409 0.03196918297 -0.0730321579 0.8109112342 0.002118644519 0.5851653455
-0.01772408104 0.02206915855 -0.07109299469 0.8823227564 0.0115615409 0.4705027995
-0.01624253464 0.003008577029 -0.06812924449 0.8034475422 0.3100380439 0.5082799015
-0.01317851098 -0.001931539873 -0.0684252828 0.6548082235 0.4554689126 0.6031370161
0.003002342224 -0.01071245003 -0.06637557983 0.1034933075 -0.7482160945 -0.6553333589
0.01392583466 -7.381890714e-05 -0.0691311264 0.6009535431 -0.5180074581 -0.6087060969
-0.01520974922 0.03027770042 -0.07446002197 0.8089483397 -0.01355986342 0.587723331
-0.01636467314 0.01850011349 -0.07294122696 0.8337046375 0.07844109817 0.5466109874
-0.01655181265 0.01275203657 -0.0718152771 0.8107878966 0.1547610744 0.5645104043
-0.009103472233 -0.005211957157 -0.06922640228 0.4589304338 0.5888825171 0.665282074
-0.007687996387 -0.007785179853 -0.06768225098 -0.3823435249 -0.667499759 -0.6389503116
-0.01421004295 0.01753008652 -0.07533161926 0.7162172106 0.100986748 0.6905321021
-0.004349279785 -0.008500938702 -0.06839636078 -0.1763209246 -0.7107367794 -0.6810023215
0.008146367073 -0.005999474049 -0.06917639923 -0.3785550188 0.6461273256 0.6627334131
0.0059971385 0.0007518785 -0.07504145813 0.2527549012 -0.5024697857 -0.8268246939
0.01092535257 -0.001286907971 -0.07106105804 -0.4867784069 0.5019745232 0.7148904536
-0.0124415617 0.0337395401 -0.07699028015 0.7229782971 -0.07609364926 0.6866674148
-0.01492354584 0.005403203487 -0.07128308105 0.7172694233 0.2934565374 0.6319872111
-0.006453441143 -0.006562710285 -0.0695345459 0.3157616935 0.6302863944 0.7092486264
-0.01059483528 0.00404346323 -0.07446125793 -0.4735111901 -0.4144715375 -0.7771746891
-0.01343462515 0.01236461401 -0.07515680313 0.6946126818 0.1827924292 0.6957730593
-0.008974975705 -0.0004403029531 -0.07288745308 0.4612242356 0.4960131382 0.7356923075
-0.007643242598 -0.003349445462 -0.07162192535 0.3808957556 0.5500368181 0.7432213143
-0.005476369143 -0.001759708762 -0.07365557861 0.2882506867 0.5231085382 0.802040522
0.001464629292 -0.002486626387 -0.07403688049 -0.04407515198 0.5679191018 0.8219034462
-0.003554286957 0.00128306222 -0.07599407196 0.1801110107 0.4608546891 0.8690068926
0.00255209595 0.002399613202 -0.07669738007 0.09337032431 -0.4347533208 -0.8956961162
-0.003927280307 0.01148117018 -0.07969823837 -0.2904350959 -0.2783550387 -0.9155140237
-0.001813186586 0.008219139576 -0.07917245102 0.1462370241 0.3624389769 0.9204633186
