# .PCD v0.7 - Point Cloud Data file format
VERSION 0.7
FIELDS x y z normal_x normal_y normal_z
SIZE 4 4 4 4 4 4
TYPE F F F F F F
COUNT 1 1 1 1 1 1
WIDTH 327
HEIGHT 1
VIEWPOINT 0 0 0 1 0 0 0
POINTS 327
DATA ascii
-0.02022550106 0.03621178055 -0.06433118057 0.9913947915 -0.005403670733 0.130794372
-0.0141429437 0.04920225525 -0.0456991628 0.7128366945 -0.01080604183 -0.7012468014
-0.01681693506 -0.01178721571 -0.001438166305 0.7770743327 0.6256165806 -0.06898822749
-0.009289134502 -0.0183402133 -0.009959509492 -0.4433025665 -0.8963154938 -0.01006827464
-0.02024764442 0.003605969191 -0.001497288227 0.9991015214 0.04216942745 -0.004229567467
-0.02045308447 0.002955594063 -0.04508648968 0.9992598679 0.03386564764 0.0182437457
-0.01829402494 -0.009409737587 -0.03482994461 0.8855816578 0.4640552667 0.01994584701
-0.01176771196 -0.01683070691 -0.001424764643 0.617765855 0.7831217962 -0.07131339832
-0.009291244189 -0.01834584618 -0.01494464366 -0.4433422946 -0.8963523828 -0.0001249335749
0.008340622663 -0.0187740771 -0.005073161324 -0.3832071985 0.9236478805 -0.005180338821
-0.02045546627 -0.001945279479 -0.001473928183 0.9911354806 0.1302265377 -0.02629654028
-0.0009606026146 -0.02051016744 -0.01499089866 -0.0780320062 -0.996599832 -0.02645337303
-0.01969126797 0.0104350152 -0.05072070313 0.9796854939 -0.1499069282 -0.1332075294
-0.01953854847 -0.006237430573 -0.001457350746 0.9500748357 0.2961617081 -0.09821430257
0.01753202311 -0.01073013687 -0.005242225647 0.7365714677 -0.676330836 0.006250865747
-0.02051006031 0.007802968979 -0.05497162437 0.9968126313 0.04926220839 0.06275199481
-0.01829166603 -0.009402701378 -0.001445953548 0.8796468451 0.4684593975 -0.08226311869
-0.01994478416 0.04321186638 -0.06550206757 0.9690906188 -0.01445864575 0.2462809782
-0.01819248676 -0.009106800556 -0.04514396 0.8869434896 0.4495981278 0.1057958869
-0.01177106539 -0.01683988365 -0.009976289948 -0.6157748222 -0.7878925368 -0.006835111978
-0.0146804688 -0.01438037062 -0.001430535987 0.734826615 0.6750258521 -0.06610555868
0.01146421305 -0.01707237307 -0.01535773754 0.5463712854 -0.8375348201 0.00372069925
-0.01025284358 -0.01476955032 -0.05474106353 -0.4743701812 -0.8174849274 -0.3266363799
-0.009285521984 -0.01833056641 -0.00142237097 0.4488612595 0.8882278507 -0.09785118785
-0.02051723925 0.0603202769 -0.06029806773 0.9991601978 -0.04018516125 -0.008003241405
-0.01682011008 -0.01179645371 -0.0100701195 0.7819942461 0.6228893295 0.02222346106
-0.005967682004 -0.01961117959 -0.001422316633 0.2389255336 0.9689376857 -0.06383064034
-0.0009555537403 -0.0204976546 -0.001426760981 0.06144163294 0.9951235382 -0.07716261661
-0.01177235201 -0.01684342384 -0.01496992567 -0.6153528455 -0.7880644495 -0.0171842645
-0.005974452794 -0.0196285944 -0.01993637323 -0.2518148482 -0.9675666922 -0.02009921118
0.003835009376 -0.02014781221 -0.001436138918 -0.1837002757 0.9797653215 -0.07946145982
-0.01954117489 -0.00624544994 -0.005101006587 0.9517125006 0.3067951694 -0.01095628559
-0.01468186792 -0.01438435046 -0.005007211685 0.7321391538 0.681143348 -0.003999859311
0.002869058549 -0.009073699951 -0.06820252991 0.1067880021 -0.7153208862 -0.6905884102
0.00834253335 -0.01876967287 -0.001449379086 0.3707832529 -0.9265743864 0.06308475165
-0.001088561227 -0.01747057724 -0.05536671257 -0.0904670545 -0.9109282399 -0.4025238549
0.003826773299 -0.02016742282 -0.01508908908 -0.1972840618 0.9803416322 -0.003046821341
0.01147902918 -0.01703874874 -0.001461772978 -0.5662213694 0.8208860701 -0.07442728534
-0.0182302742 0.04315615845 -0.05108594894 0.8681972208 -0.01361984713 -0.4960323432
-0.02031549644 0.003391165257 -0.02022354889 0.9991437021 0.04126826073 0.002965320511
0.01395407677 -0.01507718992 -0.001473975122 0.6767665941 -0.735743416 0.02585735687
-0.005973181585 -0.0196253465 -0.01494412629 -0.2524291754 -0.9676153264 0.000302411463
-0.01955515099 -0.006288138549 -0.04026440303 0.9491745694 0.3146512953 0.007886640873
0.01754925728 -0.0106919322 -0.001497838497 0.729547678 -0.6839015466 -0.006233785542
-0.02024764442 0.003605969191 -0.005240924279 0.9994001256 0.03462889174 0.000478436256
0.01147513262 -0.01704759216 -0.005116467237 -0.5679097464 0.8230731501 -0.005395327689
-0.02031100655 0.003405379454 -0.03983162053 0.9987168504 0.04975880253 -0.009418829194
-0.02045799065 -0.00195314908 -0.005159034888 0.9893348829 0.1456178595 -0.003453762595
-0.01829166603 -0.009402701378 -0.005061239004 0.8867313137 0.4622610412 -0.004723035306
-0.009287027041 -0.01833458519 -0.004978629271 -0.4426167278 -0.8961576338 0.03149488182
0.003832774374 -0.02015313572 -0.005026798937 -0.1981873001 0.9801445747 -0.006197321779
-0.01681792291 -0.01179008007 -0.005033936262 0.7820393969 0.623218121 -0.003681763656
-0.02053972689 0.0181956234 -0.06054394277 0.9996151819 0.003095464321 0.02756639829
-0.01682952181 -0.0118239255 -0.0397359581 0.7777197483 0.6272202188 0.0417946202
-0.01176918697 -0.01683474223 -0.004987008174 -0.6152025613 -0.7880007868 0.02409498882
-0.005969282071 -0.01961531051 -0.004978437106 -0.2517158804 -0.9674041377 0.02771912588
-0.01954485345 -0.006256681561 -0.01020414728 0.950592293 0.3104288949 0.002862449929
-0.01995704587 0.02940484047 -0.05581032054 0.9788705995 0.001679199268 -0.2044737875
-0.01682314968 -0.01180533473 -0.01511047316 0.7817380342 0.6236030199 -0.002217972437
-0.0009568815894 -0.02050094541 -0.004994006687 -0.07764240524 -0.9963260821 0.03613855219
0.01395110257 -0.01508386072 -0.005159213146 0.6643823006 -0.7473850323 0.003431054712
-0.02026958656 0.003536507368 -0.009732843399 0.9995964952 0.02831231266 0.002293407312
-0.01919082941 -0.005512749263 -0.04971679905 0.9314249825 0.3449046009 0.1161392192
-0.005847165585 -0.01929982583 -0.04513411109 -0.282434046 -0.948928308 -0.1405918772
-0.02046152544 -0.001964170903 -0.01032023954 0.9885135991 0.1511318884 0.0001291233297
-0.01829166603 -0.009402701378 -0.0101249522 0.8862480577 0.4625187189 0.02531432066
-0.01468277097 -0.01438690388 -0.01001679301 0.7307705719 0.6823358746 0.01980215665
0.0128642664 -0.006422234535 -0.06477668762 0.4996831903 -0.6386474132 -0.5851890216
-0.01966887283 0.03814912224 -0.05457264519 0.9587649355 -0.01562320862 -0.2837705303
-0.01177422184 -0.01684856118 -0.02498057323 -0.614706537 -0.7887553962 -0.0008935086323
-0.01954853503 -0.006267922322 -0.01531148132 0.9498855198 0.3116776162 -0.02397004171
-0.005971429154 -0.01962084889 -0.009959128678 -0.252851377 -0.9675035226 -0.001764928704
-0.0009587413172 -0.02050555484 -0.009990303516 -0.07549384041 -0.9968888104 -0.02265788524
0.003829643965 -0.02016059256 -0.01005580906 0.1971744201 -0.9800905798 -0.02333888154
-0.01468348042 -0.01438890362 -0.01503077443 0.7321674223 0.6811247027 7.107046143e-05
-0.01423249626 -0.009174443245 -0.05915319672 0.6812251348 0.6244507545 0.3820910506
0.008338706136 -0.01877847934 -0.01014865649 0.3845718436 -0.9230935502 -0.001671734047
-0.02046740341 -0.001982501745 -0.01991884677 0.9879654465 0.1536591694 0.01769565291
0.01146967483 -0.01705997753 -0.01023502374 0.5447709507 -0.8383839471 -0.01835670046
0.01394693685 -0.01509320378 -0.01032063699 0.663436323 -0.7482253763 0.003321389
0.008336788336 -0.01878288587 -0.015228525 0.3834486117 -0.9233089089 0.02162916664
0.01751133919 -0.01077598763 -0.009736030897 0.7370631549 -0.6758156197 0.003339734182
-0.02030180693 0.003434504449 -0.01497456431 0.9993872309 0.0347978359 -0.003777995116
0.01748719692 -0.01082950854 -0.01498159003 0.7289913096 -0.6845150685 0.003285054518
-0.005966515616 -0.01960806978 -0.04002533412 -0.2512354854 -0.9673437475 -0.03356791842
-0.01177490425 -0.01685043335 -0.03503817071 -0.6149267628 -0.7885762497 0.003546093172
-0.02046506246 -0.001975201885 -0.01548569647 0.9881019461 0.1523961642 -0.02073531619
-0.01893944232 0.004429577907 -0.06355894852 0.9299518596 0.1970077656 0.3104472245
-0.01964615568 0.04426859283 -0.0545729154 0.9299375475 -0.02289711832 -0.3670039234
-0.01829166603 -0.009402701378 -0.015193168 0.8863591894 0.4629963315 -0.001335807241
0.01394276778 -0.01510255432 -0.0154863526 0.660227895 -0.7507625482 0.02132423172
-0.01988065974 0.02966832733 -0.06574664561 0.9658773157 -0.008666951028 0.2588549691
-0.01955169392 -0.006277569135 -0.01969460328 0.94963294 0.312645759 0.02121105056
-0.01829166603 -0.009402701378 -0.02026882648 0.8859326769 0.4633388237 -0.02098634033
-0.01682615638 -0.01181412005 -0.0201579318 0.7807703991 0.6247490224 -0.00928670704
-0.01137450504 0.04859030533 -0.04343360901 -0.6312430971 0.02398449326 0.7752140972
-0.01829166603 -0.009402701378 -0.02535352325 0.8857396002 0.463755305 -0.01990923534
-0.01468419075 -0.01439090621 -0.02005204964 0.732184948 0.6810964466 -0.003582234528
-0.01177339514 -0.01684629385 -0.01997081693 -0.6152069703 -0.7881715112 -0.01749435959
-0.01960193481 -0.001214296365 -0.05532103882 0.9549583311 0.234245193 0.1821641441
-0.01955538654 -0.006288842618 -0.02481684422 0.949771383 0.3123286154 0.01962539321
-0.009293356657 -0.01835148668 -0.01993690538 -0.4428536327 -0.8962775013 -0.02381807366
-0.000962433363 -0.0205147047 -0.01999868186 0.07846622951 0.9969157012 -0.001461374219
-0.0007074057832 -0.01524598761 -0.06003138199 -0.02537686484 -0.8696479911 -0.4930196612
0.003824675441 -0.02017238951 -0.02012964471 -0.1970787169 0.9803835995 -0.002824382216
0.008194648334 -0.01885064398 -0.01999620465 0.3840798987 -0.9232998301 0.0002348792539
-0.01416759205 0.03000872421 -0.0457215716 0.7914847414 -0.01243153575 -0.6110624854
0.01145952574 -0.01708301099 -0.01975401688 0.5624991716 -0.8263185463 -0.02814857149
0.01393918959 -0.01511057917 -0.01991962115 0.6592296387 -0.751827717 -0.01309073962
0.01746302986 -0.01088308016 -0.02023210398 0.7255386748 -0.6881813062 -0.0003480256611
-0.003159501314 -0.01830485725 -0.05271644211 -0.141359881 -0.9338773305 -0.3284669171
-0.02031549644 0.003391165257 -0.02473182233 0.999086429 0.04215750829 -0.007003711268
-0.01877133064 -0.004371447563 -0.05457264023 0.9180293894 0.350724264 0.1849717028
-0.02046957302 -0.001989266336 -0.02509977579 0.9874576172 0.1578835771 -0.000479989498
-0.003711244822 0.0097781353 -0.07935528564 0.3661258079 0.27783146 0.8881224987
0.008473437377 -0.0187277407 -0.02500327138 0.3837305332 -0.92344511 8.206314857e-05
-0.009297594309 -0.01836280251 -0.02995092058 0.4639471077 0.8855085075 -0.02505522702
0.01145404768 -0.01709544277 -0.02489158297 0.5611060234 -0.8272520987 -0.02853060904
0.01393540311 -0.0151190722 -0.02510059071 0.6560920156 -0.7546768716 0.002467089779
-0.01843195915 0.04245419312 -0.06973110962 0.9054351193 -0.008503589656 0.4243994977
0.01744228808 -0.01092906094 -0.02473865636 0.729924903 -0.6834216503 0.01202014608
-0.01682916864 -0.01182292048 -0.02521410847 0.7813125981 0.6241176145 -0.005275168434
-0.01468490219 -0.01439291255 -0.02508220482 0.7321378265 0.6811461369 -0.003760752831
-0.009295472781 -0.01835713832 -0.02493787956 -0.4620309213 -0.886855951 -0.003734964409
-0.005975115399 -0.01963029099 -0.02493753465 -0.2518686659 -0.9675459131 -0.02042256709
-0.0009636865457 -0.02051779577 -0.02501536179 0.07364750106 0.9972829627 -0.001654646935
0.003822841909 -0.02017672687 -0.02517907397 -0.1965753701 0.98048135 -0.003800816359
-0.02047361437 -0.002001870672 -0.03475324249 0.987902951 0.1541689796 0.01672378842
-0.02031549644 0.003391165257 -0.03000269079 0.9993041258 0.03729950305 -0.0001058959829
0.01741804552 -0.01098280239 -0.03000578928 0.7315102874 -0.6818094272 0.005348307538
-0.02047174644 -0.001996045351 -0.03029170926 0.9878928162 0.1540470459 -0.01836549278
-0.01955896346 -0.006299767335 -0.02994986025 0.9502573952 0.3114606567 0.001772640302
-0.01829166603 -0.009402701378 -0.0297214063 0.8863350728 0.462402841 0.02436701431
-0.01872614765 0.01879770947 -0.05192061234 0.9544896716 -0.07901857804 -0.2875856935
-0.01683175731 -0.01183047628 -0.03028250837 0.7804180178 0.6249635841 -0.01918947788
-0.01468551397 -0.01439463687 -0.03012465072 0.7320330756 0.6812580678 -0.003875726611
-0.01177485172 -0.01685028934 -0.03000258795 -0.6146789104 -0.7887742198 0.002251046914
0.003821806351 -0.02017916393 -0.03024091959 0.1974693782 -0.9799274816 0.02734913925
-0.005975645036 -0.01963165021 -0.02995092988 -0.2513187673 -0.9679031733 -0.001524549117
-0.0009646566312 -0.02052017816 -0.0300443004 0.05857517213 0.998029481 0.02249676313
0.01340952992 -0.009885096788 -0.05921247959 0.5900357297 -0.6943887655 -0.4119248474
0.008331290642 -0.01879551442 -0.02978934129 0.382289748 -0.9238263759 -0.0199843888
-0.01953430748 0.05733647537 -0.06697023773 0.9693457837 -0.02765290453 0.2441394449
-0.02052457492 0.02372157478 -0.05981640752 0.9993122334 0.01196833436 -0.03509728257
-0.01673180699 -0.01153850651 -0.04489437008 0.7893431374 0.605046516 0.1041927295
0.01144855849 -0.01710789998 -0.03003987185 0.539994811 -0.8411008132 -0.03090349772
0.01393211428 -0.015126448 -0.03029260763 0.6576599399 -0.7531579554 0.01537848094
-0.009238375664 -0.01820466805 -0.04365782166 -0.4158389315 -0.9045654123 -0.09401807257
-0.02031549644 0.003391165257 -0.03528698985 0.9990173404 0.04430320518 -0.001256780952
-0.02013488102 0.04873976135 -0.06467255402 0.9807673545 -0.0120645585 0.1948071938
-0.02043318494 -0.001875796994 -0.04523229599 0.9811379352 0.188436562 0.04312788165
-0.01955984974 -0.00630248332 -0.03509818316 0.949777702 0.3126453366 -0.01323669957
0.008329460502 -0.01879971862 -0.03490987873 0.3828243246 -0.9237778642 -0.008943944138
0.01144305396 -0.01712039232 -0.03520251656 0.5406879882 -0.8411510259 -0.01102048064
-0.005731271267 -0.005822804758 -0.07039318848 0.2226158951 0.6455621748 0.7305420191
-0.01794065857 0.03820834732 -0.07071064758 0.8630354765 -0.0181437151 0.5048173649
0.01392928855 -0.01513278643 -0.03475418854 0.6560016066 -0.7546204783 -0.0144853658
0.01739946747 -0.01102398491 -0.03528608831 0.7317522073 -0.6813219092 -0.01841638045
-0.006584443092 0.05843675613 -0.04111476898 -0.4422099443 0.01238005579 0.8968261255
-0.005737298965 0.05529070663 -0.04083115768 0.4445002426 -0.008459215438 -0.8957387878
-0.01683290736 -0.01183381351 -0.03536471876 0.7804608714 0.6251398464 -0.009000034928
-0.0185169878 0.01420979309 -0.06877202988 0.9042942562 0.1119394399 0.4119726448
-0.01468607823 -0.01439622704 -0.03518055598 0.7316155453 0.6817170202 -0.00077342674
-0.009299657504 -0.0183683122 -0.03497722117 -0.4653449608 -0.8845230637 0.03275694099
0.01392583466 -7.381890714e-05 -0.0691311264 0.5563750205 -0.5380169313 -0.6332334626
-0.005976129909 -0.01963289467 -0.03497771613 -0.2508595422 -0.9680218431 -0.001789222187
-0.0009656292995 -0.02052256711 -0.03508662542 0.05909675204 0.9979202198 0.02574507175
0.003820798397 -0.02018153487 -0.03531624519 0.1967489397 -0.9803798259 0.01205204048
-0.01020809937 0.0584821701 -0.04276985931 -0.5723071623 0.06031593035 0.8178181341
-0.009562270164 0.05460023117 -0.042390625 0.5871316012 -0.04318569282 -0.8083387154
-0.008521582603 0.04921684074 -0.04187076569 0.5401748171 -0.014558742 -0.8414268893
-0.0001257021924 -0.01844758797 -0.05287629954 0.009495635788 -0.9520629775 -0.3057546726
-0.01221800089 0.05474929047 -0.04406627083 0.6443648042 -0.0541516254 -0.7627985321
-0.01751452446 0.02456981023 -0.04980499903 0.8859348401 -0.0173342116 -0.4634856893
-0.01178993416 0.04430045891 -0.0438094635 -0.7007730585 0.02506175732 0.7129439171
-0.01121812344 0.04046307755 -0.04341004562 0.6752517181 -0.01825925169 -0.7373613205
-0.02047310162 -0.002000271469 -0.03997502422 0.9861215125 0.1657723215 0.009159695715
0.0139474566 -0.01509203792 -0.03998143578 0.661738246 -0.7483374718 -0.04575502249
-0.01889172363 0.04085398483 -0.05245052719 0.9097020324 0.0298955441 -0.4141840999
0.01742599996 -0.01096516768 -0.03983659871 0.7390929504 -0.6734271007 -0.01541267934
-0.01499486446 0.05441698456 -0.0465477829 0.7266387597 -0.02954316907 -0.6863842321
-0.01179859447 0.03580638885 -0.04371773911 0.7123789759 -0.008970604936 -0.7017376453
-0.01829358991 -0.009408439 -0.03995505524 0.8845731051 0.4658932308 0.02176968486
-0.01467720425 -0.01437100554 -0.04025744438 0.7295163341 0.6833544885 0.02885413751
-0.01176578681 -0.01682543262 -0.04009450404 -0.6124414939 -0.7897201139 -0.03546206729
-0.009291293621 -0.01834597778 -0.04002442169 0.4635147836 0.8860654022 0.006492179753
-0.0009543484747 -0.02049468708 -0.0401504008 -0.0578651275 -0.9970511841 -0.05040400162
-0.01717864609 0.01332174397 -0.07108507538 0.8275594336 0.1447210797 0.5424031646
0.003662944293 -0.02018675232 -0.03996324272 0.1934983812 -0.979901379 -0.04849395691
0.008339385748 -0.01877680333 -0.04004963875 0.3904172973 -0.919908036 -0.03665432122
-0.01864270973 0.02448671532 -0.05190623856 0.9120898977 -0.03713030042 -0.408305473
0.01145775731 -0.01708702342 -0.04038679504 0.5450853914 -0.8382149128 -0.01666361681
-0.01119777783 -0.01677982166 -0.04533124958 -0.5730616165 -0.8093211827 -0.128839462
-0.01670690441 0.05785267258 -0.04864354134 0.7971847386 -0.1051496431 -0.5945082381
-0.01076854809 -0.01617402355 -0.04967614079 -0.5340564219 -0.8150460711 -0.2246856476
-0.01466066933 0.04347956848 -0.04616796875 0.7538235978 -0.03062056869 -0.6563629821
-0.01499108505 0.03946040344 -0.04653153038 0.7863595759 0.0009792699599 -0.6177682887
-0.01451526356 0.0353386631 -0.04606358337 0.7698761728 -0.02065313466 -0.6378590178
-0.01697444344 0.05372271347 -0.04901331329 0.7973945754 -0.03523453525 -0.6024287665
-0.01722527409 0.04972620964 -0.04938637161 0.8194934656 -0.003080472029 -0.5730802479
-0.01684484673 0.044951334 -0.04881575012 0.8040727247 0.0134546184 -0.5943786895
0.01799682713 -0.009699759483 -0.04381072807 0.770317386 -0.6327668186 -0.07884971811
-0.01850675678 0.05459860802 -0.051675951 0.8765433995 -0.01566107293 -0.4810679781
-0.01331128883 0.005456068039 -0.07297795868 0.6504967738 0.3274302018 0.6853053408
-0.01751888371 0.0396525631 -0.0498187294 0.8358906209 -0.01091733074 -0.548787465
-0.01688816516 0.03407508087 -0.04886432266 0.8373225602 0.00319529771 -0.5466998447
-0.01348511219 -0.0131521244 -0.05290990448 -0.6481841902 -0.716518127 -0.257796488
-0.0165885911 0.02852115154 -0.04845364189 0.8472872933 -0.0402731244 -0.5296058138
-0.01554572296 0.02376106644 -0.0470864296 0.8607441515 -0.03454946817 -0.5078639975
-0.01947960885 -0.006057717403 -0.04473941739 0.9384315084 0.3371243014 0.07545534693
0.004147110614 -0.01974178332 -0.0450620842 0.2352079354 -0.9639979472 -0.1240370304
0.0079166502 -0.01865691032 -0.04475579529 0.3592264477 -0.924131545 -0.1301431783
0.01081860504 -0.01709412193 -0.04510400391 0.4841744524 -0.8643471878 -0.1359376274
0.01426204745 -0.01438645554 -0.04532628377 0.6598720612 -0.7456772466 -0.09238131176
-0.01940453339 0.05781149292 -0.0538093338 0.9265134877 -0.05956715366 -0.3715165021
-0.0185344162 0.04820259476 -0.05172450638 0.9094539571 -0.01351196852 -0.4155850413
-0.01706385422 0.01888096333 -0.04880981636 0.9140790391 -0.08526694284 -0.3964707541
-0.0145653588 -0.01405343294 -0.04539641698 0.7108409649 0.693136504 0.1194441684
-0.0008136725293 -0.02014712758 -0.04528117455 -0.0429571812 -0.9905888418 -0.1299554812
-0.01970405833 0.03411265437 -0.05484429932 0.96941251 -0.002455606044 -0.2454248468
-0.01983832995 0.04980690893 -0.05532740021 0.9757417372 -0.003774517406 -0.2188922461
-0.01858795357 0.03599192429 -0.05181626892 0.9087473699 0.01853545284 -0.4169348326
-0.0186146965 0.03015676785 -0.05185942841 0.9170840733 -0.001410190671 -0.3986913767
-0.02009575081 0.05528139114 -0.0560748024 0.9659782212 -0.01604480685 -0.2581252415
-0.02056889343 0.002588969072 -0.05036256536 0.9949410388 0.07068772418 0.07138329546
-0.02027108383 -0.00137030828 -0.049821153 0.9703717205 0.2259657301 0.08554655339
-0.0200360864 0.01986584981 -0.05601556778 0.9820199032 -0.01753454448 -0.1879612979
0.009266073772 -0.01689816707 -0.05027719934 0.439887723 -0.8560378029 -0.2714738866
0.00369286871 0.003234359741 -0.07695851898 -0.0209856246 -0.4622776293 -0.8864868849
0.01290986991 -0.01471059752 -0.04934317875 0.5897182498 -0.7872138393 -0.1803517594
-0.0204785436 0.05388023249 -0.05935594813 0.9961707675 0.001147730451 -0.08742130519
0.004175892234 -0.01510198212 -0.05944628954 0.1556793462 -0.8661034651 -0.4750039251
-0.01978395907 0.02436885007 -0.05508445358 0.9607300091 0.0172638429 -0.2769473044
-0.01628922462 -0.01084126464 -0.05002320827 0.7720184906 0.6055468177 0.1931333783
-0.01374597327 -0.01388754145 -0.04984849421 -0.6530126123 -0.7225579074 -0.2269021785
-0.005049962865 -0.01877888298 -0.0492887675 -0.2560027257 -0.937670524 -0.2350246643
-0.0004751889275 -0.01931087706 -0.04979400889 0.004968003257 -0.9780502527 -0.2083099183
0.004195164263 -0.0188240118 -0.04994704294 -0.2114104164 0.9500156794 0.2297299385
0.01544549656 -0.0117321496 -0.05103483963 0.6819828777 -0.6986899447 -0.2161751968
-0.02052228292 0.04734568787 -0.06011895879 0.999532916 0.01173209449 -0.02821892675
-0.02047855186 0.04132307943 -0.05921452713 0.9921309631 0.003380398417 -0.1251587991
-0.02011386045 0.01426724148 -0.05517540614 0.9868156644 -0.09285405803 -0.1325630732
-0.007076126417 -0.01785931333 -0.05060552343 -0.3702358518 -0.8959085494 -0.2455061816
-0.02052231344 0.03517872492 -0.05996025721 0.9983538896 -0.001558828714 -0.05733307266
-0.02041325569 0.003081683397 -0.05503055445 0.9902738725 0.101751956 0.09489044706
-0.01994803874 0.01480859947 -0.06480436325 0.9621178155 0.07594922015 0.261841603
-0.01778823853 -0.007900744915 -0.05199264526 0.8709449753 0.4588869334 0.1757203244
0.006416686058 -0.01773839188 -0.05189729309 0.2849106953 -0.9145962345 -0.2869488168
0.01298938179 -0.01361110973 -0.05289644241 0.5344867802 -0.7905576419 -0.2989021524
0.01481019529 -0.01072138882 -0.05495127487 0.5778714826 -0.7454651535 -0.3321840671
-0.02029345703 0.05455771637 -0.06384660149 0.9893573008 0.01020841608 0.145147923
-0.02054724375 0.02928306262 -0.06069706726 0.9997246242 0.005301546156 0.02285977667
-0.01747270457 -0.006959359646 -0.05513969676 0.8266022933 0.4908082892 0.2753831366
-0.01506350829 -0.01051183649 -0.05484775196 0.729053778 0.6190990504 0.2918851734
-0.005827712096 -0.01664807503 -0.05519438171 -0.3106668855 -0.887616656 -0.3400334662
0.003096304178 -0.01817326546 -0.05311295319 0.1217581012 -0.9416763243 -0.3137206801
0.004436723522 -0.01710955456 -0.05505489022 0.236865013 -0.8956492385 -0.3764404431
0.009111749445 -0.01515361663 -0.05544069345 0.4606088031 -0.8136080471 -0.3547977961
-0.01995959949 0.0401328125 -0.06498652649 0.9732425922 0.02293596092 0.2286324529
-0.02054026413 0.01287515799 -0.05968081792 0.9995295276 0.009672238023 0.02910620798
-0.02029291979 0.008500979741 -0.06054826482 0.977813002 0.08280386962 0.1924194695
-0.01975211096 0.003936137021 -0.0602027092 0.96083628 0.1810999113 0.2097533438
-0.01889642334 4.238647223e-06 -0.05982254105 0.9355844558 0.2599339132 0.2389897212
-0.01908193779 0.04939125061 -0.06829855728 0.9282532839 0.02013088228 0.3714035386
-0.02028296566 0.02453565788 -0.06403499985 0.9934847505 -0.01243199481 0.1132850211
-0.01629464328 -0.005738098323 -0.05991361618 0.7709523327 0.5094266858 0.3822524722
-0.01084805202 -0.01149258566 -0.06026391665 -0.5585928873 -0.6995721748 -0.4456150339
0.00808594656 -0.01381161165 -0.05935784721 0.3908482987 -0.8087503733 -0.4395002175
0.00990040048 -0.0120636193 -0.06052997589 0.439933815 -0.7706260746 -0.4610788344
-0.01810416222 0.05604735184 -0.07036678314 0.9273926699 0.02343774038 0.3733544002
-0.02011487198 0.01960457325 -0.06482472992 0.9753385514 0.027969147 0.218934778
-0.01754276276 -0.002525780678 -0.06114810562 0.8488762047 0.3842353319 0.3630046816
-0.009027064323 -0.01352752399 -0.05903266907 -0.4172807518 -0.808254502 -0.4154532875
-0.01772408104 0.02206915855 -0.07109299469 0.8978895891 0.008879512666 0.4401311624
-0.005408828259 -0.01438738632 -0.06011347834 -0.1919318346 -0.8467687353 -0.4961299022
-0.01745507812 0.05202193451 -0.07146475983 0.9018144555 0.009145337706 0.4320266782
-0.01912887383 0.03413974762 -0.06823347473 0.9425093585 0.04779932166 0.3307436075
-0.01921319675 0.009416630626 -0.06547154617 0.9114427713 0.1532692766 0.381812262
0.006837081432 -0.01299200821 -0.06167961884 0.3286082104 -0.7769855409 -0.5369451679
0.008825696278 -0.009798774719 -0.06451367722 0.3440522063 -0.7343333119 -0.5851347421
-0.01663091087 0.04872273254 -0.07267359161 0.887650075 0.03054457236 0.4595044869
-0.01872570038 0.02978274918 -0.06915278625 0.9311490852 0.0003401761708 0.3646385408
-0.01878684044 0.02400873184 -0.06893650436 0.9333175547 -0.01456912998 0.3587562997
-0.016177848 -0.0004142413459 -0.06565299661 0.7694269181 0.4059886782 0.49310791
-0.01441065829 -0.005077286141 -0.06404174968 0.7235082089 0.4981826832 0.4778596926
-0.01015295768 -0.00921404314 -0.06421532345 -0.4468235086 -0.6923659094 -0.5665493797
-0.006421999693 -0.0127505846 -0.06232175827 -0.3181236808 -0.7985764094 -0.5109530723
0.001006367043 -0.01370472097 -0.06266074753 0.06405376881 -0.8291039409 -0.5554131525
-0.009927237829 -0.005319770535 -0.06850926971 0.4418691594 0.5952964344 0.6710989503
0.003558267593 -0.01324022102 -0.06292139435 0.1133588898 -0.8446196979 -0.5232277975
0.004330211441 -0.01135976982 -0.06508539708 0.2551701882 -0.7401733736 -0.6221185997
-0.01467982388 0.04636945724 -0.0749696579 0.8327347077 -0.005681454718 0.5536430507
-0.0172267952 0.03483319855 -0.07183130646 0.8665870837 0.00218981646 0.4990210727
-0.01886748505 0.01833628273 -0.06870588684 0.9253874976 0.05792176755 0.374570485
-0.01775490379 0.004025301695 -0.06614752197 0.8322550955 0.3099115732 0.4596806205
-0.01160949955 -0.006984364986 -0.06543586121 -0.5773538826 -0.6024655191 -0.5510878266
-0.01398520947 0.0003170272509 -0.06931731923 0.7065066399 0.4067811824 0.5791178096
-0.005760594755 -0.01099621499 -0.06494224739 -0.2234743924 -0.76094885 -0.6091108632
-0.01520974922 0.03027770042 -0.07446002197 0.8323253409 -0.004445920959 0.554269574
-0.0006333847195 -0.01190661033 -0.06513564809 -0.03007834632 -0.7802328579 -0.6247655404
0.01096494007 -0.007039048195 -0.06608519745 0.4523247932 -0.6511331873 -0.6094488116
-0.01638644409 0.03196918297 -0.0730321579 0.8284856322 0.02136596088 0.5596025848
-0.01698031855 0.00889676702 -0.06985439682 0.8193130898 0.2173306568 0.5305595598
-0.01558504906 0.004365623665 -0.06978429871 0.7324877868 0.3168816486 0.6025343667
-0.01501168489 0.01758706474 -0.07447737885 0.7446574239 0.05781210608 0.6649384043
0.008217462699 -0.005823829015 -0.06921756999 -0.355066454 0.6121420908 0.7065478568
-0.01691601944 0.01935618401 -0.07225931549 0.8566800953 0.1009939821 0.5058650312
-0.0108909453 -0.001380569884 -0.07089910671 0.5638135757 0.4871506224 0.6669321727
-0.005705015977 -0.008769089063 -0.06763560486 -0.2682578422 -0.7116413001 -0.6493107038
-0.001334226519 -0.009676971753 -0.06777874756 -0.1364560948 -0.7461902724 -0.6515978911
0.003892618418 -0.006120726585 -0.07070028839 -0.1785800922 0.6491993631 0.7393573815
0.01092535257 -0.001286907971 -0.07106105804 -0.4468429318 0.5576429523 0.6995468047
-0.0124415617 0.0337395401 -0.07699028015 0.7229238046 -0.0757094601 0.6867672462
-0.01592497921 0.01218232918 -0.07254547882 0.7780174172 0.1870263677 0.5997583149
-0.0009708468864 -0.006696316163 -0.0706839625 0.03750838455 0.6560917362 0.7537484692
-0.01417995071 0.01010834074 -0.07384922409 0.742472683 0.2068963661 0.6371249553
-0.01048905315 0.004347836876 -0.07453530426 0.5378526152 0.3320366865 0.7748975436
0.005266789993 -0.00107619075 -0.07409246318 -0.2265413233 0.5713534175 0.7888182942
-0.01247088909 0.01282796574 -0.07612045288 -0.5936646941 -0.1422885022 -0.7920329621
-0.01061980963 0.008665862083 -0.07620177841 -0.5239616378 -0.249888165 -0.8142604664
-0.008542170525 0.0007829825282 -0.07394567108 0.4343616083 0.4628752027 0.7727072796
-0.005063208151 -0.00107037921 -0.07414225616 0.2938331832 0.5441435799 0.7858561096
-0.0002991524984 -0.0007789794803 -0.07503705978 0.06330030388 0.5385783397 0.8401942892
-0.009696827888 0.01138179493 -0.07763191223 0.4663988578 0.2089926607 0.8595313684
-0.006122807344 0.003078309615 -0.0761715978 0.2725437433 0.4078805456 0.8714088412
-0.004143315792 0.01318420506 -0.0800411911 -0.3603634875 -0.2591015817 -0.8961051988
-0.001813186586 0.008219139576 -0.07917245102 -0.209608621 -0.3767361552 -0.9022937966
