# .PCD v0.7 - Point Cloud Data file format
VERSION 0.7
FIELDS x y z normal_x normal_y normal_z
SIZE 4 4 4 4 4 4
TYPE F F F F F F
COUNT 1 1 1 1 1 1
WIDTH 553
HEIGHT 1
VIEWPOINT 0 0 0 1 0 0 0
POINTS 553
DATA ascii
-0.006665293694 -0.01944236183 -0.0007109399438 -0.3243266109 -0.9457238286 0.02046190117
0.01761260605 -0.01055150127 -0.04216927528 0.9115459355 -0.411198258 3.902614363e-07
-0.004602599263 -0.02002492809 -0.0007113854885 0.1898822641 0.9815245771 -0.02354209455
-0.0009816009998 -0.02055812263 -0.02214375305 -0.05540239119 -0.9984609915 0.0024946773
-0.008828950882 -0.008772934914 -0.06589659119 -0.4304746374 -0.6828591884 -0.5902498753
-0.008644509315 -0.01864590168 -0.006400075197 -0.4149137199 -0.9098293911 0.007555401662
0.00735199523 -0.01923378468 -0.005783776283 0.3280846723 -0.9446254372 -0.006575049043
-0.002456590652 -0.02040517807 -0.0007123354077 -0.09503866555 -0.9949444585 0.03245268085
-0.01020809937 0.0584821701 -0.04276985931 0.4764280643 -0.03758726096 -0.878409641
-0.01630493736 -0.01251154947 -0.004307920337 0.8054385291 0.5926735251 0.002620802617
0.01423022747 -0.0144578228 -0.04531391525 0.6447130457 -0.7546451898 -0.1218840688
0.007351954937 -0.01923387909 -0.007953371525 0.3301324452 -0.9439096925 0.006860103539
-0.01638644409 0.03196918297 -0.0730321579 0.7241277489 -0.07498391257 0.6855774327
-0.000975443244 -0.02054290581 -0.0007132621408 0.07905517023 0.9964012581 -0.03057470926
-0.006666777372 -0.01944622135 -0.004265841007 -0.3244493548 -0.9459023252 0.001186332764
-0.01829166603 -0.009402701378 -0.02608064747 0.880711701 0.4736525339 -0.0004205810419
-0.02012592125 0.02506480789 -0.06494923401 0.9586700194 -0.2845202873 9.185981459e-08
-0.02045597076 -0.00194685328 -0.002210893869 0.985446956 0.169979748 -0.001087301024
-0.0105582552 -0.01767127514 -0.004269613028 -0.513150873 -0.8582974368 0.001300572635
0.003809523582 -0.02020126534 -0.0007179302573 -0.2064260881 0.9780161927 -0.0295397533
0.001358759642 -0.02049704838 -0.0007152820826 -0.04767989699 0.9981788354 -0.03695456738
-0.0105253315 -0.0003379421234 -0.07201512146 0.5215375714 0.4619786132 0.7173383599
-0.02046988297 -0.001990233064 -0.02584015656 0.9858945375 0.1673658451 -0.0007967992586
0.00554549551 -0.01978778648 -0.0007202352881 0.267843381 -0.9634474093 0.005386356945
0.009332439423 -0.01830704308 -0.0007264680862 -0.4700757136 0.8826252688 -0.001207594496
0.01147980881 -0.01703697968 -0.0007308858633 -0.569917807 0.8215984518 -0.01302601849
0.01747339153 -0.01086011076 -0.01798092365 0.8236263115 0.5670520138 -0.009576670186
-0.0007965180576 -0.02010071945 -0.04601520729 -0.05056401148 -0.9881119602 -0.1451827633
-0.0009490386844 -0.01663224411 -0.05754559326 -0.0510361863 -0.9045046677 -0.4233988826
-0.002465040445 -0.02042632484 -0.0163963089 0.1392838665 0.9902479776 -0.00299122471
0.01395467186 -0.01507585621 -0.0007369853258 -0.6211347091 0.7837032048 -0.0009797481136
0.01755270386 -0.01068429089 -0.0007489395142 0.9999894107 -4.73571875e-05 -0.004601756602
0.005523295403 -0.01984000969 -0.03979725266 0.271183732 -0.9622982954 -0.02100890818
-0.02006402969 0.009236755371 -0.05131801224 0.9548635188 -0.2970448797 3.581749056e-07
-0.00667202282 -0.01945986557 -0.03640615082 -0.3262089168 -0.9452778503 0.006126035316
-0.02024764442 0.003605969191 -0.002245939493 1 -0 3.615004919e-15
0.009331372261 -0.01830949593 -0.002179414511 0.4701892843 -0.8824938935 0.01125010858
-0.0199190464 -0.00505925703 -0.002192589998 0.9736095642 0.2274716439 -0.01846801834
-0.01915910149 -0.007418811798 -0.002179465055 0.9368264409 0.349608858 -0.01139588033
-0.002805782199 0.001127158642 -0.07601926804 -0.07544405238 -0.2042479928 -0.97600766
-0.01829166603 -0.009402701378 -0.002168937206 0.8763720508 0.4811580447 -0.02142346045
-0.004610017776 -0.02004388905 -0.04003464794 -0.2064600682 -0.9781916473 -0.02270113256
-0.01056091595 -0.01767847633 -0.02781728745 -0.5120689978 -0.8588927829 -0.009408983494
-0.02046926308 -0.001988298416 -0.02435845184 0.985847793 0.1676409676 -0.0007969265157
-0.017330513 -0.01106746483 -0.002160625935 0.8424277469 0.5387687411 -0.00661324025
-0.01829388237 -0.009409312248 -0.03409840393 0.8813754861 0.472411015 -0.002255067871
-0.01992026329 -0.005062994957 -0.003654366493 0.9727370474 0.2318808931 0.003726673988
0.0175458107 -0.01069957352 -0.00224673748 -4.352270705e-06 -0.9999479513 0.01020268017
-0.0163037529 -0.01250811195 -0.002153882742 0.8082164062 0.5888842378 -0.001262999439
-0.01237342978 -0.01641311407 -0.002138363242 0.6257750991 0.7800026372 -0.001187963387
-0.0009832500219 -0.02056219864 -0.02788272667 -0.06981457053 -0.9975467923 -0.005130584877
0.01395348167 -0.01507852364 -0.002210964918 0.6211972962 -0.7836535847 0.0009891201881
-0.01056091595 -0.01767847633 -0.02638437653 -0.5123297094 -0.8587331965 0.009775791078
-0.002467721701 -0.0204330368 -0.02999944019 -0.1030248402 -0.994672881 -0.003426669958
0.003002342224 -0.01071245003 -0.06637557983 0.1270985059 -0.7610003711 -0.6361795383
-0.01994359779 -0.005134687424 -0.03815937996 0.9738267523 0.2272913298 -0.000328605524
-0.006665886879 -0.01944390678 -0.002132836103 -0.3244216692 -0.9459117845 0.001215120985
-0.01287291908 -0.004816071749 -0.06636314774 0.6283035853 0.5465149753 0.5536749827
-0.01829166603 -0.009402701378 -0.02826401901 0.8811508545 0.4727833336 -0.007006508873
-0.002457358122 -0.02040709877 -0.002137019873 -0.1015510419 -0.9948232449 0.00375463025
-0.01673421478 0.03649291229 -0.04861844635 0.8135642582 0.01894314329 -0.5811663748
-0.01468388605 -0.01439004755 -0.01789871788 -0.701853674 -0.7122477321 -0.01022684254
-0.01829166603 -0.009402701378 -0.01374427891 0.8806986378 0.4736170887 0.007534100389
0.007352725506 -0.01923208809 -0.00216872859 0.3311083684 -0.943298362 0.02356795718
-0.02046624184 0.002913941026 -0.05423508263 0.9880391431 0.1381279478 0.06855159883
-0.006544857979 -0.01511726236 -0.05818093491 -0.3247158024 -0.845371115 -0.4241548369
-0.0009758531451 -0.02054391861 -0.002139806509 0.06962081295 0.9974732233 -0.01414606862
0.003808603287 -0.02020345688 -0.002153802633 -0.205978728 0.978554342 -0.002040425277
-0.01733450508 -0.01107920074 -0.01369109726 0.8448007851 0.5350566765 0.005097689654
0.001358098865 -0.02049864769 -0.002145862103 -0.05095552313 0.9986954005 -0.003321397523
0.005544639587 -0.01978979874 -0.002160718918 0.2644639261 -0.964379926 0.005494560003
-0.01631483269 -0.01254023933 -0.02228816414 0.7970576536 0.6038151825 -0.01031126751
0.01147824955 -0.01704051781 -0.002192660093 0.5753061233 -0.8177412869 0.01794581356
-0.02024764442 0.003605969191 -0.003743327379 0 0 1
0.007819327354 -0.01443880844 -0.05848044205 0.3651790422 -0.8247529925 -0.4317716625
0.009319615364 -0.01833649635 -0.01817794991 0.4655972443 -0.8849642332 0.007583671562
-0.01915998459 -0.007421488762 -0.00363250351 0.9367143825 0.3500931798 -0.0009649199134
-0.008646807671 -0.0186520977 -0.04001628017 -0.417034328 -0.9086442561 -0.02116566005
-0.01829166603 -0.009402701378 -0.003614987135 0.8781568714 0.4783721658 0.0007617878342
-0.002467721701 -0.0204330368 -0.0264113369 -0.100284636 -0.994869284 0.01334539357
-0.017330513 -0.01106746483 -0.003601134539 0.8428287879 0.5381816405 0.0003951389103
0.01744574833 -0.01092139101 -0.02398694706 -0.6332318108 -0.773886687 0.01081062365
-0.01468166947 -0.01438378739 -0.004291782379 -0.7023591432 -0.7118220535 0.0009990085782
-0.0006377272606 -0.01970829391 -0.04826432419 -0.05938759537 -0.9770545781 -0.204542086
-0.0006124641299 -0.01578990269 -0.05919482422 -0.03589202004 -0.8799308081 -0.4737441671
-0.00246158123 -0.02041766739 -0.009975416183 -0.1017878852 -0.9947735007 -0.008056590417
-0.01829166603 -0.009402701378 -0.02026843929 0.8807677379 0.473435191 -0.01035914228
-0.0123742187 -0.01641528773 -0.004276898205 -0.6267277071 -0.7792376111 0.001061442265
-0.01992208862 -0.005068602562 -0.005847269058 0.9736863436 0.2277041096 0.009259743679
-0.008643601418 -0.0186434927 -0.004266464233 -0.4150400389 -0.9098023126 0.001232101563
-0.002458509684 -0.02040998173 -0.004274200201 0.103943529 0.9945826228 -0.001072049771
-0.02028341389 0.003492733955 -0.01197891665 -0.01592191323 -0.9996814949 0.0195806386
-0.02004712677 0.04905554771 -0.05607993507 0.9634898611 -0.2677448182 -7.273073776e-07
-0.0009764680266 -0.02054543781 -0.004279794097 -0.05560045021 -0.9984525525 0.001044196841
0.003807222843 -0.02020674229 -0.004307761073 0.2018725462 -0.9794101458 -0.00180041464
-0.01797852135 0.0107895155 -0.06896014404 0.8843207962 0.1464974674 0.4433003739
0.001357107505 -0.02050104666 -0.004291892707 0.04950762844 -0.9987731669 0.001075066364
-0.006919214725 -0.01610379219 -0.05577665329 -0.3443621686 -0.8607567447 -0.3748500009
0.005543784142 -0.0197918129 -0.003601265669 0.264959567 -0.9642594267 0.0004311655797
-0.01997338867 0.004474205971 -0.0598933754 0.9702901258 0.1433677948 0.1948916292
-0.002906348705 -0.005528826714 -0.07153832245 0.1460427161 0.6314961777 0.7615012164
-0.005737298965 0.05529070663 -0.04083115768 0 0 1
0.01353076935 -0.01238246822 -0.05462728119 0.653745418 -0.6975065763 -0.2934305786
-0.01057956505 -0.01216796939 -0.05966372808 -0.5004895244 -0.7434979101 -0.443532517
-0.01710478783 0.04107048416 -0.04917327499 0.8506165121 -0.004365663223 -0.5257684759
0.003795699596 -0.02023418236 -0.02228738022 0.1901684396 -0.9816903116 0.01095886198
-0.01956473923 0.0269556675 -0.06694919586 0.9364449917 0.03099819474 0.3494422547
0.001351467639 -0.02051472092 -0.02220628357 0.04832087329 -0.9987892901 0.009222099285
0.007352035522 -0.01923369217 -0.003614620447 0.3340670695 -0.942549286 -0.0001910540438
0.009330304146 -0.01831194878 -0.00363242054 0.46985686 -0.8827419427 0.001092555645
0.01748374748 -0.01083715534 -0.01573103046 0.9999894089 -4.625985992e-05 -0.004602161223
0.009318544388 -0.01833895493 -0.01963527298 0.4654345352 -0.88504281 -0.00836169387
0.01147669125 -0.01704405403 -0.003654484034 0.5718433705 -0.8203546216 -0.003668034403
-0.0009828373194 -0.02056117821 -0.0264465332 -0.0712114578 -0.9974076625 0.01033842775
0.01739885139 -0.01102534962 -0.03831245804 0.9115446914 -0.411201016 -3.819514149e-14
0.01395229244 -0.01508119202 -0.003685003042 0.6212954339 -0.7835757451 0.001017560505
0.01753891754 -0.01071485519 -0.003744474411 -0.4720895648 -0.8814798612 0.01116678254
0.009328702927 -0.01831562614 -0.005812187195 0.4692523766 -0.8830490222 -0.005160556689
-0.01979671669 0.01009604645 -0.06398345184 0.9620358211 0.1037471865 0.2524353386
-0.02024764442 0.003605969191 -0.005989722729 0.953554357 -0.3012209955 5.27457551e-08
-0.02051915932 0.02937922668 -0.06236216354 0.9599026332 -0.2803336133 1.828982945e-07
0.01133114529 -0.01371694851 -0.05580308533 0.5489725668 -0.7620619448 -0.3433521708
-0.02045849514 -0.00195472312 -0.005896111965 0.985487227 0.1697461463 -0.001082224628
-0.00844769001 -0.01609327698 -0.05421398163 -0.4044927108 -0.8514909358 -0.3336897258
-0.0191613121 -0.0074255054 -0.005812315702 0.9363897783 0.3509216007 0.005311608004
-0.014685004 -0.01439319944 -0.02580152512 -0.7014458411 -0.7126356414 -0.01114336455
-0.01829166603 -0.009402701378 -0.005784364939 0.8749428522 0.4841937835 0.005602277765
-0.01807483101 0.005478356838 -0.06639426422 0.8793061851 0.2287199333 0.4177413373
-0.02046740341 -0.001982501388 -0.01991859818 0.9857054819 0.1684754623 -0.0008494538128
-0.017330513 -0.01106746483 -0.005762199402 0.8437367806 0.5367243321 0.005936030448
0.00930671978 -0.01836610985 -0.03572618866 0.4602462527 -0.8877465924 -0.008909242853
0.005542500257 -0.01979483223 -0.005762349606 0.2660874632 -0.9639425949 -0.003483636447
0.01147435331 -0.01704936123 -0.005847458839 0.5752531631 -0.8179254082 -0.009045713751
-0.01056091595 -0.01767847633 -0.01423994064 -0.5128571061 -0.8584337754 0.008309143589
0.01395050764 -0.01508519506 -0.005896318197 -0.6214683953 0.7834386187 -0.0009820299006
-0.01829667091 -0.009417630196 -0.03848719788 0.878412808 0.4778892533 0.003577756298
0.0175285759 -0.01073777771 -0.005991101265 -0.5242983547 -0.8514622756 0.01110083296
-0.008943180084 -0.00693975997 -0.0677555542 0.4230700368 0.6398171439 0.6415962643
0.002029977798 -0.005150918007 -0.07198705292 -0.08725832142 0.6248036382 0.7758907133
-0.008641561985 -0.0103832984 -0.06410114288 -0.4316466616 -0.7123713064 -0.5533608961
-0.01992391396 -0.005074211121 -0.008040548325 0.9736530599 0.228017443 -0.002786509028
0.009322825432 -0.01832912445 -0.01380978394 0.4666006079 -0.8844397212 -0.007088889142
-0.01630612373 -0.01251498699 -0.006462243557 0.8052727584 0.5928945736 -0.003436431837
-0.01916972542 -0.007450975418 -0.01963562775 0.9347748893 0.3551345789 0.008679703969
-0.01578390121 -0.001920878649 -0.06518062592 0.7712761476 0.4364380332 0.4633086954
-0.0146822648 -0.01438547659 -0.006438070297 -0.7026500393 -0.7114050152 0.01363182283
-0.006390910864 -0.008509120464 -0.06763608551 -0.3038320831 -0.691051803 -0.6558456151
-0.01237498808 -0.01641740847 -0.006415732861 -0.6262973621 -0.7795001575 0.01145071222
0.01739885139 -0.01102534962 -0.039828125 0.9115446914 -0.411201016 1.712588404e-13
-0.0009844899178 -0.02056526184 -0.03219788742 -0.05589141112 -0.9983933624 0.009319021146
0.005646669865 -0.01954978371 -0.04423012161 0.259096107 -0.9593662076 -0.1117393709
-0.0105593214 -0.01767416191 -0.006404788971 -0.5131368782 -0.8582278689 0.01163912702
0.01394395924 -0.01509988117 -0.01400963306 0.6221126942 -0.7829270114 0.001044307195
-0.01994359779 -0.005134687424 -0.03446281815 0.9728836851 0.2310197843 -0.01127805409
-0.006667667389 -0.01944853783 -0.006399141788 -0.3244813088 -0.9458442983 0.009510189582
0.003798470259 -0.02022758484 -0.01796448898 0.1922201542 -0.9813485314 -0.002544047456
-0.004605315804 -0.02003185272 -0.006403136015 -0.1940600185 -0.9809785618 0.00466588688
-0.01734448624 -0.01110855675 -0.02960324287 0.8483259705 0.5294263523 0.007126373999
0.001352093607 -0.02051319313 -0.01789882278 0.04885089426 -0.9987775229 -0.007553134296
-0.01468449545 -0.01439176512 -0.02220614243 -0.7012556192 -0.7128334694 0.01044037454
-0.0009770830274 -0.02054695702 -0.006420088291 -0.07166994213 -0.9973924695 0.00846647353
-0.01829166603 -0.009402701378 -0.0101247592 0.8809172268 0.4731980876 -0.008270996148
-0.008347739379 -0.01445859973 -0.0579302152 -0.4143200983 -0.8070983551 -0.4206317883
0.003805842161 -0.02021003151 -0.006462006092 0.2014375934 -0.9794863475 0.00542134908
-0.006644166946 -0.01938741112 -0.04218621063 -0.323820618 -0.9445147431 -0.05506457562
-0.004613292575 -0.02005221081 -0.0263761692 -0.1949084758 -0.9808143475 0.003728506706
0.001356116116 -0.02050344563 -0.006438220024 0.05000108618 -0.998694223 0.01047570053
-0.02009799767 0.009127565384 -0.06222758102 0.9623235922 0.1323480967 0.2375232307
-0.02026036835 0.003565687656 -0.008235560417 0.9535285302 -0.3013027417 1.791011573e-06
-0.02046001053 -0.001959446073 -0.00810773468 0.9855157998 0.1695799912 -0.001111274092
-0.0166512661 0.0001729902774 -0.06550970459 0.7995001704 0.382006354 0.4635413931
-0.01734448624 -0.01110855675 -0.03614884949 0.8458295046 0.5334476879 -0.002452228252
-0.01916263962 -0.007429522514 -0.007992521763 0.936104679 0.351720222 -0.0009567457506
-0.01829166603 -0.009402701378 -0.007954183102 0.8758565549 0.4825209495 -0.006987737345
-0.017330513 -0.01106746483 -0.007923703194 0.8437101461 0.5367989971 0.0001613469216
-0.01073209572 -0.005390837669 -0.06792731476 0.5158849107 0.5769502397 0.6332386436
-0.01630691338 -0.01251727867 -0.007898740768 0.7976963227 0.6030084997 0.007831086488
-0.01468246698 -0.01438604736 -0.007869237423 -0.7023632901 -0.7117174911 -0.01200089902
-0.004863631487 -0.01675712013 -0.05579807091 -0.2583063021 -0.888639312 -0.3789433038
0.004809470177 -0.006246425152 -0.07043154907 -0.2464062077 0.6374164433 0.7300577091
0.007392023325 -0.01914075279 -0.04216630363 0.33942734 -0.9389205176 -0.05672162208
-0.01237550163 -0.01641882229 -0.007841913223 -0.6263871123 -0.7794529686 -0.009604960595
-0.01884665108 0.0533754921 -0.05238005066 0.8928099032 0.005393986257 -0.4504013561
-0.01917238998 -0.007459039688 -0.0240122261 0.9340769701 0.3570708928 -0.0007690734978
-0.01056003284 -0.01767608643 -0.007828523159 -0.5131148829 -0.8582695202 -0.009303096008
-0.008645114899 -0.01864750767 -0.007822769403 -0.4148462189 -0.9098767426 -0.005189215136
-0.01056091595 -0.01767847633 -0.03212264633 -0.5105860439 -0.8598235922 0.00229825732
-0.006668261051 -0.01945008087 -0.007821630478 -0.3245653123 -0.945836213 -0.00715655366
-0.02034601593 0.01883802795 -0.05745033646 0.9574194824 -0.288700424 5.323668971e-08
-0.02046405029 -0.001972048521 -0.01400905609 0.9855828027 0.1691900516 -0.001124931573
0.009463716507 -0.01432575035 -0.05709861755 0.4423138884 -0.8065996163 -0.3921166703
-0.004605995178 -0.02003358555 -0.007826507568 -0.1941467297 -0.9809699906 -0.002219195836
-0.01237963653 -0.01643020821 -0.01998161554 -0.6261775769 -0.7796378604 -0.008151614263
-0.002460428953 -0.02041478539 -0.007836933136 -0.1015946944 -0.994788019 -0.008678440434
-0.0009774931073 -0.02054797173 -0.007847246647 -0.0718172388 -0.9973969788 -0.006445997074
-0.006670042992 -0.01945471573 -0.01209101391 -0.3249803538 -0.94572025 0.0009890981011
0.001355455011 -0.02050504684 -0.007869393587 0.04961929269 -0.9987330675 -0.008377686747
0.003804921627 -0.02021222305 -0.007898451805 0.190039197 -0.98174158 -0.008280922257
0.009307799339 -0.0183636322 -0.03425776672 0.4609221113 -0.8874077783 0.007631669466
-0.02031549644 0.003391165257 -0.03377507401 -0 -1 -2.796334677e-15
0.005541215897 -0.01979785347 -0.007923834324 0.2662936182 -0.9638919428 0.000177731968
0.009327100754 -0.01831930542 -0.007992350101 0.46854661 -0.8834382883 0.0009300853968
0.0114462018 -0.01711324883 -0.03225019646 0.5755538712 -0.8176278554 0.01491413224
0.009309415817 -0.01835991955 -0.03205768776 0.4616745217 -0.8870488218 0.001011762257
0.01147201443 -0.01705466843 -0.008040811539 0.5750602446 -0.8181066571 0.002685651803
0.01394872284 -0.01508919811 -0.008108031273 0.6216611096 -0.7832856538 0.001024393943
0.009323894501 -0.01832666779 -0.01235480976 0.4676186568 -0.8838838828 0.009059443359
0.01751823425 -0.01076070213 -0.008237891197 -0.3761686938 -0.9264836882 0.01118433801
-0.01631245422 -0.01253334141 -0.01796512794 0.7985618741 0.6019071102 0.002600754604
-0.01710613537 -0.01040761042 -0.0479659462 0.8214480566 0.5517297227 0.144282374
-0.02026958656 0.003536508083 -0.009732809067 0.953569231 -0.3011739061 -8.927640646e-07
-0.006671914101 -0.01945958138 -0.02779214287 -0.3263224622 -0.9452279894 -0.007595973528
-0.02046101952 -0.001962595463 -0.009582504272 0.9855250016 0.1695268225 -0.001061948072
0.003218755603 -0.01787808132 -0.05390626335 0.1500530646 -0.9327392468 -0.3278438276
-0.02006143665 0.02528208447 -0.05601317596 0.9717605687 0.02059110107 -0.2350689338
-0.01992573929 -0.005079821348 -0.01023450756 0.9734272936 0.228511475 -0.01489328559
-0.01916396713 -0.007433541059 -0.01017342758 0.935921633 0.3521289845 -0.007474967159
-0.01658167934 -0.006593296766 -0.05824543953 0.8047882739 0.4923133768 0.3315770999
0.003801236868 -0.02022099686 -0.01364758396 0.2014750389 -0.979478925 -0.005370672342
-0.01852673149 0.004069178581 -0.06455435944 0.9015556872 0.2337211806 0.3641040409
0.001089208802 -0.02052532005 -0.01407002767 0.04872910332 -0.9987523273 0.01092077184
-0.01733219337 -0.01107240486 -0.01008579922 0.8425837595 0.5385559389 -0.003179441761
-0.02046678352 -0.001980571151 -0.01844021034 0.9856636432 0.1687200658 -0.0008496444952
-0.0163081007 -0.0125207181 -0.01005407381 0.7977380506 0.603002857 -0.001247829625
-0.02031549644 0.003391165257 -0.01797197533 0.9535595884 -0.3012044345 4.701255518e-08
-0.01468277097 -0.01438690376 -0.0100166049 -0.702224749 -0.7118970514 -0.009109888904
-0.01277202988 -0.006760626793 -0.0644884491 0.6204885628 0.5903862841 0.5161763061
-0.02050686264 0.002785342932 -0.04582309341 0.9535595491 -0.301204559 -5.728822344e-07
-0.01237627196 -0.01642094374 -0.009981781483 -0.6265670613 -0.7793315908 -0.007482596803
-0.008645913363 -0.01864962721 -0.009957414389 -0.4149927502 -0.9098157769 -0.004033535043
0.00379450202 -0.02023703384 -0.03821622467 0.1870286581 -0.9823541442 -0.0007850875462
-0.006669152021 -0.0194523983 -0.009955956936 -0.3247209776 -0.9457945409 -0.005382658315
0.001349161416 -0.0205203495 -0.03807682228 0.04906124037 -0.9987951958 -0.001073053729
-0.01056091595 -0.01767847633 -0.01780620384 -0.512389918 -0.858696858 -0.009812135756
-0.004607014418 -0.02003618383 -0.009962155104 -0.2037936182 -0.9789948243 -0.006106980634
-0.01793982697 -0.003727786064 -0.05864354706 0.8629869653 0.407571769 0.2985611342
0.01394753265 -0.0150918684 -0.009582865715 0.6217228025 -0.7832367776 0.0009524142666
-0.01056091595 -0.01767847633 -0.01637920952 -0.512685844 -0.8585134778 0.01038430917
0.01393918991 -0.01511057854 -0.01991937637 0.6225576668 -0.7825732906 0.000998145539
-0.004611761212 -0.02004828453 -0.0199421339 -0.2045732643 -0.9788282515 -0.006710711781
-0.0009781083763 -0.02054949188 -0.00998859024 -0.05675781773 -0.9983561882 -0.007966906849
0.001354463041 -0.02050744677 -0.01001675034 0.04953871191 -0.9987452417 -0.007338813126
0.003803540349 -0.02021551228 -0.0100537076 0.1903076793 -0.9817237048 0.001246858651
0.005539931774 -0.01980087471 -0.01008602571 -0.2650161489 0.9642408193 -0.002466423593
-0.008646398544 -0.01865092278 -0.01209282351 -0.4153465924 -0.9096630488 0.000588089954
-0.01005637646 -0.007865296364 -0.06598223114 -0.4807432069 -0.6558696572 -0.5819973898
0.007351914644 -0.0192339716 -0.01012372255 0.3398358921 -0.9404370621 0.009470939531
-0.01074199295 0.04486359406 -0.0430557785 0.5160929692 -0.003450158451 -0.8565256234
-0.01237704229 -0.01642306614 -0.01212238455 -0.6248634092 -0.7807293736 0.002713837203
0.009325497627 -0.0183229866 -0.01017321539 0.468156771 -0.8836158592 0.007228496465
-0.01872570038 0.02978274918 -0.06915278625 0.9391400275 -0.01109278767 0.3433554408
-0.01376603985 0.04649395752 -0.07591625214 0 0 1
-0.0198184185 4.125466943e-05 -0.05611486435 0.9641912764 0.2054034506 0.1677635389
0.01146967506 -0.01705997658 -0.01023484564 0.574598938 -0.8183064482 0.01451266095
-0.01994038582 -0.005124816895 -0.02783061218 0.9730109235 0.2305610451 0.009557578618
0.01751133919 -0.01077598667 -0.009735956192 -0.1380916712 -0.9903612147 0.01074033173
-0.02046253586 -0.001967321038 -0.01179535961 0.9855569421 0.1693408478 -0.001091381
0.01394574594 -0.01509587431 -0.01179582548 -0.6219381672 0.783065722 -0.0009956097743
0.01750099564 -0.0107989192 -0.01198353052 6.802658854e-08 -0.9999479525 0.01020256497
-0.01680088043 -0.004954995632 -0.06001544571 0.8032264927 0.4633412551 0.3743555565
-0.01992756653 -0.005085433483 -0.01242917824 0.9727160718 0.2316782934 -0.01219065567
-0.01993366241 -0.005104161739 -0.01975309753 0.973517665 0.2282606784 0.01266564457
-0.01916529465 -0.007437560558 -0.01235505962 0.9356841937 0.3527139607 -0.009378252249
-0.01462026167 -0.01420929861 -0.04391461754 -0.6939362804 -0.7158628954 -0.0774128778
-0.002465809822 -0.02042825127 -0.01782468033 -0.1005282653 -0.994895452 -0.00878108707
-0.01829166603 -0.009402701378 -0.01229610729 0.8750081778 0.4840964444 -0.003364714857
-0.01733358002 -0.01107648182 -0.01224863529 0.8428722483 0.5381013594 -0.003646937064
-0.002952959776 -0.01778133011 -0.05427939987 -0.1484067168 -0.9270097576 -0.3444246736
-0.01917610168 -0.007470279217 -0.03425905991 0.9334722054 0.3585744589 -0.007348410097
-0.01123199081 -0.006800139904 -0.06610173035 -0.5321167518 -0.6089168322 -0.5882788913
-0.01630928612 -0.01252415848 -0.01221013069 0.7954567605 0.6059735278 -0.006680247951
-0.02031549644 0.003391165257 -0.02397970295 0 0 1
-0.004609054208 -0.02004138279 -0.01423601747 -0.2037093375 -0.9789938782 0.008572760193
-0.01468307495 -0.01438776064 -0.01216472483 -0.7020653783 -0.7120057593 0.01232896457
-0.005114953041 -0.01937965012 -0.04661152649 -0.2578392778 -0.9516661444 -0.1668845601
-0.01056091595 -0.01767847633 -0.01210175896 -0.5129768871 -0.8584022691 0.0005076466789
-0.004608034015 -0.02003878307 -0.01209852982 -0.2042851751 -0.9789106728 0.001209073049
-0.01375173855 -0.01390379524 -0.04984419632 -0.6575261121 -0.7274858153 -0.1960198979
0.0174180479 -0.01098279715 -0.03000528812 0.6795160374 -0.7336477103 0.00435798786
-0.002462733746 -0.02042055321 -0.01211462402 -0.1008046572 -0.9949057329 0.001001886077
-0.0009849039316 -0.02056628609 -0.03363865662 -0.06995205974 -0.9975283174 -0.006630640216
0.01394038296 -0.01510790253 -0.018440979 -0.6224457543 0.7826623066 -0.000998420156
-0.0009787238836 -0.02055101204 -0.01213067532 -0.05918067399 -0.998239989 0.00381734067
0.007351874352 -0.01923406601 -0.01229484463 0.3281645282 -0.9446065917 0.005140952769
0.001353470713 -0.02050984764 -0.0121648407 0.0493464787 -0.9987216681 0.01095238492
0.003802158594 -0.02021880341 -0.01220968819 0.1993431495 -0.9799283234 0.001670240919
-0.01917511368 -0.007467284679 -0.04014300919 0.9336386483 0.3581044647 0.008947998956
0.005538646698 -0.01980389786 -0.0122489481 -0.2655435366 0.9640946845 -0.002840684248
-0.02022169113 0.03622504044 -0.05678821945 0.9611164883 -0.2761432526 -3.237525033e-07
-0.01557489491 0.05239819336 -0.04716928482 0.7597205057 -0.01105140775 -0.6501558426
-0.004615136504 -0.02005694485 -0.03786830902 -0.2058375721 -0.9785127656 -0.01198588938
0.01146733475 -0.01706528854 -0.01242959213 0.5720594831 -0.82012616 0.01187557957
-0.01387625408 -0.000909124434 -0.06857148743 0.6698609909 0.4523095856 0.58881431
-0.02029724312 0.003448952675 -0.01422540283 0.9535509757 -0.3012316994 5.504156256e-07
-0.01992878532 -0.005089176178 -0.01389285851 0.9737051083 0.227587882 0.01010534582
-0.01916617966 -0.007440241814 -0.01381005764 0.9352737123 0.3538493471 0.007329573806
-0.01631007767 -0.01252645302 -0.01364807606 0.8046647824 0.5937063427 0.005231308368
-0.014495128 -0.01457178593 -0.01407006931 -0.7016129072 -0.7124542107 0.01217891999
0.01052968121 -0.01555753803 -0.05246393967 0.5099996108 -0.8156005986 -0.2733058003
-0.01338091373 0.04779161072 -0.04499620819 0.6568506992 -0.2817068923 -0.6994200353
-0.01829166603 -0.009402701378 -0.01809216309 0.8811681992 0.472795312 -0.002682856292
-0.0123778131 -0.0164251895 -0.0142641108 -0.6266708367 -0.7792328263 0.008936714554
-0.00864683795 -0.01865209579 -0.01422937107 -0.4158588702 -0.9094126118 0.005486490616
-0.006670934439 -0.01945703411 -0.01422718668 -0.3252878083 -0.9455861948 0.007388504922
-0.002463886619 -0.02042343807 -0.01425494099 -0.1067600219 -0.994232788 0.01017158158
0.01393117332 -0.01512855816 -0.03177818108 0.6238411527 -0.781550777 0.0007740115688
-0.0009793397188 -0.0205525341 -0.01427389383 -0.05603411596 -0.9983767077 0.01020428614
-0.01397974539 -0.01454659081 -0.04608768463 -0.6915273458 -0.7119769412 -0.1219785437
0.005537789822 -0.01980591393 -0.01369147491 0.2681798225 -0.9633622259 -0.00357834173
0.007351847649 -0.01923412895 -0.01374286461 0.3277640575 -0.9447507298 -0.004096490522
0.01146577454 -0.01706883049 -0.01389332485 0.5754472725 -0.8177789615 -0.009899829311
0.01749064827 -0.01082185745 -0.01423172474 6.023320773e-07 -0.999947953 0.01020250935
-0.008908103943 0.05085069275 -0.04202606201 0.4945076455 0.007811010713 -0.8691381804
-0.01631364346 -0.01253678942 -0.02012589836 0.7970222668 0.6038751172 -0.009505213032
-0.01721848488 -0.01073800755 -0.04570851517 0.8324863055 0.5458389051 0.09500758323
-0.008723050117 -0.01270479107 -0.06068281174 -0.4309275409 -0.7686095875 -0.4728009693
-0.02030646515 0.00341975832 -0.01572340679 0.9535508635 -0.3012320546 5.570938276e-07
-0.02046556854 -0.001976778567 -0.01622401667 0.9856236379 0.1689528565 -0.0009883243582
-0.01993061352 -0.005094793081 -0.01608939981 0.9738848414 0.2270392537 -0.001221891538
-0.01993732643 -0.005115419388 -0.02415564346 0.9738123911 0.2270208964 -0.01228574869
-0.002467721701 -0.0204330368 -0.03647635651 -0.1008844627 -0.9948650461 0.008115742076
-0.01916750908 -0.007444264889 -0.01599358606 0.9352605843 0.3539583118 -0.001073789221
-0.01468469858 -0.01439233875 -0.02364356422 -0.7037629989 -0.7103792144 -0.008888930436
0.01146343231 -0.01707414436 -0.01608994389 0.5759290706 -0.8174987966 0.001192955525
-0.01829166603 -0.009402701378 -0.01591761255 0.8807959941 0.4734510777 0.006518725898
-0.01733589172 -0.01108328104 -0.01585581207 0.8249028524 0.5652324216 0.006898820505
-0.01917610168 -0.007470279217 -0.03793376541 0.934042288 0.3571475054 0.003265501421
-0.01631126595 -0.01252989626 -0.01580602074 0.7967471366 0.6042683107 0.007335462498
-0.01829166603 -0.009402701378 -0.02389927483 0.8809341491 0.4732171101 0.004537803088
0.007488081932 -0.01891749382 -0.04440488434 0.3457511813 -0.9321563971 -0.1074270543
-0.01487183285 -0.01420602131 -0.01599147956 0.7192985118 0.6945629619 0.01385434552
-0.00646127224 -0.01691594315 -0.05420308876 -0.303019297 -0.8899853446 -0.3407424129
-0.01056091595 -0.01767847633 -0.01994808292 -0.5123312355 -0.8587552107 -0.007496209782
-0.01989240837 0.03737110519 -0.05529369736 0.9526419371 0.09541511728 -0.2887374155
0.001615872125 -0.02049888611 -0.01599169413 0.09505254662 -0.9954279163 -0.009395574415
0.00379985404 -0.02022428989 -0.01580545378 0.189860491 -0.9817842825 -0.007253729298
0.005536503792 -0.01980893898 -0.01585629845 0.2338253454 -0.972262585 -0.005583332913
-0.0201531353 0.003905168533 -0.05824660492 0.9746087162 0.141597995 0.1734585202
-0.00667194128 -0.0194596529 -0.02994172096 -0.3263202936 -0.945241652 -0.005769347119
0.007351807117 -0.01923422241 -0.01591597033 0.339282757 -0.9406504708 -0.007993903863
-0.02027499199 -0.001382496357 -0.04981786728 0.982869973 0.1606935393 0.09024523626
0.009321221352 -0.01833280849 -0.01599328041 0.4665192019 -0.884510475 0.001026605653
-0.01994359779 -0.005134687424 -0.03594032288 0.9737041031 0.2275387406 0.01124460697
0.01394217205 -0.0151038909 -0.01622471237 -0.6222963113 0.7827811098 -0.001017397234
0.01740069962 -0.01102125549 -0.03377451324 0.9115679079 -0.4111495462 -5.543722207e-07
-0.000983869642 -0.02056372929 -0.03003916359 -0.05504779083 -0.9984827877 -0.001365061245
-0.01034340286 -0.01501973534 -0.05427149391 -0.5123608405 -0.7946034172 -0.325717329
-0.01918816185 0.04588924789 -0.05310909271 0.9101950933 0.01248101973 -0.4139916862
-0.01237858391 -0.0164273138 -0.0164068985 -0.6265264832 -0.7793280871 0.01059710163
-0.008647277355 -0.01865326881 -0.01636698914 -0.416205247 -0.909245176 0.006811924285
-0.006671769619 -0.01945920753 -0.01636442375 -0.3255844555 -0.9454710253 0.008905204094
0.005529198647 -0.01982612419 -0.02815355873 0.2716930734 -0.9623716397 0.004868362201
-0.000986148119 -0.02056936073 -0.03796889877 -0.06787099879 -0.9976896287 -0.002988702873
-0.009619777679 0.002250785112 -0.07416617584 -0.4731778414 -0.4040673892 -0.7828360463
0.01743536758 -0.01094440079 -0.02624207497 0.3756773605 -0.9267183089 0.007726368687
-0.004610074878 -0.02004398441 -0.01637455845 -0.1938786282 -0.9810157416 0.004380909789
-0.01025413847 -0.01056001377 -0.06245805359 -0.4921888878 -0.7034192997 -0.5127878582
0.0139321146 -0.01512644768 -0.03029222679 0.6238411527 -0.781550777 0.0007740115688
-0.000979955852 -0.02055405617 -0.01641818237 -0.07065575013 -0.9974667562 0.008236221377
-0.01778823853 -0.007900744915 -0.05199264526 0.8498740666 0.4897876624 0.1944790904
-0.01993244171 -0.005100412846 -0.01828709793 0.9737718899 0.2270408267 -0.01485831054
-0.0156639328 -0.01065311623 -0.05317323303 0.7655953063 0.5919209612 0.2519789726
-0.02031549644 0.003391165257 -0.03982931137 0.9535562914 -0.301214872 -4.400492676e-10
-0.0172267952 0.03483319855 -0.07183130646 0.7271499122 -0.07284972363 0.6826023169
-0.0191688385 -0.007448290348 -0.0181782856 0.934846995 0.3549637059 -0.007865326715
-0.01733728027 -0.0110873642 -0.01802168655 0.8456647322 0.5337136925 -0.0009247273924
-0.01249647093 -0.01036495256 -0.06010252953 -0.6157571829 -0.6605102947 -0.429615226
-0.01794065857 0.03820834732 -0.07071064758 0.9173885655 0.0635837874 0.3928807985
-0.01014135742 -0.003725433588 -0.06982507324 0.5052083664 0.5410767347 0.6723098048
-0.01237909889 -0.01642873144 -0.01783622265 -0.628139472 -0.7780597436 -0.007989932011
-0.008647570133 -0.01865405178 -0.01779287434 -0.4163391022 -0.9091891895 -0.006063796326
-0.006671787739 -0.01945925331 -0.01779012871 -0.3259174853 -0.9453670046 -0.007682405913
-0.01631562805 -0.0125425415 -0.02373076439 0.8046747049 0.5936842045 0.006138784602
-0.004610755801 -0.02004572105 -0.01780104637 -0.1941891568 -0.9809610714 -0.002438816986
-0.0009803668261 -0.02055507278 -0.01784851074 -0.06767650833 -0.9977000319 -0.003812688374
0.005535216808 -0.01981196594 -0.018022295 0.2696239608 -0.9629653388 0.0008222493583
-0.008965088844 -0.004830835342 -0.06969230652 0.4406139 0.5791324387 0.6859045192
0.007351766586 -0.01923431587 -0.01809029007 0.3400218745 -0.9404135499 0.002734977637
-0.01734377289 -0.01110645962 -0.02815219879 0.8476324879 0.5305435992 -0.006531068291
-0.006385681629 -0.004237069488 -0.07153713989 0.3045796992 0.5886012013 0.7488523437
0.01146108913 -0.01707946396 -0.01828772354 0.5758267859 -0.8174421289 0.01455605166
0.005836464405 -0.01537469006 -0.05819602585 0.2934296855 -0.8489350771 -0.4395546092
-0.01487602615 -0.01277536869 -0.04994897842 0.7223799181 0.6616203135 0.2010617186
-0.01468419075 -0.0143909061 -0.02005166912 -0.7017362683 -0.7123669812 0.009974658901
-0.01917372322 -0.007463077307 -0.02620357037 0.9336845599 0.3579615344 -0.009832727649
-0.008648010015 -0.01865522575 -0.01993307257 -0.4163610786 -0.9091869414 -0.004749513774
-0.01419911385 0.03922303772 -0.04569223404 -0.6831109081 0.01297251168 0.7301994257
0.006205242157 -0.01823579407 -0.05033076859 0.2794942161 -0.9275526439 -0.2480505511
-0.006671814919 -0.01945932388 -0.01993006897 -0.3261400642 -0.945302434 -0.005997231154
-0.01889172363 0.04085398483 -0.05245052719 0.8952501194 0.006137479874 -0.4455216662
-0.00246696496 -0.02043114185 -0.01996858883 -0.1006232617 -0.9948901581 -0.00827843879
0.01739885139 -0.01102534962 -0.03604187584 0.9115562599 -0.4111753702 -1.883304893e-07
-0.0009809836745 -0.02055659771 -0.01999537849 -0.05544787066 -0.9984277543 -0.008219066435
0.005933547497 -0.01887493038 -0.04801118088 0.2752976027 -0.9415322374 -0.194237679
-0.004664273977 -0.01822253513 -0.05190812492 -0.2392637901 -0.9305965776 -0.2770249962
-0.01466066933 0.04347956848 -0.04616796875 0.6558359147 -0.2845883558 -0.6992057785
0.001351780728 -0.02051395702 -0.02005179167 0.04889178548 -0.9987668029 0.00862940722
0.003797085404 -0.02023088264 -0.02012518597 0.1900333809 -0.9817263563 0.01003371483
0.00553392911 -0.01981499386 -0.02018996334 -0.2682874388 0.9633354883 -0.002566560603
0.007351726294 -0.01923441029 -0.02026633453 0.3390614131 -0.9406864463 0.01209825674
-0.01886748505 0.01833628273 -0.06870588684 0.930707929 0.03345295336 0.3642302168
-0.006584443092 0.05843675613 -0.04111476898 0.4155852662 0.02995525007 -0.9090608173
0.01145952606 -0.01708300972 -0.01975377655 0.5747676917 -0.8182241795 -0.01230010785
-0.0009855256379 -0.02056782246 -0.03580240822 -0.0698770036 -0.9975283719 -0.007372360761
0.01746303177 -0.01088307858 -0.02023189545 -0.5164451987 -0.8562481236 0.01111340075
-0.01632834244 0.005972018242 -0.06972930145 0.7927800684 0.2798997215 0.5414387398
-0.02046833324 -0.001985398829 -0.02213769722 0.9857746906 0.1680704671 -0.0007599383633
0.003067232132 -0.0144386692 -0.06117050552 0.1293977767 -0.8474597829 -0.5148476782
0.009803255081 -0.009771803856 -0.06397313309 0.4679957656 -0.6910903121 -0.550794103
-0.0005592716783 -0.009711659431 -0.06782872009 -0.03055675834 -0.7424266682 -0.6692301001
-0.02031549644 0.003391165257 -0.02172517967 1 -0 1.130894997e-14
-0.01993549442 -0.005109788418 -0.0219535656 0.9739559044 0.2267346138 -0.001145107259
0.009316937447 -0.0183426466 -0.02182273865 0.4647932433 -0.885386945 -0.007562973222
0.01145717955 -0.01708833504 -0.02195432568 0.5759679755 -0.8174714296 0.001163184888
-0.01734448624 -0.01110855675 -0.03178239346 0.8483956294 0.5293221671 0.006549765016
-0.01734448624 -0.01110855675 -0.03833649826 0.8445414636 0.535476316 0.003851142099
0.0139374032 -0.01511458588 -0.0221384716 -0.622771359 0.7824033435 -0.0009178799865
-0.01511258221 0.04789205551 -0.04666293716 0.6568165426 -0.281852774 -0.6993933394
0.01745611954 -0.01089839745 -0.02173335838 -0.6720141151 -0.7404617804 0.01064804913
-0.0009515359402 -0.02048382187 -0.04232461166 -0.06563180865 -0.9955162858 -0.06811600753
-0.01829166603 -0.009402701378 -0.02244626427 0.8750157867 0.4840613305 -0.005656967987
-0.01785789108 0.05059654236 -0.05033141708 0.882813598 -0.002770724323 -0.4697153119
-0.0165993185 -0.008917153835 -0.05413331413 0.8142477991 0.5244004532 0.2490074022
-0.002451855898 -0.01254216957 -0.06413373566 -0.09704172935 -0.7976465858 -0.5952670216
-0.01631801224 -0.01254945564 -0.0280641098 0.7962382323 0.6049828176 0.0006840193893
-0.01734005928 -0.01109553814 -0.02235824203 0.844760512 0.5351306841 -0.003850753276
-0.01238016701 -0.01643166256 -0.02212852001 -0.6258523929 -0.7799401118 0.001484710743
0.009424355507 -0.01809595585 -0.0438694725 0.4752420239 -0.874947786 -0.09279757791
0.007351658821 -0.01923456764 -0.02389678192 0.3392610281 -0.9406714998 -0.006251734085
-0.01056091595 -0.01767847633 -0.02209148598 -0.51232248 -0.8587930877 0.0003301346053
-0.008648450375 -0.01865640163 -0.02207477951 -0.4163959399 -0.9091833672 0.0001614952291
-0.006671842098 -0.01945939445 -0.0220715313 -0.3262832779 -0.945271964 0.0003697720736
-0.004612387061 -0.02004988575 -0.02208478451 -0.2053180005 -0.9786952859 0.0002367611583
-0.005033200264 -0.01519729805 -0.05900522995 -0.2506866928 -0.8565091619 -0.4511632052
-0.002467721701 -0.0204330368 -0.02211406136 -0.09969074167 -0.9950183979 0.0003794227962
-0.006689467907 -0.01139823627 -0.06404853821 -0.3477088897 -0.7532210526 -0.558351658
0.005532640457 -0.01981802559 -0.02235913658 -0.2686928479 0.9632217925 -0.002816360573
0.01144007301 -0.01712715721 -0.03815884781 0.5763790671 -0.8171787733 -0.002454277798
0.007351686001 -0.0192345047 -0.02244392776 0.3278001338 -0.9447151978 0.007763205856
-0.01049255562 -0.01749347687 -0.04368851471 -0.5074155444 -0.857405676 -0.08593585946
-0.02053829384 0.01820037842 -0.05894242859 0.9574192147 -0.2887013116 1.633705485e-07
-0.0128962059 -0.01149188423 -0.05764930725 -0.627136198 -0.6830376651 -0.3743791358
-0.002461911678 -0.02041849613 -0.04008885193 -0.1017847021 -0.9945265646 -0.02359632818
-0.01631681919 -0.01254599714 -0.02589646626 0.7961187919 0.6050867425 0.008056256038
-0.01734098625 -0.01109826565 -0.02380534744 0.8467244356 0.5320011325 0.005703080186
-0.00266258353 -0.0027791363 -0.07366107559 0.128555048 0.5861790015 0.7999173569
-0.01632139206 -0.0125592556 -0.03821559525 0.7954196618 0.6060558836 -0.001956416073
-0.01238069773 -0.01643311787 -0.02427751637 -0.6254315703 -0.7801945466 0.01148130346
-0.008542170525 0.0007829825282 -0.07394567108 -0.4500852908 -0.4609716383 -0.764806106
-0.01056091595 -0.01767847633 -0.02423700428 -0.5123663467 -0.8587316429 0.007790519604
-0.008648890734 -0.01865757895 -0.02421857834 -0.416438401 -0.9091476411 0.005442878804
0.01145091295 -0.01710255623 -0.02783159733 0.5726453889 -0.819750844 -0.009263489405
-0.006671868801 -0.01945946503 -0.02421510506 -0.3262902917 -0.9452477546 0.00642867724
0.001356712773 -0.02050204515 -0.04025580025 0.0506646044 -0.998519486 -0.01979732055
0.00379450202 -0.02023703384 -0.03967202759 0.1993752049 -0.9796554225 -0.02290809704
-0.00461283958 -0.02005104733 -0.02422955656 -0.2048307497 -0.9787665629 0.007770420198
-0.01734448624 -0.01110855675 -0.03979688263 0.8464754435 0.5321699732 0.01656632857
-0.02008303642 0.03087257385 -0.05601425552 0.9599010358 -0.2803390829 3.621294317e-06
-0.002467721701 -0.0204330368 -0.02426176929 -0.1006837318 -0.9948413165 0.0123911746
-0.0009822189212 -0.02055965042 -0.02429422283 -0.05621953787 -0.9983447358 0.01213062139
0.01666642761 -0.008993775368 -0.05378824997 0 0 1
0.001351258755 -0.02051523018 -0.02364371967 0.04902537873 -0.9987451021 -0.01023392372
0.003794775248 -0.02023638344 -0.02372993279 0.2017292028 -0.9794209537 -0.006318559423
-0.009562270164 0.05460023117 -0.042390625 0.5167680073 0.004577444191 -0.8561132365
0.00553178072 -0.01982004929 -0.0238063488 0.2712750891 -0.9624931995 -0.004082505612
-0.01259630108 -0.01492787266 -0.04975686264 -0.6178256942 -0.7567123805 -0.2137236178
-0.007441571712 -0.01340660381 -0.06064418411 -0.3484190036 -0.806978835 -0.4768536021
-0.01137450504 0.04859030533 -0.04343360901 -0.531196902 0.008857809351 0.8472020955
0.005560366154 -0.01975280476 -0.04200308609 -0.2789308877 0.9589721759 0.05069443433
0.009315328598 -0.01834634018 -0.02401182556 0.4637166536 -0.8859832378 0.0007532932051
0.01145483112 -0.01709366417 -0.02415648651 0.5756141407 -0.8176332593 0.01200892313
0.01393587303 -0.0151180191 -0.02435925484 -0.6229855388 0.782232869 -0.000870175088
-0.02031549644 0.003391165257 -0.0262360611 1 -0 2.250773124e-14
-0.01993854904 -0.005119176388 -0.02562486267 0.9730047296 0.2305190891 0.01107907128
0.00379450202 -0.02023703384 -0.02589579391 0.1892002091 -0.9819049454 -0.008121514115
0.001963475108 -0.01713256264 -0.05616722488 0.1012921478 -0.9124026356 -0.3965618884
0.001350945175 -0.02051599598 -0.02580170107 0.04918862908 -0.9987334265 -0.0105840241
0.00553049016 -0.01982308483 -0.0259789772 -0.2718218914 0.9623472544 -0.0007882376829
-0.02055425453 0.01282948589 -0.05809323883 0.9561499069 -0.2928777144 9.301187066e-07
-0.01283787537 0.04373732376 -0.0445631485 0.6558270005 -0.2846633621 -0.6991836065
0.007351618528 -0.01923466015 -0.02607791901 0.3384810224 -0.9409731494 0.000359888159
-0.01509606934 -0.01340440941 -0.04618694878 0.7351212392 0.66704777 0.1210125458
0.009313717842 -0.01835003948 -0.0262031498 0.4628762613 -0.8863725215 0.009450916251
0.01145326519 -0.01709721947 -0.02562576103 0.572711096 -0.8196866548 -0.01076050166
-0.02047478485 -0.002005521655 -0.03997356606 0.9859254868 0.1671452286 0.003661567184
-0.01476939583 -0.006562543551 -0.0618754425 0.720815728 0.5363241346 0.4390684559
-0.01632040215 -0.01255638599 -0.03240694809 0.796027028 0.6051421447 -0.01199814016
-0.02031549644 0.003391165257 -0.02774162102 -0 -1 5.626932809e-15
-0.02047081375 -0.001993137538 -0.02806468391 0.9859990925 0.1667493423 -0.0006681580436
-0.01441483402 0.05643577576 -0.04592628098 0.6590670713 -0.275765131 -0.6997029284
-0.01238122892 -0.01643457508 -0.02642835426 -0.623304056 -0.7819218124 0.009504371347
-0.00864933157 -0.01865875721 -0.02636421776 -0.4164585193 -0.909127721 0.007006323281
-0.01633160782 -0.0081298666 -0.05650906754 0.7898519157 0.5296477263 0.3092041999
-0.004584295273 -0.01997829151 -0.0422115097 -0.2060382364 -0.9770515741 -0.05402283476
-0.006671895981 -0.0194595356 -0.02636053085 -0.3262802726 -0.9452387986 0.008049682065
0.01393352509 -0.01512328434 -0.0280655508 -0.6235582637 0.7817765243 -0.000746854068
0.01742844391 -0.01095975208 -0.02774661636 1.160301921e-06 -0.9999479517 0.01020263818
-0.02031549644 0.003391165257 -0.03000211525 0 0 1
-0.002450494289 -0.01650771523 -0.05746929169 -0.1048361914 -0.8997767213 -0.423569622
-0.006667376041 -0.0194477787 -0.04001135826 -0.3254179962 -0.9453326052 -0.02119889799
-0.01317586803 0.03137907791 -0.04482408142 0 0 1
-0.01895783997 -0.002106259584 -0.05733773422 0.9237232713 0.3019242796 0.2357478473
-0.01917505836 -0.00746711874 -0.02839687347 0.9334202954 0.3586308033 -0.01051185634
-0.01468527269 -0.01439395666 -0.02796146202 -0.7009639251 -0.7131963343 -0.0007513804523
-0.01238158321 -0.01643554783 -0.0278635664 -0.6260563694 -0.7797245409 -0.009113866283
-0.01228703499 -0.0008626464605 -0.07023523712 0.6005041852 0.4695637417 0.647228411
-0.002467721701 -0.0204330368 -0.03791939163 -0.1000342437 -0.9949241332 -0.01091417508
-0.0199422245 -0.005130462646 -0.03003842545 0.9738097481 0.2273643639 -0.0001431924353
-0.018592556 0.008845615387 -0.06698053741 0.9033411977 0.157531294 0.3989468286
-0.008649625778 -0.01865954304 -0.02779596329 -0.4164048014 -0.9091563918 -0.006457293176
-0.00461359489 -0.02005298615 -0.02780856514 -0.1950164043 -0.9807936702 -0.003518303469
-0.01942702484 0.006203874588 -0.06332373428 0.9460490975 0.1645824465 0.2791123848
-0.02047486305 -0.0020057621 -0.03773361588 0.9859335815 0.1671372315 -0.0003446246877
-0.002467721701 -0.0204330368 -0.02784571266 -0.100215302 -0.994920341 -0.00950832725
0.001350631297 -0.02051676178 -0.02796165085 0.04883759949 -0.9988063716 0.0008490321699
0.00379450202 -0.02023703384 -0.02806369019 0.1888244524 -0.9820105305 -0.0008026547685
0.007351577759 -0.01923475456 -0.02826105309 0.3393071427 -0.9406328354 0.008973955967
-0.008135061264 0.04758298874 -0.04171546936 0.4704733653 0.006861000696 -0.8823875221
0.009312106133 -0.01835374069 -0.02839643478 0.4622640104 -0.8866823369 0.01031591388
-0.0189798851 -0.006876282692 -0.04762173843 0.9231952146 0.3687085966 0.1084645868
-0.02047174644 -0.001996044874 -0.03029132843 0.9860508156 0.1664432477 -0.0006590217403
-0.01468575525 -0.01439531755 -0.03228899193 -0.6982261677 -0.7158242325 0.00871130348
-0.0191759491 -0.007469815254 -0.02986047363 0.9333330825 0.3589539152 0.006437689514
-0.01631920624 -0.01255291939 -0.03023439026 0.7957648175 0.6054714881 -0.01275273851
-0.01440046692 -0.002450737238 -0.06670523071 0.7037621845 0.4723201472 0.530690556
-0.01468551397 -0.01439463663 -0.03012407446 -0.700627082 -0.7134665546 0.009336351898
-0.02055923271 0.04721272278 -0.06009723663 0.9634895471 -0.267745948 -1.095194631e-08
-0.02006233215 0.03677968979 -0.06527359009 0.9611163818 -0.2761436232 -2.182993113e-07
-0.0123818984 -0.01643641186 -0.0300185895 -0.6256400863 -0.7800639629 -0.008642699901
0.01144226742 -0.01712217712 -0.03594041061 0.5757636094 -0.8175525006 -0.01020660668
-0.01056091595 -0.01767847633 -0.02996881676 -0.5121933176 -0.8588393671 -0.007276466072
-0.0009320607185 -0.01265889263 -0.06421942139 -0.06267525873 -0.8120471989 -0.5802164757
0.007351551056 -0.0192348175 -0.02971790123 0.3386600664 -0.9408360523 -0.01169966406
-0.008650067806 -0.01866072273 -0.02994572639 -0.4164303681 -0.9091535503 -0.00505672407
-0.02038267422 0.01338964319 -0.06214771843 0.9870352605 0.07681789087 0.140926953
-0.0046140486 -0.02005415201 -0.0299593029 -0.2052726674 -0.9786755749 -0.007566441883
-0.02056128597 0.02923498058 -0.05986451912 0.9599022102 -0.2803350616 9.211833285e-08
0.005528336525 -0.0198281517 -0.02960467339 0.2721015023 -0.9622537474 -0.005338360228
-0.01533128357 -0.0005705100894 -0.06699699402 0.7516717309 0.4133590378 0.5139298734
0.009311030388 -0.01835621071 -0.02986002731 0.4619340567 -0.8868943446 -0.005945480579
0.004885407448 -0.01386041355 -0.06139525986 0.2325861162 -0.8362599497 -0.4965611695
0.01144855881 -0.01710789871 -0.03003949928 -0.5753505288 0.8179068314 -0.0004290654174
-0.02031549644 0.003391165257 -0.03226491165 -0 -1 2.796334677e-15
0.01573965645 -0.01107239056 -0.05190441132 0.7356680498 -0.618931439 -0.2751661212
-0.02047236824 -0.001997985005 -0.03177726364 0.9860508156 0.1664432477 -0.0006590217403
-0.01247088909 0.01282796574 -0.07612045288 -0.5910264044 -0.1963208428 -0.7823975435
-0.01055637217 -0.01766617966 -0.04004761314 -0.512430146 -0.8584384283 -0.02233406065
-0.01994352341 -0.00513445878 -0.0322492075 0.9737367088 0.2272191627 -0.01443170014
-0.002546271026 -0.01477980089 -0.06073028564 -0.1133648158 -0.8596292257 -0.4981827104
-0.01917610168 -0.007470279217 -0.03205851269 0.9334423203 0.3587273065 -0.0003928292603
-0.01644847536 -0.01071112633 -0.05016696739 0.8010197628 0.5669683975 0.1921306217
-0.01194643784 0.05262496948 -0.04384716034 0.5578181307 0.02274506288 -0.8296514902
-0.01829166603 -0.009402701378 -0.03190884686 0.8811337012 0.472785798 0.00877438318
