# .PCD v0.7 - Point Cloud Data file format
VERSION 0.7
FIELDS x y z normal_x normal_y normal_z
SIZE 4 4 4 4 4 4
TYPE F F F F F F
COUNT 1 1 1 1 1 1
WIDTH 562
HEIGHT 1
VIEWPOINT 0 0 0 1 0 0 0
POINTS 562
DATA ascii
0.006440792084 0.019529459 -0.02457690191 -0.3506835394 -0.93645009 -0.009071058996
-0.01873147964 0.01954670334 -0.06910019684 0.916999541 0.03254204665 0.3975586208
-0.01916504955 0.007436821222 -0.01162776184 0.9284676124 -0.3714122743 -0.0009029025528
-0.01991722107 0.005053650379 -0.0116986599 0.9602939317 -0.2789899569 -0.0004106098761
-0.004162955761 0.04599668503 -0.04045841217 0.2661442265 -0.01453438647 -0.9638236365
-0.02046819973 0.001984985709 -0.01179470921 0.9944070631 -0.1056084154 -0.001206430117
-0.02029201317 -0.003465507984 -0.01197795296 0.9994603747 0.03283626093 -0.0008598564772
-0.01468633699 0.01439699984 -0.01503037818 0.7245900866 -0.6891305024 0.008267833305
0.01747216606 0.01086282873 -0.01497977734 0.7694721941 0.6386712535 0.003401817772
0.01707435989 0.04786340904 -0.06017224503 0.9998212705 -0.009011010678 -0.01662013351
0.01393326187 0.01512387514 -0.01474681282 -0.6734814249 -0.7392032368 -0.001159729571
-0.01814245796 0.01783897781 -0.05050559998 0.8923358375 -0.1131343683 -0.436963806
0.011477005 0.01704334354 -0.01462674332 -0.5305507224 -0.8476529584 -0.0006269718143
-0.02040078735 0.05163130379 -0.06316141319 0.9920977064 -0.01129580524 0.1249581761
0.01349374962 0.03330820847 -0.05013082504 0.844109969 0.01034824996 0.5360702136
0.009321363926 0.01833248043 -0.01453742123 -0.4821776736 -0.876073117 0.0007646672558
-0.00893229723 0.01940787411 -0.04135623455 -0.4756788831 0.5581906174 0.6798182366
0.006442738175 0.01952488089 -0.01443985701 -0.3356540771 -0.9418863046 0.01365758946
-0.0031850878 0.02031059504 -0.02711598206 0.1959849977 -0.9806068092 -0.0004078532425
-0.01253147602 0.0438431015 -0.04431485558 -0.607477014 0.01432401574 0.7942080962
-0.0138623867 0.04001229286 -0.04544605827 -0.6677579444 0.02270523097 0.7440321231
-0.01812956047 0.05044691213 -0.05097323481 0.8759527184 0.00912109368 -0.4823107306
0.002808834028 0.02036510353 -0.01477487011 -0.1095198516 -0.9939760213 -0.00413172176
-0.0002129818698 0.0205633955 -0.01500146929 0.04452349982 -0.9990079347 0.0008969125645
-0.003181554715 0.02030172316 -0.01496182505 0.1513245356 -0.9884821849 -0.001963414809
-0.008078111649 0.03447409821 -0.04168251419 -0.4106815219 0.01019022343 0.9117219131
-0.005854906368 0.01971246109 -0.01522715549 0.2452338643 -0.9694639506 1.939056216e-05
-0.02024049568 0.006046807528 -0.04842178154 0.9823132729 -0.1692209665 -0.08015546427
0.007930810452 0.05427464294 -0.04546470642 0.5852986199 0.008231547135 0.8107760277
-0.008777447891 0.01859541664 -0.01522717323 0.403668267 -0.9149010807 -0.002818298048
0.01235740995 0.0168680191 -0.04194027328 0.5946567136 0.8021588628 0.05407912609
-0.01176794434 0.01683137957 -0.01497051684 0.5770975611 -0.8166748117 -0.0008104627556
-0.01630526733 0.01251250648 -0.01436799765 0.8274213616 -0.5615222065 0.008167127286
-0.0161005249 0.01627586746 -0.04648353958 0.8042198335 -0.3902758848 -0.4482356446
-0.01781895256 0.01025838327 -0.0144398303 0.8636832268 -0.5040117665 0.004839718982
-0.01916687107 0.007442333221 -0.01453777266 0.9281184267 -0.3722850765 -8.895594986e-05
-0.01436216259 0.0318868866 -0.04586011124 -0.6832078818 0.009176931152 0.7301662648
0.01641403389 0.06060000229 -0.06605587769 0.905590088 -0.3440814591 -0.2480212531
-0.01991722107 0.005053650379 -0.01462666845 0.9601606547 -0.2794483125 -0.0003972029932
0.01600280046 0.02799551487 -0.06651183701 0.9486215484 0.001276702753 -0.316410379
-0.02047163963 0.001995709538 -0.01474626732 0.9944052348 -0.1056258938 -0.001183058026
0.01147628689 0.01704497242 -0.01755690575 -0.5265209682 -0.8501615864 0.0009731655659
-0.005653518677 0.06060000229 -0.04179397106 0.21858995 -0.5377042691 -0.8143049507
0.009319038391 0.01833782101 -0.01744947815 -0.4828620996 -0.8756159867 0.01186746005
0.01659241676 0.05174486542 -0.05669334221 0.9691109773 0.003662188861 0.2465978549
-0.01894703484 0.04037322617 -0.05256332397 0.9163514515 -0.01196888444 -0.4001959059
0.006259926891 0.01958537216 -0.01775941353 -0.3341275357 -0.9425276805 -0.0006012422102
0.003139628124 0.02031710243 -0.01823357811 -0.1557875623 -0.9877905778 9.96020973e-05
-0.02049065399 0.002055006742 -0.04146221161 0.993858695 -0.1099923548 -0.01210686907
-0.01630594444 0.01251446724 -0.01796644465 0.826738067 -0.5625864415 0.0008151051751
-0.005995292902 0.01968128109 -0.03569085884 0.2653020363 -0.9607273364 -0.08134995121
-0.01409768105 0.05297239685 -0.04558780289 -0.6839970012 0.003140164251 0.7294780612
-0.01772341042 0.01042653732 -0.01775930748 0.8640694033 -0.5032251139 -0.01218814902
-0.01916869354 0.007447849512 -0.01744990063 0.928521824 -0.3708687917 0.01742302001
-0.005482933521 0.0316824398 -0.04076096725 0.3348766639 -0.007744844207 -0.9422301404
0.01592421913 0.06060000229 -0.06896399434 0.8235603802 -0.3689925738 -0.4308048058
-0.01991722107 0.005053650379 -0.01755690956 0.9588333781 -0.2839667324 0.001203279821
-0.02047508049 0.002006440878 -0.01769987869 0.9944036353 -0.1056412146 -0.001159264912
0.01666406631 0.05160593033 -0.06435331726 0.972038098 -0.01543079845 -0.2343156555
-0.0002141241282 0.02056618595 -0.01857986784 0.048382954 -0.9987637326 -0.01140596899
-0.01468886161 0.01440412092 -0.02436181927 0.7146225793 -0.6995101487 -0.0003478237062
-0.01969294167 0.01801492691 -0.06640327454 0.963457653 0.03131707817 0.2660236671
0.01745800018 0.01089422989 -0.02398904896 0.7692388135 0.6389613821 1.400129768e-14
-0.003182592213 0.02030432892 -0.01853077698 0.1946101255 -0.9808354433 -0.009419780187
-0.005992046952 0.01967283821 -0.01850593901 0.2458489437 -0.9692446168 -0.01109818001
-0.01782027721 0.01026233625 -0.02457691622 0.8724986638 -0.4886152628 -0.001098483355
-0.0002158174366 0.0205703187 -0.02431496668 0.04960639104 -0.9987688108 -0.0002619198043
-0.008650344133 0.01866137886 -0.0185057292 0.4025718658 -0.9152596486 -0.01535150149
-0.01468810987 0.01440200114 -0.02148712063 0.7166112853 -0.6972748373 -0.01661526526
0.01745800018 0.01089422989 -0.02098240948 0.7689224333 0.6393420716 8.394833884e-05
0.01236131907 0.01685252714 -0.07208454514 0.723330459 -0.07720179347 -0.6861726678
0.01392444324 0.01514365387 -0.02065681458 -0.672596979 -0.7400081284 -0.001128596878
0.01446116924 0.04400378418 -0.0514840889 0.8442773972 -0.009675616956 0.5358190543
0.01838473384 0.06060000229 -0.05427304331 0.8575508768 -0.486332335 0.1675928212
0.01147556829 0.01704660225 -0.02048971844 -0.5333166398 -0.8459131687 0.002067076163
0.01700549126 0.01189735079 -0.06029623032 0.9962876936 -0.03576528053 -0.07830502026
0.004350333214 0.01891348267 -0.0770550766 0.3035683244 -0.04463891741 -0.9517634367
-0.02039598465 0.04799920273 -0.0632266655 0.9914151629 0.01011756779 0.1303595396
-0.02034588623 0.02841217804 -0.06362770844 0.9855564493 -0.006204131251 0.1692335485
-0.01630996418 0.01252612257 -0.03313529015 0.8278693321 -0.5609207267 -0.0005543725054
0.0037081604 0.06060000229 -0.07843233185 0.1946219793 -0.4724234435 -0.8596152484
-0.01928860855 0.05227552414 -0.06778037262 0.9383448725 -0.01765829313 0.3452493082
0.009316709995 0.01834316635 -0.02036409855 -0.4831921848 -0.8754262418 0.01241804076
-0.01660581017 0.04163053513 -0.04844279099 0.8258604346 0.02162100567 -0.563459914
0.006622513294 0.01947153168 -0.02124941788 -0.3511354136 -0.9362404211 0.01256165643
0.002972751021 0.02034465933 -0.02153898382 -0.1553128599 -0.9878095582 -0.01049725181
-0.02052856159 0.002173213959 -0.04444038391 0.983029859 -0.1811194701 -0.02912102221
-0.01667586136 0.02214746475 -0.04851744843 0.7882419527 -0.02268862101 -0.6149470307
-0.01921538258 0.007589191437 -0.04233928108 0.9412631095 -0.3309866998 -0.06686974855
-0.01791675262 0.01009696598 -0.0212494957 0.872704647 -0.4882426972 -0.002380707477
0.01707618618 0.03870808983 -0.06032530785 0.9999783678 0.006036089934 -0.002613340908
0.01706162167 0.0418411293 -0.05979143143 0.9978809755 -0.001138980382 0.065055834
-0.01917051697 0.007453370571 -0.02036459255 0.9288703604 -0.3699649937 0.01804874058
-0.01450198778 0.06060000229 -0.07231544622 -0.6327768625 0.5065640062 -0.5856503649
-0.01991722107 0.005053650379 -0.02048983192 0.9610496792 -0.2763664609 0.002256861554
0.0158798027 0.04420836639 -0.05436156845 0.934788363 0.006561167677 0.3551445727
0.007717146397 0.0030898242 -0.07125858307 0.5426038068 -0.3831512871 -0.7475133443
-0.02047852421 0.002017181277 -0.02065599632 0.994402263 -0.1056543928 -0.001135139652
-0.0002149703056 0.02056825113 -0.02144579697 0.04645230196 -0.9987887673 -0.01622288433
-0.01469112349 0.01441049719 -0.0330098505 0.7278866548 -0.685648285 -0.008212619051
0.01745800018 0.01089422989 -0.03303286171 0.7702494539 0.6377427214 9.551408171e-15
-0.003183423102 0.02030641556 -0.0213891325 0.1944955036 -0.980831044 -0.01191479189
-0.00599273169 0.0196746192 -0.0213604846 0.2440921663 -0.9696772037 -0.01204720201
0.0004190955857 0.02827385267 -0.07764173126 0.1763570121 0.00607148194 -0.9843075441
-0.008651241541 0.01866376734 -0.02136020231 0.4035460969 -0.9148216785 -0.01586960247
-0.01176912276 0.01683461189 -0.02140165965 0.5774319008 -0.8163245662 -0.01366025501
0.01392002773 0.0151535573 -0.02361603928 -0.6725643318 -0.740034708 0.002418802413
-0.01810188675 0.03420842361 -0.07040699005 0.8940544736 0.02262594285 0.4473864828
0.01442703819 0.01401640511 -0.06896260834 0.8382657471 -0.1018104684 -0.5356726293
0.01147443724 0.01704917049 -0.02342555904 -0.5142114372 -0.8576559757 -0.00358124528
0.01704787445 0.04186866379 -0.06192308807 0.9993568595 -0.002500871711 -0.03577167766
0.009315380096 0.01834622192 -0.02401214027 -0.4812034311 -0.8766062202 -0.002189186069
-0.01917279943 0.007460280101 -0.02401243019 0.9280825416 -0.3723669338 -0.002379609263
-0.02048197174 0.002027932525 -0.02361507225 0.9943939724 -0.1057098309 0.002461555711
-0.02020991993 -0.003725397587 -0.04214930153 0.9981948428 0.04901750357 0.03470360476
-0.01223959064 0.05514230728 -0.04408603668 -0.5980202523 0.05645473949 0.7994902377
0.00297190392 0.02034669399 -0.02442062378 -0.157911852 -0.9873608243 -0.01350739114
0.009164223194 0.04088313675 -0.07498710251 -0.5334205489 -0.0004992586338 0.8458500274
-0.003184254944 0.0203085041 -0.02425072002 0.1959598673 -0.9806117928 -0.0004921209158
-0.005993417263 0.01967640257 -0.02421826458 0.2429418825 -0.9700407782 -0.0003609994042
-0.01968126106 -0.0004689586759 -0.05618902206 0 0 1
-0.008651498318 0.0186644516 -0.02421803331 0.4027790512 -0.9152972379 4.628422844e-05
-0.017628486 0.06060000229 -0.05148837916 0.834726548 -0.4229061526 -0.35267829
-0.01176953952 0.01683575471 -0.02426499971 0.577308114 -0.816526341 -0.0002756154265
-0.01630716324 0.01251800299 -0.02445452881 0.8266184337 -0.5626368945 -0.01190336204
-0.01468961453 0.01440624309 -0.02724020863 0.7277935799 -0.6857450637 -0.008379296946
0.01745800018 0.01089422989 -0.02699935913 0.7695767476 0.6385543278 -4.820295486e-15
0.01674971676 0.008806970119 -0.06077472878 0.974971525 -0.1044328383 -0.196276101
0.01227072906 0.03261650085 -0.04871292877 0.792333762 0.009029447694 0.6100210477
0.004640836716 0.01444998074 -0.0765033493 -0.3764422547 0.1363442021 0.9163522726
0.01391560698 0.01516347265 -0.02657868862 -0.6726994114 -0.7398919578 0.005949173955
-0.0158462553 0.06060000229 -0.05332003403 0.7804977607 -0.5185658341 -0.3491600224
-0.01991821766 0.005056711674 -0.02636526775 0.9541651846 -0.2992698583 0.002520402453
0.01145789671 0.007791636467 -0.07066369247 -0.6511835899 0.2952061878 0.6991517997
-0.02029201317 -0.003465507984 -0.02699497604 0.9993832051 0.03511708018 -1.043923554e-14
0.009315380096 0.01834622192 -0.02766574478 -0.496104372 -0.8682198788 -0.008642580258
0.006440792084 0.019529459 -0.02748089266 -0.3510284553 -0.936268311 -0.01344147646
-0.02006491661 -0.004184446335 -0.04449359894 0.953558372 0.3012082853 -6.726112684e-08
0.002971055806 0.02034873247 -0.02730596542 -0.1566013034 -0.9876618301 -0.0003756008127
-0.0002162131071 0.02057128429 -0.027187922 0.04959952505 -0.9987691835 -7.237053281e-05
-0.01105085659 0.05227671814 -0.04324625397 -0.5317254778 0.01401064689 0.8468008727
-0.01955737178 0.03820079295 -0.05424586868 0.9588962815 0.009764856729 -0.283588732
-0.00599410367 0.01967818785 -0.02707972002 0.2431181374 -0.9699966437 -0.000287061702
-0.01176995659 0.01683689912 -0.02713203494 0.5770937549 -0.8166778695 -0.000235637288
-0.0163111105 0.0125294466 -0.03603829765 0.8280085628 -0.5606886352 -0.005484011762
-0.01408662987 0.05850382487 -0.04564287821 -0.6814486022 0.2268679488 0.6958151596
-0.01630776691 0.01251975155 -0.0273439064 0.8275962612 -0.5613236491 -0.0004352340857
0.01350297356 0.01244554901 -0.06995282745 0.7767445976 -0.1458010012 -0.6127070248
0.01685911751 0.04224675369 -0.06326643372 0.9884075957 -0.004403403687 -0.1517597928
-0.01782027721 0.01026233625 -0.02748090887 0.8723735225 -0.4888232646 -0.004031524041
-0.02034999466 0.02423918152 -0.06370911407 0.9936354887 -0.01319620862 0.1118676702
0.01848361626 0.06060000229 -0.05986927643 0.957151393 -0.2890169955 0.01817655391
-0.01917508507 0.007467199802 -0.02766547966 0.9351714561 -0.3539837223 -0.01224222512
0.01681141472 0.01232757854 -0.04268556213 0.770621586 0.6194679987 0.1496722076
0.01707106972 0.01534749889 -0.05974736786 0.9999426071 0.009429269647 -0.005086400844
-0.01826756668 0.05314887619 -0.05117725563 0.869865693 -0.004579664467 -0.4932673745
-0.01469036841 0.01440836859 -0.03012273645 0.7278450939 -0.6856908595 -0.008340538199
0.01745800018 0.01089422989 -0.0300138073 0.7699135988 0.6381481414 1.683535369e-14
0.01235254383 0.001823943481 -0.06632095909 0.7291687741 -0.3910391494 -0.5616059851
0.01146907806 0.01706133175 -0.02930763721 -0.5135934073 -0.8580076624 0.006683050821
-0.01992237568 0.005069485664 -0.02930774784 0.9546803628 -0.297565246 0.006350533134
0.01610690498 0.01388933945 -0.04397793198 0.7223906838 0.6644379973 0.1915041715
-0.01854181099 0.0314601059 -0.06953939056 0.8907708782 0.01607858518 0.4541681644
-0.02048790359 0.002046428204 -0.02954421616 0.9919424457 -0.1266857964 -0.0009451594933
0.000533976078 0.0515842514 -0.04002933502 -0.05483329896 0.1218991204 -0.9910266968
0.01112972736 0.002770308733 -0.06842868042 0.6745337606 -0.3839350247 -0.6305538063
-0.02029201317 -0.003465507984 -0.03000893593 0.9993690762 0.03551689062 -2.642581745e-14
-0.01954356289 0.02611855888 -0.05415402985 0.9367277301 -0.002684141806 -0.3500485038
0.01707106972 0.008086220741 -0.05703593063 0.991193003 -0.0730033479 -0.1104850308
0.009315380096 0.01834622192 -0.03059351254 -0.4969818088 -0.867740083 -0.006019151743
-0.02055079842 0.04841260719 -0.05978634071 0.99884494 0.01755302668 -0.04472892802
0.006440792084 0.019529459 -0.03038909769 -0.3353637304 -0.9420734596 -0.005363304479
-0.01960509396 0.01775658607 -0.05405897331 0.9374623283 -0.09180396544 -0.3357624381
-0.0002162131071 0.02057128429 -0.03006512356 0.04958381788 -0.9987699621 8.792604972e-05
-0.003185921848 0.02031268978 -0.02998536348 0.1959364052 -0.9806165321 -0.0003770276592
-0.01401000929 0.02899251461 -0.04557683945 -0.6769711233 -0.007373253891 0.7359726444
0.009019029299 0.005205299536 -0.07148076375 -0.5784331751 0.3420586566 0.740547728
-0.00599479115 0.01967997551 -0.02994529438 0.243268878 -0.9699588811 -0.0001483485
-0.01782027721 0.01026233625 -0.03621998978 0.8629117613 -0.5053352786 0.004421352353
-0.008651498318 0.0186644516 -0.02994536018 0.40299999 -0.9151999244 0.0003263858894
-0.01782027721 0.01026233625 -0.03038911581 0.8631104886 -0.5050105883 0.002142465395
-0.01112893963 0.04210937119 -0.04327778244 -0.5406924887 -0.01432739999 0.8410983048
-0.01917582321 0.007469436646 -0.03059300518 0.9354813143 -0.3531813129 -0.01173332281
0.01070733738 0.04239239883 -0.04727082443 0.7183394483 0.01891404718 0.6954356159
0.01390674686 0.01518334341 -0.03251609135 -0.6564415564 -0.7543737266 -0.00218257009
0.0114656655 0.0170690759 -0.03299284617 -0.5302986745 -0.847807474 0.002408931352
0.01863193989 0.06060000229 -0.06628852463 0.9078103288 -0.3555961655 -0.2223325755
-0.0201695137 0.01500518799 -0.06400327301 0.9799663041 0.05333218861 0.1918898656
-0.01992531204 0.005078506629 -0.0329928697 0.9605290324 -0.2781660133 0.002765301367
0.01633245468 0.002231272936 -0.05787135315 0.9508704353 -0.1881687104 -0.2458413141
-0.0195933876 0.0132863369 -0.06584432983 0.9653242215 0.06219129436 0.2535377492
-0.02045533752 0.01585793114 -0.06235667419 0.9947370565 0.02800377208 0.09855951117
-0.02048790359 0.002046428204 -0.03251603603 0.9919710071 -0.1264583503 -0.001344143626
-0.02029201317 -0.003465507984 -0.03908033752 0.9989275744 0.04037837233 0.02265586278
-0.02029201317 -0.003465507984 -0.03302750015 0.9993690762 0.03551689062 1.730688476e-15
0.01289467931 0.05314772415 -0.07168441582 0.7330786842 -0.01594580097 -0.6799568914
0.009315380096 0.01834622192 -0.03352598 -0.4974986102 -0.8674623611 0.002045687918
0.006440792084 0.019529459 -0.03330197048 -0.3353645321 -0.942084972 -0.002556574318
-0.0122737999 0.05018450546 -0.044120327 -0.6163347702 -0.01080241964 0.7874101592
0.002969355702 0.02035281658 -0.0330895462 -0.1566913768 -0.9876475768 -0.0002766457106
-0.01473179188 0.01666437531 -0.04475603409 0.7322837514 -0.4457112051 -0.514880597
-0.0002162131071 0.02057128429 -0.03294694328 0.04956479599 -0.9987708991 0.0001488342745
-0.003186757267 0.02031478739 -0.0328593092 0.1959058491 -0.9806226396 -0.0003700633272
0.006911176682 0.03761026764 -0.07619956207 -0.440480693 -0.001864694652 0.8977601473
0.009199057579 0.03756438065 -0.07498635864 -0.5439966442 -0.02200721482 0.8387987444
-0.01880857086 0.01541415691 -0.06845022583 0.921940851 0.0438020699 0.3848460029
-0.005995292902 0.01968128109 -0.03281548977 0.243454438 -0.9699123345 5.704195659e-06
-0.008651498318 0.0186644516 -0.03281570053 0.4030453361 -0.9151799244 0.0004037039607
-0.01553257656 0.01465226364 -0.04381810379 0.7603932113 -0.5567076892 -0.3344827544
0.004135578752 0.03197901917 -0.07717118073 -0.2808378315 0.01876298956 0.9595718121
0.01146224689 0.01707683659 -0.03668527794 -0.5402946953 -0.8405099013 -0.04030816425
-0.0117707928 0.01683919303 -0.03287897174 0.5766640627 -0.8169812825 -0.0003778989103
0.01662560463 0.04271448898 -0.05677288055 0.9685345065 -0.007981228137 0.2487513008
-0.01782027721 0.01026233625 -0.03330199146 0.8631132569 -0.504978429 0.005682605512
0.01571184158 0.02861159515 -0.05386231232 0.9092364413 0.02046242248 0.415776843
-0.01443904686 0.05039354324 -0.04594152832 -0.6993328748 -0.01103967117 0.7147108897
-0.01917582321 0.007469436646 -0.03352542305 0.9356114978 -0.3530262291 0.001899167929
-0.01469148302 0.01441151047 -0.03590213585 0.7277422708 -0.6857014025 -0.01430992226
0.01745800018 0.01089422989 -0.03605699348 0.7702292452 0.6377084548 0.008650810055
0.01390230751 0.01519330215 -0.03549176788 -0.6563529587 -0.7544476941 -0.003077408525
-0.02048790359 0.002046428204 -0.03549285316 0.9919921302 -0.1262795391 -0.002256452621
-0.01450198778 0.06060000229 -0.04807487106 0.7041492782 -0.4341288697 -0.5618771383
-0.02029201317 -0.003465507984 -0.03605114174 0.9993690762 0.03551689062 1.464601055e-14
0.009315380096 0.01834622192 -0.03646360397 -0.5048695318 -0.8629276978 -0.02150684248
0.001468553901 0.02209715462 -0.07761447144 0.2443882713 -0.00852425562 -0.9696399899
0.006440792084 0.019529459 -0.03621996784 -0.3252911521 -0.9453825585 -0.02091612881
0.002889776945 0.0398928299 -0.04020684433 -0.05161005779 0.1188738697 -0.991567146
0.01145241737 0.01709914303 -0.03964349365 0.5290453662 0.8459803751 0.06654476257
0.01222898531 0.03760508347 -0.04873347855 0.765637943 0.009536285099 0.6432010568
0.002968503416 0.02035486507 -0.03598868656 -0.1556440394 -0.98774205 0.01185646206
-0.01898373032 0.05498761749 -0.06854385376 0.9151086427 -0.03876974101 0.4013391075
-0.003187875628 0.02031760263 -0.03573818874 0.2317412048 -0.9563698896 -0.1779119118
-0.02052784475 0.04465126165 -0.05982993571 0.9964078937 -0.003087937623 -0.08462726489
-0.01263128185 0.05275335312 -0.04439839935 -0.6363679877 0.005649594092 0.7713649372
-0.008651498318 0.0186644516 -0.03569108868 0.4029868179 -0.9142157409 -0.04255823819
-0.01819315402 0.02365754382 -0.05106703695 0.8854658193 -0.01857359351 -0.4643331826
-0.01939051628 0.04157339096 -0.05369331741 0.9262408784 0.000382221455 -0.3769319424
-0.0117713604 0.01684074434 -0.03575972366 0.5770001538 -0.8166913629 -0.009275786008
-0.02049696255 0.01146883154 -0.05648567581 0.9910347574 -0.0533394155 -0.1224949649
-0.01917582321 0.007469436646 -0.03646299934 0.9357702308 -0.3525999245 -0.002714497608
0.01251058102 0.05095707703 -0.0489477005 0.7364872489 -0.01242954376 0.6763372226
-0.01992825413 0.005087545156 -0.03668519592 0.9614355131 -0.2748177828 -0.01081389614
-0.0181529398 0.02001539993 -0.05090421677 0.878265869 -0.0961685046 -0.4684022653
-0.01469148302 0.01441151047 -0.03880006027 0.7308772181 -0.6796747156 -0.06213512015
-9.580525756e-05 0.06060000229 -0.04213014412 -0.06856924195 0.9629691535 0.2607463681
-0.01530759907 0.05256726074 -0.04688151169 0.7473301222 -0.01633013971 -0.6642522224
0.01745800018 0.01089422989 -0.03908668137 0.7599262037 0.6423118318 0.09973803549
0.01389947796 0.0151996479 -0.03847317696 0.6740834364 0.738640281 -0.004696384343
-0.01079276562 0.02235540771 -0.04306446457 -0.5210816803 0.1398509878 0.8419712487
-0.02048790359 0.002046428204 -0.03847513771 0.9920602785 -0.1255732536 -0.006910986062
0.009315142632 0.01834676743 -0.03940677834 0.5157720357 0.8556361267 0.04319752147
0.002968110204 0.02035580587 -0.03889347839 -0.1548665797 -0.9876420924 0.02407155467
-0.01768895785 0.01359850947 -0.04725723902 0.8795608428 -0.292505148 -0.3752511987
-0.00318910414 0.02032069683 -0.03862248707 0.4531392838 -0.7499670407 -0.4818861145
0.007311649084 0.0137548213 -0.07534299469 -0.4630607708 0.1754197818 0.8687937745
-0.01975538063 0.04628857613 -0.054882864 0.9634423867 -0.01368676781 -0.2675657675
-0.005995292902 0.01968128109 -0.03857173157 0.2592914619 -0.9014645483 -0.3465971811
-0.01838681316 0.05859096718 -0.06977143478 0.8476883813 -0.2707394427 0.45620671
-0.008651498318 0.0186644516 -0.03857197952 0.4535074944 -0.8617676228 -0.2273488879
0.002082034349 0.05134365845 -0.04014506149 -0.0549435761 0.1215754877 -0.9910603434
-0.01679566956 0.03062549591 -0.04869410706 0.8098089257 -0.01507700107 -0.5864999471
-0.01177304697 0.01684532356 -0.03864557711 0.6139883664 -0.7834452153 -0.09608267565
0.01162236023 0.04671595001 -0.0481170578 0.7335530088 0.006317922376 0.6796028746
-0.01631225967 0.01253277683 -0.03894679642 0.8282549302 -0.5579556882 -0.05176118814
-0.01782027721 0.01026233625 -0.03914357281 0.866164656 -0.4989722788 -0.02802594445
-0.006292697906 0.04080659866 -0.04098748016 -0.3300638008 -0.009715552367 0.9439086267
-0.01917628479 0.00747083354 -0.03940601921 0.9371502532 -0.3482149315 -0.02226576814
0.009244264603 0.02032250595 -0.07492060089 -0.5451980265 0.04677495906 0.8370013232
0.01701094818 0.0479876976 -0.06224909592 0.9979614196 -0.01616354137 -0.0617393305
-0.01718514887 0.01651003011 -0.0483320516 0.8535932169 -0.2248252599 -0.4699278908
-0.0199314661 0.005097411633 -0.03964509201 0.9616120648 -0.2730886203 -0.02692289725
-0.01492554728 0.01435914707 -0.04145819982 0.7554973734 -0.6325674909 -0.1705347125
-0.01203470993 0.03714606857 -0.04388948441 -0.5939968858 0.007610400262 0.8044313404
-0.01858763504 0.01476442766 -0.0502076149 0.9119272365 -0.1809749033 -0.3682890165
0.01732606125 0.01118671036 -0.04132398987 0.7599262037 0.6423118318 0.09973803549
-0.01825576146 0.03199617577 -0.05119087982 0.8773865791 -0.02361216411 -0.4792027301
0.01386631012 0.01527403736 -0.04070362854 0.6903834131 0.7206486181 0.06353197682
0.01440085649 0.004764780283 -0.06517653656 0.8346528496 -0.2803030285 -0.4741147887
0.008952578545 0.01917940903 -0.04150445938 0.4585571338 0.8854274629 0.07578629887
0.004385706902 0.02612799454 -0.04048059082 0 0 1
0.003445204139 0.05909066582 -0.07725501251 0.1336433095 -0.4477426178 -0.8841187783
0.009614230156 0.06060000229 -0.07739136251 0.3993793403 -0.4077734367 -0.8211071592
0.0004709181786 0.02815298017 -0.04005645116 -0.04789418741 0.1152250211 -0.9921841267
-0.003580475092 0.06060000229 -0.04385136414 0.2155475001 -0.6499434623 -0.7287748425
-0.002448436916 0.02604934788 -0.04015983009 -0.2178816804 0.173095545 0.9605027359
-0.02018824577 0.02796152878 -0.05663745689 0.9721999336 -0.004713236571 -0.2341048368
-0.003794677734 0.02375399399 -0.04036287308 0.3679319092 -0.2536991099 -0.8945741287
-0.004608000755 0.02197641563 -0.0405318718 -0.3658371267 0.5300801854 0.7649694071
-0.00839966321 0.06060000229 -0.07626625061 -0.3364647462 -0.6133616905 -0.7145480468
-0.006109461069 0.01997570515 -0.04069659996 0.4759167268 -0.6392538331 -0.6040346066
-0.01184276581 0.01703721952 -0.04114973927 0.6962032185 -0.602296822 -0.3905632046
-0.01996477604 0.005199748039 -0.04259845543 0.9647762186 -0.2603966564 -0.03742231173
0.01224793005 0.04075601959 -0.07244323349 0.7099207497 -0.01267796372 -0.7041674505
0.0005092811361 0.04026134109 -0.04003876305 -0.05161005779 0.1188738697 -0.991567146
0.01671985626 0.0455680542 -0.06407187653 0.9724339968 -0.007831189073 -0.2330467645
-0.002240288417 0.03809784063 -0.04015502167 0.1144210742 -0.0494309641 -0.9922017928
-0.003994949818 0.03526759338 -0.04040458679 -0.2874835437 0.02025256911 0.957571431
-0.01551059413 0.06060000229 -0.06925397491 -0.4762249537 0.8019535305 -0.3606665058
0.01699239349 0.03572045326 -0.06227655029 0.9978318051 0.01004781818 -0.06504406262
-0.004754045963 0.03352772522 -0.04057533646 0.287490591 -0.02033464755 -0.9575675758
-0.02045667076 0.05177856827 -0.05849178696 0.9949859072 -0.004271152617 -0.09992397928
-0.007445092678 0.02536226463 -0.04142757034 0.3700708659 -0.0294220089 -0.9285375058
0.01405423832 0.0478650589 -0.05088322067 0.8212889797 0.002691167534 0.5705060643
-0.0115036761 0.01886673927 -0.04298777898 -0.578902911 0.4137098549 0.7026489705
-0.01371580791 0.02621633339 -0.04526327896 -0.6674769325 -0.007348824581 0.7445942112
0.004559418201 0.04913074875 -0.04055342484 -0.0551371433 0.12120932 -0.9910944436
-0.0006333744526 0.05099917221 -0.04003609085 0.02835952602 -0.03873819563 -0.9988468799
-0.01539464283 0.05617762947 -0.04698180199 0.7406967576 -0.1349198512 -0.6581526776
-0.002094989955 0.0494649868 -0.04014380455 -0.1153358527 0.02802068598 0.9929312576
0.00342529726 0.06060000229 -0.04234985034 2.945407864e-13 1 8.186062649e-13
-0.003434569359 0.04762691498 -0.04029686356 0.1808681141 -0.02005656294 -0.9833028321
-0.005254722118 0.04349491119 -0.04070927048 0.353387704 -0.02764732817 -0.9350683162
-0.006879651546 0.03871559906 -0.04121632767 -0.3568709243 -0.005232522239 0.9341390496
-0.01898671913 0.04790486145 -0.05265975189 0.915693278 0.01201102584 -0.4016983395
-0.008595160723 0.03758852959 -0.04195190811 -0.4182315365 -0.01312169126 0.9082456733
0.01188699214 0.02555819766 -0.0728320694 0.7120727935 0.02439200927 -0.701681813
0.01666096783 0.05873981285 -0.05690088272 0.9509698583 -0.2380066562 0.1975073674
-0.02018406391 0.03602659798 -0.05664146042 0.9747965256 -0.01046679609 -0.2228501285
-0.008684996605 0.03231050873 -0.04192173767 -0.424779546 0.009262392521 0.9052494382
0.01699876976 0.02249111176 -0.06234326935 0.9960449257 -0.01959128932 -0.08666422245
0.01569908905 0.03731145732 -0.05399483744 0.9323375674 -0.01340359162 0.3613405654
-0.0102859478 0.02497602463 -0.04276012039 -0.5341661098 0.03789948347 0.844529571
-0.01665321732 0.01352129841 -0.0446400795 0.8198689711 -0.4940890937 -0.2892936876
0.0005412370558 0.05313141632 -0.07765964127 -0.02904810429 0.0308143183 0.9991029404
-0.01806969976 0.01100058413 -0.0449027853 0.8850973973 -0.4203123065 -0.1998503497
-0.01935919476 0.00802454257 -0.04523141289 0.9425540788 -0.3078492672 -0.129694399
0.01308689149 -0.0005701016237 -0.06335490672 0.7908964473 -0.4072733733 -0.4567397608
-0.02007089329 0.005525758743 -0.04552445984 0.9735375229 -0.2209426576 -0.05838692899
0.002717145205 0.06060000229 -0.04035695076 -0.04858361201 0.9947054835 0.09055735098
-9.580525756e-05 0.06060000229 -0.04019002914 -0.06668863439 0.9614172892 0.2668884076
0.0140891695 0.05659893417 -0.0509474678 0.7980119655 -0.1824627076 0.5743555199
0.01618757868 0.04662269211 -0.06594758224 0.9567440621 0.002968462171 -0.2909157745
-0.002828980605 0.05894799805 -0.04023871867 0.273452563 -0.4300679396 -0.8603866939
0.009276959101 0.00195328176 -0.06948835246 -0.6179655027 0.4006844264 0.6764396705
-0.004335036278 0.05609705353 -0.04051226044 0.3341887286 -0.3101844328 -0.8900019727
-0.005040553093 0.05452878189 -0.04067102814 -0.2742384685 -0.01290661605 0.9615751045
-0.01511314297 0.02601035881 -0.04663331604 0.7551217093 0.008473408 -0.6555298663
-0.01599641132 0.04731770325 -0.04762527084 0.7734427112 -0.001251914885 -0.6338649739
0.006191851139 0.03586901855 -0.07651186371 -0.339361188 0.02560083225 0.9403077057
0.007560207367 0.01874986076 -0.07585771942 -0.4173657494 0.07190844234 0.90588907
-0.005752459049 0.05295002747 -0.04083153915 0.3078849994 0.01940335478 -0.9512257024
-0.006658055067 0.05014962578 -0.04113764954 -0.3336626536 -0.01180641255 0.9426186091
-0.007514050007 0.04716509247 -0.04147143936 -0.3762949117 -0.002789302996 0.9264957416
-0.008389209747 0.04413462639 -0.04181203461 -0.4209674108 0.0150096887 0.9069515689
-0.01943023777 0.05954681587 -0.05389308739 0.8793908241 -0.3397574281 -0.3335216162
-0.009208571434 0.04088975143 -0.04218458176 -0.4726077333 -0.008770512034 0.8812292599
-0.01168256187 0.02865647316 -0.04363513184 -0.5654157335 -0.007981322266 0.8247674502
-0.02040048599 0.01569428349 -0.05726169968 0.9907453193 -0.03298299733 -0.1316656153
-0.01214173985 0.02595762062 -0.04396203232 -0.6046730994 -0.008495666758 0.7964284441
-0.01713065052 0.05542942238 -0.07194060516 0.8450291251 -0.09039284808 0.5270245827
-0.01301777077 0.02026278877 -0.04465890121 -0.6847175344 0.1888547401 0.703914615
-0.01601462936 0.02848311806 -0.04764707565 0.7572931315 -0.01795563545 -0.6528282379
0.006981202364 0.06060000229 -0.04257645416 2.011723884e-13 1 4.433155523e-13
-0.01812262789 0.05849294408 -0.05095340474 0.8553974274 -0.2562994515 -0.4501175761
-0.002885793209 0.06060000229 -0.04195978642 0.198229024 -0.5947380007 -0.7790968903
-0.01530019617 0.02036993885 -0.07433955765 0.8146077018 -0.02751126007 0.5793594936
-0.007009845257 0.05899795151 -0.0412821312 0.2557272646 -0.3953782144 -0.8822015834
-0.007842487097 0.05615309715 -0.04160685921 -0.3708545915 0.1632642249 0.9142273595
-0.01653467655 0.03768822289 -0.04835420036 0.8077956146 -0.002555996223 -0.5894571333
0.01693316078 0.01917364883 -0.05836979675 0.9962596841 -0.009542840902 0.08588117417
0.01251117357 0.06060000229 -0.04580192439 -0.6112913231 0.3221926823 -0.7228518477
0.01660670471 0.03490884018 -0.05658927917 0.9731651706 0.00269700832 0.2300918878
0.01670030212 0.01615993929 -0.05655465317 0.9916391854 0.02677116491 0.1262340314
0.01622299385 0.009988334656 -0.06364089775 0.945585707 -0.1330796077 -0.296913268
-0.008689368248 0.05327397537 -0.0419368515 -0.4295058541 -0.0005686476076 0.9030638947
0.01574328995 0.04140735054 -0.05408247948 0.93504805 -0.007705713969 0.3544372529
-0.009441620827 0.05007974243 -0.04231552696 -0.4609996442 0.008986980056 0.8873548119
-0.01015627956 0.04671272659 -0.0427206459 -0.509093855 0.01057425777 0.8606460549
0.007596666336 0.04579476547 -0.07589100647 -0.4402125277 0.007685863792 0.8978607119
-0.01671755028 0.04916922379 -0.0486252861 0.8154720841 -0.006716714279 -0.5787574326
0.01447886848 0.05295072174 -0.05152812195 0.8465775277 -0.01008628876 0.5321698567
0.00704506731 0.004730138779 -0.07246257782 -0.5232214119 0.3532482186 0.7755353313
-0.01064064407 0.04442889023 -0.04299655151 -0.5098083011 -0.008865239931 0.8602423517
-0.01683020496 0.02871785259 -0.07240496063 0.8129061887 -0.006180669098 0.5823618529
0.01361496449 0.06034468842 -0.05034651184 0.7843429087 -0.3714955645 0.4967869232
-0.01159616089 0.03968952942 -0.04357426071 -0.5676410005 0.000711872144 0.823275888
-0.01244469261 0.03447454453 -0.04422406006 -0.5875744593 -0.0013437001 0.8091689868
-0.01885283566 0.01107692671 -0.04779197311 0.9358217608 -0.2720825749 -0.2240729889
-0.019609519 0.008782331944 -0.04807317734 0.9472244662 -0.2691758541 -0.1740981625
-0.008627626896 0.06060000229 -0.04268529129 0.2981397632 -0.5671933473 -0.7677267667
-0.009650648117 0.05875111008 -0.04244845581 -0.4688482199 0.2843291767 0.8362644713
-0.01044614887 0.06060000229 -0.04342933655 0.4503485229 -0.3870683505 -0.8045895226
-0.01034410858 0.05553869057 -0.04284355927 -0.4864505442 0.08669281416 0.8693964711
-0.01180363655 0.06060000229 -0.04718318176 0.5897698844 -0.47759701 -0.6512085529
0.009959894657 -0.0003694485873 -0.06732368851 0.6473428333 -0.4383575866 -0.6235301777
0.0148225832 0.02027447319 -0.0520641861 0.9316380267 0.0235814399 0.3626217077
-0.02045017242 0.02024180603 -0.0630099678 0.9923880121 0.005857461947 0.1230110706
-0.01425345707 0.03731707191 -0.04580127716 -0.6893553454 0.001373844424 0.7244220595
0.01568093268 0.04662409973 -0.05397067769 0.9068281292 0.003115001361 0.4214890756
-0.01549642467 0.0229920311 -0.04703191757 0.7629165201 -0.005262586657 -0.6464755901
-0.0202581768 0.03623267746 -0.06421727753 0.9862068955 0.005061856963 0.1654398284
-0.01399399757 0.034747715 -0.0454851265 -0.6864224385 -0.000362356012 0.7272029322
0.01167904139 0.01105317879 -0.07161565781 -0.6537250948 0.2119215483 0.7264521717
-0.01586153984 0.01985173416 -0.04744921875 0.7828083028 -0.09839639928 -0.6144341378
0.009854744911 0.06060000229 -0.0453946619 -0.5473487527 0.4621381312 -0.6977375513
0.006981202364 0.06060000229 -0.04454043388 -0.369147996 0.4994464608 -0.7837620748
0.009479392052 0.04806132126 -0.04641507721 -0.666581326 -0.001871441825 -0.7454299656
-0.005653518677 0.06060000229 -0.04372185516 0.1835782694 -0.5765046362 -0.7962043855
-0.01706244659 0.01902573395 -0.04894457626 0.8550840488 -0.1255754838 -0.5030527481
-0.01401946894 0.04700872421 -0.04556953812 -0.6837478793 -0.01749889439 0.7295084827
-0.00839966321 0.06060000229 -0.04483542347 0.2975443657 -0.5674574732 -0.7677625717
-0.01785067558 0.06060000229 -0.0602545414 0.8550770962 -0.5184725275 -0.005421976189
-0.01239088869 0.05877787781 -0.04420669174 0.5681574976 -0.2779171311 -0.7745702849
-0.01530221176 0.03439713287 -0.04684308243 0.7620371036 0.002748575841 -0.6475275269
-0.0163455658 0.0253531723 -0.04807638168 0.7643025372 -0.006905773797 -0.6448208604
-0.01966061719 0.01046096166 -0.05053907649 0.958863591 -0.2019346537 -0.1995069161
-0.02055388165 0.007009584904 -0.0542240715 0.9992458254 -0.02647744897 -0.02840290622
0.01593100595 0.01427927065 -0.06596105957 0.926920204 -0.08567385817 -0.3653476774
-0.02041230297 0.006574630022 -0.05131580544 0.9910189384 -0.1119679571 -0.07310704763
0.009793488503 0.05639954376 -0.0466348114 -0.6233914426 0.1892759666 -0.7586552034
0.01086181545 0.05129287338 -0.04742320633 0.6853889902 0.009926673246 0.7281094652
0.01238499737 0.04204547882 -0.04882509613 0.761066933 -0.004037133919 0.6486607935
0.006981202364 0.06060000229 -0.07799631373 0.2928980546 -0.5403514458 -0.78881623
0.01641403389 0.06060000229 -0.05387972641 0.8444139348 -0.4645443344 0.2667651928
0.01399112034 0.0289321785 -0.05078234482 0.8457746248 0.004100068299 0.5335245763
0.01442358971 0.02460979843 -0.05142295456 0.8908738532 0.01229284143 0.4540844235
0.01628047705 0.01350456285 -0.05388363457 0.9763454527 0.09206358563 0.1956370447
0.01573531723 0.05048801041 -0.05406563568 0.935889149 0.002958757306 0.3522821973
0.01700751877 0.008228755951 -0.05469163322 0.9962156849 0.02782245652 0.08234209118
-0.01371240616 0.05539200974 -0.04526056671 -0.6657662317 0.1093750827 0.738100546
-0.02007940102 0.05780074692 -0.06520133972 0.9602098439 -0.1923424803 0.2024880883
-0.01530331945 0.04372696114 -0.04686102676 0.738674751 0.001830943269 -0.6740595373
-0.01645905685 0.04850553894 -0.07292565918 0.8277532883 -0.01200594754 0.5609637697
-0.01583560371 0.03960083771 -0.04743280411 0.7454841346 8.790842329e-05 -0.666523366
0.000785606722 0.04130508804 -0.07763167572 -0.08983241888 0.01192568963 0.9958854926
-0.01684399319 0.0346819191 -0.04878341293 0.804229422 0.0004871840486 -0.5943187692
0.002964691321 0.04942717743 -0.07739663696 -0.1438046625 -0.02411946656 0.9893121198
-0.01710191154 0.02745628929 -0.04914313126 0.8358343103 -0.006108897391 -0.5489477999
0.01552055454 0.02565680027 -0.05355614853 0.9106390731 0.02233195656 0.4125987909
-0.01976664162 0.04996016312 -0.06623019791 0.9615125286 0.002559410368 0.2747491706
-0.01938982391 0.01267900944 -0.05120572662 0.945468618 -0.1885646354 -0.2655794997
-0.01548359108 0.05971486282 -0.04708401489 0.7105852884 -0.3174155025 -0.6279458151
-0.02039711761 0.001763324738 -0.05353287125 0.994540269 0.05163351615 0.09068425092
0.01543440437 0.06060000229 -0.04867343012 0.7591895158 -0.4180042062 0.4989025584
0.01299652926 0.06060000229 -0.04804580816 0.6827059241 -0.3614375933 0.6350397525
0.01182367992 0.05958189964 -0.04832756233 0.7330063677 -0.3111687726 0.6048765659
0.01176146317 0.05539244843 -0.04825701523 0.7437940098 -0.1066270519 0.6598493334
0.002727533102 0.02998190117 -0.07747912598 -0.2100971688 -0.01365353827 0.9775851679
0.01303330708 0.04689536285 -0.04956937408 0.767171467 0.003965204266 0.6414298226
0.01402353859 0.03865299988 -0.05082879639 0.8463586402 -0.003651681661 0.5326008988
0.01443857574 0.03458028412 -0.05144733429 0.867683288 0.004757234448 0.4970946393
0.01479842186 0.030545681 -0.05205751038 0.8881153928 0.003188560576 0.4596094887
-0.01806124687 0.0260531311 -0.0507112236 0.8699668074 0.01557824517 -0.4928641519
0.0154328537 0.022423563 -0.0532827034 0.9299645418 0.01784675784 0.3672158005
0.01583120155 0.01806434822 -0.05394574738 0.9510016364 0.05630335101 0.3040161512
-0.01315609741 0.06060000229 -0.04581858444 0.6062911956 -0.3963656421 -0.6894238637
-0.01680521679 0.04399465561 -0.0487476635 0.8305156261 0.01351000073 -0.5568314598
-0.01814601612 0.0382054882 -0.05091468239 0.8814317491 0.002302967614 -0.4723057992
-0.01820248508 0.02849186611 -0.05103806305 0.889102495 -0.008863155545 -0.4576223311
0.01104107952 0.04482796097 -0.07361273193 -0.6485764263 0.02061012679 0.7608704501
0.01121431494 -0.001396188706 -0.06521208954 0.7074231598 -0.4384486892 -0.5543601896
0.01567364184 0.05544281642 -0.05396270498 0.9112589049 -0.1187978646 0.3943276247
-0.002007043362 0.05246889877 -0.07754231644 -0.04976825439 -0.001543573468 -0.9987595998
-0.01909346962 0.01625199318 -0.05214396286 0.9338654907 -0.121866014 -0.3362200469
-0.02027680588 0.04768095398 -0.05727178383 0.9907257179 0.009410345253 -0.1355507184
-0.02024092388 0.0106937418 -0.05366937447 0.984080212 -0.1285964268 -0.1226747546
0.01659367943 0.04880557251 -0.0564811554 0.9790594831 -0.009782814257 0.2033391875
0.01308888245 0.05567517471 -0.0496602478 0.7657645854 -0.1222288613 0.6313990063
-0.02052335835 0.006915810108 -0.05722844696 0.9998981997 0.01395547212 0.002972366324
0.01478926563 0.04023150253 -0.05206700134 0.8788448931 0.006727304651 0.477060161
0.0157614336 0.03181061172 -0.05411575699 0.9184008377 -0.006494353249 0.3955979332
0.01614598274 0.02087880898 -0.05504943848 0.9565377948 0.04518759053 0.2880859746
0.01789032173 0.06060000229 -0.06895003891 0.8784301233 -0.394406153 -0.2698227286
0.0158714695 0.05314286041 -0.05434302139 0.9355991856 -0.009372049782 0.3529395536
0.01700885963 0.0118898859 -0.05722601318 0.9984804984 0.02638870487 0.04837696362
0.005308027267 0.02034640884 -0.07683422089 -0.341286572 0.02369359467 0.9396606245
0.01355329895 0.004820794582 -0.0666725769 0.7797248592 -0.3192125588 -0.5386394771
0.01684215546 0.004867511749 -0.05750644302 0.9777980905 -0.1395113467 -0.1563568943
0.01299652926 0.06060000229 -0.07274906667 0.7096701251 -0.3984390234 -0.5810461756
0.01279770064 0.05910393143 -0.07179122734 0.7486025215 -0.2762093687 -0.6027459244
0.009853397846 0.02251306343 -0.07452276611 -0.5641894469 0.01799257712 0.8254492929
0.01703310966 0.05663544846 -0.0620777359 0.9938020748 -0.07794995425 -0.07925427944
-0.01785067558 0.06060000229 -0.05703041585 -0.6777191828 0.7213177861 0.1428193291
0.01563825893 -2.504292876e-05 -0.05816769409 0.9196658923 -0.249396626 -0.3033413415
-0.01648816299 0.05552184105 -0.04830895805 0.8122496048 -0.08526676331 -0.5770443298
-0.01677160263 0.05280788994 -0.04871354485 0.7960896562 -0.0277147351 -0.6045437559
-0.0201790123 0.005857917786 -0.05967311478 0.9957278559 0.05110304703 0.07690588797
-0.01700733566 0.04634194946 -0.04904334641 0.8138853853 -0.009644265344 -0.5809454085
0.00549891758 0.04711875153 -0.07678894043 -0.3364840513 0.00932359789 0.9416430076
-0.01788561249 0.04129567337 -0.05044506836 0.8725945898 0.002097452668 -0.4884406643
-0.01972512817 0.02242753601 -0.0547430172 0.9636513264 -0.008259060257 -0.2670354079
0.004635340214 0.03931949234 -0.07703665161 -0.3253917399 -0.02090622809 0.9453481608
0.0148226347 0.04120531972 -0.06900461833 0.8627695999 -0.007815870825 -0.5055368727
-0.01839003658 0.03499881554 -0.05140435791 0.8953373666 0.006402765279 -0.4453425698
0.01789032173 0.06060000229 -0.05131838417 0.7170627086 -0.6012636446 0.3525664499
0.01705138206 0.05085487747 -0.05965293312 0.9955165227 0.00253909306 0.09455371993
0.01567931175 0.06060000229 -0.05113959789 0.7956730633 -0.3397190609 0.5014931066
0.0147878685 0.04939603424 -0.05208941269 0.870763607 0.004325038429 0.4916828599
0.01589324856 0.03478190231 -0.05439468765 0.9319618684 0.005991637683 0.3625067945
0.01653811073 0.02686204147 -0.05639201546 0.9687931022 -0.008285198711 0.2477322762
0.01664963341 0.019787817 -0.05674882507 0.9710407581 0.01440438363 0.2384792651
0.01698942947 0.008269329071 -0.05855150604 0.991053776 -0.061530597 -0.118433098
0.0163052578 0.004826162895 -0.06008174006 0.9529359739 -0.1712800434 -0.2501523062
0.01551130772 0.001557684322 -0.0600185674 0.9150133548 -0.2738442457 -0.2962429571
0.01863193989 0.06060000229 -0.0567684803 0.9351802839 -0.3406922781 0.096781239
0.01436038065 -0.0009484098554 -0.06059801292 0.8382146809 -0.3825798474 -0.3886242518
-0.01935098553 0.02968915176 -0.05358631134 0.9256935714 0.002870433886 -0.3782633639
0.007530073643 0.05804001617 -0.07590843201 -0.2909423247 0.2275886466 0.9292771232
0.01479383278 0.05808301163 -0.05212412262 0.842141512 -0.2084814717 0.4973259994
0.01677265644 0.02969341087 -0.05743375397 0.981802981 -0.01547013604 0.1892711849
-0.01477116585 0.06060000229 -0.05057315903 0.7303127308 -0.4519203322 -0.5122609966
-0.01718410683 0.06060000229 -0.04938996124 0.7303127308 -0.4519203322 -0.5122609966
-0.01803665161 0.05601444626 -0.05072166824 0.8753490067 -0.1438346082 -0.4616012586
-0.01955710888 0.03428327179 -0.05421333122 0.9603986092 -0.009031030221 -0.2784833064
-0.01978149891 0.02259096622 -0.06623334122 0.956282929 -0.01122746773 0.2922274863
-0.02019149113 0.01948107052 -0.05664055252 0.98120474 0.006458740507 -0.1928614602
0.01572747707 0.05911388016 -0.05406065941 0.9154679674 -0.2574328879 0.309268021
0.01660906219 0.03965406418 -0.05655288696 0.980334329 0.01591763138 0.1967008705
0.01505305513 0.05279600525 -0.06861129761 0.8724590557 -0.003179356541 -0.4886768746
0.0170571003 0.02576312828 -0.06179231644 0.9987730768 0.002894359509 -0.04943646077
0.01682758141 0.03284743118 -0.05766223145 0.9894799884 0.0121311564 0.1441602846
-0.01471832275 0.05784710693 -0.07494438171 -0.6544970421 0.3998112622 -0.6417044308
0.01707307434 0.02233198547 -0.06012653542 0.999835152 -0.00620832681 0.01706239947
-0.02057046223 0.01620140362 -0.0600897274 0.999852986 -0.01071406522 0.01338712843
0.01457727337 0.002440885901 -0.06322302055 0.854372728 -0.3301562982 -0.4013029534
0.01600683546 0.006763211489 -0.06260980415 0.9449903415 -0.1700110591 -0.2794449754
-0.01947953701 0.04368804932 -0.0540089035 0.9471424268 -0.00358987263 -0.3207932919
-0.01991751671 0.03128631592 -0.05538860321 0.9652432062 -0.002477248497 -0.2613415699
-0.02021082687 0.02383569717 -0.05662721252 0.9797139625 0.001101830162 -0.2003979481
-0.02054663467 0.01161920071 -0.05941555023 0.9995248816 0.01941121814 0.02394192188
0.01677948856 0.0469464798 -0.05749755287 0.9886401223 0.002211519509 0.1502857871
-0.01920715332 0.04482462692 -0.0680432663 0.9415879209 -0.01054695231 0.3366020633
0.01689091873 0.03908327866 -0.05809642029 0.9888103716 -0.008970743954 0.1489079407
0.01702929211 0.03564490128 -0.05939610863 0.9954138971 0.004153387894 0.09557155881
0.01707018185 0.03234514618 -0.05994939041 0.999803528 -0.003405607398 0.01952708821
0.01707819366 0.02905370426 -0.06049980736 0.999802047 0.007577633035 -0.01839690958
0.01641403389 0.06060000229 -0.05589577103 0.91913975 -0.3537251288 0.1733800831
0.01695840263 0.01559438133 -0.0619867363 0.9961497142 -0.03028707278 -0.08227053043
0.01661725712 0.01275798845 -0.06320261574 0.9665940812 -0.09587659431 -0.2377047767
0.01705576134 0.05084638596 -0.06174148941 0.9991687046 -0.01076903723 -0.03931828469
0.01349380207 0.001090135455 -0.06416118622 0.778624978 -0.3943805663 -0.4880646601
-0.02017996216 0.04370981407 -0.05665173149 0.9731692445 -0.00360072289 -0.230062288
-0.01902690697 0.05509847641 -0.05275654984 0.9230115115 -0.05196418053 -0.3812472603
-0.01958348942 0.04947750854 -0.0543410759 0.9602929602 -0.006094506851 -0.278927029
-0.02029275036 0.03234417152 -0.05727751923 0.9918191329 0.003833196494 -0.1275935512
-0.0203945713 0.02436841583 -0.05795290375 0.9959117492 -0.00201321607 -0.09030910643
-0.02054495049 0.02052053134 -0.06005568441 0.9993373256 -0.005969369695 -0.03590649326
0.01675225449 0.05574795341 -0.05741146278 0.9822467581 -0.09224752956 0.1633453381
0.0170348498 0.04494393794 -0.05996921031 0.997685962 -0.01068671212 0.06714547895
0.01679557037 0.01947169209 -0.06359747505 0.9897824734 -0.02032920087 -0.1411289443
0.01676445007 0.01601937675 -0.0634271431 0.9825463185 -0.001711234871 -0.1860102248
0.01498055426 0.007845719337 -0.06572917938 0.8861134484 -0.1914170068 -0.4220929826
-0.01785067558 0.06060000229 -0.05381947136 0.8460992973 -0.4066627859 -0.344588679
-0.01959431076 0.05655527878 -0.05441048622 0.9382566781 -0.1817692048 -0.2943371574
-0.02028238869 0.04018950462 -0.0572725029 0.9871917808 -0.007183833251 -0.1593762228
-0.02053945033 0.02896552467 -0.05996932348 0.9987338488 -0.01134158917 -0.04901089324
-0.02056497478 0.02486246014 -0.05999764442 0.9986494783 0.005213255024 -0.05169179298
-0.02008228874 0.01021351862 -0.06266395187 0.984712135 0.0683739445 0.1602092846
0.01692139816 0.05400124741 -0.05840977859 0.9915740823 -0.006044702967 0.1293997716
-0.002552467287 0.04055666161 -0.07746960449 0 0 1
0.01702732658 0.03243387604 -0.06212244797 0.9974625472 -0.005451941705 -0.07098410581
0.01695800781 0.02930533791 -0.06265847778 0.9948562954 -0.006554937694 -0.1010840453
0.01688733482 0.02612259102 -0.06320498276 0.9880263326 0.001253081769 -0.1542802511
0.0168003006 0.02291614532 -0.06375546646 0.9791256291 0.0005716357049 -0.2032551984
0.01517696794 0.0111100626 -0.06672255707 0.8851763945 -0.1570508382 -0.4379472398
-0.02018234158 0.05105563927 -0.05666444588 0.9837315109 0.003750728148 -0.1796058085
0.01606210009 0.05564982351 -0.0662970047 0.9559307376 -0.1314330117 -0.2625295952
-0.02053332329 0.03699775696 -0.05989458211 0.9981711659 -0.004213959914 -0.06030394848
0.009672639847 0.01384017277 -0.07398891449 0.5704353793 -0.159249266 -0.8057562592
-0.02056166363 0.0331022892 -0.05991580009 0.9980821161 -0.002702069121 -0.06184487247
0.01703429222 0.05943494987 -0.05953047752 0.9816907718 -0.1655828299 0.09415707639
0.01707250881 0.05656065941 -0.06003915977 0.9948360397 -0.0893194928 0.04820043871
