# .PCD v0.7 - Point Cloud Data file format
VERSION 0.7
FIELDS x y z normal_x normal_y normal_z
SIZE 4 4 4 4 4 4
TYPE F F F F F F
COUNT 1 1 1 1 1 1
WIDTH 560
HEIGHT 1
VIEWPOINT 0 0 0 1 0 0 0
POINTS 560
DATA ascii
-0.0008564075828 0.02770175743 -0.0776501236 -0.08961831003 0.2140756156 -0.9726973781
0.003807792425 0.02020538712 -0.005025826454 -0.1889786431 -0.9819805415 -0.001135160955
0.01353757286 0.05187332535 -0.07097171021 0.780872832 -0.001465621707 -0.6246883
-0.02051059914 0.04460458946 -0.05916468048 0.9984690416 -0.00121281346 -0.05530010867
-0.0202820282 -0.003497123003 -0.006736346245 0.9535255216 0.3013122628 1.828588491e-06
0.01709183693 0.04782915497 -0.06088058853 0.9999162229 -0.01270811734 -0.002459883108
0.001356535941 0.02050244999 -0.00500726676 -0.05117157373 -0.9986891908 -0.001170599817
-0.002456977844 0.020406147 -0.004986711502 0.1022868252 -0.994754574 -0.0008619344172
-0.01920715332 0.04482462692 -0.0680432663 0.9351403029 0.008449095734 0.3541768297
-0.01176933289 0.01683834839 -0.00498686552 0.5749441793 -0.8181923826 -0.0006448284973
0.003423308849 0.06060000229 -0.04300006866 2.736389595e-13 1 8.499996168e-13
-0.006667385101 0.0194478035 -0.004976869583 0.3367330994 -0.9415993976 -0.001180771633
-0.0129783783 0.01599028778 -0.00499275732 0.6325942887 -0.7744831207 -0.0006013175868
-0.01430762863 0.06012756348 -0.04581737137 0.5444483158 -0.6042688583 -0.5817518185
-0.0009836531878 0.02056319427 -0.03291855431 0.06025092878 -0.9981470751 0.008499532116
-0.0092937603 0.01835256577 -0.01922267342 0.4572135149 -0.8892899209 -0.01091963611
-0.01411719513 0.01493408871 -0.005002098083 0.6568190917 -0.7540478013 -0.0007707665033
-0.01524647045 0.01383436394 -0.005012209892 0.7384545135 -0.6743025928 -0.0009720178536
-0.01059862566 0.04950326157 -0.04298680687 -0.5638679948 0.001643132397 0.8258632965
0.01675236702 0.01245847797 -0.06249398041 0.9790799048 -0.07305787236 -0.1899081022
0.01705688286 0.04789766312 -0.05946390152 0.9988282085 -0.007758063981 0.04777051749
-0.01681847858 0.01179175138 -0.005033849001 0.8238163939 -0.5668556781 -0.001090611372
-0.01829458427 0.009411403656 -0.005061034679 0.8798169153 -0.4753112294 -0.001196148934
0.003800210476 0.02022344112 -0.03894587135 -0.1949735137 -0.9804685582 0.02582121969
0.01745800018 0.01089422989 -0.03908668137 0.9115455823 0.4111990412 -9.212182281e-08
-0.01916095734 0.00742442894 -0.005085650921 0.9375203872 -0.3479250839 -0.001912997388
-0.01991722107 0.005053650379 -0.005116457939 0.9734178719 -0.2287712592 -0.01101624472
-0.008007738113 0.01897233963 -0.0227843914 0.3918349413 -0.9200059929 0.007372371637
-0.02027438736 -0.003521308899 -0.005239501953 0.9535255216 0.3013122628 1.828588491e-06
0.01393216038 0.01512634563 -0.01548497009 0.615515391 0.7881237339 0.001335507627
-0.02044523811 0.02451531601 -0.06293346024 0.9964118115 0.01113572527 0.08390171386
0.01751836395 0.01076041508 -0.00673967123 9.387658015e-08 -0.9999227733 -0.01242768828
0.01699876976 0.02249111176 -0.06234326935 0.9926828934 -0.00290870994 -0.1207154198
0.01394536877 0.01509672165 -0.006633261204 -0.6186870152 -0.785636444 -0.001324821186
0.01146975994 0.01705978394 -0.02857136345 -0.5668259729 -0.823815415 0.006039738022
-0.01055612183 0.01766550255 -0.01495347404 0.5151032329 -0.8571279745 -0.0005428767687
0.01745800018 0.01089422989 -0.01872947311 0.9115344903 0.4112236289 3.995225227e-08
-0.01055612183 0.01766550255 -0.01709343147 0.515774151 -0.8566921569 -0.007454765272
0.0161421566 0.03426655197 -0.06610402679 0.9468115879 -0.007523081581 -0.3217005132
0.01147897625 0.01703886795 -0.0065787673 -0.5750267413 -0.8180257011 0.01334912434
0.001671218872 0.05983238029 -0.07756245804 0.0129459786 -0.7697968774 -0.6381576366
0.01630756378 0.05229722595 -0.06558190155 0.9496484149 0.001036879912 -0.3133158357
0.007349398136 0.01923982239 -0.01519112778 -0.3390508638 -0.9407105383 -0.01040167693
0.009327170849 0.0183191433 -0.007265565634 -0.4706148499 -0.882291163 -0.009163332265
-0.01177536964 0.01685490704 -0.02713030148 0.5733943856 -0.8192358412 -0.008456656274
-0.004604529858 0.02002987337 -0.007114889145 0.2211372599 -0.9751891116 -0.01022295804
0.007349461555 0.01923967457 -0.007229993105 -0.3395468393 -0.9405348699 -0.01010457688
0.01389947796 0.0151996479 -0.03921942902 -0.6141996414 -0.78669146 -0.06225228743
0.003802157402 0.02021880531 -0.02661968422 -0.2033799879 -0.9790608975 0.008737249135
-0.006677989483 0.01947538471 -0.02707492733 0.3352562603 -0.9420885686 -0.008506989639
0.005541002989 0.0197983551 -0.00720326519 0.2620432549 0.9650529857 0.002463178948
0.007349398136 0.01923982239 -0.02680483627 -0.3374508357 -0.9412955739 0.009464465615
-0.01079276562 0.02235540771 -0.04306446457 -0.5428779801 0.02302075319 0.8394960057
0.003806853175 0.02020762444 -0.007180312634 -0.1892478529 -0.981883688 -0.009469608891
-0.01652921486 0.01750137138 -0.04774292755 0.8087517524 -0.2597192738 -0.5276992532
-0.002469497681 0.02043748093 -0.03936330795 -0.09982308552 0.7815074028 0.6158583693
-0.02029201317 -0.003465507984 -0.02097900486 0 0 1
-0.02031103706 0.001494895697 -0.0543333931 0.9522350239 0.305366107 4.259572334e-09
-0.02038475609 0.04047029495 -0.06337036896 0.9875023632 0.008153480295 0.1573931491
0.001355441034 0.02050510883 -0.007153786302 -0.05078336038 -0.9986630916 -0.009647782521
-0.02048790359 0.002046428204 -0.02880184937 0.982944558 -0.1838974762 -0.001309227233
-0.01829695415 0.06004868507 -0.0513217392 -0.5500836455 0.7377503103 0.3913214313
-0.01583560371 0.03960083771 -0.04743280411 0.7514619162 -0.001339016422 -0.6597751098
0.01476374531 0.002007490635 -0.06252061462 0.854666475 -0.3431414562 -0.3896141137
-0.0009793950021 0.02055267143 -0.00713354373 0.05827364495 -0.9982501482 -0.01004111114
-0.01936562729 0.0337508316 -0.05362145996 0.9313815017 0.004781792653 -0.3640132317
-0.01055612183 0.01766550255 -0.007116882324 0.5137231653 -0.8579264306 -0.007123845015
-0.002457308531 0.02040697575 -0.007124464273 0.1035362197 -0.9945760507 -0.009936323094
-0.01331697273 0.05773946381 -0.04494521713 -0.6599237726 0.1775161474 0.7300607042
0.00553311944 0.0198168993 -0.01874448681 -0.2663308458 -0.9638706859 0.00460232236
0.01585694504 0.05604341698 -0.06689105606 0.9370582366 -0.01001771803 -0.3490293777
-0.00800195837 0.01895710754 -0.007110032558 0.3899103159 -0.9208142733 -0.008427311004
-0.01413184357 0.01497538471 -0.03297491074 -0.6589808169 0.7521594232 0.0006963615799
-0.009288191319 0.01833769417 -0.007112779379 0.4549934611 -0.8904458982 -0.009330210962
-0.0129783783 0.01599028778 -0.00713312149 0.6319948879 -0.774929961 -0.008125094207
-0.02036631966 0.006433363438 -0.05059406281 0.978312826 -0.1779340759 -0.106035273
-0.004609313667 0.02004206514 -0.03714958572 0.2276635209 -0.9611851139 -0.1558605086
-0.01411831808 0.01493725443 -0.007146391392 0.6597371808 -0.7514851642 -0.004110984939
0.01147682571 0.01704375076 -0.01535898781 -0.573399558 -0.8191799372 -0.012537045
-0.0129783783 0.01599028778 -0.02501047325 0.6306826566 -0.7760407702 -0.0003312120881
-0.01524732733 0.01383681345 -0.007160854578 0.7377987197 -0.6749453419 -0.01009131308
-0.01991722107 0.005053650379 -0.01316241312 0.9731683007 -0.2298752571 -0.01004114579
0.002727533102 0.02998190117 -0.07747912598 -0.2020486016 0.03603956476 0.9787121703
0.01704929924 0.05660471725 -0.05934469604 0.9942102404 -0.07416948771 0.07774885824
-0.01681930971 0.01179418707 -0.007191770911 0.8237750492 -0.5668544661 -0.008407291079
0.01161892223 0.001605433106 -0.06709568024 0.6799430372 -0.4216348041 -0.5999179595
-0.0129783783 0.01599028778 -0.02285951805 0.6303285565 -0.7762933689 0.007383506973
-0.01829583454 0.00941513443 -0.007230580091 0.8795112188 -0.4757572755 -0.01072524588
-0.01916232014 0.007428558826 -0.007265740395 0.9374589048 -0.3479687597 -0.009409784125
-0.02048790359 0.002046428204 -0.036983284 0.9835730432 -0.1805104995 0.0001679135795
-0.009295258522 0.01835656357 -0.0328218441 0.4569411805 -0.8894640245 0.00764896435
-0.01991722107 0.005053650379 -0.006578637123 0.9735684085 -0.227981138 0.01375335364
0.01177004242 0.01997566605 -0.07294047546 -0.6877715085 0.04542683516 0.7245044891
-0.01991722107 0.005053650379 -0.008772435188 0.9734648905 -0.2285013795 0.01237846671
-0.02056726837 0.007050711632 -0.05496267319 0.9957183419 -0.09227196505 -0.005555899756
-0.02006733704 0.01911595726 -0.05598595047 0.9728571876 -0.01745442024 -0.2307471253
-0.02055856705 0.01616591454 -0.05936503983 0.9481567161 0.3178031493 9.132245065e-08
-0.02046476269 0.001974267542 -0.008844752789 0.9845916552 -0.1748651674 -0.001202385277
0.009325429916 0.01832314301 -0.009446105003 -0.4705901751 -0.8822964304 -0.009894245407
-0.006679020405 0.01947806549 -0.02922304916 0.3355026012 -0.9419818218 -0.0104044258
0.003801128507 0.02022125435 -0.0331340332 -0.191539812 -0.9814187847 -0.01138725308
-0.01592994881 0.0200445919 -0.07362145233 0.7278117731 0.09137272497 0.6796624516
0.0140891695 0.05659893417 -0.0509474678 0.8175104238 -0.008280494294 0.5758542702
-0.01177630997 0.01685748482 -0.02928283119 0.5731173948 -0.8194113757 -0.01007219696
0.007349398136 0.01923982239 -0.009399971008 -0.3273971405 -0.9448706888 -0.005522116782
-0.01830265427 0.009435484886 -0.03921803284 0.8777611587 -0.4781763409 -0.02971086008
0.005539526463 0.01980182838 -0.009365121841 0.2621811302 0.9650147935 0.002739205205
-0.01436394072 0.01562971067 -0.04302070618 0.7329160765 -0.5786571712 -0.357756765
-0.02015207672 0.005775168419 -0.04697503471 0.9847627501 -0.1554144478 -0.07802996484
0.007349398136 0.01923982239 -0.032634552 -0.3387534436 -0.940810525 0.01102998622
0.003805913448 0.02020986176 -0.009335317612 -0.2013339735 -0.9795107613 -0.00482695678
-0.01935919476 0.00802454257 -0.04523141289 0.942896162 -0.2981741923 -0.1484553086
0.009578107834 0.02489186096 -0.07475682831 -0.563081876 0.009586607159 0.8263455076
-0.02029201317 -0.003465507984 -0.0187264328 1 -0 -1.132624127e-14
0.00948602438 0.0599009285 -0.07501780319 0.4314961491 -0.6237768538 -0.6517004757
0.001354345828 0.02050776863 -0.00930081749 -0.05067703052 -0.998658738 -0.01060960073
-0.02030269909 0.0241020565 -0.05729005814 0.9871707126 0.002424478818 -0.1596499486
-0.0009806425571 0.02055575371 -0.009274487495 0.07334420191 -0.9972702725 -0.008522422239
-0.002457638979 0.02040780258 -0.009262748718 0.103470514 -0.9945772933 -0.01048142763
-0.004605211258 0.02003161716 -0.009250273228 -0.2211059109 0.9752458238 -0.00278556013
-0.007474291325 0.03660375977 -0.04144815063 0.3551069974 0.01353828964 -0.9347276262
-0.01818024635 0.04208244324 -0.05098057556 0.8809828382 -0.00296639016 -0.4731389217
-0.008002950668 0.01895972252 -0.009243933678 0.3771814266 -0.9261125096 -0.007056268534
0.01479383278 0.05808301163 -0.05212412262 0.8618928275 -0.1224294588 0.4920892008
0.001364378959 0.04166089249 -0.07760834503 -0.09489654033 0.2180547747 -0.9713118767
-0.009289173126 0.01834031487 -0.009247505188 0.4554872384 -0.8901726181 -0.01113937164
-0.004605665445 0.02003277969 -0.01067430019 -0.2209402722 0.975277883 0.004294998336
-0.0129783783 0.01599028778 -0.009274029732 0.631606117 -0.7752286789 -0.009706103441
-0.008689368248 0.05327397537 -0.0419368515 -0.4155259198 -0.001874107312 0.909579407
0.004841601372 0.06060000229 -0.08048488617 0.005898799655 0.9982314302 0.05915417046
-0.0009836531878 0.02056319427 -0.02071082687 0.07477771795 -0.9971754599 0.007028167073
-0.002552467287 0.04055666161 -0.07746960449 0 0 1
-0.01411944103 0.01494042015 -0.009291189194 0.6593892658 -0.751786643 -0.004758105087
-0.009295258522 0.01835656357 -0.03066809082 0.4570615349 -0.8893856784 0.00937381008
0.001785460353 0.0356389389 -0.07758255768 -0.09217569414 0.2157863031 -0.9720801988
0.0168003006 0.02291614532 -0.06375546646 0.981014088 0.0009940899811 -0.1939339347
-0.0152481842 0.01383926392 -0.009310014725 0.7376053289 -0.6751194735 -0.01233188054
-0.01682014084 0.01179662275 -0.009350211143 0.8236843249 -0.5669534364 -0.01038912416
0.01707106972 0.01175197792 -0.05878669739 0.9984823841 -0.02327241127 -0.04991316038
-0.01682393217 0.0118076551 -0.0331869669 0.822494068 -0.5686910432 -0.00969564056
-0.01829708481 0.009418866158 -0.009400630951 0.879447898 -0.4758056281 -0.01343126891
-0.01916368484 0.00743268919 -0.009446332932 0.937616337 -0.3475249328 -0.0101007716
-0.0129783783 0.01599028778 -0.02931925583 0.6305498799 -0.7760781917 -0.01046371363
0.01749316978 0.01081626511 -0.01123334789 0.7697403967 -0.6382395364 -0.01224809717
-0.01803665161 0.05601444626 -0.05072166824 0.8714433786 -0.004518969444 -0.4904752968
0.00891121006 0.03655052948 -0.07517618561 -0.5288447527 -0.004624378777 0.8487059813
0.01393876743 0.01511152744 -0.01105743122 -0.6171020848 -0.7868824603 -0.001005293532
0.01147790146 0.01704130936 -0.01096703053 -0.5735049342 -0.8192017488 0.0007649349959
0.01057628918 0.06060000229 -0.04346841431 0.007268907076 0.999477727 -0.03148707988
0.009324268341 0.01832580948 -0.01090022564 -0.4713933287 -0.8819014771 0.006173684813
0.009315380096 0.01834622192 -0.02693435478 -0.4698091507 -0.8827414297 0.006850571103
-0.01710191154 0.02745628929 -0.04914313126 0.8306994981 0.007421919376 -0.5566715899
-0.01814245796 0.01783897781 -0.05050559998 0.8848617982 -0.08011234152 -0.4589135113
-0.01779135513 0.02937336922 -0.05022357559 0.8664031988 -0.001955446565 -0.4993412394
0.007349398136 0.01923982239 -0.010847085 -0.3270341463 -0.9450024939 0.004353583237
0.007349398136 0.01923982239 -0.03921735573 0.3251865624 0.9428405848 0.07283770472
0.005538541317 0.01980414391 -0.01080678844 -0.2647435346 -0.9643121164 0.003605971449
0.01662816238 0.02999593735 -0.05664193726 0.9719963137 0.005661192501 0.2349278975
0.007349398136 0.01923982239 -0.02316995144 -0.3384714229 -0.9409403068 -0.008272534828
-0.02047249985 0.00199839139 -0.01548439217 0.9838895232 -0.1787726986 -0.001314708896
0.003805286884 0.0202113533 -0.0107724247 -0.2006855882 -0.9796407042 0.005420827516
-0.0006333744526 0.05099917221 -0.04003609085 -0.05537301849 0.1223270023 -0.9909439607
-0.01524875546 0.01384089756 -0.01074322319 0.7372226708 -0.6755687785 0.01046704772
0.001353615493 0.02050954151 -0.01073260355 -0.05047325209 -0.9986904766 0.008353611128
-0.007514050007 0.04716509247 -0.04147143936 0.352070189 0.0229248477 -0.9356928093
-0.0009814744592 0.02055780983 -0.01070220947 0.07360897084 -0.9972646506 0.006703440217
-0.0163455658 0.0253531723 -0.04807638168 0.7785931796 -0.004393593639 -0.6275136309
-0.01682464886 0.01180973291 -0.03682229614 0.8226120817 -0.5685527251 0.007560541254
0.001343937814 0.02053300285 -0.03517871666 -0.0507516798 -0.9986615727 -0.009966452361
-0.002457859516 0.02040835381 -0.01068871784 0.1037007868 -0.9945702878 0.008722921652
-0.009204311371 0.05118996048 -0.04218230438 0.4323573884 0.008643273898 -0.9016609022
-0.008005599022 0.01896670151 -0.0149386158 0.3904946646 -0.9206048197 -0.0008262989279
-0.006670115948 0.01945490456 -0.0106674509 0.3362507036 -0.9417340364 0.008512877162
-0.01176933289 0.01683834839 -0.01068912601 0.5742427981 -0.8186186816 0.01042415719
0.01147316504 0.01705205822 -0.0248946476 -0.5716686044 -0.8204836775 0.001241627683
-0.008003612518 0.01896146584 -0.01066696453 0.3774131708 -0.9260317767 0.004944405734
0.001910948038 0.02833772087 -0.04010498428 -0.04815873588 0.114723085 -0.9922294845
-0.01055612183 0.01766550255 -0.01067739105 0.5143813763 -0.8575278884 0.007597394136
0.01569962692 0.03518278122 -0.06735276031 0.9135357132 0.01079225955 -0.4066153316
-0.0129783783 0.01599028778 -0.01070175457 0.6312563923 -0.775524418 0.008788870141
-0.0152504034 0.01384560966 -0.02079024887 0.7392357504 -0.6733836676 0.009216372784
0.01688123226 0.03910289383 -0.06311474609 0.9890897831 0.002525401393 -0.1472923055
-0.01412019062 0.01494253159 -0.01072148323 0.6591457217 -0.7520079646 0.003307390848
-0.01682069492 0.01179824734 -0.010789608 0.8234075452 -0.5673890114 0.008350102596
0.01708696175 0.03868626785 -0.06104811859 0.9999695699 -0.005687609795 -0.005339508625
-0.004964316368 0.06060000229 -0.04312110138 -0.03989390846 0.9820771305 0.1842090819
-0.01015627956 0.04671272659 -0.0427206459 -0.4848797707 0.002161035411 0.8745781486
-0.01829791832 0.009421354294 -0.0108477602 0.8791135813 -0.4764848296 0.01102353227
0.01605172157 0.04078274155 -0.06632714081 0.9485018167 0.002031575596 -0.3167651754
-0.01273169708 0.04256781006 -0.04447847748 -0.6384557082 0.001892420714 0.7696562397
0.00337755084 0.043736166 -0.07733914185 0.2617666735 -0.05395343335 -0.9636219361
-0.009295166016 0.01835631752 -0.02279294205 0.4570999482 -0.8893803343 0.007890395279
-0.01412356377 0.01495204258 -0.01716348743 0.6835945978 -0.7297719218 -0.01146158453
-0.01916459465 0.007435443401 -0.01090048885 0.9381832032 -0.3460853396 0.006100413083
-0.01770346642 0.01656623077 -0.04926508331 0.8720717738 -0.1948961568 -0.4488945416
-0.02049935722 0.04457416916 -0.06255195618 0.9971410731 -0.003408823374 0.07548549646
-0.02029201317 -0.003465507984 -0.02699497604 1 -0 -1.406081421e-14
0.001350326017 0.02051752806 -0.01718136692 -0.05108016074 -0.9986513269 -0.009292168132
-0.01991722107 0.005053650379 -0.01096690178 0.9731870121 -0.2300136618 0.0008688589685
0.01748476982 0.0108348875 -0.01273166275 0.5416189913 -0.8405159563 -0.01348315286
-0.0117725563 0.01684718895 -0.02068527794 0.5738653638 -0.8188953872 0.009428095786
0.01709174728 0.022291996 -0.0608836441 0.9999348812 0.0002383549448 -0.01140949549
-0.006674902916 0.01946735573 -0.02064308357 0.3349666745 -0.9421860474 0.009098300492
0.01393546438 0.01511893511 -0.01327074194 0.6162077795 0.7875826341 0.001251781285
-0.02031564522 0.01984618378 -0.05729515457 0.9882072919 -0.0244594248 -0.1511558294
-0.01610404396 0.04030825043 -0.07344580078 0.7294661436 0.0995281935 0.6767372342
0.01147736359 0.01704252911 -0.01316251516 -0.573631975 -0.8190503692 -0.01014149981
0.01937355804 0.06060000229 -0.05886766052 0.2353445657 -0.9707107025 0.04830804671
0.009322525978 0.01832981205 -0.01308221436 -0.4714297674 -0.8819031884 -0.0008606157823
-0.01112893963 0.04210937119 -0.04327778244 -0.561660971 0.001850138645 0.8273654154
-0.01314550304 0.03999802017 -0.04480847549 -0.6587982442 0.002974022218 0.7523137833
0.007349398136 0.01923982239 -0.01301861 -0.338295106 -0.9410399799 -0.0004212875732
0.003804433465 0.02021338558 -0.0129289155 -0.1895054897 -0.9818551083 0.006943751659
-0.01577394485 0.01534226704 -0.04517161942 0.7931698764 -0.4235312155 -0.4376103937
-0.01938982391 0.01267900944 -0.05120572662 0.9431252379 -0.1744903286 -0.2829627376
0.001352519557 0.02051220226 -0.01288109469 -0.05064013837 -0.9986886705 0.007517697064
0.01502438259 0.01983228302 -0.06869429779 0.875243853 -0.02480801742 -0.4830452981
-0.0009827228189 0.02056089497 -0.01284459877 0.05915930794 -0.9982155208 0.008120982299
-0.009292776108 0.01834993744 -0.01708289433 0.457163055 -0.8893329609 -0.009424746555
-0.00245825696 0.02040934944 -0.01282849598 0.1042933491 -0.9945134907 0.008112595329
-0.004606347322 0.02003452539 -0.01281115961 0.2207714725 -0.9752884627 0.008507144863
0.005553776503 0.06060000229 -0.07919767761 -0.1472370458 0.8944792498 0.4221707284
0.007696453094 0.06060000229 -0.07876711273 -0.2094433868 0.8666111538 0.4529001831
-0.006671140909 0.01945757103 -0.01280289984 0.3360454932 -0.9418218588 0.006709155053
-0.004607304335 0.02003697205 -0.01708824825 0.2202747145 -0.9753889503 -0.00976963464
0.001485050261 0.04790840721 -0.07759245682 -0.1114565299 0.04605975553 0.9927013352
0.01255280399 0.03852853394 -0.0722116394 0.7321227739 0.003028036526 -0.6811659673
-0.01176933289 0.01683834839 -0.01282902861 0.5742020596 -0.8186706397 0.008389188958
0.009793488503 0.05639954376 -0.0466348114 -0.6041978893 0.0939073429 -0.7912814427
-0.0204723835 0.02877379799 -0.05859603882 0.9956561523 0.009341720071 -0.09263670284
-0.008004605293 0.01896408367 -0.0128023181 0.3907208441 -0.9204865508 0.006460006927
-0.009290810108 0.01834468746 -0.01280726433 0.4562305895 -0.8898270675 0.007838317483
-0.02028673553 0.03631208801 -0.05727487564 0.9855263559 -0.004990460008 -0.1694488038
0.009315380096 0.01834622192 -0.02547260666 -0.4730245888 -0.8810283109 -0.006070739437
-0.01055612183 0.01766550255 -0.01281494379 0.5148474835 -0.8572595576 0.006174115257
-0.01715901375 0.04673646164 -0.07189900208 0.8670811146 -0.05391431212 0.4952409391
-0.02058235741 0.0162368927 -0.06081441498 0.9481567161 0.3178031493 9.132245044e-08
-0.01994043732 0.005124975443 -0.04112427711 0.9739814651 -0.225443627 -0.02313604806
-0.0129783783 0.01599028778 -0.01284418488 0.630880393 -0.7758468597 0.007181923294
0.0170544014 0.02237197495 -0.05936942673 0.9965420149 -0.001651558383 0.08307397263
-0.01412131405 0.01494570065 -0.01286772871 0.6585849274 -0.7525015877 0.002693295037
-0.01524961329 0.01384334946 -0.01289385176 0.7372170575 -0.6756024979 0.008501464485
0.01709317589 0.05077383423 -0.0603654747 0.9995907813 -0.007904313341 0.02749166715
-0.016821383 0.01180026174 -0.01294954181 0.8233275187 -0.5675311682 0.00633798795
-0.01829917049 0.009425088406 -0.01301926231 0.8787858183 -0.4772149649 -0.001167355463
-0.0204699192 0.001990346789 -0.01327025986 0.9840866682 -0.1776850175 -0.001209952568
0.01694664955 0.01202779388 -0.05643375015 0.9944473394 0.02898646739 0.1011645877
-0.01384477043 0.04538915253 -0.0453661232 -0.6803651116 0.005529214952 0.7328524699
0.00932532692 0.007066967964 -0.07219242096 -0.5472802507 0.3288274989 0.769647194
-0.01992531204 0.005078505516 -0.03299245834 0.9724378789 -0.2331620918 -0.000103527576
-0.02029201317 -0.003465507984 -0.01272718143 0.9535559117 0.3012160741 3.177590223e-08
0.01607111359 0.04074347305 -0.05491661453 0.9462938403 -0.003607447907 0.3232877267
0.01328823185 0.001573720515 -0.0648534317 0.7691229279 -0.3809393448 -0.5131619018
0.01747216606 0.01086282873 -0.01497977734 0.9115553684 0.4111773465 -2.681704922e-07
-0.02029201317 -0.003465507984 -0.01497586489 1 -0 1.418143448e-14
-0.01917582321 0.007469436646 -0.03866965866 0.93709883 -0.3490166841 0.005756473959
0.009320782661 0.01833381462 -0.01526515007 -0.4713189538 -0.8819118263 -0.009485489469
-0.01984573936 0.06060000229 -0.06527484512 -0.576262037 0.8167699035 -0.02844273823
0.005535585403 0.0198110981 -0.01513434696 -0.2653488456 -0.9641404352 -0.004817812113
-0.009295258522 0.01835656357 -0.03497812271 0.4566695281 -0.889636359 -0.0003013745648
-0.02029201317 -0.003465507984 -0.02925489235 1 -0 -2.243233883e-14
0.001351423115 0.02051486397 -0.01503053474 -0.05132638791 -0.9986817599 -0.0005868828457
-0.0009836531878 0.02056319427 -0.01498796654 0.0592159861 -0.9982448856 -0.0007844987428
-0.00245904541 0.02041132164 -0.01496919155 0.1034122987 -0.9946384136 -0.0005680015024
-0.01056097698 0.01767864037 -0.03932368469 0.5560083021 -0.8123250502 -0.1760192627
-0.004607029438 0.0200362711 -0.01494897461 0.2206176254 -0.9753600238 -0.0008290764909
-0.005040553093 0.05452878189 -0.04067102814 0.2981020517 -0.02563208163 -0.9541897941
-0.02045828629 0.006715896606 -0.05203754807 0.9906824483 -0.1123274312 -0.07701191341
0.003802727699 0.02021744728 -0.02301001072 -0.1907859778 -0.9816316074 -0.0003130515164
-0.01176933289 0.01683834839 -0.01496990967 0.574555174 -0.8184656705 -0.0005461503406
-0.006672165871 0.0194602375 -0.01493929195 0.3358667351 -0.9419089281 -0.00105230997
-0.0197345047 0.04623283005 -0.06634103394 0.9637369802 -0.01214903011 0.2665772571
-0.00929179287 0.01834731102 -0.01494438744 0.4569604068 -0.8894866998 -0.0007729862782
-0.01412769604 0.01496369267 -0.02505486298 0.6558612572 -0.7548812414 -0.0005679764392
0.004350333214 0.01891348267 -0.0770550766 -0.2925727497 0.06500988349 0.9540308701
-0.02047422028 0.002003757 -0.01696118355 0.9837411703 -0.1795872472 -0.001315502391
-0.0129783783 0.01599028778 -0.01498759556 0.6308112159 -0.7759362426 -0.0003967173257
-0.01471832275 0.05784710693 -0.07494438171 0.6118131972 -0.3436097046 0.7124724434
-0.0009836531878 0.02056319427 -0.02716449642 0.05984011739 -0.9981649785 -0.009264772861
-0.01412243843 0.01494887066 -0.01501491642 0.6547595317 -0.755837035 -0.0005763217801
-0.0152504034 0.01384560966 -0.01504544258 0.7363139619 -0.6766338351 -0.002898750541
-0.0129783783 0.01599028778 -0.03291773987 0.6292283237 -0.7772074949 0.004497380288
-0.008007738113 0.01897233963 -0.02492827797 0.3916364535 -0.9201200382 -5.937671889e-05
-0.01223959064 0.05514230728 -0.04408603668 -0.6113502124 0.001840980649 0.7913580281
-0.01682165146 0.01180104303 -0.015110497 0.8231442248 -0.5677579121 -0.009194472469
0.01937355804 0.06060000229 -0.06090568352 -0.2660520598 0.9639010127 0.0105422606
-0.005752459049 0.05295002747 -0.04083153915 0.3245579058 -0.02041152484 -0.9456455654
-0.01830042267 0.009428824425 -0.01519171238 0.8772126619 -0.4799947132 -0.01014993423
-0.007562651157 0.05710719681 -0.04149772263 0.3542955021 -0.08612325432 -0.9311592142
0.01162236023 0.04671595001 -0.0481170578 -0.6868600661 -0.2165470547 -0.6937799527
-0.01916732597 0.007443711758 -0.01526551914 0.9385602486 -0.3449828354 -0.009565718508
-0.004607904792 0.02003849411 -0.02494584179 0.2199997286 -0.9754997435 -0.0006080752934
-0.01991722107 0.005053650379 -0.01535892868 0.9730697417 -0.2301783842 -0.0123769601
0.01593520355 0.05009622192 -0.06666654968 0.9338997819 0.007456086815 -0.357457136
-0.01993002319 0.005092978477 -0.0389046402 0.9728208203 -0.231456629 0.006890615714
0.01745955658 0.0108907795 -0.01722867775 0.9115344809 0.4112236497 4.007894306e-08
0.00380363822 0.02021527863 -0.01724534702 -0.2016885603 -0.9794371294 -0.004963295858
-0.01917097282 0.007454751492 -0.0210936203 0.9387948653 -0.3444730479 -0.001587539928
-0.01177443123 0.01685233116 -0.02497982025 0.5738917697 -0.8189310728 -0.0003671124741
-0.006676959515 0.01947270584 -0.02492884636 0.3349237384 -0.9422452075 -0.0002415989382
0.01392995644 0.01513128757 -0.01696182823 -0.6149968453 -0.7885284362 -0.00133621445
-0.02048790359 0.002046428204 -0.03474798584 0.9832980172 -0.1820027181 -0.0001415910353
0.01147646618 0.0170445652 -0.01682405472 -0.5723488714 -0.8199376034 0.01091310584
-0.0176951046 0.01213965893 -0.04550374222 0.8423251557 -0.4550392851 -0.2888383303
-0.01299330616 0.0160317955 -0.04085749054 0.6462828944 -0.7511526382 -0.1344921356
0.01307641935 0.05997450829 -0.07266500854 0.6022699974 -0.6056626164 -0.520041965
-0.01918507099 0.007497431517 -0.04087636948 0.9378391304 -0.3468142947 -0.01332706009
0.01622768402 0.04351154709 -0.06582965088 0.952546452 0.009263169883 -0.304252281
0.01420765018 -0.0005891259909 -0.06132304001 0.8279943887 -0.3924405433 -0.4005193032
0.009319620132 0.01833648491 -0.0167211647 -0.4706301714 -0.882293974 0.008036486707
-0.009332310677 0.01845550728 -0.04073075485 0.4702898598 -0.8585965983 -0.2040571713
0.007349398136 0.01923982239 -0.01664022827 -0.3266463974 -0.9451246084 0.006450248438
0.005534599304 0.01981341743 -0.01657790375 -0.2661730887 -0.9639133086 0.004797954277
-0.0009836531878 0.02056319427 -0.01713286018 0.05927566083 -0.9981954583 -0.009603287247
-0.01177020884 0.01684075069 -0.01711207867 0.5742357495 -0.818639575 -0.009085712596
-0.01413750744 0.02333420753 -0.04562880707 -0.6932693252 0.01205180575 0.7205778214
0.01549652672 0.007921320438 -0.06471598816 0.9028241881 -0.1981710508 -0.3816237938
-0.006673191786 0.01946290493 -0.01707706738 0.3354863546 -0.9420021665 -0.008990223149
-0.02017248535 -0.003843906164 -0.04292476273 0.9535582223 0.3012087592 -1.023355726e-07
-0.008006593227 0.0189693203 -0.01707629776 0.3913360327 -0.9202071605 -0.008653971358
-0.01992884254 0.005089354992 -0.03742454147 0.9718656482 -0.2352390982 -0.01182068576
-0.0129783783 0.01599028778 -0.0171324358 0.6305564834 -0.7760976952 -0.008419546797
-0.01214173985 0.02595762062 -0.04396203232 -0.6089942839 0.001622797809 0.7931729501
0.01698942947 0.008269329071 -0.05855150604 0.990384803 -0.07347719729 -0.1172136656
-0.01044614887 0.06060000229 -0.07471369934 0 1 0
0.01365174007 0.05601532555 -0.07081584167 0.7831021174 0.01476641381 -0.6217178032
-0.0152504034 0.01384560966 -0.01719856167 0.7376304743 -0.6751267052 -0.01025745218
-0.01675439262 0.01381463146 -0.04532671738 0.7948312581 -0.4921724769 -0.3549782024
-0.01875364494 0.01078099442 -0.04710299301 0.9119991832 -0.3227405735 -0.253171902
-0.01530759907 0.05256726074 -0.04688151169 0.7340837475 0.004960869957 -0.6790408246
-0.0166498394 0.01203911241 -0.01702332878 0.8097051114 -0.5867175126 -0.01184030891
-0.01916823769 0.007446469784 -0.01672156906 0.938511662 -0.3451598464 0.007780788426
-0.01991722107 0.005053650379 -0.01682403564 0.9727766504 -0.2314810256 0.01105093898
-0.02029201317 -0.003465507984 -0.01722569084 1 1.291346441e-20 2.265248254e-14
-0.01599641132 0.04731770325 -0.04762527084 0.7625279381 0.002960002789 -0.6469485157
0.01664523888 0.005314399242 -0.0589859848 0.9729183206 -0.1372998002 -0.1859535059
0.008821325302 0.04942380142 -0.07521248627 -0.541793631 -0.008484270554 0.8404687255
0.009317874432 0.0183404932 -0.01890643978 -0.4706025208 -0.8823230411 0.006270456555
0.01694396782 0.008371291161 -0.05389467621 0.9133306046 0.4072188683 -2.063349491e-13
0.007349398136 0.01923982239 -0.01881517506 -0.3265955897 -0.94514459 0.006084796666
0.01745800018 0.01089422989 -0.02474114609 0 0 1
0.01699604797 0.02922569466 -0.05899368286 0.9961703129 -0.01429878294 0.08625689793
0.01543440437 0.06060000229 -0.0725682195 -0.5275124397 0.7917459862 0.3080079858
-0.01830237389 0.009434646606 -0.01881554794 0.8781066499 -0.4783917684 0.008368232177
-0.01916960526 0.007450609446 -0.0189068985 0.938666451 -0.3447726362 0.006092869282
-0.01830265427 0.009435484886 -0.02317035198 0.8780961551 -0.4783850131 -0.009742777109
-0.01991722107 0.005053650379 -0.01902300739 0.9729705849 -0.2309285615 -0.0004903513993
0.01695800781 0.02930533791 -0.06265847778 0.9935876711 -0.0106007525 -0.1125662646
-0.02047680187 0.002011809826 -0.01917759609 0.9835091537 -0.1808526997 -0.001430226091
-0.02046554565 0.006738197803 -0.0580085907 0.9508934117 0.3095185288 -3.918019645e-07
0.003803297043 0.02021609116 -0.01940558815 -0.1890484811 -0.981902583 -0.01131323255
0.001349228323 0.0205201931 -0.01933347702 -0.0509759099 -0.9986450343 -0.01046671471
-0.01968478012 0.009010164261 -0.04877693939 0.962775245 -0.2262194007 -0.1479479989
-0.01870453644 0.04348247528 -0.052070755 0.9024493264 -0.008981498541 -0.4307023867
-0.01549642467 0.0229920311 -0.04703191757 0.7386414906 -0.01196644024 -0.6739922497
-0.0009836531878 0.02056319427 -0.01927906227 0.07422962261 -0.9972092714 -0.007976974655
0.01568614864 0.01119240093 -0.06571572113 0.9297549498 -0.122306978 -0.3472704083
-0.0201826458 0.05460091019 -0.05667375183 0.9779260322 0.003103773365 -0.2089283183
-0.0009836531878 0.02056319427 -0.02931998253 0.07471845168 -0.9971758947 -0.007575489672
-0.00246088171 0.02041591835 -0.0192546196 0.1041033612 -0.9945170415 -0.00991687355
-0.0173988533 0.02418571854 -0.04960847473 0.8459484093 0.01281342314 -0.5331107812
-0.01177693653 0.01685920525 -0.03071930885 0.572437609 -0.8198946348 0.009379322294
-0.00460746789 0.02003738689 -0.01922883511 -0.2202796262 0.9754305391 -0.003485642719
-0.006679708481 0.01947985458 -0.03065658569 0.3356040596 -0.941951961 0.009819285991
-0.01177193165 0.01684547615 -0.01925538635 0.5741966148 -0.8186478144 -0.010677246
0.01739496613 0.06014396477 -0.06283556557 0.8465836531 -0.4664218291 -0.2564113797
-0.01055612183 0.01766550255 -0.022807477 0.5158598742 -0.8566496897 0.006316587014
0.0114125948 0.06038137531 -0.04685646248 -0.06417117904 0.9899829926 -0.1257606225
0.01352462959 0.04282093048 -0.05019159317 0.820638917 -0.02409905584 0.5709387037
-0.006674218178 0.01946557617 -0.01921611404 0.3352551603 -0.9420669192 -0.01067226512
-0.01055612183 0.01766550255 -0.01923469353 0.5159590964 -0.8565680262 -0.008799278254
-0.01957875443 0.04581692505 -0.05430796814 0.950221786 0.0001949330518 -0.3115742599
-0.01177349281 0.0168497591 -0.02283169174 0.5737296241 -0.8190081487 0.007744078993
-0.006675930977 0.01947003078 -0.02278510952 0.3348362232 -0.9422462996 0.007524259048
-0.01917582321 0.007469436646 -0.03719807434 0.9372631848 -0.3485031402 -0.009125991255
-0.0129783783 0.01599028778 -0.01927858353 0.6305811945 -0.7760569224 -0.01014940413
-0.01193706417 0.04763278198 -0.04382943726 -0.6048722548 0.001629897012 0.7963208517
-0.0141246891 0.01495521641 -0.0193133297 0.6587089067 -0.7523843926 -0.004505783003
-0.01934135246 0.02554049683 -0.05355137634 0.9354266787 -0.003258959631 -0.3535057397
0.005532186031 0.01981909561 -0.03542287445 0.2644188007 0.9644035945 0.002899082664
-0.0152504034 0.01384560966 -0.01935299301 0.737662496 -0.6750632016 -0.01198815876
0.007349398136 0.01923982239 -0.02535011673 -0.3264298896 -0.9452139238 -0.003763711514
0.01392333984 0.01514612865 -0.02139622879 0.613373509 0.7897918311 0.001342392545
0.01745800018 0.01089422989 -0.02699935913 1 -0 1.405625108e-14
-0.01473421097 0.02897236633 -0.04624316788 0.7196189646 -0.01203215702 -0.6942649156
0.01147538853 0.01704701042 -0.02122328758 -0.5722424346 -0.8200232817 -0.0100206579
-0.002465178013 0.02042667007 -0.02928177071 0.1042698437 -0.9944997982 -0.009897028068
0.009316127777 0.0183445034 -0.02109310913 -0.4705833782 -0.8823542171 -0.001523106089
0.007349398136 0.01923982239 -0.02099155998 -0.3387695915 -0.9408693022 -0.0003465717121
0.01146771383 0.01706442738 -0.03078074646 -0.5696375733 -0.8218253759 0.01077434505
0.00134629643 0.02052731133 -0.02508109856 -0.05125224242 -0.9986831166 -0.002289148533
0.005532186031 0.01981909561 -0.02091254807 -0.2660585898 -0.9639567218 0.0005151105376
0.01146361542 0.01707373047 -0.03520721626 -0.5685002143 -0.8225880399 -0.0125069134
0.01167506504 0.05986691856 -0.07321748734 0.5487132519 -0.5734177153 -0.6083632887
-0.01399399757 0.034747715 -0.0454851265 -0.6984505676 0.003137818952 0.7156514226
-0.02057692337 0.03314530945 -0.06060480881 0.999318031 0.03462619027 -0.01282575359
0.005532186031 0.01981909561 -0.02887988281 -0.2665408809 -0.9638154195 0.003974401207
0.001348495901 0.0205219717 -0.02076916218 -0.05043916325 -0.9986837788 0.009305949588
-0.002461494446 0.02041745186 -0.0206844635 0.1046121055 -0.9944707479 0.009178174909
0.01086181545 0.05129287338 -0.04742320633 -0.7168682233 0.08783232456 -0.6916541283
-0.004607576966 0.02003766346 -0.02065685081 -0.2201812422 0.9754498304 0.004224793915
0.01130105352 0.06060000229 -0.07713309479 -0.1260602483 0.9684543348 0.2149535187
-0.008007738113 0.01897233963 -0.02064225006 0.3781361164 -0.9257328697 0.005633060534
0.001308005214 0.05146395493 -0.04008719826 -0.05537301849 0.1223270023 -0.9909439607
-0.01055612183 0.01766550255 -0.02066316414 0.5159263365 -0.8566008832 0.007412295279
-0.0152504034 0.01384560966 -0.02726866627 0.7373750876 -0.6753606889 -0.01288100097
-0.0129783783 0.01599028778 -0.0207103138 0.6302988003 -0.7763024654 0.00882635115
-0.02056394196 0.02903553963 -0.05995478439 0.9439152284 0.3301878882 7.120518238e-09
0.01166761732 0.05116102982 -0.07302737045 -0.6735877369 -0.005831568042 0.7390842668
-0.01242277026 0.06046404266 -0.04524534893 0.4128846898 -0.7192634194 -0.5587364016
-0.01682219315 0.01180261278 -0.02088003731 0.822605491 -0.5685582523 0.007856206053
0.01567931175 0.06060000229 -0.07076431656 0.592069264 -0.6409711397 -0.48847721
0.01391450119 0.01516595268 -0.02731981468 0.6120734378 0.7907993845 0.001562149778
-0.01830265427 0.009435484886 -0.02099192238 0.8797378103 -0.4754512791 0.002732450267
0.01361496449 0.06034468842 -0.05034651184 0.818278852 -0.4347944692 0.3759966622
-0.01991722107 0.005053650379 -0.02122343254 0.9727483828 -0.231661807 -0.009663895732
-0.02047938538 0.002019867659 -0.0213953743 0.9832723262 -0.182136712 -0.001323129584
-0.01972305012 0.06028901672 -0.05502261543 0.8052968949 -0.5679990374 -0.1699235259
-0.02029201317 -0.003465507984 -0.03908033752 0.9535579808 0.3012095239 -8.151913236e-08
0.01392113209 0.01515108013 -0.02287582588 -0.6129554259 -0.7901161338 -0.001463210537
0.001344404936 0.02053187656 -0.03301019573 -0.04994090469 -0.9987521512 -0.0002156770172
0.01147502899 0.01704782677 -0.02269123077 -0.5719272087 -0.8202152478 0.01209194908
-0.01467044353 0.0206952858 -0.07505766296 0 0 1
0.005532186031 0.01981909561 -0.02308274078 0.2639065617 0.9645464946 0.001840247969
-0.002462414026 0.02041975307 -0.0228308115 0.1050648357 -0.9944281947 0.008599182085
0.001347396642 0.02052464008 -0.02292426968 -0.05055246595 -0.9986862649 0.008378094806
-0.01979881096 0.05360255814 -0.06611940002 0.9694810167 -0.01128544675 0.2449065066
-0.0009836531878 0.02056319427 -0.02286008453 0.0603040911 -0.9981448099 0.008387793678
0.01676445007 0.01601937675 -0.0634271431 0.9763708056 -0.03976582489 -0.2124116972
-0.004607740819 0.02003807831 -0.02280047703 0.2201092293 -0.9754389519 0.00841298242
-0.0152504034 0.01384560966 -0.02294774914 0.737354976 -0.6754419018 0.009266962983
0.01613068199 0.01383662987 -0.06528713989 0.9392549666 -0.08265999371 -0.3331177468
-0.01992178917 0.00506768322 -0.02857148933 0.9715185563 -0.2369006206 0.005458081898
-0.003794677734 0.02375399399 -0.04036287308 0.4157519971 -0.1919175892 -0.8889982654
-0.0152504034 0.01384560966 -0.03666479111 0.7412981635 -0.6711368402 0.007237019251
-0.01682239628 0.01180320215 -0.0230468111 0.8228424284 -0.5682247534 -0.007139163737
0.0155590744 0.0255743084 -0.06766788483 0.9114964618 0.006424073319 -0.4112577433
0.001344871461 0.02053075218 -0.03084419632 -0.05060136104 -0.9986886272 0.007779979788
-0.0191723423 0.007458897114 -0.02328229523 0.9386681977 -0.3446784194 -0.00993991614
-0.01991722107 0.005053650379 -0.0226914463 0.9726783967 -0.2318532437 0.01186634123
0.0006546794176 0.03479959869 -0.07766186523 -0.09270025144 0.2164515012 -0.971882406
-0.02048110962 0.002025243282 -0.022874897 0.9831189413 -0.1829628237 -0.001323753331
0.01251058102 0.05095707703 -0.0489477005 0.7499233281 0.01483797828 0.6613583268
-0.02029201317 -0.003465507984 -0.023233181 1 -6.4018235e-21 -1.127797869e-14
0.01663865471 0.009056067467 -0.06150197601 0.9745436618 -0.0999758305 -0.2006725805
-0.01830265427 0.009435484886 -0.02535055351 0.8779551884 -0.4785872557 -0.01220351477
-0.01991722107 0.005053650379 -0.02489523125 0.9727106448 -0.2320191487 0.001056495034
-0.02048369694 0.002033312678 -0.02509586334 0.982944083 -0.1838979773 -0.001569616919
0.01789032173 0.06060000229 -0.06689389801 0.3662872981 -0.9168412207 -0.1588577702
-0.02029201317 -0.003465507984 -0.02473712921 0 0 1
0.005532186031 0.01981909561 -0.02525469971 0.2639874022 0.9645236418 0.002189966613
0.01679470062 0.04237578201 -0.05754867172 0.9838217433 0.00578461685 0.1790567386
0.003802385569 0.02021826172 -0.02517506027 -0.1909158757 -0.9815822049 -0.006892269222
0.001343618453 0.02053377247 -0.03880034924 0.05218370978 0.9980451312 -0.03439151709
-0.0009836531878 0.02056319427 -0.02501109314 0.06028648739 -0.9981810183 -0.0004406127853
-0.002463334322 0.0204220562 -0.02497887802 0.1041492381 -0.9945616651 -0.0001744575582
-0.0152504034 0.01384560966 -0.02510700607 0.7381425482 -0.6746417841 -0.002010396911
0.01748943583 0.06042867915 -0.06460883331 0.7434729461 -0.6606909183 -0.1036122041
-0.01055612183 0.01766550255 -0.02495353317 0.5155626436 -0.8568518823 -0.0001108024293
-0.01682259941 0.011803792 -0.02521534157 0.8226762045 -0.5684605227 -0.007516420194
-0.01993200684 0.0467602272 -0.05545775986 0.9631915952 0.00157786918 -0.2688111999
0.01511642742 0.03639025116 -0.05266107178 0.8997703015 0.008512900038 0.4362807984
0.01604752159 0.02452826881 -0.06640553284 0.9402998852 0.006809381116 -0.3402789417
0.005532186031 0.01981909561 -0.02670394325 -0.2663277015 -0.9638687548 0.005155468072
0.009082290173 0.009564149857 -0.0732436142 -0.5506042173 0.2756320229 0.7879479576
-0.00246425581 0.02042436218 -0.02712929821 0.1046786131 -0.9944627124 -0.009289868809
-0.01991499138 0.03527840996 -0.05540662384 0.9659069256 -0.003627861288 -0.2588641531
-0.008007738113 0.01897233963 -0.02707455063 0.3927686677 -0.9196018592 -0.008074294631
-0.009295258522 0.01835656357 -0.02708469009 0.457253726 -0.8892983936 -0.008209582242
-0.0129783783 0.01599028778 -0.02716382217 0.6305421877 -0.7761066921 -0.008657487399
-0.01412882566 0.01496687651 -0.02721175098 0.6594547926 -0.7517350468 -0.003714285525
-0.01257366657 0.02312543678 -0.04430836105 -0.6295421298 -0.0004794357432 0.7769662006
0.01701473618 0.01547094011 -0.06124816513 0.9972934723 -0.02192074452 -0.0701798475
-0.01844551277 0.05008263397 -0.06967771149 0.9194527422 -0.006576939767 0.3931455186
-0.01682273579 0.01180418587 -0.02666229343 0.8228737854 -0.5681336856 0.01014143394
0.008250872612 0.04753551102 -0.07557192993 -0.4835143615 -0.006784768292 0.8753101331
-0.0191746273 0.00746581459 -0.02693421745 0.9386736304 -0.3447510045 0.006209705681
0.01014706039 0.02710111618 -0.07434928894 -0.5833230988 -0.001767514155 0.8122382891
-0.01991921425 0.005059772968 -0.02710040092 0.9724367825 -0.2329617226 -0.009774452398
0.0170973568 0.03228888321 -0.06069088364 0.999707956 0.007641971119 0.02292603091
-0.02048628807 0.00204138875 -0.02731864929 0.9829048705 -0.1841092748 -0.001338070097
-0.0101107626 0.05661767197 -0.04271060562 -0.4890953967 0.01784941754 0.8720476428
0.01391228771 0.01517091656 -0.02880306435 -0.6118387594 -0.7909809673 -0.001562668536
0.009315380096 0.01834622192 -0.02912906933 -0.4692102519 -0.8830849378 -0.001652896307
-0.009295258522 0.01835656357 -0.0371377697 0.4546129914 -0.890541421 -0.01621744843
-0.02054049492 0.006968458176 -0.05348546982 0.992212969 -0.1088744282 -0.06049614015
0.01287999725 -0.001397455573 -0.06294860077 0.7847677197 -0.4169299764 -0.4585946151
0.003801814914 0.0202196207 -0.02878868198 -0.191990715 -0.9813414006 0.01042212867
-0.01682307434 0.01180516744 -0.02883474779 0.822852554 -0.5681783278 0.009330707517
-0.01975866127 0.04993913269 -0.05491120911 0.9604118059 0.003767013785 -0.278558742
0.01252382469 0.007213485718 -0.06929418182 0.7097636193 -0.2956546613 -0.6393934047
-0.01830265427 0.009435484886 -0.02898949814 0.8770903498 -0.4803254207 -9.27196238e-05
-0.01992354965 0.005073091745 -0.03078082561 0.9724264483 -0.2329644256 0.01069481644
-0.01917568302 0.00746901083 -0.02912862587 0.9383594837 -0.3456539107 -0.00220303811
-0.02057983017 0.01171969128 -0.05865614319 0.9495339545 0.313664262 6.775095017e-08
0.0115816288 0.05719645119 -0.07310324097 -0.6693155385 0.1566215438 0.726282591
0.005493038654 0.008518108368 -0.07471048737 0.353952746 -0.2924803082 -0.8883539401
-0.01790548325 0.01275834751 -0.04687425613 0.8599388548 -0.4032307818 -0.3129059005
-0.02029201317 -0.003465507984 -0.03076297951 1 -0 -2.243233883e-14
0.001345182121 0.02053000355 -0.0294017868 -0.05007447241 -0.9986652398 -0.01266041379
-0.004608233094 0.02003932571 -0.02924340916 -0.2201375809 0.9754576284 -0.004675544001
-0.008007738113 0.01897233963 -0.02922289848 0.3791434166 -0.9253158864 -0.006385923953
-0.009295258522 0.01835656357 -0.02923384285 0.4572721896 -0.8892742382 -0.009668191225
-0.01177882099 0.01686437416 -0.03503594971 0.5725118142 -0.8198937022 -0.002130629574
0.01707106972 0.008086220741 -0.05703593063 0.9992996036 -0.02005949661 -0.03158985446
-0.008007738113 0.01897233963 -0.03928556824 0.3965149766 -0.9120635437 -0.1044794987
-0.006680367947 0.0194815712 -0.0349648056 0.3357611189 -0.9419471639 0.0001071439509
0.01657904625 0.030098773 -0.0646992836 0.9671150605 -0.001793730582 -0.2543329361
-0.01412995625 0.01497006416 -0.02937068558 0.6566284005 -0.7541659739 -0.008533905563
-0.01956974792 0.03823474121 -0.05424198914 0.9541694057 0.00455922561 -0.2992322822
-0.01645905685 0.04850553894 -0.07292565918 0.7308947237 0.1024017981 0.6747642363
-0.01055838442 0.01767162418 -0.03716072655 0.5154833841 -0.8567135035 -0.01785647414
0.01301475811 0.03432243347 -0.07165796661 0.7632198461 0.004397762901 -0.6461239248
-0.0152504034 0.01384560966 -0.02943241882 0.7373511056 -0.6753614127 -0.01415306588
-0.02048790359 0.002046428204 -0.03102953053 0.9830934913 -0.1831037507 -0.0004515366883
0.01104107952 0.04482796097 -0.07361273193 -0.6735538559 0.005135973426 0.7391203048
-0.01413256264 0.01497741127 -0.03658701706 0.6642401858 -0.7475192132 3.687429202e-05
0.009315380096 0.01834622192 -0.03132602119 -0.4680614288 -0.8836395062 -0.009986086779
-0.002465793371 0.02042821121 -0.03071821213 0.1048160331 -0.994448008 0.009314426957
0.01650907516 0.01657896423 -0.05571963501 0.9757213735 0.05652095825 0.2115967453
-0.004608342767 0.02003960419 -0.03067809772 -0.2200045589 0.9754860042 0.005004966039
-0.008007738113 0.01897233963 -0.03065660858 0.3791225298 -0.9253249481 0.006312518204
-0.01159616089 0.03968952942 -0.04357426071 -0.5836803976 0.001704689788 0.8119817039
-0.01055612183 0.01766550255 -0.03068766975 0.5151831688 -0.8570416159 0.008122268645
-0.0129783783 0.01599028778 -0.03075769234 0.6300931655 -0.7764621554 0.009440550634
-0.0141307106 0.01497219086 -0.03081143379 0.6597322512 -0.7514936241 0.003269509244
0.01643885803 0.005782763958 -0.06045936584 0.958493247 -0.1595307855 -0.2363062079
-0.0152504034 0.01384560966 -0.03087640762 0.737733316 -0.6750201567 0.009866228182
-0.01682350254 0.01180641031 -0.03100937843 0.8226568872 -0.5685381655 2.04138397e-05
-0.01917582321 0.007469436646 -0.03132550049 0.937771107 -0.3470964029 -0.0104612593
-0.0205708704 0.02059675598 -0.06076355362 0.9467611333 0.3219368828 -3.784281278e-08
0.01390563774 0.01518583107 -0.03325938797 0.6110753751 0.7915710153 0.001487849591
-0.01854181099 0.0314601059 -0.06953939056 0.9235767129 -0.008046015741 0.3833292541
0.01146566582 0.01706907463 -0.03299243164 -0.5688787713 -0.8224211705 -0.000601523036
0.01604715729 0.05850704575 -0.05485822296 0.8301094858 -0.4009250844 0.3875271838
-0.0152504034 0.01384560966 -0.03884125519 0.7371921189 -0.6756733202 0.003652970204
0.009315380096 0.01834622192 -0.03279224014 -0.4676580864 -0.8838829941 0.006838640783
-0.02038179398 0.01112018919 -0.05507139969 0.9904960849 -0.0854709326 -0.1077600363
0.005532186031 0.01981909561 -0.0332391777 0.2643062334 0.9644347088 0.002812029553
0.01443857574 0.03458028412 -0.05144733429 0.8591673264 0.01949302738 0.5113233098
0.01467186928 0.02407198334 -0.06937314606 0.8628321597 0.0005399017778 -0.5054902301
-0.00246671772 0.02043052387 -0.0328752327 0.1050813282 -0.9944255933 0.00869792472
-0.02048319817 0.002031753778 -0.0527323494 0.9522351079 0.305365845 1.960041128e-08
-0.004608507335 0.02004002094 -0.03283250809 0.2201191665 -0.9754382295 0.008234858636
-0.008007738113 0.01897233963 -0.03280955696 0.3933034982 -0.919374807 0.007894464438
-0.01315609741 0.06060000229 -0.07178417206 2.309123695e-13 1 5.695911371e-13
-0.01055612183 0.01766550255 -0.03284279633 0.5150246403 -0.8571490382 0.006719094166
-0.01830265427 0.009435484886 -0.03263511658 0.8776806216 -0.4790783836 0.01267394265
-0.02028398705 0.006180421829 -0.04914531326 0.9838075 -0.1368991609 -0.1156780995
-0.008078111649 0.03447409821 -0.04168251419 0.3811576053 0.007222293262 -0.9244818648
-0.0129783783 0.01599028778 -0.03941510391 0.6231513318 -0.7788055906 -0.07172356473
-0.01917582321 0.007469436646 -0.03279169464 0.9376120054 -0.3476112477 0.007081516938
0.01389110279 0.007837919712 -0.06772594452 0.7982944567 -0.262001383 -0.5422925738
-0.02048790359 0.002046428204 -0.03325959396 0.9832436892 -0.182295558 -0.0004209877252
0.009315380096 0.01834622192 -0.03499411774 -0.4674529957 -0.884017904 -0.0002055138479
0.007349398136 0.01923982239 -0.0348258419 -0.3389904843 -0.9407228788 0.01122126597
0.004385706902 0.02612799454 -0.04048059082 0 0 1
0.01399112034 0.0289321785 -0.05078234482 0.8448290939 -0.02239288398 0.5345674521
-0.01830265427 0.009435484886 -0.03482644272 0.8777208651 -0.479030505 0.01165582531
-0.01917582321 0.007469436646 -0.0349935379 0.9375305407 -0.3479029052 -0.000231779032
