# .PCD v0.7 - Point Cloud Data file format
VERSION 0.7
FIELDS x y z normal_x normal_y normal_z
SIZE 4 4 4 4 4 4
TYPE F F F F F F
COUNT 1 1 1 1 1 1
WIDTH 537
HEIGHT 1
VIEWPOINT 0 0 0 1 0 0 0
POINTS 537
DATA ascii
-0.0009610633188 0.02051120906 -0.01356142235 0.09353934685 -0.9954621295 -0.01747968207
-0.007992335902 0.01893129434 -0.02064541732 0.3893974277 -0.920926634 0.01624124624
-0.01683020496 0.02871785259 -0.07240496063 0.857085457 0.008932958183 0.5150968081
0.01754775333 0.01069526577 -0.0014978185 0.7726644506 0.6348073045 0.003055002254
0.007880218824 0.004018226465 -0.07161768341 0.598360569 -0.3486023258 -0.721416002
-0.001143458292 0.06060000229 -0.08011718559 -0.06725979632 -0.4909336732 -0.8685967121
0.003779373288 0.06060000229 -0.08001464462 0.1369326633 -0.447257603 -0.8838608953
-0.01524543238 0.01383139849 -0.001431977302 0.7494496183 -0.6590125166 -0.06346473461
-0.003340007544 0.04069010544 -0.0773608017 0.01465354432 0.01423045794 -0.9997913621
-0.007994454861 0.0189368248 -0.03712842242 0.4131031718 -0.8886548196 -0.1990938999
0.007393992782 0.04385374832 -0.0759454155 -0.4549441873 -0.001889601247 0.8905179481
0.01395306683 0.01507945442 -0.001473961592 0.6678504554 0.7397121043 0.08247285583
0.01750576878 0.01078833818 -0.008986345291 0.7712983862 0.6364673143 0.002856107777
0.006981202364 0.06060000229 -0.04192235565 -0.3906869543 0.2864124995 -0.8748323176
0.01838473384 0.06060000229 -0.06831733958 0.8896564477 -0.3627171062 -0.2773944949
-0.004603848735 0.0200281299 -0.004980084856 -0.2323391671 0.9726316726 0.002478075533
-0.007994005733 0.01893565644 -0.0292269694 0.3909467601 -0.9202812594 -0.01558956128
0.01402353859 0.03865299988 -0.05082879639 0.8749669037 0.005641491686 0.4841498642
-0.0009572332965 0.02050177934 -0.004993992143 0.09233785521 -0.9957245599 -0.002514218583
0.01671255048 0.06003928884 -0.05736734009 0.8965398419 -0.4218704392 0.1350616319
0.01166146533 0.04815990893 -0.07296539307 -0.678298068 0.02939229423 0.7341987633
0.01148022985 0.01703602409 -0.00146178925 0.5192344589 0.8546310895 0.001130280449
-0.01724228573 0.02784147692 -0.04943125153 0.8229665108 -0.003561334183 -0.5680787261
0.007409927686 0.01910965157 -0.001446410129 0.4053528381 0.9121434734 0.06069069563
0.008259850502 0.01151053953 -0.07433769608 0.497005378 -0.2330987243 -0.8358532401
-0.007983522256 0.01890806929 -0.001422025909 -0.3811401981 0.9224285096 0.06211114297
-0.01830265427 0.009435484886 -0.02535087776 0.8996317989 -0.4362151667 -0.01946676189
0.0139365654 0.01511646589 -0.0125329717 -0.6733606952 -0.7390238529 0.02071518858
-0.01932459704 0.04757922363 -0.05357955424 0.9422501705 -0.006766602903 -0.3348414988
-0.004602713585 0.02002522469 -0.001422781751 -0.2232593719 0.9719520777 0.07392165799
0.002980272233 0.02032662249 -0.001433973938 0.1059040487 0.9922429224 0.06510234633
0.01471659546 0.04037759094 -0.06915742798 0.8494516114 0.003357303501 -0.5276558427
0.01607385095 0.01153964329 -0.06465516281 0.9351875831 -0.1378426935 -0.3262262656
0.00297685492 0.02033480994 -0.009323100646 -0.1106851023 -0.9938555027 0.0002186915829
-0.0009556542039 0.0204978927 -0.001426759571 -0.09983982656 0.9937471896 0.04998532072
0.007402995984 0.01912575181 -0.01302363968 -0.4021540768 -0.9155663707 -0.003212382752
0.01483842993 0.05562010701 -0.06894544601 0.824058663 -0.1317553073 -0.5509699256
-0.01920715332 0.04482462692 -0.0680432663 0.944469846 -0.007565206712 0.3285110009
0.01643721676 0.05204581356 -0.0649431324 0.9771274899 -0.03222365716 -0.210198726
-0.01055612183 0.01766550255 -0.001423159689 -0.5031232584 0.8631808724 0.04225835227
-0.01295375665 0.01591751353 -0.001426749617 -0.6276417768 0.7777838706 0.03343726401
-0.01295646667 0.01592513116 -0.01356158956 0.6273828999 -0.7784751251 -0.01916184919
-0.02029201317 -0.003465507984 -0.02925526619 0.9999220494 -0.01248579672 -2.96420874e-15
-0.01301599541 0.01943539429 -0.04447702408 0.7246821299 -0.3758623556 -0.5775493921
-0.01939038563 0.02357139969 -0.06750903702 0.9458278092 0.01464996664 0.3243379931
-0.01681709385 0.01178769326 -0.001438163593 0.8081983887 -0.5881990884 -0.02893435571
0.002969355702 0.02035281658 -0.0330895462 -0.1122556308 -0.993679149 0.0006497517349
-0.01673375225 0.04010275555 -0.04866399479 0.8115698785 0.01465965776 -0.5840714227
0.01545524311 0.05176740074 -0.05350060368 0.9096051266 0.01470031492 0.4152136972
0.01748476919 0.01083488878 -0.01273176511 0.7701914489 0.637806832 0.002752650664
0.01392333953 0.01514612929 -0.02139648501 -0.67162205 -0.7404958772 -0.02428328058
-0.020274388 -0.003521309137 -0.005239494562 0.9999329858 -0.011111148 -0.003250578948
-0.0182925005 0.009405188084 -0.001445939243 0.9012434409 -0.4318098165 -0.03606303658
-0.01915868282 0.00741754818 -0.001452974796 0.9109143041 -0.4099477791 -0.04666850092
-0.01055612183 0.01766550255 -0.02066342735 0.5043459809 -0.8633060981 0.018376956
-0.01295571751 0.01592301888 -0.009276217249 0.6265734656 -0.7793509579 -0.004216232323
-0.004607577006 0.02003766346 -0.02065711339 0.2329013812 -0.9723479529 0.01721641699
-0.02018669796 0.003500568748 -0.001467831686 0.9885150399 -0.1400053562 -0.05689038639
-0.01936667252 0.0337537384 -0.06758335876 0.9590356599 0.01702261302 0.2827734672
-0.02013623772 0.003821897244 -0.009240255547 0.9817681452 -0.1900786408 -0.00119135171
0.01482814465 0.04448860168 -0.06892751007 0.8496417718 -0.02671644157 -0.5266831033
-0.02025528717 -0.003581778049 -0.001497149825 0.9999304166 -0.01106753212 -0.004083088184
-0.01672028046 0.01194886055 -0.02926004181 0.8078463559 -0.5891745332 -0.01605100366
-0.02029201317 -0.003465507984 -0.01272734292 0.9999800681 -0.006167601397 -0.001350607559
0.01391228739 0.01517091783 -0.02880341721 -0.6717329989 -0.7405248722 0.01994221292
-0.01829708481 0.009418866158 -0.00940074269 0.9008297132 -0.4341108753 -0.007319539589
0.01752676137 0.01074180126 -0.005242019494 0.7720809014 0.6355178806 0.002846939956
0.01394756826 0.01509178766 -0.005159073512 -0.676046831 -0.7364186508 -0.02546081389
-0.01524647045 0.01383436394 -0.005012268384 0.7467388409 -0.6648623182 -0.01841741938
-0.007990853707 0.01892738756 -0.01707875315 0.3926311642 -0.9196959447 -0.0003716543869
0.01147933451 0.01703805542 -0.005116635164 -0.5189821776 -0.8547822241 -0.002201956843
-0.01998307482 0.007591296673 -0.04896126938 0.9727713826 -0.1834682377 -0.1416165345
-0.01968126106 -0.0004689586759 -0.05618902206 0.9937271135 0.08745088959 0.06970484796
-0.01916596031 0.007439576864 -0.0130825305 0.9139206914 -0.4056864807 0.01294021395
-0.01056097698 0.01767864037 -0.03932368469 0.5732246725 -0.746499749 -0.3378632854
0.007407306035 0.01911574173 -0.005062738233 -0.4007303503 -0.9159737163 -0.02018260318
-0.0191609567 0.007424429258 -0.005085707267 0.9128915441 -0.4078818296 -0.01616915989
0.002978719195 0.02033034325 -0.005019246976 -0.1127652824 -0.9933836447 -0.02174685227
-0.0009658681287 0.02052307977 -0.02932447497 0.09375370604 -0.9955109422 -0.01296944363
-0.0152504034 0.01384560966 -0.03304479027 0.7461052131 -0.6658235419 -0.0024539826
-0.007985187054 0.0189124563 -0.004977415456 0.3902103802 -0.9207230483 -0.002219790828
-0.01064064407 0.04442889023 -0.04299655151 0.5232783803 0.004624747788 -0.8521492524
-0.01055612183 0.01766550255 -0.004981454134 0.5035685176 -0.8639551219 -0.0005435693008
-0.01296346389 0.01594460042 -0.03652988688 0.6371741872 -0.7698822839 -0.03592108203
-0.01295489841 0.01592071258 -0.004993970553 0.6278649509 -0.7783220319 -0.0006465465029
-0.01681847858 0.01179175138 -0.005033907851 0.8083175754 -0.5886200486 -0.01221210812
0.01628582986 0.02057587624 -0.06563090769 0.9551793608 -0.02752209583 -0.2947455224
-0.01829458427 0.009411403974 -0.005061091185 0.9003604982 -0.4348030667 -0.01724141978
-0.020188845 0.003507263084 -0.005137713552 0.9894942827 -0.1421142008 -0.02654465082
0.0139420681 0.01510412359 -0.008845056534 -0.6752214519 -0.7372389301 0.02355314914
-0.016821383 0.01180026174 -0.01294954181 0.8077446621 -0.5895303509 0.001589420799
0.01147825972 0.01704049555 -0.00950405852 -0.5175059543 -0.85557262 -0.01353067358
0.009306679726 0.05737464142 -0.07488153839 -0.4410919031 0.2310326121 0.8672150052
-0.0152504034 0.01384560966 -0.02943279521 0.744702298 -0.667094289 -0.02009221029
-0.01831155968 0.02259660339 -0.05122151947 0.8996804418 -0.05041243622 -0.4336285148
-0.007987185637 0.01891772228 -0.009245377011 0.3923054906 -0.919834688 -0.0007407723185
0.007404784626 0.01912159793 -0.009403847006 -0.4023288042 -0.9154928787 -0.002079002501
-0.0009591288169 0.02050644514 -0.009276184506 0.09477358758 -0.9954970548 -0.001892367939
0.004841601372 0.06060000229 -0.04309128952 -0.2985500746 0.3402046426 -0.8916998677
-0.004607304335 0.02003697205 -0.01708824825 0.2359613284 -0.9717565571 -0.003383095424
-0.004605211218 0.02003161716 -0.009250387192 0.2354990259 -0.9718744376 -0.0005351200678
0.01285670519 0.00258884728 -0.0662244606 0.744218481 -0.3597289082 -0.5627912269
-0.01278043251 0.01627658739 -0.04083793793 0.7127186053 -0.6501252056 -0.2633807258
-0.01055612183 0.01766550255 -0.009253033797 0.5034512042 -0.8640224439 -0.001449626798
-0.007989185598 0.01892299271 -0.01351636219 0.3894999414 -0.9208768985 -0.0165992018
-0.0152481842 0.01383926392 -0.009310128053 0.7456778722 -0.6662957123 -0.003812428887
-0.01757912445 0.03667135239 -0.07132556152 0.895770359 0.005226065086 0.4444863915
-0.01590144825 0.03976914088 -0.07358489482 0.8626495235 -0.009686307219 0.505709378
-0.01682014084 0.01179662307 -0.009350324869 0.8088182357 -0.5880342007 -0.005370332176
0.01701473618 0.01547094011 -0.06124816513 0.9986298511 -0.005919051626 -0.05199408901
-0.01916368484 0.007432689349 -0.009446444352 0.913594543 -0.4065622558 -0.007221018629
-0.02006491661 -0.004184446335 -0.04449359894 0.9958310359 0.08886745353 0.02056997148
-0.02029084015 -0.003469222069 -0.00898196125 0.9998920773 -0.0139670623 -0.004555757769
-0.0202483242 0.003214059973 -0.01278447742 0.9879278043 -0.1544039225 0.01257307551
0.01505257392 0.02833857203 -0.06859389114 0.8833681217 -0.02640571446 -0.4679353587
-0.02027378464 0.0512966156 -0.05727355957 0.9887407712 -0.01533803507 -0.1488503678
-0.01524961329 0.01384334946 -0.01289385176 0.7465271024 -0.6653519346 0.002022010256
0.01147736359 0.01704252911 -0.01316251516 -0.5179018194 -0.8554330826 -0.003456378913
0.002975343764 0.02033843088 -0.01291183352 -0.1106886342 -0.9938538283 0.001610680497
-0.004606574694 0.02003510729 -0.01352376461 0.2339332966 -0.9719916569 -0.02252624254
-0.01055612183 0.01766550255 -0.01352778721 0.5037636816 -0.8635376791 -0.02290916575
0.002974231164 0.0203411026 -0.01650381056 -0.1126400574 -0.9934158608 0.02090801393
0.01552005323 0.0397807134 -0.05360568364 0.9128234182 0.01092849535 0.4082082497
-0.01829917049 0.009425088406 -0.01301926231 0.9016050304 -0.4325589109 -0.001075970942
0.01746184031 0.01088571771 -0.01722914028 0.769338219 0.6388404318 0.001267813014
0.01390563742 0.01518583234 -0.03325979805 -0.6727748074 -0.7392706027 -0.02920675465
-0.0008192538023 0.02760952759 -0.04005702209 0.1239917476 -0.2146035388 -0.9687989304
0.01657625898 0.01994675827 -0.05672268677 0.9839872995 0.02299821644 0.1767486253
0.01392995644 0.01513128853 -0.01696202787 -0.6722890417 -0.7402707262 -0.005166853038
0.01745800018 0.01089422989 -0.03303286171 0.7703661447 0.6376016714 0.000334260453
0.0114764665 0.0170445652 -0.01682426643 -0.5165353705 -0.8562227251 0.008593956494
0.007401205699 0.01912990867 -0.01664663834 -0.3997560377 -0.916471421 0.01659050577
-0.0152504034 0.01384560966 -0.01648085531 0.7453871973 -0.6662884867 0.02139108579
-0.01682178688 0.01180143515 -0.01655209366 0.8085429322 -0.5882098046 0.01635703539
-0.0200378774 0.05186081314 -0.0651358312 0.9863148519 5.215402007e-06 0.1648727174
-0.01830125809 0.009431316058 -0.01664093939 0.9013678157 -0.4327721245 0.01563166743
-0.01284981578 0.06033476421 -0.04532803236 0.6179964706 -0.3248696406 -0.7159190449
-0.01916823769 0.007446470261 -0.01672177347 0.9152057702 -0.4027156277 0.01478247049
-0.01055838442 0.01767162418 -0.03716072655 0.4944551538 -0.8616084223 -0.1146517663
-0.02029203097 0.01977674103 -0.05730701701 0.9818823219 -0.03053300153 -0.1870156193
-0.02019572067 0.003528704047 -0.01689281623 0.9828393606 -0.1833932722 0.0198418465
-0.02029201317 -0.003465507984 -0.0247374452 0.9999125852 -0.01322194016 -4.789244728e-05
-0.02017187564 0.02372276688 -0.05664705658 0.9889169998 0.01146188894 -0.1480263243
-0.02053063774 0.02047843933 -0.06151235835 0.995717384 0.007586411817 0.09213760101
0.01703299332 0.04372792511 -0.06102542191 0.9993921659 0.006023633031 -0.03433678288
-0.01354039437 0.06060000229 -0.0487164372 0.6743329957 -0.4302740753 -0.6001160147
-0.020539011 0.05199556224 -0.06108857473 0.9994345931 -0.0003142138412 0.03362135234
-0.02029201317 -0.003465507984 -0.01722591019 0.9999052421 -0.0137661499 -6.937592861e-15
0.007398988088 0.01913504664 -0.02899931653 -0.3995454963 -0.916515038 0.01906781163
-0.02055561765 0.04093896484 -0.06052953339 0.999947911 -0.004092454602 -0.009350243887
-0.0009624553819 0.0205146424 -0.01713574251 0.09483553672 -0.9954892707 -0.002707914244
-0.007994454861 0.0189368248 -0.03353216171 0.366361145 -0.9299221424 -0.03200500672
-0.01661211152 0.05991985914 -0.04939466307 0.8121685061 -0.290892775 -0.5057308683
-0.01055612183 0.01766550255 -0.01709343147 0.503484756 -0.8640000119 -0.002660829066
-0.01295738363 0.01592769368 -0.01713600063 0.6278054506 -0.7783679539 -0.001909080761
-0.02029201317 -0.003465507984 -0.03302750015 0.9999261702 -0.01215130097 -1.210270678e-14
0.01189105924 0.05992126719 -0.04806211726 0.6508426566 -0.3724564978 0.6615738761
0.01848361626 0.06060000229 -0.06531561737 0.9179790404 -0.3558983958 -0.1750737367
0.01745800018 0.01089422989 -0.02098240948 0.7690393764 0.6392010358 0.0006880627278
0.01147538853 0.01704701042 -0.02122355588 -0.5160441803 -0.8564979308 -0.01047370726
0.01544042969 0.03138896815 -0.05342967478 0.9223210354 0.01347403547 0.3861895363
0.01663339996 0.01272220421 -0.05478038025 0.9895946123 0.07793981479 0.1209458084
0.007399332523 0.01913425255 -0.02099935235 -0.4015073538 -0.9158557936 -0.0001008662349
0.002972962618 0.02034415086 -0.02081926346 -0.1116895716 -0.9935908236 0.01739870219
0.007398988088 0.01913504664 -0.03703346888 0.392559619 0.91944224 0.02286728868
-0.01647917628 0.02366959667 -0.0483085556 0.805149878 -0.05198036542 -0.5907890618
0.006275813341 0.0124263649 -0.07552750778 0.4522113087 -0.170868203 -0.8753907639
-0.0009636706577 0.02051764043 -0.0207143684 0.09343293155 -0.9955665277 0.01084325348
-0.01295879163 0.01593160354 -0.02071462271 0.6288147663 -0.7774219728 0.01438978449
-0.01935629463 0.05935938644 -0.06754373169 0.9019758587 -0.2866240591 0.3229337378
-0.02002068265 0.03157715925 -0.0651603864 0.972322123 -0.01856664487 0.2329054935
-0.0152504034 0.01384560966 -0.02079051336 0.7456429181 -0.6661238762 0.01719361192
0.01171055622 0.05607372742 -0.07294613647 -0.6712086181 0.1795976353 0.7191826474
-0.01682219315 0.01180261278 -0.02088030211 0.8072145648 -0.5901573401 0.01090689553
0.0146876266 0.03242518663 -0.0692538147 0.8537532766 -0.02936480533 -0.5198490655
-0.01830265427 0.009435484886 -0.02099219004 0.9011364232 -0.4335333362 -0.001411796965
-0.01917097346 0.007454751968 -0.02109388097 0.9141843006 -0.4052934758 -0.002064688599
-0.02019830354 0.003536759496 -0.02130966663 0.9879589386 -0.1540581968 -0.01425509089
-0.02029201317 -0.003465507984 -0.02097900486 0.999910463 -0.01338155641 -6.664752029e-15
0.01745800018 0.01089422989 -0.02474146144 0.769388655 0.6387808283 0.0003886474777
-0.01713065052 0.05542942238 -0.07194060516 0.7924200809 -0.154866478 0.5899888044
0.01148384819 0.0524219841 -0.07315512238 -0.6777523336 0.04183570728 0.7340991404
0.00712267828 0.04042759959 -0.07608006287 -0.4003469583 0.02983236818 0.9158779083
0.01391781807 0.01515851355 -0.02509690762 -0.6718586648 -0.7406750853 0.002520426375
0.01147316504 0.01705205822 -0.0248946476 -0.515794137 -0.8567123315 0.000623974245
-0.01785067558 0.06060000229 -0.06479489581 0.8186320732 -0.5502342621 0.1645715208
0.007398988088 0.01913504664 -0.02535946465 -0.399119043 -0.9167243571 -0.01790091247
-0.01917371305 0.00746304671 -0.02547301674 0.9131278405 -0.4072008168 -0.01962247991
0.002971691926 0.02034720357 -0.02514179325 -0.1122811333 -0.9934854798 -0.01948200552
-0.0009650777115 0.02052111265 -0.02501508543 0.09501552658 -0.9954757537 -0.0002712558894
-0.02052458509 0.01155245145 -0.05720916494 0.9972867259 -0.04954484218 -0.05444717569
-0.01250131321 0.02293835068 -0.04433387756 -0.6926523567 0.1826778318 0.6977546291
-0.004607904792 0.02003849379 -0.02494615968 0.2346268793 -0.9719212373 0.01786997297
-0.007993318823 0.01893386989 -0.02493189557 0.3912441446 -0.920172666 0.01450117059
-0.01055612183 0.01766550255 -0.02495385234 0.5034314785 -0.8639045875 0.01502032369
-0.01296016863 0.01593543752 -0.02501536751 0.627012447 -0.7790083059 -0.001204391229
0.01405423832 0.0478650589 -0.05088322067 0.8541511967 0.003731019549 0.5200113582
-0.0152504034 0.01384560966 -0.02510732651 0.7457893071 -0.6660081429 -0.01521390717
-0.01682259973 0.01180379216 -0.02521566232 0.8071292253 -0.5902700488 -0.01112129545
-0.02029201317 -0.003465507984 -0.03680819702 0.99994882 -0.0032606445 0.009577342491
0.01592755413 0.0142869215 -0.05298688889 0.9741670316 0.07675587394 0.2123843928
-0.020200459 0.003543481529 -0.02499554729 0.9838773352 -0.1788270538 -0.002504801573
0.01745800018 0.01089422989 -0.02926001549 0.7699225271 0.6381373032 0.0002906215896
0.01146975962 0.01705978521 -0.02857171885 0.519505909 0.854460608 -0.00326800338
-0.02055309931 0.04841875076 -0.06045341237 0.9999301295 -0.008074825239 -0.008633265952
-0.01880857086 0.01541415691 -0.06845022583 0.942637469 0.03224430325 0.3322572904
-0.02020434348 0.003555498242 -0.02868716304 0.982926027 -0.1825228346 0.02327746211
-0.0166111207 0.03209532213 -0.04848725796 0.8032210554 0.004717109595 -0.5956623918
0.01629989338 0.03949709606 -0.06551169682 0.9614302007 0.02329547903 -0.2740607411
0.002970418851 0.02035026296 -0.02947290357 -0.1118651142 -0.9934886059 -0.0216006046
-0.01529171149 0.01396369743 -0.0410051206 0.7724355965 -0.6064956788 -0.1884309976
-0.02027001724 0.003281278515 -0.04087888107 0.9902703927 -0.1386924362 -0.01135594598
-0.004608233134 0.02003932603 -0.02924378268 0.2347031933 -0.9719268078 -0.01651336702
-0.01055612183 0.01766550255 -0.02925288137 0.5030375369 -0.8640988135 -0.01692563339
-0.02016767248 0.03199155299 -0.05664788055 0.9812369693 0.01522023373 -0.1922039402
-0.01296154806 0.01593927924 -0.02932462841 0.6273219115 -0.7786285593 -0.01431034458
-0.01830265427 0.009435484886 -0.02898949814 0.9005530594 -0.4345132353 0.01422798718
-0.02054072126 0.04468610891 -0.06117435201 0.9995105616 -0.006036384056 0.03069526696
-0.01917568302 0.00746901083 -0.02912862587 0.9136282709 -0.4065500487 -0.0006637534267
0.01378116067 0.01546501637 -0.04067777379 -0.6665293092 -0.7451466005 -0.02225362385
0.0114656655 0.0170690759 -0.03299284617 -0.5139627689 -0.8578114242 -0.001353799439
-0.01836356735 0.03096447945 -0.05134493256 0.8911341652 0.0142758369 -0.45351527
0.007398988088 0.01913504664 -0.03264658716 -0.399667072 -0.9166519122 -0.003937445955
-0.01692672577 0.0116639616 -0.03276108131 0.8070362297 -0.5903827437 0.01186338791
-0.02053838158 0.02896246974 -0.06138438288 0.9968573726 -0.0007528093634 0.07921371067
-0.01830265427 0.009435484886 -0.03263553301 0.8981502226 -0.439375679 0.01658886307
0.01348188496 0.06060000229 -0.04631228638 0.6255084229 -0.4041894277 0.6673605618
-0.01907410431 0.03687519836 -0.06835836029 0.9371812301 -0.003968891987 0.3488202831
-0.01917582321 0.007469436646 -0.03279211553 0.9119840143 -0.4099138454 0.0159936559
-0.02020660782 0.003562467416 -0.0331264445 0.9880463856 -0.1533681009 -0.01557451751
-0.0009663813114 0.02052436415 -0.03292303975 0.0828943755 -0.9965492988 0.004244711145
-0.02015246773 0.00387218504 -0.03724832001 0.9828164917 -0.1822336561 -0.0293707044
-0.004608623624 0.02004031595 -0.03355146726 0.253238347 -0.9609238017 -0.1117845554
-0.01055612183 0.01766550255 -0.03356201553 0.5052607704 -0.8622374998 -0.03546896914
-0.01296270005 0.01594248708 -0.03292300987 0.6296369324 -0.7768665474 -0.005975018734
-0.01832919757 0.009514674822 -0.04140841929 0.9117392618 -0.3908616305 -0.1263277655
0.01745800018 0.01089422989 -0.03681417211 0.7679504724 0.6392797986 0.03966624509
0.01390033722 0.015197721 -0.0369816246 -0.6718875399 -0.7388701075 -0.05136241842
0.01146156152 0.01707839139 -0.03742511876 -0.5163885926 -0.8558588253 -0.02912889555
-0.01704388599 0.04352213058 -0.04920584259 0.810251743 -0.01000464684 -0.5859966042
0.002968391498 0.02035513306 -0.03671463776 -0.1077339945 -0.9579665466 -0.2658824589
-0.0009668956598 0.0205256513 -0.03653001531 0.1646699882 -0.9185596092 -0.3593494669
-0.0152504034 0.01384560966 -0.03666526159 0.7521849107 -0.6587922478 -0.01451325019
-0.01682464886 0.01180973323 -0.03682276662 0.8085277896 -0.5884143169 0.007169734705
-0.01830265427 0.009435484886 -0.03702092997 0.8999752666 -0.4353168255 -0.02331911077
0.01702383486 0.03565607452 -0.0615655454 0.9938461171 0.02320070579 -0.1083126156
-0.01523801804 0.0180939045 -0.0462796402 0.7963172124 -0.2674507274 -0.5425394047
-0.01917582321 0.007469436646 -0.03719855245 0.913472636 -0.406139405 -0.02487020249
-0.02041854286 0.01123143768 -0.06097340202 0.9965626235 0.01605105206 0.08127300418
-0.004609313667 0.02004206514 -0.03714958572 0.1695794078 -0.9552902254 -0.2422053048
0.01745800018 0.01089422989 -0.03984483337 0.7650291764 0.6407827475 0.06424818938
0.0146073595 3.768847883e-05 -0.06093315735 0.8556807719 -0.3151729188 -0.4104588261
-0.02023728434 -0.003638767719 -0.04137899017 0.9995722242 0.01050252967 0.02729588647
0.0170438563 0.008147256851 -0.05702534231 0.9996644027 -0.02581650468 0.002142447232
0.01474324894 0.01956923723 -0.06909768867 0.8406044638 -0.02564901904 -0.5410418314
0.01706873798 0.01175714445 -0.042004776 0.7715306635 0.6283683169 0.09946704807
0.01129088497 0.01746572971 -0.04107623482 0.5339038932 0.8451804632 0.02483178199
-0.01841637802 0.03893714905 -0.05146654129 0.9078769796 -0.01180356525 -0.4190704782
0.00778726697 0.01914640999 -0.04034951782 0.385869036 0.9219957013 -0.03207824685
0.002968052745 0.02035594273 -0.03962041664 0.07153062485 0.8521404426 0.5184014234
-0.008308805764 0.01926564789 -0.04049969435 0.4550216996 -0.8040922398 -0.3826106675
-0.007352658749 0.05662494278 -0.07598628998 -0.3920160282 -0.2931229578 -0.8720105305
-0.000967307965 0.02052668317 -0.03942115148 0.3106307764 -0.7318175849 -0.6065900948
-0.004893524329 0.02011821683 -0.03977234268 -0.2388815021 0.9204003048 0.309513985
-0.01686116314 0.01191626914 -0.04118298149 0.8178328849 -0.5520847502 -0.162332378
-0.01918507099 0.007497431517 -0.04087636948 0.9192084542 -0.389316184 -0.05906544387
0.00314832747 0.0272328577 -0.04029278755 -0.1838681483 0.2191094775 0.9582189421
-0.02052201653 0.006911688805 -0.05349523036 0.9987059673 -0.02946224423 -0.04145319158
0.01656596438 0.04786652883 -0.05663094966 0.9654459006 -0.02064130077 0.2597848142
-0.003779994806 0.02370724742 -0.04036923599 -0.1006179692 0.4207022948 0.9016016878
-0.01858941841 0.01029103088 -0.04570643616 0.9069204452 -0.3451213638 -0.2416330904
-0.01270647931 0.02746077251 -0.04444273853 0.6168824352 -0.0185243528 -0.7868372827
0.01610690498 0.01388933945 -0.04397793198 0.726245543 0.6813317397 0.09140279927
-0.01477991104 0.04775948334 -0.04630416489 -0.6966227183 -0.007353322139 0.7173999701
-0.0182971611 0.05667476654 -0.05124360275 0.8622038128 -0.2062422472 -0.4626756106
0.002889776945 0.0398928299 -0.04020684433 -0.05169402512 0.1192903862 -0.9915127491
-0.0006273740642 0.03948522663 -0.04007251167 0.07496050728 -0.04523586041 -0.9961599466
-0.003593878269 0.03607144547 -0.0403285656 0.1722258475 -0.0009105581153 -0.9850570686
-0.005118489742 0.03260508251 -0.04066815186 -0.3381580018 -0.02600946698 0.9407298621
-0.01081204605 0.01835809135 -0.04212058258 0.6394565097 -0.5907486351 -0.4920481911
-0.01873147964 0.01954670334 -0.06910019684 0.9158459804 0.01462396872 0.4012633547
-0.006199147224 0.02977163315 -0.04095584869 -0.3642769795 -0.01303367536 0.9311994445
0.01287999725 -0.001397455573 -0.06294860077 0.7754659729 -0.4015928388 -0.4872121886
-0.008288391113 0.02753306866 -0.04183070946 -0.3790669131 -0.02414691241 0.9250541617
-0.008601176421 0.02448025258 -0.04195291138 -0.5470083849 0.1937180867 0.8144047702
-0.02031103706 0.001494895697 -0.0543333931 0.9937271135 0.08745088959 0.06970484796
0.01431177398 0.06021003832 -0.07265486145 0.6627043554 -0.5027289063 -0.5550554784
-0.01931858635 0.007901611805 -0.04451034292 0.9582443228 -0.2758017623 -0.07550632918
-0.01990174904 0.01148942909 -0.05253395309 0.9695624967 -0.1189341622 -0.2140168922
-0.01928860855 0.05227552414 -0.06778037262 0.9403249794 0.006858424643 0.3402086054
-0.01946979904 0.01588423697 -0.05315099843 0.9662094294 -0.07797779276 -0.245680285
-0.02028843498 0.003814959566 -0.04499060694 0.9717346655 -0.2345923053 -0.02642328891
0.004559418201 0.04913074875 -0.04055342484 -0.5916681435 -0.161684326 -0.7898018655
0.002082034349 0.05134365845 -0.04014506149 -0.005831293569 -0.01586209356 -0.9998571848
-0.0005684638421 0.05085320791 -0.04005773036 0.03300094685 -0.00780685931 -0.9994248298
-0.003393837293 0.04752579117 -0.04031170654 -0.1962087592 0.03400393664 0.9799723747
-0.005254722118 0.04349491119 -0.04070927048 0.2861399685 0.0002731973114 -0.9581877915
0.01707398796 0.05225976658 -0.06079749489 0.9987726238 -0.02387280188 0.04339741198
-0.006292697906 0.04080659866 -0.04098748016 -0.3737292232 -0.01400371258 0.9274321343
0.01096156101 0.01158954964 -0.07238087158 -0.6164602871 0.1998767436 0.7615943814
0.01701485189 0.05947146352 -0.06156059138 0.9835403845 -0.1806116539 0.00526712689
-0.0086014177 0.0393928833 -0.04195219167 -0.4506639748 -0.02430149466 0.8923628293
-0.008588946819 0.03575503031 -0.04195587794 -0.4462505627 0.00964493736 0.8948560836
-0.01824525261 0.05133002663 -0.07008942413 0.8856063559 -0.0070614317 0.4643829438
-0.008954129219 0.03111910343 -0.04205708313 -0.4433404876 0.0340493413 0.8957063438
-0.0139315753 0.01653609896 -0.04365186501 0.7344276442 -0.5588868184 -0.3850474771
-0.01584033298 0.01552836895 -0.04543420486 0.7729985487 -0.4822578659 -0.4121899979
-0.02030687014 0.0154149847 -0.05658206177 0.9932272067 -0.03103625358 -0.1119663644
-0.01748354975 0.01225204166 -0.04500985336 0.8485108558 -0.4438995075 -0.2880669278
0.003020638943 0.06060000229 -0.04167453057 -0.01930348967 0.9995424633 -0.02328603389
-0.0007679011888 0.06054294671 -0.04145000797 0.0391494395 -0.4934184952 -0.8689105305
-0.0046673663 0.06038590676 -0.0416038159 0.2050754941 -0.4372672041 -0.8756377299
0.004829180241 0.01962994576 -0.07694464874 0.3949401415 -0.04668405785 -0.9175199635
0.01682389132 0.01588912582 -0.05736481603 0.9970807571 0.03965338909 0.06525007727
-0.004337311824 0.05609399796 -0.04051277542 0.1854430542 -0.1777091726 -0.9664524425
-0.01629382229 0.0189566288 -0.07308553696 0.8500032368 0.01787676984 0.5264740435
-0.006063788176 0.05204409599 -0.04092943001 -0.3438352501 -0.02280569269 0.9387530139
-0.01285179558 0.04358949127 -0.04459794846 -0.6184956366 -0.01344204679 0.785673252
0.0152152009 0.04401124573 -0.05293958473 0.8840617075 -0.01670023675 0.4670717283
-0.02019839382 0.02379965019 -0.0645242424 0.9863025777 0.01847318051 0.1639084097
-0.008572563171 0.04800210762 -0.04197220325 -0.47074888 -0.01026101857 0.8822075739
-0.008389209747 0.04413462639 -0.04181203461 -0.4427955814 0.01837543848 0.8964342789
-0.01228602076 0.03216475391 -0.04419312954 -0.5537418447 -0.01101527508 0.8326155374
-0.02055726433 0.03308988698 -0.06061716461 0.9997794682 0.009146356137 -0.01890394369
-0.008364954948 0.05973726654 -0.04206875515 0.335444019 -0.2780884047 -0.9000800794
-0.009093297839 0.05584589386 -0.04222520924 -0.4263394901 0.1572958973 0.8907820384
-0.008946839809 0.05223196793 -0.04205957794 -0.4725764304 -0.01421454973 0.8811750473
-0.0131069781 0.03990470505 -0.04482212575 -0.6250776171 -0.005768257245 0.7805412864
-0.01300990391 0.03593998623 -0.04468566322 -0.6480167451 -0.01778204737 0.7614184768
0.01514941724 0.03525081253 -0.05283436457 0.8881191845 0.02374808399 0.4589992838
-0.01895506859 0.01138193512 -0.0484782753 0.9231696065 -0.3054255674 -0.233394731
0.01532689238 0.01916941071 -0.05300496674 0.9555074641 0.05904698437 0.2889964354
-0.01984093094 0.009482872009 -0.06355605698 0.9863531035 0.04503853335 0.1583637767
-0.02057214832 0.002309129953 -0.04892294312 0.9996447431 -0.01273362395 -0.02341457599
0.01399112034 0.0289321785 -0.05078234482 0.8914074469 0.007364476794 0.4531429444
0.01115610065 0.06060000229 -0.04509034653 -0.5725913009 0.31647872 -0.7562938727
0.007903487342 0.06060000229 -0.04422900936 -0.4694526786 0.2808432166 -0.837102903
-0.01279441102 0.05146083705 -0.04456910642 -0.6131156731 0.0201046796 0.7897372812
0.009371699333 0.05132432556 -0.07484959412 -0.5310577212 -0.003187409831 0.8473296509
0.01227072906 0.03261650085 -0.04871292877 0.8288856056 0.0009415051521 0.5594173455
-0.01268539476 0.04775515938 -0.04443388176 -0.6448794314 0.01185587137 0.7641923562
-0.02006109301 0.0395824941 -0.06495181529 0.9688850949 0.01490926035 0.247061504
-0.01492367697 0.02749136257 -0.04643824196 0.7794997657 -0.002936934181 -0.6263956335
-0.01785067558 0.06060000229 -0.06090173721 0.9042465082 -0.4269374198 -0.007917827522
-0.01719209766 0.01939258337 -0.04924571323 0.8177417489 -0.1502532969 -0.5556279141
-0.01749562693 0.01595557523 -0.04863799953 0.8476577553 -0.2186558588 -0.483390055
-0.01916411527 0.0193624452 -0.05310983404 0.9141902471 -0.09397252532 -0.3942402269
-0.0181506176 0.01347924137 -0.04822488022 0.8787004549 -0.331556008 -0.3434474111
0.01466350555 0.05141658401 -0.06922005157 0.8312242634 0.02892724565 -0.5551841481
0.007930810452 0.05427464294 -0.04546470642 0.6982095903 -0.04681240933 0.7143612296
0.009479392052 0.04806132126 -0.04641507721 0.7230847042 0.03816159704 0.6897044317
0.01349380207 0.001090135455 -0.06416118622 0.8171192599 -0.347046216 -0.4602988584
0.01154616737 0.04221893883 -0.04804796028 0.7761036369 0.01520900104 0.6304219469
0.01222898531 0.03760508347 -0.04873347855 0.8157143275 0.009208663775 0.578381653
0.01289650536 0.02791771698 -0.0493993454 0.838151261 0.003650246426 0.5454256498
0.01863193989 0.06060000229 -0.05744508235 0.9334698535 -0.3488151436 0.08343876909
-0.004962504148 0.06060000229 -0.04376502482 0.28311296 -0.4175878106 -0.8634045821
-0.009252581716 0.06060000229 -0.04462244749 0.4554918921 -0.4200647613 -0.7849030084
0.01694396782 0.008371291161 -0.05389467621 0.9986844689 0.05122536218 0.002300828418
-0.0127807591 0.05644334316 -0.04451760292 -0.6447429479 0.1571918613 0.7480623303
0.01242517281 0.05553381157 -0.04895863152 0.7139666594 -0.2484633533 0.6546125352
-0.01512145519 0.03581982994 -0.04665082741 0.7864673058 0.01014846663 -0.6175485288
-0.02052531815 0.002163097501 -0.05195721436 0.9994707062 0.03218162262 0.004759273171
-0.000656528155 0.03437892914 -0.07763054148 0.04756635996 0.01692804615 -0.998724628
-0.01917926311 0.04841226578 -0.06795671463 0.9596626865 -0.00310295576 0.281136799
0.009793488503 0.05639954376 -0.0466348114 0.5923650672 -0.2068138099 0.778673022
-0.01664329696 0.05590710449 -0.04856513596 0.8026289484 -0.1318370982 -0.5817265257
-0.01995977497 0.06004299259 -0.06440840816 0.9047312907 -0.413529109 0.1022495362
0.01168619823 0.0511249752 -0.04818545341 0.7404684248 0.0155856318 0.6719104107
0.01539535141 0.05550058556 -0.05324934006 0.8684869986 -0.1610487852 0.4688215248
0.00674135828 0.01573283863 -0.07590503184 -0.4717617463 0.1092791319 0.8749279548
0.01232783365 0.04680565643 -0.04884321594 0.7756004931 0.01341448153 0.6310815533
0.01125599785 0.01535836315 -0.07289675598 -0.6663600154 0.1111980114 0.7372918908
0.0170589962 0.0395189867 -0.06090283966 0.9994017287 0.01147199262 0.03262787138
0.01349374962 0.03330820847 -0.05013082504 0.8663867576 0.001659192355 0.4993708375
0.01525896486 0.02394458644 -0.05305072276 0.9129447551 0.008759107206 0.4079891569
-0.01907099533 0.04070869255 -0.06824664307 0.9418455163 0.002640103622 0.3360357916
-0.003631217241 0.05293695831 -0.0772581749 -0.1090113229 -0.01661058978 -0.9939017154
-0.01332329965 0.06060000229 -0.07326000786 -0.6056801897 0.1091546957 -0.7881857397
-0.01512679291 0.04508496475 -0.04667321396 0.7651734771 0.02109734062 -0.6434784007
-0.01852202034 0.05380218506 -0.05170654297 0.8976292515 -0.0546602531 -0.4373488123
-0.01734216404 0.03602499676 -0.04958860779 0.8173638961 0.001126091413 -0.5761206412
-0.01854181099 0.0314601059 -0.06953939056 0.9053776537 0.005082753527 0.4245768126
-0.018748209 0.01523664474 -0.05085938644 0.9291969991 -0.1888836786 -0.317672619
0.01637584438 0.04804099655 -0.06527490082 0.9616761992 -0.01253375085 -0.2739010642
0.01478007138 0.06056808805 -0.04923940849 0.6905215844 -0.4272466151 0.5836439594
-0.01921967252 0.0590130895 -0.05335755666 0.8992761477 -0.3131245517 -0.3053775127
0.01352462959 0.04282093048 -0.05019159317 0.8302433947 0.02844072949 0.5566749774
0.01541624975 0.02756239891 -0.05326404953 0.8945305789 -0.00288176093 0.4469974707
0.01669308805 0.004257567108 -0.05758851814 0.965449602 -0.1413465088 -0.2189251708
-0.01480192709 0.05638454819 -0.04634337807 -0.691960947 0.1752699168 0.7003359937
-0.01530759907 0.05256726074 -0.04688151169 0.7572110158 -0.01860102394 -0.6529054139
-0.01692144928 0.05179999542 -0.04899037476 0.8143171936 -0.005501132142 -0.5803940435
0.0140891695 0.05659893417 -0.0509474678 0.8314351261 -0.2156410785 0.512068898
-0.01685140634 0.04773291874 -0.04883743858 0.8113610862 -0.008886148558 -0.5844777363
0.01356516552 0.05181865311 -0.0502636261 0.7919318245 0.01642221238 0.6103886437
0.01700885963 0.0118898859 -0.05722601318 0.9999126804 0.01216513081 -0.005161510866
0.01563825893 -2.504292876e-05 -0.05816769409 0.8948396005 -0.2802850889 -0.3474224495
-0.01916744296 0.02780320549 -0.05320067215 0.9047807004 -0.003503202499 -0.4258633721
-0.01925014305 0.02387389692 -0.05334915797 0.945493481 -0.02194047952 -0.3249010506
0.01789032173 0.06060000229 -0.05064758301 0.8121381122 -0.422958604 0.4019175364
0.01524029541 0.04849960899 -0.05295410538 0.8863897981 -0.005410824975 0.4629080349
0.01674599695 0.02725471735 -0.05745081997 0.9799568398 0.02394614852 0.1977654522
0.01668592358 0.02316109085 -0.05697825432 0.9779718743 0.01650399924 0.2080832311
0.01573049355 0.003607591152 -0.06107119827 0.9082025301 -0.2588714378 -0.328867364
-0.01919468943 0.03590276591 -0.05328080622 0.9275176591 0.02966045745 -0.3726006566
-0.01927749316 0.03216811562 -0.0534228185 0.9460639209 0.01580865293 -0.3235941039
-0.02052335835 0.006915810108 -0.05722844696 0.999377935 0.0204994871 0.02869693445
0.01826113081 0.06060000229 -0.05370207882 0.8892949273 -0.393351836 0.2332999472
0.01577649689 0.05981582587 -0.05308871678 0.8161193996 -0.4024240636 0.4147336479
0.0166601963 0.03640064875 -0.05708151627 0.9669010727 -0.006540161683 0.2550677201
0.01664716339 0.0321328481 -0.05679228846 0.9590722926 -0.01003970596 0.2829832891
0.0153346585 0.06020819044 -0.06960852051 0.7691539305 -0.4248667044 -0.4773787958
0.01692111651 0.01208439318 -0.06102881368 0.9858849345 -0.06902198517 -0.1525347878
0.01651331615 0.008408674479 -0.06159791088 0.967216363 -0.1202483187 -0.2236802381
-0.01835409737 0.04804327583 -0.05134985352 0.8954039077 0.01359073642 -0.445047339
-0.01922120349 0.04361952464 -0.053362854 0.9401400127 -0.002310405642 -0.3407806019
-0.01930243301 0.04006045278 -0.05349954351 0.9443051678 -0.008287257223 -0.3289666723
0.01672624493 0.04403524017 -0.05727026558 0.9721333108 0.006762162877 0.2343311742
0.01674999046 0.03936867142 -0.05732465363 0.9686000031 0.001843842196 0.2486174454
0.017058778 0.02372154312 -0.06094185486 0.9994114179 -0.01998911762 -0.02787925597
0.01631180668 0.05967939148 -0.06581576691 0.9335896982 -0.2166250903 -0.285453754
0.01701977348 0.01898603185 -0.06142732875 0.9989385856 0.01209461751 -0.04444572517
-0.01933381701 0.0515033617 -0.05367852974 0.9453133441 -0.006811699179 -0.3260924442
-0.02028295835 0.02823228518 -0.05729031754 0.980292512 -0.01517719576 -0.1969676209
-0.0201790123 0.005857917786 -0.05967311478 0.9940329437 0.0714898515 0.08238754711
0.00885602506 0.0003102128605 -0.06870085398 0.6799886183 -0.3881292768 -0.6220700471
-0.01225445684 0.06060000229 -0.07630670929 -0.4281090193 -0.6949182169 -0.5777640862
0.01664758415 0.05566332016 -0.05700957336 0.979150047 -0.116284783 0.1665624047
0.01673147392 0.05147521718 -0.05744235865 0.9749874329 0.01765175522 0.2215579409
-0.01636298402 0.04825096893 -0.07299126689 0.8403986768 0.005009708561 0.5419455387
0.01705589676 0.0323747228 -0.06067374293 0.9988391136 -0.02042943671 0.04362411393
0.01703813171 0.02913758214 -0.06121936417 0.9949800437 -0.01793732824 -0.09845285594
0.01519855833 0.007662615657 -0.06512705994 0.875979969 -0.2176543367 -0.4304482358
0.01438481445 0.004421311426 -0.06491929016 0.8335710206 -0.3052640846 -0.4604054651
0.01175417781 -0.0006991782188 -0.06513138771 0.7649801832 -0.3673586766 -0.5290112683
-0.01892155838 0.02847851753 -0.06870619202 0.9287020352 -0.006693946361 0.3707663966
-0.01734957051 0.06060000229 -0.05305423546 0.8585663534 -0.4078218159 -0.3107172079
0.01644577281 0.02367538897 -0.06509157435 0.9605525011 0.005599861013 -0.2780423245
-0.01940517616 0.05606967799 -0.05385917409 0.9419356652 -0.1331627339 -0.3082610728
-0.0201635596 0.03986355718 -0.0566551005 0.9815126226 0.00274737259 -0.1913776989
-0.02027802404 0.03628786596 -0.05727874629 0.9906283921 0.01176313475 -0.136077248
-0.02053208733 0.01608691279 -0.06084537633 0.9986938997 0.009622394279 0.05017872206
0.01623361416 0.01575601254 -0.06526539993 0.9687912135 -0.05958206806 -0.24061081
0.01146471348 0.01923316917 -0.07306204071 -0.6479029571 0.02854840147 0.7611877212
-0.02016187286 0.04737404505 -0.05666710917 0.9810091888 0.0002273210557 -0.1939611294
-0.009082072122 0.06060000229 -0.0771526304 -0.4513347792 -0.5627440475 -0.6925431785
-0.02027355067 0.04396308517 -0.05727405675 0.9872278721 0.002566676021 -0.1592938817
-0.02055681038 0.02483879026 -0.06071769842 0.9998404847 0.01785096574 0.0005901184255
0.01705322266 0.04790483856 -0.06086452866 0.9996263029 0.003878376785 -0.02705942944
0.016621665 0.0275169301 -0.06442353916 0.9686952083 0.03127751008 -0.2462748684
0.01703434801 0.05592134094 -0.06117999744 0.9893717699 -0.1409038704 -0.03591100542
0.01141033983 0.05991411845 -0.07363374583 0.6531181721 -0.3181580742 -0.6871769009
0.01072686354 0.001104531179 -0.06764488475 0.7048449256 -0.3897756008 -0.5926791812
-0.02016056506 0.05454347738 -0.05668479029 0.9790098262 -0.1231947965 -0.1623662596
0.01644400978 0.03201451921 -0.06508033657 0.9514018047 -0.02509919273 -0.3069277383
0.01443397427 0.01180573521 -0.068290065 0.8594340714 -0.1554052884 -0.4870546923
0.003334128112 0.04382434845 -0.07731515312 0.1618414629 -0.005962798931 -0.9867987565
0.01389110279 0.007837919712 -0.06772594452 0.8143925603 -0.2516137803 -0.5229295013
0.01237044697 0.007567747116 -0.06952739868 0.7244041377 -0.2658726282 -0.6360427587
0.01081382751 0.004170862794 -0.06945893097 0.685783004 -0.3372024175 -0.6449776748
-0.01785067558 0.06060000229 -0.05703041585 0.9021496441 -0.4082278506 -0.1395565891
-0.02006027571 0.05945123291 -0.05708043226 0.9422903318 -0.2781523162 -0.1863336242
-0.02053968875 0.03701545715 -0.06127320226 0.9967928324 0.02593484955 0.07570622689
-0.0201695137 0.01500518799 -0.06400327301 0.989795383 0.01519236683 0.141683774
0.01863193989 0.06060000229 -0.06151405525 0.949708844 -0.312885247 -0.01248734495
0.008695782661 0.01611057091 -0.07497904205 -0.5428149314 0.106036607 0.8331315552
0.0166071949 0.04351195621 -0.06443854904 0.9782336299 0.02545822624 -0.2059389329
0.01638172404 0.03590589905 -0.06533799489 0.9619690491 -0.01705010991 -0.2726258285
0.01436399722 0.01596281815 -0.06936328316 0.8096087904 -0.07544513076 -0.5821010555
0.00780725797 0.02886541049 -0.07574015554 -0.4960117022 0.02630899163 0.8679171782
-0.01993063164 0.01871393108 -0.06552140427 0.9723083045 -0.003093706135 0.2336813858
-0.0195933876 0.0132863369 -0.06584432983 0.973556544 0.03273671002 0.2260883973
0.01460740509 0.02420851936 -0.0693411499 0.8519028965 -0.01357222439 -0.5235238768
-0.0002478139748 0.04693065008 -0.07763912201 -0.07319167314 -0.006908370098 0.9972939654
0.01276367188 0.01042710209 -0.07027215576 0.739708807 -0.2204675842 -0.6357868552
-0.02054681778 0.05554811986 -0.0603899231 0.9882526248 -0.1498306528 -0.03012515791
-0.02002258301 0.0274879446 -0.06525422668 0.9636842985 0.002363678267 0.2670336794
-0.01450361061 0.06060000229 -0.07033391571 0.6949431565 -0.5424813286 0.4719830689
0.01654189453 0.05586616821 -0.06464922409 0.975797723 -0.1514649362 -0.1577250042
0.01487352467 0.0360913105 -0.0689234066 0.8772923398 0.02403271999 -0.4793543354
0.01031809711 0.008560684204 -0.07198434448 -0.6298078391 0.2511609524 0.7350239873
0.007438096387 0.007709257739 -0.07347138323 0.5212181158 -0.2794715618 -0.8063667416
-0.02019053046 0.05978566043 -0.06087889608 0.9671122523 -0.2530354314 -0.02582560459
-0.02007655144 0.03572764397 -0.06502894592 0.9788783464 0.01124873927 0.2041338993
-0.02009965897 0.04720791499 -0.064760451 0.9745306184 -0.002237686012 0.2242433201
-0.02012028027 0.04354829788 -0.06482666016 0.984704431 -0.01519175787 0.1735695653
0.01477280617 0.04793065166 -0.06908989525 0.8547576159 -0.002548513296 -0.5190211202
0.01348233223 0.03002178001 -0.07109113312 0.8038666632 -0.01828300076 -0.5945284851
0.01156711102 0.02809080238 -0.07308396149 -0.6842496067 0.01875174027 0.7290067544
0.01130636063 0.02383366432 -0.07332855225 -0.692822389 0.01905099263 0.7208565717
-0.02006214142 0.05602588177 -0.06492110157 0.9597836759 -0.1560997597 0.2333412962
-0.01810869694 0.02410651588 -0.07039416504 0.8936885638 0.03010864207 0.4476764687
0.01181432517 0.03523438517 -0.07282035828 -0.6737209648 -0.03609094995 0.7381039933
0.01111522802 0.03178078461 -0.07346751404 -0.685116148 -0.01036216002 0.7283601371
0.00400771451 0.01214327478 -0.07616041946 0.418387311 -0.1741790441 -0.8914110828
0.01147150246 0.04394012642 -0.07312949117 -0.6817670844 0.01128979378 0.7314821824
0.01128296375 0.03959495926 -0.07331164296 -0.6794820989 -0.02678062466 0.7332031611
-0.01878427601 0.05619576454 -0.06895402527 0.8860812597 -0.1670700643 0.4323743689
0.007407137036 0.02361923504 -0.07594983292 -0.4600859423 -0.005865310481 0.8878550128
0.00793955946 0.01969225311 -0.0756944809 -0.4538077971 0.03517203612 0.8904051949
0.003362770796 0.01627202066 -0.07702249908 0.3237544612 -0.09633665898 -0.9412238294
-0.01810188675 0.03420842361 -0.07040699005 0.8978886729 -0.008782831531 0.4401349714
-0.01807341385 0.04365147209 -0.07044699097 0.9093526465 0.0002516911068 0.416026082
-0.01467044353 0.0206952858 -0.07505766296 0.8259258314 0.0169879655 0.5635227857
0.007149123955 0.03575782852 -0.07604781647 -0.4579751053 -0.01504258 0.8888377376
0.00726947403 0.03177969742 -0.07604719925 -0.4586086566 -0.01132999864 0.8885661097
0.003844995936 0.02739550718 -0.07716688792 0.2508400546 0.01275994407 -0.9679444462
0.002551830331 0.02319128418 -0.07747409312 0.2578753679 0.01100549137 -0.9661155075
-0.01714604219 0.06050867123 -0.06879657491 0.774993768 -0.5278329854 0.3475298535
-0.01543368721 0.03086530685 -0.07420605469 0.8149753184 0.03026398522 0.5787048657
0.002314007699 0.03613877869 -0.07752184677 -0.1549117173 -0.004579416454 0.9879177034
0.003666230202 0.03131331317 -0.07727382914 -0.2237897306 0.01615437212 0.9745035622
-0.0001934331208 0.02792811394 -0.0776613884 0.105274395 0.01218257589 -0.9943685869
-0.01376326084 0.03028762054 -0.07591869354 0.7284874977 0.09524189648 0.6784061814
0.007194947839 0.0482029438 -0.07601759148 -0.4021929444 0.01020248837 0.9154980856
0.004198528647 0.03862834358 -0.07714827347 -0.1658670593 -0.01595335365 0.9860190714
0.007279686292 0.05560955556 -0.07597686259 -0.4486313235 0.1944561097 0.8723054264
0.007047765613 0.05233838367 -0.07611753845 -0.4050582446 0.06490490013 0.9119841953
-0.0004389697512 0.04074848811 -0.07763632965 0.09450902575 0.02852038198 -0.9951153862
-0.01593633194 0.05950701981 -0.07283547211 -0.697359354 0.4380343611 -0.5672881365
0.01348188496 0.06060000229 -0.07601361847 0.6048169824 -0.4930240998 -0.6253987966
0.01130105352 0.06060000229 -0.07644508743 0.6048169824 -0.4930240998 -0.6253987966
0.007655289364 0.06010855331 -0.07681795807 0.4613456555 -0.328329065 -0.8242331049
0.004280852914 0.05127655029 -0.07710902786 -0.2664643739 -0.002485871333 0.9638415627
0.002515255094 0.04883028412 -0.07748712921 -0.1589873594 -0.0008377268427 0.987280263
-0.003970387459 0.04721683693 -0.07718789291 -0.0610864104 0.007010396971 -0.9981078623
-0.01401335526 0.04932816696 -0.07569911957 0.7972880204 0.008750949773 0.6035356107
-0.0006691200052 0.0594700034 -0.07796743883 -0.07325121756 -0.2690871474 -0.960326177
0.003431601485 0.06009689013 -0.0779264768 -0.2607663363 0.3524179359 0.8987783466
0.003024950504 0.05547060521 -0.07738015493 -0.2224768367 0.2094447778 0.9521748485
-8.082377942e-05 0.05293169403 -0.07763978322 0.08125482454 -0.0568561163 -0.9950703671
-0.01044614887 0.06060000229 -0.07471369934 -0.4281090193 -0.6949182169 -0.5777640863
-0.005092229509 0.06027484131 -0.07751154022 -0.3218997832 -0.2844590122 -0.903030232
0.006981202364 0.06060000229 -0.07936850739 0.2959240734 -0.4729229462 -0.8299233879
-0.004962504148 0.06060000229 -0.07933930206 -0.2498234125 -0.6481999038 -0.7193227004
-0.007715772152 0.06060000229 -0.07903049469 -0.2498234125 -0.6481999038 -0.7193227004
