# .PCD v0.7 - Point Cloud Data file format
VERSION 0.7
FIELDS x y z normal_x normal_y normal_z
SIZE 4 4 4 4 4 4
TYPE F F F F F F
COUNT 1 1 1 1 1 1
WIDTH 421
HEIGHT 1
VIEWPOINT 0 0 0 1 0 0 0
POINTS 421
DATA ascii
0.01754775333 0.01069526577 -0.0014978185 0.7198944914 0.6940591694 0.005812959581
0.01395306683 0.01507945442 -0.001473961592 0.6485476935 0.7596036657 0.04886880728
-0.01176735576 0.01682974307 -0.001424770296 -0.6187974833 0.7831511102 0.06135155524
-0.01469055716 0.01440890058 -0.03084431235 0.7330825931 -0.6801390503 0.000885448222
0.0104060216 0.01767225313 -0.001457364619 0.5340065342 0.8415448462 0.08148185922
0.0140275795 0.04116442795 -0.05103216629 0.8422500268 0.02751068805 0.5383846714
0.01745800018 0.01089422989 -0.02098281097 0.7276050037 0.6859945194 0.001574130174
0.009428010804 0.04054339654 -0.07477690669 -0.5006969756 -0.02414542063 0.8652858125
-0.0174215045 0.01244751263 -0.04511009598 0.8992903845 -0.3721864702 -0.2296824672
0.007353030205 0.01923137856 -0.001445815027 0.3381777927 0.9396140121 0.05254796626
0.008334799647 0.01878748655 -0.01595471561 -0.3823612216 -0.9238048702 0.01960760353
0.01698722903 0.01071702099 -0.05611556753 0.9994512009 -0.02019469089 -0.02625778986
-0.0009556542039 0.0204978927 -0.001426759571 -0.08536270953 0.9920802282 0.09214135153
-0.000967307965 0.02052668317 -0.03942115148 -0.08497651442 0.752783749 0.6527600013
0.01147790146 0.01704130872 -0.01096716754 -0.5438057996 -0.8384445137 0.03586153555
-0.001916614374 0.02659738795 -0.04012170664 0.1018568062 -0.2724224928 -0.9567712247
-0.01468037844 0.01438010621 -0.001430537477 0.7368334971 -0.6722343937 -0.07195357921
0.003835161328 0.02014744631 -0.001436141084 0.159798127 0.9832468618 0.08769359882
-0.005967604876 0.0196109879 -0.001422317766 -0.2419128118 0.9682405723 0.0631536665
-0.009285574436 0.01833070564 -0.001422370166 -0.4502243415 0.8878803626 0.09469162586
-0.02029201317 -0.003465507984 -0.02097940588 0.9994301507 -0.03375212851 -0.0004096056875
0.01685911751 0.04224675369 -0.06326643372 0.9827098213 0.01228706773 -0.1847442424
-0.02049577522 0.04530543137 -0.06105368576 0.9991890996 -0.01250280042 0.03827300914
0.01749316978 0.01081626638 -0.01123343086 0.7347360305 0.6783525305 -0.0008998661137
0.008009219964 0.01893161742 -0.006277721087 -0.3865652132 -0.9220462609 -0.01995065922
-0.01681709385 0.01178769326 -0.001438163593 0.777376935 -0.6258351863 -0.06336734593
-0.01874133205 0.02590033627 -0.05211183357 0.925727871 -0.008746674813 -0.3780891489
-0.005816123907 0.01967450479 -0.0261496425 0.2524638476 -0.9673244165 -0.02335549127
-0.0182925005 0.009405188084 -0.001445939243 0.8785942839 -0.4701552901 -0.08382175999
-0.02046734047 0.001982305964 -0.01105716515 0.9883442016 -0.1514679845 0.01527052046
0.0139387668 0.01511152808 -0.01105755615 -0.6575175759 -0.7533747967 0.009851550438
0.01752256298 0.01075110841 -0.00599086678 0.7314328184 0.6819129968 0.0008348400949
-0.02001150258 0.02606071472 -0.05602718163 0.9779993073 0.02587939909 -0.2069966466
-0.01880477651 0.03084831874 -0.0522682902 0.9115323122 0.02759236193 -0.4103017247
-0.02048456065 0.002036004702 -0.02583679199 0.9883451729 -0.1512490279 0.01724965792
-0.01953795195 0.006235599279 -0.001457361281 0.9471903683 -0.3025592995 -0.1062463008
-0.02029201317 -0.003465507984 -0.01122886753 0.9994367572 -0.03349734624 -0.002023896682
-0.02045617485 0.001947487116 -0.001473915607 0.9878532827 -0.1483008235 -0.04639781955
-0.01992955081 0.05098360507 -0.05581317329 0.9661922388 -0.006100919616 -0.2577505314
-0.02025528717 -0.003581778049 -0.001497149825 0.999002978 -0.04434183662 -0.005181841362
-0.01971715927 0.01138460445 -0.06470019341 0.9933579935 0.03070123509 0.1108933317
0.01394646835 0.01509425473 -0.005896231174 -0.6536785545 -0.7566490248 -0.01366018557
0.01076260106 0.01746357886 -0.005351508896 -0.5212046251 -0.8534084812 -0.00630103316
0.01399488468 0.03158544006 -0.05098834152 0.8754860773 0.00451844861 0.4832222181
0.003832934757 0.02015273825 -0.00574511834 0.1810410806 0.9833711862 -0.01432610443
0.008336833239 0.01878281625 -0.01087378915 -0.3830100572 -0.9233988167 0.02525710487
-0.0009575491796 0.02050255696 -0.005707600653 0.06531488287 -0.9969109203 -0.04361860812
-0.005969293773 0.0196153692 -0.005689837396 0.2510036478 -0.9679795903 -0.003561113483
-0.02051290226 0.04082179737 -0.06123974228 0.999000296 0.04414924674 0.007018015314
-0.00928753686 0.01833594704 -0.005690030873 0.4428662404 -0.8961535341 -0.02789868264
-0.01176789157 0.01683123279 -0.005699706833 0.6163215642 -0.7872354352 -0.02020146045
-0.01468216276 0.01438516223 -0.00572270599 0.7318899746 -0.6814191398 -0.0022407785
-0.009942059135 0.060062146 -0.04302158661 -0.4207784741 0.2118875909 0.8820709294
0.008733065486 0.01877819157 -0.0400670948 0.4944214164 0.8686127647 0.03254731881
-0.01681875563 0.01179256332 -0.005753219754 0.7819865422 -0.6232923984 -0.001906261107
0.01147664595 0.01704415798 -0.01609182453 -0.5642277844 -0.8251991714 -0.02633125296
-0.01829500103 0.009412647486 -0.005784277618 0.8865759488 -0.4625750687 -0.002718979482
-0.01953931618 0.006239728093 -0.00583003363 0.9510670974 -0.3089404135 -0.005215095773
-0.005976030648 0.01963284445 -0.03066773876 0.2514153482 -0.9677846993 -0.01353138781
-0.02046132755 0.001963553995 -0.005896035254 0.9890084108 -0.1478447637 -0.002071059385
0.01642034737 0.04054615974 -0.05615751966 0.9816432798 0.005294901826 0.1906526562
-0.02027820778 -0.003509215891 -0.005987927377 0.9993079941 -0.0371173653 0.00241538395
-0.0204723053 0.01139418888 -0.06020098241 0.9993909992 -0.0225076401 -0.02666527563
0.003830335961 0.02015891435 -0.01077452469 -0.2614090816 -0.9650536806 0.01834899232
0.01147538853 0.01704701042 -0.02122355588 -0.5448878501 -0.8385033966 -0.003047086352
-0.01984226322 0.02061737442 -0.06588342285 0.9433589095 0.02738776275 0.3306416161
-0.01929558542 0.06032664871 -0.05654641469 0.9412351153 -0.3183802355 -0.11274078
-0.01954250169 0.006249370873 -0.01604281282 0.9501758248 -0.3107414589 -0.02460990878
-0.01737635358 0.05086069361 -0.04963382339 0.8354020931 -0.02547121994 -0.5490487772
-0.0009597609176 0.0205080009 -0.01070418708 0.07792261616 -0.9966806152 0.02357577707
-0.006166542717 0.01956208651 -0.01107712385 0.3645874035 -0.9310772121 0.01308626554
0.008259850502 0.01151053953 -0.07433769608 0.5638113118 -0.1840380904 -0.8051377435
-0.009289827665 0.0183420639 -0.01067121569 0.4428379307 -0.8960720481 0.03081317455
-0.01176794434 0.01683137957 -0.01068955962 0.6174091451 -0.7866305783 0.004275617388
-0.01718410683 0.06060000229 -0.0564373312 0.8451495461 -0.5107040701 -0.157808737
-0.02029201317 -0.003465507984 -0.02624236043 0.9991339665 -0.04128725113 0.00516526483
-0.01468447304 0.01439171489 -0.01073248355 0.7026383489 -0.7111079757 0.02499595074
0.01127509356 0.01567269611 -0.07298806763 -0.6832364972 0.08932362818 0.7247131697
-0.01682069524 0.0117982475 -0.01078974009 0.7819836268 -0.6228938746 0.0224683876
-0.009630516052 0.04543065898 -0.04247162501 -0.5280911158 -0.007145530927 0.8491576501
0.01681141472 0.01232757854 -0.04268556213 0.7198235509 0.6886134426 0.08755331089
-0.005778125746 0.01968443108 -0.0159630552 0.251578975 -0.9678256291 -0.004644464728
-0.01829791896 0.009421354612 -0.01084789022 0.8860244201 -0.4629543635 0.02517904365
-0.01682171917 0.01180123913 -0.01583149087 0.7817428165 -0.6236009441 0.0001769711485
-0.01954090786 0.006244547129 -0.01093382994 0.9499758557 -0.3117319626 0.01921085568
-0.01177047899 0.01683833207 -0.03072194799 0.6168413051 -0.7870280573 -0.009676844384
0.0174679629 0.01087214565 -0.01572941081 0.7314026161 0.6818295927 0.01259442735
-0.01955700874 0.01614475727 -0.06628559113 0.9568691167 0.04794145852 0.2865364026
-0.02000586292 0.05612665558 -0.0560343568 0.9685611152 -0.1688736395 -0.1826774756
0.01552410936 0.0109378438 -0.06574894651 0.8973204116 -0.1638990495 -0.4098209128
0.01634130287 0.05105931473 -0.0558181694 0.9728299318 -0.07996750632 0.2172719994
-0.01830084038 0.0094300704 -0.01591651583 0.8859602119 -0.4637612428 -0.0001118556726
0.008918780327 0.02637008715 -0.07513340378 -0.4680413851 0.02492272378 0.883355036
0.01147248427 0.01705360285 -0.02562972577 -0.5430122164 -0.8396788537 0.008783818005
0.01393105817 0.01512881756 -0.01622368479 -0.6600933708 -0.7508825376 -0.02126397119
-0.01468654549 0.01439758861 -0.0157473284 0.7316625191 -0.6816647687 0.001761031475
0.0038279923 0.02016448307 -0.01580902179 -0.2019792063 -0.9793850133 0.003065286612
-0.01204682875 0.05632094955 -0.04393231392 -0.5940370089 0.1592838643 0.7885104201
-0.01213415956 0.04637558746 -0.04399033546 -0.5959808834 -0.011639568 0.8029142589
-0.0009619268974 0.02051333872 -0.01570582954 0.0635179416 -0.997939766 0.009038497496
0.01156389523 0.0405990181 -0.07312860107 -0.7019833428 -0.01931359675 0.7119314373
-0.01851455307 0.04046427282 -0.05167014694 0.9087129332 -0.02857351721 -0.4164425041
-0.009292120695 0.01834818697 -0.01565741205 0.4432700151 -0.8961811821 0.01926090651
-0.009083554268 0.06060000229 -0.0788795929 -0.3715029822 -0.4206032047 -0.827694677
-0.01571901876 0.01596240347 -0.0456192894 0.8452969423 -0.3486761551 -0.4048432019
-0.01176809033 0.01683177996 -0.01568462102 0.6161439507 -0.787403042 0.0190546978
-0.02047336006 0.002001075208 -0.01622307301 0.9882641158 -0.1513187876 -0.02089645886
-0.02002068265 0.03157715925 -0.0651603864 0.973660675 0.01995703793 0.2271268512
0.01146771336 0.01706442833 -0.030781322 -0.5401865741 -0.8413503766 -0.01811101617
-0.02029201317 -0.003465507984 -0.01572580687 0.9992087513 -0.03907287184 -0.00742846285
0.01392333953 0.01514612929 -0.02139648501 -0.6593689821 -0.7515422226 -0.02041649014
0.008332832416 0.01879200363 -0.02104261017 -0.3814081408 -0.9244054813 -0.001528508325
0.003826085991 0.02016901737 -0.02085045454 0.1965619581 0.9804850674 -0.003525513108
-0.00968433404 0.04117282867 -0.04246110535 -0.4319080326 -0.00739799016 0.9018873107
-0.0009636706577 0.02051764043 -0.0207143684 -0.05830504479 0.9980520951 0.02219317907
-0.006112497648 0.0195912618 -0.0212203832 0.2528848907 -0.9672307296 -0.02267041458
-0.00929462719 0.01835487986 -0.02136467266 0.4599529831 -0.8877574473 -0.01816502256
-0.0117690187 0.01683432643 -0.02068651348 0.6138300685 -0.7892131046 0.01885000212
-0.014687922 0.01440147177 -0.0207691342 0.7316384742 -0.681680884 0.004039231305
-0.0198104187 0.03577089615 -0.05519031448 0.9494524062 -0.0228621177 -0.3130773896
-0.01682219315 0.01180261278 -0.02088030211 0.7807622425 -0.6248255034 0.001846887798
-0.01984706354 0.04560614681 -0.06578591728 0.9792947687 -0.02908318548 0.2003395225
0.01598849664 0.04572211892 -0.06640251705 0.9195058794 -0.008861341196 -0.3929763535
-0.01830265427 0.009435484886 -0.02099219004 0.8856090018 -0.4644263117 -0.002212903694
-0.01954409726 0.006254201174 -0.02115879218 0.9500479382 -0.3111937921 -0.02381887623
-0.02047938601 0.002019868612 -0.02139562988 0.9882592665 -0.1514756438 -0.01996876309
0.003831105028 0.06060000229 -0.07958093371 0.1998272882 -0.2861629894 -0.937112479
0.01745800018 0.01089422989 -0.02624662145 0.7253808729 0.6883432298 -0.002487429228
0.005094108522 0.02537805986 -0.07685614777 -0.383412831 0.0004566842708 0.9235769554
-0.01991046572 0.05563137341 -0.06567659569 0.9629808814 -0.1542331903 0.2210880935
0.01391671244 0.01516099326 -0.02583787664 -0.6586911507 -0.7522425617 0.01603422425
0.008332389116 0.01879302216 -0.02614097905 -0.3816744977 -0.9240181222 -0.02269554295
0.003825048586 0.02017150736 -0.02590213601 0.201187581 0.9795526983 -0.0002617518242
-0.003340007544 0.04069010544 -0.0773608017 0.0555534517 0.03036880879 -0.9979937622
-0.0009652240624 0.02052147611 -0.02573296388 -0.07592302613 0.9970999769 -0.005227832114
-0.01176974805 0.01683632692 -0.02569851732 0.6143746997 -0.7890037258 0.004104764768
0.01739203072 0.01104047012 -0.04058441162 0.7122758937 0.6990408865 0.06328420328
-0.01468923807 0.014405182 -0.02580101395 0.7300632439 -0.6833732233 0.002949173031
-0.01682268262 0.01180403244 -0.0259393084 0.7815326086 -0.6238543589 0.003538453492
-0.02011673775 0.01573331604 -0.05566476288 0.9721580602 -0.08290255253 -0.2191708758
-0.01736097336 0.03084835625 -0.04955941137 0.8314863305 0.02466212933 -0.554997533
-0.01830265427 0.009435484886 -0.02607842588 0.885380436 -0.4648613423 -0.002327221184
-0.01949290548 0.006432114124 -0.02595809364 0.9493760678 -0.3141405686 -0.0008860269039
-0.009295258522 0.01835656357 -0.02636899821 0.4602570567 -0.8876095405 -0.01768460854
0.01745800018 0.01089422989 -0.0307683665 0.7423083393 0.6700548445 0.002198829751
0.01390896368 0.01517837191 -0.03103065491 -0.6579498462 -0.7530084342 -0.008960906428
-0.01960309574 0.006100097452 -0.0310147577 0.949306701 -0.3143298863 -0.003675591272
0.01688733482 0.02612259102 -0.06320498276 0.9812751023 -0.0206526711 -0.1915010205
-0.02048790359 0.002046428204 -0.03103012609 0.9879553821 -0.154738808 -0.0002533691663
-0.02029201317 -0.003465507984 -0.03076337306 0.9994422727 -0.03299053236 -0.005173809201
-0.005001505494 0.04628386784 -0.04071242714 -0.2741199032 0.03006200211 0.9612255483
0.008332389116 0.01879302216 -0.03125110213 -0.3781009781 -0.9253695058 -0.02703568351
0.003824057897 0.02017388789 -0.03096532906 -0.1986493546 -0.9797142534 -0.02642755434
-0.01725202465 0.05054147911 -0.07171339798 0.8770430097 -0.01296922267 0.4802367733
0.01134732024 0.01733765348 -0.04035242335 0.5546785073 0.8316821175 -0.02523111255
-0.0009660732746 0.02052359327 -0.03076311641 0.07750950391 -0.9967579247 -0.02158509342
-0.009295258522 0.01835656357 -0.0306684831 0.4623841392 -0.8866795234 0.0005748929886
-0.01682350286 0.01180641063 -0.03100977294 0.7814547082 -0.6239590921 -0.001894840871
-0.01830265427 0.009435484886 -0.03117632103 0.8852031316 -0.4651943445 -0.003104460578
-0.02055681038 0.02483879026 -0.06071769842 0.9995260863 0.02165279175 -0.02188057293
0.01745800018 0.01089422989 -0.03605768871 0.718081682 0.695041269 0.03572579535
-0.02029201317 -0.003465507984 -0.03605183601 0.999703975 -0.02282441229 0.008426661747
0.01390136433 0.0151954174 -0.03623682022 -0.6574862212 -0.7524599212 -0.03893502233
0.011462931 0.01707528369 -0.03594636027 0.5414768434 0.8406910935 -0.006427540854
0.008191961833 0.01885685076 -0.03604896763 -0.4166361335 -0.9067027171 -0.06560880271
0.003823114892 0.02017615302 -0.03604372215 0.2937093442 0.8372252808 0.4612902018
-0.01474211836 0.04941953659 -0.07492412949 0.8241463775 -0.0004104589791 0.5663767121
-0.0009667927623 0.0205253938 -0.03580840047 0.04789830472 -0.788391215 -0.6133066481
-0.005976532236 0.01963412726 -0.03569744229 0.3327031031 -0.9239178264 -0.1889034022
-4.603102803e-05 0.03469393158 -0.07761854553 -0.1991939111 -0.02751559291 0.9795737226
-0.009295258522 0.01835656357 -0.03569845867 0.4961474927 -0.8598504413 -0.1203947009
-0.0117715892 0.01684136343 -0.03576033243 0.6365636853 -0.7700211078 -0.04306005166
-0.0001934331208 0.02792811394 -0.0776613884 0.260338027 0.02682097372 -0.9651449358
-0.01867507871 0.02080563291 -0.05195258331 0.9097082255 -0.1070519104 -0.401211706
-0.01469144034 0.0144113903 -0.03590284014 0.7467554887 -0.657999487 -0.09691705304
-0.01682450557 0.01180931747 -0.03609538555 0.781428381 -0.6221017871 -0.0485700724
-0.0181506176 0.01347924137 -0.04822488022 0.9222334879 -0.2508649297 -0.2941975201
-0.02054281282 0.00221765393 -0.04593400669 0.9954412239 -0.09261019329 -0.0228061822
-0.01830265427 0.009435484886 -0.03628958797 0.8871044865 -0.45968787 -0.04162561935
-0.01955174414 0.00627758654 -0.03583734131 0.9502759514 -0.3109826598 0.01629114519
-0.02048790359 0.002046428204 -0.03623818461 0.9887906197 -0.1481715495 -0.01839299809
0.01378116067 0.01546501637 -0.04067777379 -0.6537405624 -0.7562064643 -0.02783990699
-0.01957197738 0.006339296162 -0.04099721193 0.9252405229 -0.3781216928 -0.0308862459
-0.02048973719 0.00205214723 -0.04071528371 0.9926112832 -0.1212473134 0.004682893312
-0.02053704589 0.03070440974 -0.06065724019 0.9996905309 0.01697911841 -0.01818108553
-0.02023728434 -0.003638767719 -0.04137899017 0.9985112334 0.05416993056 0.006398076352
0.01453238656 0.06031542529 -0.07143534675 0.8316224353 -0.1914339943 -0.5213033195
0.01666113281 0.009920014381 -0.06174667931 0.974520377 -0.09507654329 -0.2031513863
0.00382276384 0.02017699369 -0.03968027496 0.4587669338 0.7974815316 0.3918623575
-0.006318061087 0.02029653698 -0.04016712909 -0.4749767453 0.615368704 0.6290615626
-0.0102840941 0.01948068881 -0.04200514221 -0.5069881369 0.5551615066 0.6593623667
-0.01181301853 0.0169553378 -0.04038604791 0.7548775734 -0.5366793207 -0.3770081642
-0.01450704384 0.01480689171 -0.04114515577 0.7487508588 -0.5892255994 -0.3036203953
-0.01686116314 0.01191626914 -0.04118298149 0.8306260395 -0.5184173254 -0.2032335091
-0.0205436395 0.002220229705 -0.05119503657 0.9972598045 -0.06010178777 -0.0431353383
-0.01832919757 0.009514674822 -0.04140841929 0.8906257832 -0.4311391187 -0.1445848356
0.0001479732841 0.04108462048 -0.07761835861 -0.1489415691 -0.04713587499 0.9877219337
0.01330659119 0.01592465639 -0.07081382879 0.8182189357 -0.09034558675 -0.5677635496
0.004385706902 0.02612799454 -0.04048059082 -0.1734570601 -0.4238306942 -0.8889770475
-0.0201790123 0.005857917786 -0.05967311478 0.9972858351 0.03865513323 0.06266373523
0.001132861912 0.02838273621 -0.04006194687 -0.001666059336 -0.2595653115 -0.9657241186
0.01141937828 -0.001890518069 -0.06451727295 0.7972236915 -0.3549362566 -0.4883181745
-0.006021981398 0.02557171631 -0.04099257406 -0.3883375223 0.2555577573 0.8853723519
0.01610690498 0.01388933945 -0.04397793198 -0.6773331514 -0.7323236212 -0.07015636717
0.002889776945 0.0398928299 -0.04020684433 0.1011282872 -0.0135865891 -0.9947806161
-7.920719683e-05 0.03992116165 -0.04004878616 -0.1687588406 0.006908267814 0.9856331618
-0.002271874666 0.03817742157 -0.0401436882 -0.2039107022 0.002292805574 0.9789868072
-0.005650821149 0.06060000229 -0.07926210022 -0.2984062661 -0.2440675206 -0.9227051239
-0.005498841095 0.03534969482 -0.0408726265 -0.2759497568 0.02248195193 0.9609090975
-0.01884918022 0.04754240799 -0.06884789276 0.932831149 0.002345814738 0.3603061816
0.01366729387 0.0461165905 -0.07076208115 0.8389583493 -0.01779344593 -0.5439046621
-0.005841040373 0.03072703648 -0.04085840797 -0.3207656842 -0.008368145164 0.9471216131
-0.02006491661 -0.004184446335 -0.04449359894 0.9980637118 0.06189168014 0.006184419842
-0.005143646657 0.05634729767 -0.04075901222 -0.3243397791 0.1475859995 0.9343565061
0.003320726275 0.0502372036 -0.04034924316 0.07463621028 -0.01810964687 -0.9970463765
-0.001072344571 0.0503783493 -0.04008825874 0.1486765089 -0.0003092609971 -0.9888858377
-0.006262448947 0.04072174708 -0.04099978511 -0.2830778928 -0.003397869345 0.9590909035
-0.009703610738 0.03116066869 -0.04247955831 -0.4716134804 -0.01760346216 0.881629652
-0.01001827812 0.02622163582 -0.04261713028 -0.4800439177 0.07467288932 0.8740605223
0.01655233065 0.02115065829 -0.05653084819 0.9928390569 0.03166489249 0.1151865515
-0.0188580471 0.01018139038 -0.04659036331 0.9384045538 -0.2714127814 -0.2138504045
0.005223943412 0.04533594608 -0.07680967903 -0.2882570267 -0.005563345902 0.9575369109
-0.01927162688 0.0601044802 -0.06570975821 0.930826639 -0.3327938995 0.1510297609
0.01704740111 0.05518403498 -0.06096716754 0.9971455906 -0.07130737708 -0.02481791887
0.01426804805 0.05624883747 -0.05135321999 0.8167513903 -0.1938768833 0.5434417361
0.01415131721 0.05124801941 -0.05121602936 0.874274692 -0.05671294082 0.482107255
-0.01981143608 0.006602759171 -0.04584199905 0.9597096467 -0.2575446916 -0.1123749346
0.003851797724 0.06060000229 -0.04198736725 -0.1775867668 0.5041632735 -0.8451522549
0.01147951174 0.02587665462 -0.07323039246 -0.6927541356 0.0388219863 0.720128156
-0.000980764991 0.0603987854 -0.04132653618 0.009020247982 -0.6398969618 -0.7684077781
-0.006356189728 0.05108309301 -0.04103561274 -0.263119416 0.05396795828 0.9632526317
-0.01046605778 0.03497591591 -0.04288025665 -0.4811549373 0.02556102288 0.8762628375
-0.0096035134 0.05542545954 -0.04246770477 -0.4989170576 0.1220532474 0.8580121062
-0.01227211523 0.03021010208 -0.04409974289 -0.589998096 0.005378858151 0.8073867194
-0.01874218241 0.05085427348 -0.05217981847 0.9130494243 0.007480347199 -0.4077803247
-0.01279571867 0.02169411278 -0.04448363113 -0.6899798613 0.1558313387 0.7068552786
-0.01214173985 0.02595762062 -0.04396203232 -0.6367531748 0.06195087754 0.7685749691
-0.01493029714 0.02037895536 -0.04634115028 0.7852274462 -0.1699496843 -0.5954283857
0.008775599003 0.06060000229 -0.04302145958 -0.4618842754 0.2790218146 -0.8419083935
-0.005562580287 0.06039974594 -0.04182577085 0.227943895 -0.2358439262 -0.9446794288
-0.009655866623 0.05142754459 -0.04245353985 -0.4453842263 0.06866988833 0.8927022669
-0.01216392899 0.04112866974 -0.04402636909 -0.6234984643 -0.01727123919 0.7816337821
-0.01223970127 0.03581030655 -0.04405677223 -0.6058458875 0.02070016725 0.795312683
-0.01481338921 0.02997204475 -0.04637912445 0.7370157707 -0.02193295807 -0.6755195771
-0.01482800603 0.02522851801 -0.04640044594 0.7411422005 -0.06599398364 -0.6680965744
-0.01239296055 0.05104078801 -0.04421301778 -0.5995788811 0.03458419501 0.7995680701
-0.01497805818 0.04106460762 -0.04658877945 0.7322579227 -0.006600380202 -0.6809954255
-0.01507544041 0.03569818179 -0.04667132632 0.7585129748 -0.0004686729307 -0.6516577686
-0.01970368703 0.01058966319 -0.05076172002 0.9609557657 -0.2095718438 -0.1806755618
-0.01180363655 0.06060000229 -0.07324403381 -0.6358021686 0.1223802757 -0.7620883613
-0.02041227198 0.006574535012 -0.05131559849 0.9874571986 -0.130401208 -0.08901576185
0.0116402235 0.03396677017 -0.0730654068 -0.6950866832 -0.001679242974 0.7189239758
0.01299763552 0.06060000229 -0.04672063319 0.7259413028 -0.1224807337 0.6767626576
0.009689647834 0.06045425097 -0.04562499682 -0.6190939683 0.1299386035 -0.7744924905
0.006265951633 0.06060000229 -0.0444921875 -0.3408886845 0.3505752467 -0.8722911792
-0.01539669736 0.06060000229 -0.07113155238 0.7317873162 -0.4808801345 0.48295095
0.01683402443 0.03283409119 -0.06349927139 0.9829567953 -0.00555975074 -0.1837526263
0.009828587373 0.05535554504 -0.04678551102 0.6409575438 -0.08620849493 0.7627198191
0.01705157852 0.0403096447 -0.0607664566 0.9995536712 0.02434666461 -0.01731179712
0.01055087614 0.04738863564 -0.0472660675 0.7400358626 0.01547230996 0.6723894182
0.01070733738 0.04239239883 -0.04727082443 0.7501683612 0.005488408331 0.6612240975
0.01149437618 0.03754170609 -0.04798665619 0.8175553255 0.01032949913 0.5757574065
0.01414691766 0.02634690603 -0.05116269557 0.9455432783 0.02826324024 0.3242670166
-0.00606381135 0.06060000229 -0.04395364075 -0.389287886 0.2427228181 0.8885609576
-0.01491490094 0.04632521439 -0.04650550715 0.7287088549 0.0130905798 -0.6846985041
-0.0171467514 0.02067569542 -0.04918182755 0.8641789678 -0.132575547 -0.4854054345
-0.01770346642 0.01656623077 -0.04926508331 0.9057871679 -0.1704545169 -0.3879366754
-0.01891492875 0.01571863588 -0.05150534058 0.9484417438 -0.1689167817 -0.2681890743
0.01086181545 0.05129287338 -0.04742320633 0.7451907016 -0.06006357788 0.6641409375
0.01417286587 0.03621299871 -0.05119623566 0.8588652314 0.009563007938 0.512112354
-0.00093335649 0.04684946537 -0.07758719063 0.009559718132 0.0111722273 -0.9998918907
0.01512771845 0.0213490181 -0.05267344475 0.9711626365 0.0367228597 0.2355728446
0.01592755413 0.0142869215 -0.05298688889 0.9964406845 0.05424162859 0.06452757603
0.01405295287 0.005778355175 -0.06619275199 0.8518370615 -0.2567712312 -0.4565546577
-0.01724679756 0.03958982468 -0.04939019203 0.838016183 -0.01803105951 -0.5453473736
-0.01092475331 0.06053202248 -0.04548895836 -0.5714842452 0.2537149439 0.780406615
-0.01476721064 0.05630083021 -0.04635829099 0.7293907202 -0.10780841 -0.6755490538
0.01617583672 0.06012327512 -0.06658043798 0.8923442704 -0.1859122054 -0.4112886516
-0.01518599873 0.05157090149 -0.04677488632 0.7393689579 -0.03480861624 -0.6724001073
0.01598535681 0.001103115004 -0.05801952362 0.9284582574 -0.2192602333 -0.299816968
-0.01752067057 0.02589837964 -0.0498209432 0.8357926801 -0.04209705137 -0.5474289307
-0.01884167576 0.04568765163 -0.05236963272 0.9275204072 -0.03274401643 -0.3723354987
0.01416327 0.04613145256 -0.0511502552 0.8350964692 0.014754285 0.5499056266
0.01641060193 0.01679474227 -0.0556850179 0.9948313134 0.03283817427 0.09608492152
0.01663339996 0.01272220421 -0.05478038025 0.9971771098 0.02410265761 0.07111169769
0.01703154755 0.006929841995 -0.05617160416 0.9974354434 -0.070176492 0.01406400335
0.01592752632 0.03036365509 -0.0665616951 0.9108684524 0.01881116518 -0.4122678771
-0.01451800887 0.06027478917 -0.04734377119 0.6880588812 -0.3373189625 -0.6424880493
-0.01754042912 0.03656663322 -0.04983501625 0.8370249604 0.007999696849 -0.5471062242
-0.01999614906 0.0005129685104 -0.05526120758 0.9979005643 0.05214121998 0.03841558227
0.01505631421 0.06039124784 -0.05069896247 0.7876375865 -0.1903813948 0.5859880177
0.01643744011 0.03038848801 -0.05627309341 0.9721543176 0.02530596864 0.2329712231
0.01637678599 0.02551532841 -0.05584819221 0.9750965693 0.01264644789 0.2214198455
0.01684215546 0.004867511749 -0.05750644302 0.963562968 -0.1226412913 -0.2377088982
-0.0174858017 0.0457703886 -0.04976826286 0.8348085516 -0.01974396841 -0.550186203
-0.01865217972 0.0357178688 -0.05196134567 0.9106611958 -0.003031920784 -0.413142825
-0.02043670209 0.01128640874 -0.05577989197 0.9917543229 -0.06315737391 -0.1115101301
-0.02053799502 0.006960777283 -0.05647318904 0.999856953 -0.01138484362 0.01250835284
0.01789032173 0.06060000229 -0.05198986435 0.8854479035 -0.2861025166 0.3662340238
-0.02053208733 0.01608691279 -0.06084537633 0.9997928312 0.01440232207 -0.01438289707
0.01634692931 0.03544413471 -0.05576581287 0.9502401318 0.02851377293 0.3102106651
0.01698942947 0.008269329071 -0.05855150604 0.9927110557 -0.0680906713 -0.0994405367
0.01607655112 0.005346560677 -0.06128350766 0.9326655883 -0.1983218773 -0.3013359145
0.0145961082 0.0004488000926 -0.06118436575 0.8927484668 -0.267410233 -0.3626181771
-0.01530019617 0.02036993885 -0.07433955765 0.8806915977 0.02047794258 0.4732472542
-0.017301476 0.05585641193 -0.04949987602 0.8287769291 -0.1751076052 -0.5314754259
-0.01995830965 0.02095430326 -0.05569178486 0.9653794439 -0.04104487147 -0.2576001703
-0.02007071622 0.04589311473 -0.05626879311 0.9794667467 0.0009381550396 -0.2016036013
0.0162754425 0.04644240417 -0.05572087402 0.9704023362 -0.0276008105 0.2399114442
0.01693316078 0.01917364883 -0.05836979675 0.9996012915 0.01465797676 0.0241330019
0.01703351402 0.01542979304 -0.06049382401 0.9994873084 0.03191653556 -0.002540683305
0.01260824471 0.06060000229 -0.07563565826 0.6258403899 -0.2329517898 -0.7443502334
0.01700549126 0.01189735079 -0.06029623032 0.9941429158 -0.05066631514 -0.0954609215
-0.01603011926 0.06050811609 -0.05097332764 0.8090817695 -0.2583691387 -0.5278561153
-0.02001551199 0.03156258249 -0.05603087044 0.9782732046 0.01390457815 -0.2068530878
0.01572531112 0.01532615709 -0.06652744802 0.9126953656 -0.0745163331 -0.4017891061
0.01640138359 0.05613565903 -0.05609114532 0.987165482 -0.1011254288 0.1236040402
0.01704652913 0.02578551165 -0.06030220413 0.9961777732 -0.002259877094 0.08731974137
0.01705741158 0.02098098297 -0.06079658432 0.9997687089 -0.006144901791 0.02060992406
-0.01866115761 0.05588026619 -0.05199829769 0.9096768606 -0.1471083204 -0.3883904626
-0.01992682076 0.04074363403 -0.05570307083 0.9651413753 -0.01769357895 -0.2611303562
0.01863193989 0.06060000229 -0.05609337107 0.9773209388 -0.1542923429 0.1450436331
0.01609557756 0.02098195712 -0.06604856428 0.9379555185 -0.04120971822 -0.3442981332
0.01640384245 0.0599236269 -0.05567026424 0.965733188 -0.1264284029 0.2266611314
0.0170108428 0.03568267727 -0.06083632946 0.9996684955 0.01165747761 -0.02295653007
0.009487805605 0.03530044651 -0.07477128601 -0.4929451283 -0.02346733399 0.8697438615
0.01704701424 0.03075615247 -0.06094655355 0.9997105153 0.001375081356 -0.02402071313
0.01303101587 0.00152296262 -0.06510615095 0.8292389523 -0.2966255565 -0.47368348
0.0111794157 0.03163721848 -0.07350400543 -0.6404699544 0.02782698083 0.7674789226
-0.01876486778 0.06010520172 -0.05277512614 0.9258970705 -0.2325281154 -0.2977335896
-0.02052125597 0.02045085001 -0.06079425526 0.9996798858 -0.01530156497 0.02014914642
0.01702920641 0.04623967797 -0.06075090081 0.9996424239 -0.01774617424 -0.02000244037
0.01691718102 0.0192082634 -0.06289540482 0.983709785 -0.003790070951 -0.1797239389
0.01676445007 0.01601937675 -0.0634271431 0.977662456 -0.03872308219 -0.2065832643
0.0107355381 0.0005469970644 -0.06721572876 0.7352598094 -0.3199291276 -0.5975268747
0.01692139816 0.05400124741 -0.05840977859 0.9911156216 -0.1003902472 0.08724461493
0.01705284182 0.05085204697 -0.06034911855 0.9958024798 -0.04804169242 0.07790646355
-0.005962975979 0.05504665565 -0.07650903702 -0.304808922 -0.1263497471 -0.9439953721
-0.02052125263 0.03696419334 -0.0605932312 0.9973714245 0.01086470186 -0.07163937366
0.01819853973 0.06027789896 -0.06066562965 0.9940360914 -0.1079391074 -0.01553699357
0.01616840962 0.05584711892 -0.06587668446 0.9247979848 -0.1941180461 -0.3272107449
0.01619105377 0.02557359734 -0.06592807617 0.9372626515 -0.01587410346 -0.3482624511
0.01140708256 0.05316743851 -0.07326611328 -0.6946147731 0.09811119037 0.7126601653
0.008883578968 0.00184521783 -0.06968700562 0.6349767541 -0.3749151853 -0.6754577156
0.01615548642 0.04056809298 -0.06589827156 0.9536347026 0.02331026425 -0.3000624695
0.01852599444 0.06060000229 -0.06598482513 0.9549476452 -0.1821743661 -0.2342808044
0.01621453381 0.03571583811 -0.06584030914 0.917210862 0.01371222932 -0.3981660577
0.01316180172 0.01100249615 -0.06988392487 0.7646669474 -0.2005857137 -0.6124131212
-0.01478610516 0.04056454086 -0.0749041214 0.8050310665 0.001028144492 0.5932317633
-0.01757912445 0.03667135239 -0.07132556152 0.8772738056 0.01309685539 0.4798115697
0.01252382469 0.007213485718 -0.06929418182 0.7490577061 -0.2531055208 -0.61225007
0.009526949803 0.05100547473 -0.07470079931 -0.5720954948 0.04722967832 0.8188260513
0.009341534085 0.00573688364 -0.07140276167 -0.6698081266 0.2821504508 0.6868392801
-0.02054605516 0.0502071565 -0.06077099355 0.9999574096 -0.0003249890476 0.009223524445
-0.01994130402 0.02557923508 -0.0654895401 0.9765979019 -0.01092401248 0.2147957263
0.01688091087 0.05118544006 -0.06305751801 0.9817891658 -0.08005679 -0.1722815843
0.01615884387 0.05075680017 -0.06585765648 0.9239565286 -0.0107351409 -0.3823468189
0.01372714694 0.02092737643 -0.07064529673 0.8379481271 -0.02749395975 -0.5450568947
0.01036255725 0.009724085967 -0.07227935028 -0.663809102 0.2078631976 0.7184360564
-0.02051149178 0.05545623779 -0.06106679821 0.9772263617 -0.2120006827 0.009184146868
0.01689961052 0.05968792725 -0.06287096405 0.985676138 -0.1038436968 -0.1328873116
0.01682249832 0.05703524399 -0.06335631561 0.9851255122 -0.119355641 -0.1236202093
-0.01678267352 0.05624894333 -0.07244888814 0.8162210293 -0.1675641544 0.5529063985
0.01387146587 0.02580406914 -0.07046648407 0.8171227845 -0.007740513948 -0.5764116927
-0.01718410683 0.06060000229 -0.06095516332 0.9149273585 -0.4012493203 0.0436681992
-0.01955071813 0.06015581582 -0.06132588404 0.9149273585 -0.4012493203 0.0436681992
-0.01964846992 0.03552105618 -0.06649990273 0.9523156109 -0.009509480814 0.3049664687
0.01387965393 0.03574875968 -0.07040776934 0.8207309462 0.01162923262 -0.5711965291
0.01349909925 0.03053844325 -0.07098858897 0.8308709534 0.01332059768 -0.5563056898
0.006319651604 0.006500629425 -0.07362308502 0.5802090409 -0.3035463351 -0.7557890521
-0.01980019903 0.04077629662 -0.0661017189 0.9563152978 -0.003782823165 0.292312746
-0.0007016038895 0.0558547802 -0.07755915451 0.01552335624 0.1397761941 0.9900614329
-0.01853965187 0.02112348938 -0.06952199173 0.9376384607 0.01580933038 0.3472523321
0.0135514369 0.04119964981 -0.07085944366 0.8240959647 -0.01286247168 -0.5663041566
0.01177004242 0.01997566605 -0.07294047546 -0.6611383519 0.05365929182 0.7483426755
0.009239509392 0.01558300533 -0.07451987457 -0.5519534212 0.1240169931 0.8246012408
0.004597241759 0.02110354519 -0.0769827137 0.3903367176 -0.01476592528 -0.9205537542
0.005852126217 0.01075173702 -0.07521465149 -0.5393598103 0.2219138064 0.8123085975
-0.01977819395 0.05088438225 -0.06603350067 0.9577374833 -0.008792926706 0.2875092999
-0.01873168468 0.02996931171 -0.06912279129 0.9244410627 -0.01392421308 0.3810706468
0.01354798698 0.05058149447 -0.07084014239 0.8233037067 -0.02296100132 -0.5671364906
0.009151106453 0.02088419991 -0.07494889069 -0.5210801201 0.02433980125 0.8531606429
-0.01691653652 0.06060000229 -0.06591961441 0.7459536985 -0.624595335 0.231157408
-0.01754523849 0.02664996338 -0.07135006332 0.8849978615 0.001881433768 0.4655912857
-0.01665769577 0.0178686657 -0.07254962158 0.8851078298 0.04749632901 0.4629559681
0.01369091296 0.05593418646 -0.07066274548 0.8420732665 -0.1036065449 -0.5293187108
0.009200980783 0.03090726089 -0.07494069481 -0.5313464597 0.02515411063 0.8467810877
0.004326209108 0.01584094079 -0.07669073613 0.4251433349 -0.08524245039 -0.9011031403
-0.01849782753 0.04104769707 -0.06959898758 0.9352975236 0.003918173411 0.3538406284
-0.01810188675 0.03420842361 -0.07040699005 0.877258909 -0.006500696881 0.4799734863
0.01789032173 0.06060000229 -0.06963632965 0.8364566919 -0.3999611941 -0.3746615082
-0.01643950272 0.02964853477 -0.07295433807 0.884470747 0.007871743785 0.4665292417
0.01148695755 0.04699319839 -0.07319594574 -0.6779350442 0.01931438744 0.734868036
-0.0164591198 0.03937144089 -0.07292528152 0.8685827259 0.01304504757 0.4953724609
0.009261673355 0.0460459259 -0.07487028046 -0.5627806042 0.008869085739 0.826558728
0.004814962101 0.03078238449 -0.07691066284 -0.3636848631 -0.01633059924 0.9313788874
0.001468553901 0.02209715462 -0.07761447144 0.2925772805 -0.005354461586 -0.9562268898
-0.01878427601 0.05619576454 -0.06895402527 0.8903445992 -0.2127949943 0.4024981801
-0.01844551277 0.05008263397 -0.06967771149 0.9246823574 -0.01029921414 0.3806001368
-0.0175061779 0.04582728767 -0.07138705063 0.8758339176 -0.007434801902 0.482555357
-0.01459847403 0.0305764637 -0.07506237411 0.8124867875 0.003735214458 0.5829676391
0.01184107113 0.05523471832 -0.07286547852 -0.691527722 0.09642841946 0.715884746
0.005028015566 0.03644886856 -0.07684810791 -0.3200233841 -0.007845381438 0.9473771602
0.001644152999 0.02896533012 -0.07760241699 0.2750473961 0.01305605583 -0.9613420148
-0.01835302448 0.06018901253 -0.06941444778 0.8648218483 -0.3431139011 0.3665460701
0.01132431221 0.05913383484 -0.07333906555 0.6691323221 -0.1462595316 -0.7286083207
0.009194049915 0.05613916715 -0.07491475805 -0.5653057048 0.1450892261 0.8120212908
-0.01360526848 0.06060000229 -0.07483555094 -0.6358021686 0.1223802757 -0.7620883613
0.004812002957 0.04139581776 -0.07694455719 -0.2952640845 0.003763102742 0.9554082685
0.009253737259 0.0603639019 -0.07625863647 0.4530175699 -0.2281656996 -0.8618094307
-0.01471832275 0.05784710693 -0.07494438171 -0.633384421 0.1898394703 -0.7501900765
0.00460107599 0.05037033463 -0.07695278604 -0.2799435868 0.01272019479 0.9599321772
0.004476332664 0.05593984604 -0.07697077179 0.321292677 -0.2402943752 -0.9159856052
-0.004950790882 0.0478277626 -0.07694438934 -0.04356837845 0.02295582367 -0.9987866772
0.004749350905 0.06030976868 -0.07734646352 0.326464731 -0.2718819656 -0.9052629321
-0.001333251675 0.05255357107 -0.07759459941 0.008759426011 0.1152590226 0.993296849
-0.0106145581 0.06060000229 -0.07620083714 -0.4940855181 -0.1499192981 -0.8563899257
-0.0005634037256 0.05950407562 -0.0779313797 0.04142508467 -0.2526970703 -0.96665824
-0.005841813122 0.06036774445 -0.07736858041 -0.2799926245 -0.2234818853 -0.9336273224
0.007696453094 0.06060000229 -0.07945448303 0.2782765699 -0.4954059499 -0.8228821881
-0.0007938608766 0.06060000229 -0.07981714478 -0.01967876905 -0.2704462814 -0.962533924
