# .PCD v0.7 - Point Cloud Data file format
VERSION 0.7
FIELDS x y z normal_x normal_y normal_z
SIZE 4 4 4 4 4 4
TYPE F F F F F F
COUNT 1 1 1 1 1 1
WIDTH 428
HEIGHT 1
VIEWPOINT 0 0 0 1 0 0 0
POINTS 428
DATA ascii
0.009500864744 -0.01403120852 -0.01231054235 0.5623849188 -0.8265421532 -0.02347918223
0.01923317719 0.00725427103 -0.009058169365 0.9263483661 0.3664371997 0.08719222053
-0.00957195425 -0.01218130589 -0.05141075134 -0.4976207382 -0.8233676073 -0.2728358191
-0.009232861996 -0.01731011581 0 0.4106117294 0.8867033786 0.2124973552
-0.01114467669 0.01727449036 -0.02630803871 0.5742189817 -0.8181756128 0.02934667983
-0.006522400141 -0.01576363087 -0.0230018425 -0.296995495 -0.9544836703 0.02746996507
0.002683621168 -0.006811114311 -0.06549163818 -0.07274220208 0.8088575917 0.5834877621
0.009232861996 -0.01731011581 0 -0.4811832993 0.8412982402 0.2463329119
-0.01691277456 0.006035814285 0 0.8860251 -0.3550701704 -0.2981353658
-0.01029137643 -0.013524189 -0.01246450806 -0.5454542288 -0.8379414072 -0.0182724465
0.004619640052 -0.01814730835 0 -0.2027496382 0.96570457 0.1621951534
-0.004033347607 -0.01661388397 -0.01862266541 -0.1967741598 -0.9801263335 0.02514558598
-0.01402928686 -0.009651769638 -0.007779533148 0.7806816622 0.600286637 0.1737587285
-0.0008826116721 -0.01255463092 -0.05762255478 -0.07315204954 -0.8636598353 -0.4987388762
0.003229042649 -0.01675251675 -0.01896146679 0.1677365831 -0.9853965668 0.02929240344
-0.005389632821 -0.01814777756 0 0.2632028373 0.9502600359 0.1665236636
-0.0007698872487 -0.01814566612 0 -0.007664744583 0.9953124086 0.09640778509
0.01823079109 -0.004069598476 0 0.9604587169 -0.2088700521 -0.1840987629
0.01742665354 0.03556175105 -0.04965204112 0.7957790871 0.01121433007 0.6054831817
0.01363252735 0.01538114166 -0.006475425243 -0.6626749464 -0.7449281964 -0.07709667752
-0.006347745895 -0.01583119583 -0.01252157879 -0.2780275864 -0.9603734478 -0.01958320676
0.0140537974 -0.01341441552 0 -0.673832616 0.7073608233 0.2135187842
-0.0008170301119 -0.01700774129 -0.02389946175 -0.02647582262 -0.9993143652 0.0258810789
-0.0008748232921 -0.01462999789 -0.05302574857 -0.04532476493 -0.9318268667 -0.3600616006
0.003177981734 -0.01675695372 -0.01269216323 0.1360406907 -0.990635469 0.0115887044
-0.01457259536 0.01594917274 -0.04362286091 0.8255730697 -0.4712842366 -0.3103550788
0.0102858984 -0.01496592636 0 -0.5400686941 0.8081933435 0.2348389343
0.0172467645 0.04588069407 -0.04939338557 0.7859109373 -0.01483651143 0.6181616913
0.01042091608 -0.01343270302 -0.002705011174 -0.6105940911 0.7796567481 0.1389611858
0.006912434101 -0.01563623238 -1.321661472e-05 -0.3721634551 0.9067161674 0.1983939377
-0.0008963902791 -0.005446087996 -0.06706736755 0.00554874706 0.7944251384 0.607336736
-0.006593210936 -0.01573745489 -0.02735385132 -0.3074752693 -0.9515095724 -0.0094070353
-0.01931033707 0.007614349365 -0.04369491196 0.8774465414 -0.4513144129 -0.1624895924
-0.0102858984 -0.01496592636 0 0.5589681849 0.7970187748 0.2287261264
0.006189745903 -0.01588532543 -0.002558102608 -0.3621682516 0.9062820659 0.2179150628
-0.0136069533 -0.01021756935 -0.003002508501 0.7354291294 0.6682997311 0.1118904154
0.003096084476 -0.0167631216 -0.002637929559 -0.1363491469 0.9778610609 0.1587345447
-0.01935231845 0.03115904872 -0.05358303452 0.8585754713 0.007094510213 -0.5126381062
-0.01446070862 -0.00901762867 -0.01255752913 0.8251570267 0.5642597954 0.02695857163
-0.005707319683 0.03083993509 -0.04087604565 -0.225394201 0.02010102251 0.9740602666
-0.000774900039 -0.01699498494 -0.003178001404 0.01306438095 -0.9991188394 -0.03988567115
-0.01426613998 0.0148092103 -0.0235143404 0.6696416159 -0.7426096131 0.01053891969
0.01595121288 0.01295477867 -0.006567355633 0.7423675325 0.6632102909 0.09509235951
-0.003867468834 -0.0166341114 -0.00233737874 0.1955685441 0.9642115917 0.179022208
0.01090599537 0.01741211128 -0.017797122 -0.5200897468 -0.8539132656 -0.01840625218
0.01402928686 -0.009651769638 -0.007779533148 0.7785174021 -0.6047482562 -0.1678993782
-0.00606746316 0.05734615072 -0.07647567876 -0.3514654759 -0.1234738605 -0.9280227503
0.01309266138 0.01586407566 -0.03660449028 -0.6786577286 -0.7209262857 -0.1403174188
-0.006189745903 -0.01588532543 -0.002558102608 0.3350120092 0.9360963148 0.1071944178
-0.006912434101 -0.01563623238 -1.321661472e-05 0.4043553178 0.8867702452 0.2239091538
-0.01738238907 0.0008075632652 0 0.9388150792 -0.006998166565 0.3443505085
-0.006703057607 -0.01569327513 -0.01779586029 -0.4485822906 -0.8936179799 0.01486050577
0.01032661843 0.05953606701 -0.07412159538 0.6063071317 -0.02973134103 -0.7946745934
0.0136069533 -0.01021756935 -0.003002508501 0.725930198 -0.6756263331 -0.1286639252
0.01472992309 0.04144411532 -0.04627385457 0.732552339 -0.01089550056 0.6806235073
0.01480406237 0.03632910283 -0.04633911133 0.7381369474 -0.0126989993 0.6745313798
0.01426613998 0.0148092103 -0.0235143404 -0.6698106705 -0.7424448573 0.01137099291
-0.009783720732 -0.01389002371 -0.00784068501 -0.5069980843 -0.8544138966 -0.1137094357
-0.0140537974 -0.01341441552 0 0.7031892519 0.6936834398 0.1559748739
0.00548080945 -0.01614679337 -0.007159735918 0.2196853179 -0.9717628795 -0.08611194471
0.003128321409 -0.01676126862 -0.006594902754 0.1491765757 -0.985519028 -0.08061386227
-0.0007829795678 -0.01699878248 -0.007154706478 -0.07839905105 -0.994032751 -0.07584509663
-0.01913463084 0.04170823034 -0.05297237651 0.8469369909 0.003897241319 -0.5316789867
0.01722437382 0.009625505447 0 0.8370300107 0.4743828335 0.2726567229
-0.01096264505 -0.01297869086 -0.02259982252 -0.6024060063 -0.798167446 0.005977599244
0.0122172877 0.04023963038 -0.04404701869 0.5746092973 0.008293081935 0.8183858383
-0.002428541104 0.03607319132 -0.04015293757 -0.1541821404 0.01805623991 0.9878774417
-0.01404737949 0.01501320171 -0.01763547802 0.6375499665 -0.7703741663 0.007326936825
-0.003907704115 -0.01663064384 -0.006286974907 -0.1768101423 -0.9795264552 -0.09626056934
-0.006005466461 -0.01595464516 -0.007372456868 -0.2628339331 -0.9595884905 -0.100539806
0.0160740509 -0.005784665585 -0.002277638346 0.8724578848 -0.4508755984 -0.1884898776
-0.01423933506 -0.009412032127 -0.03638119507 0.7935171543 0.608485403 0.008720104321
-0.01042080235 -0.01343119311 -0.002701416165 -0.6291318971 -0.7667514537 -0.1276137313
0.01446070862 -0.00901762867 -0.01255752913 0.8067566838 -0.589391001 -0.04197500576
0.009238085842 -0.01422815819 -0.007837116051 0.5307053031 -0.8411347147 -0.1041358392
0.01470540619 0.01094370572 0 0.766822855 0.5770366143 0.2810897629
0.003264031887 -0.01674862576 -0.02325847816 0.1202512699 -0.9923665756 0.02735345964
-0.005570502149 0.05586668184 -0.04085518985 -0.214623484 0.06152734333 0.9747569677
-0.001193154931 -0.01697484493 -0.01218081808 -0.08972514224 -0.9957709335 -0.01973947575
0.0180474027 -0.007896304448 0 0.8724578848 -0.4508755984 -0.1884898776
0.01205723286 0.05366079712 -0.0439397583 0.5566812159 0.03287414898 0.8300754871
-0.00575859944 0.02146389548 -0.04088683891 -0.2879690711 0.521063745 0.8034714604
0.01556201458 0.01348545361 -0.03598144531 0.7172423967 0.6957078132 0.03942059248
-0.003969653606 -0.01662238026 -0.01236916876 -0.1889730897 -0.9816949542 -0.02375264601
-0.01056054348 0.04046913698 -0.0430047866 -0.4924124038 0.01818471795 0.8701720179
-0.01065829584 0.03086684608 -0.04305660756 -0.5163849608 0.007937145808 0.8563197849
0.005626660824 -0.01611174393 -0.01739578819 0.2692277364 -0.9630746352 -0.001916514575
0.01542252121 -0.00932383194 0 0.7827181226 -0.5842290925 -0.2145430212
-0.01069518852 -0.01319847298 -0.02764158567 -0.6162262872 -0.7872827152 0.02123886318
0.005567349434 -0.01612599754 -0.01323324966 0.218586914 -0.9756801402 0.01637147139
-0.0004849475384 -0.01703053169 -0.01795077324 -0.02461116657 -0.9996910811 0.003468852828
-0.01602845028 -0.008994292327 0 0.8583238812 0.4763328556 0.1907540972
0.009359019359 -0.01412904199 -0.01749385087 0.5724470096 -0.8198700153 -0.01084339416
-0.01041697383 -0.01343935585 -0.01721249747 -0.5909367383 -0.806316174 -0.02545582055
0 0.05107149251 -0.0400484848 -0.04363937076 -0.02694042642 -0.9986840435
0.01751810837 0.03034652837 -0.04979536184 0.8024336034 0.01280942965 0.5966039143
0.005687236309 -0.01609718704 -0.02164707184 0.2713741303 -0.9618921879 -0.03345893327
0.004478874803 0.01999378204 -0.00318046245 0.1922465709 0.9641330591 0.1829991814
-0.004076973438 -0.01660635948 -0.02290651894 -0.2023930105 -0.978687737 0.03474741242
-0.01958194351 0.01157828856 -0.05099841309 0.8670323106 -0.3083734855 -0.3913575933
0.006245437145 -0.006460912228 -0.06445189667 -0.2324014637 0.781637352 0.5788200149
-0.01905566216 -0.007348026752 0 0.9157858713 0.3061954268 0.2599626867
0.00896111997 -0.0144577926 -0.02338555717 0.5815246038 -0.8133354103 0.01773825402
0.01502897088 0.02077812481 -0.04652421252 0.7846351752 0.2024355034 0.5859756896
-0.008566549142 -0.007794124603 -0.06099520365 0.3874343811 0.7876223306 0.479109241
0.005749119759 -0.01608231544 -0.0259901371 0.3060398832 -0.9517821152 -0.02122251371
0.003299734473 -0.01674304199 -0.027644907 0.1141708633 -0.9934608342 0.0007647159197
-0.004121451378 -0.01659545708 -0.0272752533 -0.2016648615 -0.9794545096 0.0003838084351
-0.0008260058562 -0.01700740496 -0.02830701828 -0.02139205444 -0.9995224784 0.02229787449
-0.0160740509 -0.005784665585 -0.002277638346 0.8925361632 0.4276288816 0.1432226833
-0.01746977806 -0.004069130977 0 0.9210802018 0.2370011069 0.3089364615
-0.01951224327 0.009585678101 -0.04875160217 0.8628364362 -0.3783393253 -0.3352202847
-0.01899180412 -0.004070065975 0 0.9090382458 0.1724018915 0.3793771942
-0.01531169732 0.059777668 -0.04705252965 0.7609888581 -0.1356997904 -0.6344143164
0.01899524689 0.007958369732 -0.03711003494 0.8123928311 0.5828387082 0.01780247918
-0.01075403055 -0.01058240318 -0.05297771327 -0.5924960688 -0.7496777577 -0.294841768
-0.01053861682 -0.01320036379 -0.04334703064 -0.6483048891 -0.7556834422 -0.0929693818
0.01414162763 -0.009497842948 -0.01813803736 0.8233790809 -0.567168084 0.01916386407
0.01646551514 0.01232414246 -0.01833476448 0.754690521 0.6560808999 0.0002652764107
0.01216319227 -0.01199608421 -0.02232586002 0.6409058345 -0.7675582904 0.009694433776
-0.01924748039 0.06060000229 -0.06259381866 -0.475035563 0.7113610497 -0.5179832728
-0.01444334173 -0.008932371616 -0.04244988251 0.7983431878 0.5997476077 0.05432275327
0.009057140191 -0.01439984544 -0.02769575628 0.5692536682 -0.8214771513 0.03354923283
0.005844674349 -0.01605935287 -0.03269630814 0.3803058979 -0.9247672909 -0.0131484483
0.003336212754 -0.01673683548 -0.03212656593 0.12148544 -0.9925491548 -0.009352179032
-0.0008351738453 -0.01700672722 -0.03281103007 -0.02029119917 -0.9997926646 -0.001701457659
0.00482459569 0.01998805523 -0.03120713902 -0.2815723991 -0.9584621137 -0.04546823741
-0.004166903973 -0.01658431816 -0.03173975754 -0.2394226423 -0.9708432567 -0.01183930975
0.01531169637 0.05977767181 -0.04705250804 0.741409176 0.1789853657 0.6467431272
0.01449381065 0.01458525467 -0.029625453 -0.6688242631 -0.7434096555 -0.004023589295
-0.006402709325 -0.01582433414 -0.0328554217 -0.2961510359 -0.9551385511 0.002216330471
-0.005597529888 0.05091767629 -0.04085738542 -0.2212038092 0.01268494667 0.9751451005
-0.0004872886181 0.02144435349 -0.03912965546 -0.02786895621 0.6540420599 0.7559446443
-0.01414162763 -0.009497842948 -0.01813803736 0.8066010109 0.5909031598 -0.01510843989
0.01633027077 -0.004940555334 -0.008582429886 0.8550338045 -0.5062407577 -0.1124165841
0.009155232271 -0.0143406496 -0.03209907023 0.5865152489 -0.8099301185 -0.003614689545
0.003373473644 -0.01672918606 -0.03670471573 0.1695815662 -0.9852378218 -0.02342064953
-0.0008691821098 0.05715336736 -0.07758415985 0.04642145687 0.04419308898 -0.9979438958
-0.0008445367813 -0.01700548681 -0.03741433589 -0.02138850215 -0.9994171757 -0.0266052808
0.004329389175 0.05993974559 -0.07704075623 0.285690717 -0.04915421558 -0.9570604356
0.007771711349 0.06014732361 -0.07580041504 0.3929431243 -0.2974870827 -0.8701132896
-0.005652092139 0.04093877708 -0.04086633725 -0.2203172465 -0.01605159381 0.9752961895
-0.01438931847 0.0146838913 -0.006172243118 0.7124380389 -0.6956726542 -0.09204128865
-0.01080954234 -0.01310998122 -0.0319961764 -0.6073587271 -0.7944092884 0.005409175815
-0.004213336945 -0.01657196236 -0.03630091476 -0.2164286319 -0.9761486247 -0.01710291726
-0.01627077484 -0.005198983192 -0.007094573975 0.9362773585 0.3204182433 0.143933517
-0.01571234063 0.01041651467 0 0.795254138 -0.4478587503 -0.4086482544
0.01889701949 0.0008077525496 0 0.332660465 0.01857489638 -0.9428637167
0.01457480097 -0.008787093639 -0.02299661255 0.8149741555 -0.5776558988 0.04616046331
0.01501635901 -0.007998982112 -0.02783271027 0.8001500698 -0.5995524218 0.01722670551
0.01235262299 -0.01180352306 -0.02859368324 0.6638826541 -0.7477763625 0.009504386134
0.009274591088 -0.01429200745 -0.03742097473 0.569975574 -0.8212545198 -0.02586230325
0.005942876339 -0.01603093147 -0.03959010315 0.3312359303 -0.9429574667 -0.03337625579
0.01883799553 0.008235456467 -0.00168455267 0.8915279576 0.3817414671 0.2438264814
0.003410387516 -0.01666933823 -0.04125077057 0.1490476787 -0.9857717163 -0.07771044146
0.01286778545 0.05726316071 -0.07182029724 0.6316695903 -0.1892494078 -0.75178334
-0.0008537165324 -0.01692410215 -0.04191348521 -0.04208766951 -0.9958318015 -0.0809175586
-0.002440319618 0.03102039019 -0.04014933395 -0.1555710651 0.05243338535 0.9864321486
-0.004259625435 -0.01652024078 -0.04086292267 -0.2938811782 -0.9532335328 -0.0705668837
-0.01045730209 0.0505180787 -0.04295090697 -0.4924913497 -0.03495391527 0.8696151415
0 0.04111908976 -0.04004292297 0.04263868746 -0.01792660043 0.9989297169
-0.01021846485 0.01788203239 -0.02158693314 -0.5387191385 0.8424800321 -0.003014188802
-0.00677246666 -0.0156730423 -0.03865914536 -0.3834835213 -0.92250511 -0.04387152852
0.01733600616 0.04074000804 -0.04951347733 0.7915135911 -0.002812648998 0.6111450926
0.01493106508 -0.008113833666 -0.03287100029 0.7736475635 -0.63332975 -0.01904928529
-0.01052758813 -0.01334468293 -0.03730060673 -0.6285149844 -0.7777228403 -0.01077488501
-0.01457480097 -0.008787093639 -0.02299661255 0.8477746691 0.5289791421 -0.03819918376
-0.01645788765 -0.004480282545 -0.01173793125 0.9111237612 0.4118074378 0.0163745496
-0.0196543347 0.0008078471919 0 0.9346369633 0.01451206538 0.3553071161
0.01651594543 -0.004199980259 -0.01320055866 0.9163286681 -0.3999968316 -0.01855550394
0.00410837547 0.02157918485 -0.04046812948 0.1980986676 0.7334920172 0.6501894944
0.0124824419 -0.01167155933 -0.03288907623 0.7060296978 -0.7081822194 -9.975838201e-05
0.01804927985 0.005636624575 0 0.8994046817 0.2327450572 0.3700012932
0.009824604034 -0.01369813085 -0.04305129337 0.5627276604 -0.8238345201 -0.06807542681
0.005149623871 -0.01599112511 -0.04427123451 0.2769759057 -0.9528303793 -0.1240911594
0.003890815198 -0.01578636551 -0.04739212704 0.2547997944 -0.9463304218 -0.1988361071
0 -0.01659080124 -0.0458513298 0.01012429633 -0.9868981757 -0.1610263628
-0.001296584666 -0.01604469156 -0.04808162785 -0.1423644627 -0.9629897876 -0.2288733903
-0.00599393781 -0.01572456074 -0.0435688502 -0.3581075166 -0.9276181594 -0.1062240879
-0.01501635901 -0.007998982112 -0.02783271027 0.837836604 0.5456549813 -0.01704307228
0.008869835006 0.04568924798 -0.04209579892 0.4200027567 -0.000680820572 0.9075225732
0.01044754934 0.01767579079 -0.001858417124 0.522180583 0.8294278598 0.1984360456
0.01576350594 0.007235304832 0 0.8915279576 0.3817414671 0.2438264814
0.01670703602 -0.003445379734 -0.01795051479 0.9256433512 -0.3780121096 -0.0170655048
0.01591656637 0.01648791265 -0.04627916336 0.8175060881 0.3549760238 0.4535149595
0.01261431503 -0.01152922821 -0.03725560379 0.7000816952 -0.7129016243 -0.04070496489
-0.01957201195 0.02044664065 -0.05417410787 0.8742649624 -0.1026339396 -0.4744755526
-0.01671210957 -0.003484012604 -0.01805421925 0.9256788171 0.3780433092 0.01421210382
0.009064217448 -0.01353085423 -0.04752636909 0.5075761398 -0.8478817763 -0.1531762245
0.01924252065 0.03645632299 -0.05326603063 0.8423047823 0.0021531168 0.5389972335
-0.0064807446 -0.0149132247 -0.04752479076 -0.4001106931 -0.8976163915 -0.1849222726
-0.01493106508 -0.008113833666 -0.03287100029 0.7933476929 0.6087554285 0.004033168364
-0.01966108131 0.006137075424 -0.01702143478 0.8816953558 -0.4716926753 -0.01092335219
0.01423933506 -0.009412032127 -0.03638119507 0.7692114269 -0.638444992 -0.02649099845
0.01387651793 -0.009727854729 -0.04214647293 0.7694014388 -0.6354277106 -0.06521541737
0.004364643931 -0.01433029636 -0.0522102464 0.2760371217 -0.9020247493 -0.3318958558
0.01946301079 0.02581857936 -0.05390262095 0.8613131857 -0.01418313473 0.5078763973
-0.006110549609 -0.01371492529 -0.05222502899 -0.403244327 -0.8707793566 -0.2813135702
-0.01035540676 -0.0126593132 -0.0476560421 -0.5584362099 -0.8105191838 -0.1766568769
-0.01923317719 0.00725427103 -0.009058169365 0.9027866969 -0.4250151484 -0.06586579879
-0.01274287033 -0.01131882095 -0.04153965378 -0.6802341752 -0.7318092505 -0.04167358605
-0.0007415362994 0.01827240308 0 -0.0727247475 0.9707207771 0.2289372929
-0.01880269559 0.005637265046 0 0.8757585345 -0.2301462728 -0.4243579649
0.01733443069 0.01109481812 -0.03815324402 0.8014780041 0.5949412144 0.06064619045
0.01689141273 -0.002595083952 -0.02258023643 0.928824787 -0.3705177388 0.001058433032
0.0137623477 -0.008966493964 -0.04760011578 0.7543347005 -0.6428000239 -0.133368995
0.00871707058 -0.01245117569 -0.05215491295 0.4647949893 -0.8322823118 -0.3021121835
-0.0055559539 0.05987667974 -0.04141159312 -0.1836518045 0.1416607098 0.972730311
-0.01418048382 0.01486722279 -0.0008523262143 -0.6448528345 0.6718270636 0.3644354791
-0.01288837004 -0.01044791365 -0.04663005638 -0.6814750136 -0.7182833601 -0.1402170476
-0.01702202034 0.01160195446 -0.03105254936 0.7614953919 -0.6481442342 0.00581547437
-0.01689141273 -0.002595083952 -0.02258023643 0.9295332778 0.3684050985 -0.01567063647
-0.01119006125 0.05699739075 -0.07334446971 -0.562457558 -0.4816948666 -0.6720204988
0.01244060739 0.02142523829 -0.04416297277 0.6829386985 0.2992153286 0.6663819634
0.01591058159 -0.006232238293 -0.03744636917 0.8501846074 -0.5263908797 -0.009938568266
0.01075403055 -0.01058240318 -0.05297771327 0.5503715257 -0.7675622414 -0.3285413053
-0.01946301079 0.02581857936 -0.05390262095 0.8641953525 0.002946017249 -0.503147805
0.004404858589 -0.01229775016 -0.05690498924 0.220027809 -0.8600257597 -0.4603731702
-0.005283370376 -0.01219728732 -0.05662435341 -0.3376456126 -0.8420323073 -0.4206863841
-0.01630641985 0.06060000229 -0.05211850357 0.8452257309 -0.2221236136 -0.4860602474
-0.01644839096 0.01228894567 -0.03707123184 0.7529160761 -0.6558772911 -0.05424353731
-0.01591058159 -0.006232238293 -0.03744636917 0.8115555386 0.5842239218 0.007747057398
-0.01899524689 0.007958369732 -0.03711003494 0.836344455 -0.546880416 -0.03807575539
0.01605073738 -0.005796444416 -0.04123019028 0.8558190668 -0.5160740193 -0.03523253463
0.01302838802 -0.008657321453 -0.05189250565 0.6955993333 -0.6878284752 -0.207445309
0.009931274073 -0.008913946833 -0.05753550175 0.5016190682 -0.7571865624 -0.4183859703
-0.006621168017 -0.0105332005 -0.05853525257 -0.396237046 -0.8001992275 -0.4501970676
-0.01302838802 -0.008657321453 -0.05189250565 0.6241354309 0.7383912342 0.255408201
-0.01463632536 -0.007485074282 -0.04857017517 0.7833218133 0.5977234046 0.1706858763
-0.01605073738 -0.005796444416 -0.04123019028 0.8227078302 0.5670920609 0.03947683528
-0.01883799553 0.008235456467 -0.00168455267 0.8867412668 -0.3778916386 -0.2662476954
0.005312924862 -0.01047322273 -0.05969415665 -0.3322378792 0.8033153629 0.4942695817
0 0.02056965065 -0.03501424026 0.03131029055 -0.9111256787 -0.4109375419
0.004228145808 -0.00867606622 -0.06265959263 0.1613434813 -0.8095670114 -0.5644196445
0.009001015716 0.03052348667 -0.04214939075 0.4290169947 0.02944175473 0.9028164827
0.00806012702 0.01892629051 -0.03198544025 -0.3725144949 -0.9276946143 -0.02481236824
-0.00550119408 0.01978760338 -0.02253224691 0.2180506113 -0.9759373446 0.0004799973832
-0.0008899854819 -0.00952256616 -0.0623801295 0.01077241694 0.8145841045 0.5799454214
-0.01458884811 0.06060000229 -0.07320671082 -0.562457558 -0.4816948666 -0.6720204988
0.004604293585 0.01997356892 -0.01342615151 -0.1874150319 -0.9820132088 -0.02292735443
-0.01073201923 -0.008242254066 -0.05759916306 0.5915825628 0.7031133204 0.3945398966
0.004339855115 0.0572479585 -0.07704082743 0.3387027861 -0.1738625547 -0.9246903453
0.01966108131 0.006137075424 -0.01702143478 0.8825508078 0.4702136286 0.001793077953
0.01732283211 0.01108799171 -0.002657299995 0.7971229267 0.5740766162 0.1871659117
0.01310916805 -0.007027487278 -0.05515649796 0.6155476221 -0.6960122977 -0.3696863622
0.008566549142 -0.007794124444 -0.06099520238 -0.3865185075 0.7803653317 0.491562196
-0.005163059425 -0.008197353649 -0.06291156387 0.1823045029 0.7913330861 0.5835726306
-0.01310916805 -0.007027487278 -0.05515649796 0.6219827945 0.7017833229 0.347329197
-0.01269480038 0.01199764252 0 0.6551177939 -0.6523365623 -0.3811530999
0.01069489384 0.01758999443 -0.03945269775 -0.6252445441 -0.7075738775 -0.3292544122
-0.01651461601 0.01217049551 -0.001811249763 0.7913998197 -0.5766229875 -0.2029587539
0.01762030411 0.01058946896 -0.008807629585 0.8614972324 0.5029556182 0.06970053562
-0.005730160077 0.01972158941 -0.03797985077 0.3376960123 -0.8299333041 -0.444040667
0.01570628834 0.01325378036 -0.0009629005194 0.7360551945 0.6312502948 0.2444295726
-0.0194337883 0.008458031654 -0.04664858627 0.8676816459 -0.4344066183 -0.2417011611
0.01316449642 0.01410174974 0 0.6202716225 0.6586773822 0.4259192652
0.009667191863 0.01592943811 0 0.5479258578 0.792875726 0.2666933399
-0.002416846434 0.04109400813 -0.04015800858 -0.1592703974 -0.006037864298 0.9872165339
-0.01026644926 0.01561621399 0 -0.4660609781 0.8049963791 0.3671076059
-0.01416653156 0.01357861423 0 0.6551177939 -0.6523365623 -0.3811530999
-0.01678614378 0.01176945066 -0.007695468426 0.7974836995 -0.5958530699 -0.09475688963
0.008956999408 0.03561066649 -0.04213082208 0.4269370066 0.02742179813 0.9038654974
0.01792827415 0.01007335663 -0.01517497826 0.8388866063 0.5442609423 0.007020578688
0.01343653202 0.0155383563 -0.001198522598 0.6436458803 0.7223018405 0.2529822759
0.008012129784 -0.006166115761 -0.06357641983 -0.3338994101 0.7637574958 0.5524361244
0 0.05928575134 -0.04005773926 0.06109485599 0.1315793374 0.9894211927
-0.0008945403894 -0.006856338819 -0.06562588501 0.03958993641 0.8029651914 0.5947096252
-0.005435454607 0.01978234673 -0.01802833271 0.2618690784 -0.9650815227 -0.006499255992
-0.006245437145 -0.006460912704 -0.06445189667 0.2140599472 0.7778308149 0.5908955596
-0.01824731827 0.009538684845 -0.02177129364 0.8340652447 -0.5508043546 -0.03081770047
-0.008012129784 -0.006166115761 -0.06357641983 0.3948598939 0.7383885312 0.5466882487
-0.01719775391 0.01119294453 -0.01677270889 0.7988377855 -0.6015046493 -0.007095726721
0.01824731827 0.009538684845 -0.02177129364 0.8337868612 0.551663861 0.02159756162
-0.0189629879 0.05035302099 -0.05261576207 0.8389034111 0.002954638222 -0.5442723004
-0.01924252065 0.03645632299 -0.05326603063 0.8528188229 0.006507502226 -0.5221663602
0.01620399094 0.01264618969 -0.0123514986 0.7456197797 0.6659266008 -0.0243496713
0.003978172064 0.02012699223 -0.02788984394 -0.276984935 -0.9608310461 0.009112991614
0.004771001135 0.01760389628 0 0.220865661 0.9307664536 0.2913626066
0.002689170837 -0.00540284729 -0.06693722534 -0.07274220208 0.8088575917 0.5834877621
0.01114430809 0.01727825546 -0.02629555225 -0.5393438132 -0.8417989005 0.02197412791
-0.005195399841 0.01749244054 0 -0.2896449268 0.8881619807 0.3567549752
-0.01119596799 0.01718634224 -0.001755937517 -0.5603301834 0.8053414632 0.1935334938
0.01487901052 0.03117854309 -0.04641266505 0.7299694713 0.0002445099305 0.683479708
0.01059572124 0.017592906 -0.00701020956 -0.5002202249 -0.8630946578 -0.06962282788
-0.01620546341 0.01263610744 -0.01238202667 0.7525117775 -0.6578208586 0.03158706424
0.01209706465 0.05032336044 -0.04396745046 0.5709425503 -0.01051836998 0.8209226323
-0.0008003029029 0.02052588272 -0.02935713005 0.03049042311 -0.9986635601 -0.04173041768
0.0185999279 0.008849473953 -0.02902406502 0.8196215894 0.5729024591 0.001795144087
-0.01075561867 0.02090668316 -0.04291580925 -0.5951954712 0.3877046033 0.7038661035
0.01383623266 0.0152041893 -0.01195760107 -0.6608368697 -0.7504910406 0.007604579082
-0.01135585467 0.01708686829 -0.006936750094 0.5485604388 -0.8303196343 -0.0982382302
-0.01383623266 0.0152041893 -0.01195760107 0.6087076286 -0.7933430065 0.00904969077
0.01074839544 0.01750584507 -0.0123181653 -0.5389585293 -0.8423308738 0.001550067183
-0.0185999279 0.008849473953 -0.02902406502 0.8183948559 -0.5746493944 0.002816620518
-0.01389955997 0.01519680595 -0.03597861481 0.6860168735 -0.720025003 -0.1046176102
0.01673705482 0.01198262501 -0.02454439354 0.7626672671 0.6465412896 0.01797221757
0.01487165288 0.05677233996 -0.04651470838 0.7397948408 0.09541891587 0.6660321494
0.01404737949 0.01501320171 -0.01763547802 -0.668581581 -0.7435941004 0.008153734098
0.008222836494 0.0188449173 -0.003094578743 0.3525465952 0.9135897884 0.2026440149
0 0.02596058464 -0.04004355113 0.009863502974 0.2452682915 0.9694050632
0.003701748053 0.01983292707 0 0.1361571999 0.960115153 0.244213247
-0.0153634473 0.05642853334 -0.04710687764 0.7636749709 -0.0526247174 -0.6434525452
0.01715816053 0.05098965836 -0.04927603277 0.7917672884 0.001967048745 0.6108196884
-0.000740322272 0.01983181699 0 -0.002068122215 0.9856282246 0.1689163275
0.01962233226 0.01535887496 -0.05330334854 0.8702857795 0.2364576042 0.4320769184
-0.004442138672 0.01983335876 0 -0.1604231668 0.9541056496 0.2528770786
-0.005225898584 0.01984433047 -0.003243390759 -0.2298597299 0.9550471735 0.1872148526
-0.008222836494 0.0188449173 -0.003094578743 0.4045296662 -0.8907941507 -0.2069819563
-0.01673772049 0.01197818279 -0.02455825043 0.7659475352 -0.6420715022 -0.03268882685
0.01931033707 0.007614349365 -0.04369491577 0.8970867925 0.4081099369 0.1693563289
-0.01449381065 0.01458525467 -0.029625453 0.6568969516 -0.7538184886 -0.01562309882
0.01702202034 0.01160195446 -0.03105254936 0.7519220152 0.6592266909 -0.00578385953
0.008338142395 0.01879681587 -0.008218529701 -0.4106369856 -0.9091469391 -0.06949179227
0.01226780033 0.03600286484 -0.04408045006 0.610304608 -0.003999769849 0.7921567315
0.004540697098 0.01998393917 -0.008230827212 -0.1671939875 -0.9840468472 -0.06081096123
0.003966151357 0.05990887197 -0.04120650736 0.1246891166 0.1478244418 0.9811220916
0.009559868872 0.05968397522 -0.0426031785 -0.4275008278 -0.1342192746 -0.8939956535
0 0.04610961278 -0.04004348119 0.04239638861 -0.01749765779 0.9989476354
-0.0007459719976 0.02051027107 -0.002775136709 -0.0274606379 0.9912832924 0.1288539774
0.00891328054 0.04066521793 -0.04211304304 0.4232859922 0.01590032082 0.9058565828
-0.005298111041 0.01983016968 -0.008303471088 0.2037303149 -0.9770515601 -0.06216275096
-0.008338142395 0.01879681587 -0.008218529701 0.3804612896 -0.9229449864 -0.05849580564
0.0145829862 0.05158164533 -0.04614452235 0.7247077661 -0.02165621819 0.6887159516
-0.0007888065974 0.02052587509 -0.02371804047 0.02964765886 -0.9995471489 -0.005149117853
-0.01074871397 0.01750290775 -0.01232746553 0.5553423277 -0.8314529615 -0.01675923165
0.0194337883 0.008458031654 -0.04664858627 0.8932591897 0.3945980589 0.2153610734
0 0.03609867605 -0.04004313151 0.0432898058 -0.004235189049 0.9990535801
0.008456789017 0.01874732208 -0.01349097729 -0.4292988904 -0.9026671365 -0.02990824882
-0.0007562452952 0.0205142142 -0.007790259361 0.02884742834 -0.9976278655 -0.06250174301
-0.002452208916 0.02593261973 -0.04015050888 -0.1769274258 0.2367794624 0.9553178383
-0.005372387568 0.01981560516 -0.0135082442 0.2611460483 -0.9648820593 -0.02837874238
-0.008456789017 0.01874732208 -0.01349097729 0.4134186213 -0.9101862133 -0.02541851119
-0.01090599537 0.01741211128 -0.017797122 0.562110254 -0.8266987706 -0.02451948304
0.01857261848 0.01094785833 -0.04717002487 0.8612533203 0.424004585 0.2801121743
-0.01886136754 0.05549446106 -0.05241355133 0.863437057 -0.06501012189 -0.5002500701
0.01754774094 0.01127875233 -0.0432040062 0.8547800256 0.4828948166 0.1901675681
0.01237993781 0.02659727859 -0.0441546669 0.6171278251 -0.01788598388 0.7866596081
0.01021846485 0.01788203239 -0.02158693314 -0.5266210976 -0.8499930156 0.01349418415
0.008578929901 0.01869636917 -0.0189186821 -0.3912710637 -0.9200713758 -0.0193808716
0.004401165644 0.02000384458 -0.01818740972 -0.1829564799 -0.9830456777 -0.01217054158
-0.0007667982578 0.02051885732 -0.01294575278 -0.02357486517 0.9995738024 0.01721741291
-0.008578929901 0.01869636917 -0.0189186821 0.3975229597 -0.9175858395 -0.003423982839
-0.01666863203 0.01235748863 -0.04251928139 0.8167661733 -0.546899949 -0.1838299866
0.01958194351 0.01157828856 -0.05099841309 0.8846885073 0.2945923891 0.3613053685
0.01578952217 0.01343622589 -0.04183455658 0.8162406769 0.5196644621 0.2523885978
0.01209866428 0.01664642906 -0.03115632057 -0.5583961468 -0.8294229725 -0.01585168653
0.01759481716 0.02597225475 -0.04991557503 0.8078229133 -0.01352287042 0.5892701187
-0.005645085494 0.01974490865 -0.03204344686 -0.3177137711 0.9470775438 0.04584850796
0.007889493704 0.0189915657 -0.02335146618 -0.3821251567 -0.9240771533 -0.00785998286
0.003931814114 0.02015659014 -0.02313011551 -0.1834225043 -0.982935274 -0.01394388844
-0.0007776432832 0.02052421633 -0.01824783834 -0.02683729885 0.9994246268 0.02074065548
0.009373483181 0.05574474127 -0.04240103496 -0.426720024 -0.07921306826 -0.900908048
-0.008704726219 0.01864389038 -0.02450882149 0.4064841732 -0.9136261779 0.007604208266
-0.01131530905 0.01716420364 -0.03224792767 0.571231297 -0.8206240324 0.01646216025
-0.0176329937 0.01231003857 -0.04558844757 0.8687219029 -0.4268856715 -0.2511789778
0.01822691282 0.06003559621 -0.05223088201 0.8822919432 0.1600676567 0.4426502822
-0.001189157307 0.06026652527 -0.04148571968 -0.1114964919 0.1463740423 0.9829258222
0.009451118469 0.020825769 -0.04216498311 0.6284410057 0.4153104464 0.6577074848
0.01770856285 0.01579907274 -0.0486855793 0.8404009878 0.3250984865 0.43363251
0.01386184804 0.01647434092 -0.04330350113 0.7348671541 0.5362139947 0.4152647562
0.01053057289 0.01769586945 -0.03329272842 -0.5366600608 -0.8384029266 -0.0952707293
0.007178487778 0.01930157852 -0.02786126518 -0.3586198584 -0.933473081 -0.00445020288
-0.006367007494 0.01955708218 -0.02699660206 0.3925628597 -0.919720878 0.00281207744
-0.008834349632 0.01858981705 -0.03026901817 0.4331275601 -0.9013306957 -0.001869125785
-0.01149032831 0.0170606699 -0.03834153175 0.5997169468 -0.7920976301 -0.1136702606
-0.01711123069 0.01602868605 -0.04788344065 0.8072235802 -0.3623694084 -0.4659168418
-0.002405220509 0.04608523687 -0.04016305033 -0.1583259668 -0.005562963843 0.9873712279
0.008182736874 0.01887355137 -0.03798243141 -0.4324505801 -0.8219466802 -0.3706617739
0.01935231845 0.03115904872 -0.05358303452 0.848408712 -0.0005006569762 0.5293414841
-0.008968810081 0.01852436066 -0.03624063873 0.4875624362 -0.8585373949 -0.158733778
-0.01244035339 0.01752467728 -0.04266478157 0.6832188265 -0.5741617019 -0.451165574
-0.01962233226 0.01535887496 -0.05330334854 0.8915368247 -0.2400690961 -0.3840949353
0.004076689402 0.02012886302 -0.03655570602 -0.2565147737 -0.9158490077 -0.3089025187
-0.002462180614 0.02166624641 -0.04015179253 -0.1602356264 0.4268324832 0.8900216713
0 0.05600755183 -0.04005404536 0.04848506252 0.07535569015 0.9959772682
-0.01590995842 0.0210417082 -0.04769420581 0.8056686924 -0.1312271481 -0.5776481573
0.01957231712 0.02044503148 -0.05418000158 0.8662562297 0.08651360678 0.4920523756
0.01767193349 0.02156887499 -0.0500341924 0.8280981566 0.06219319955 0.5571224722
0.008834808648 0.02564378667 -0.04206369495 0.4810064606 0.1562343116 0.8626839658
0.004091703918 0.02585003387 -0.04046464242 0.1932211618 0.2895759856 0.9374493753
-0.005735221174 0.02574016741 -0.04088227039 -0.2405728897 0.2946972608 0.9248125265
-0.01070875406 0.02601658058 -0.04309562111 -0.5133856951 0.05528074893 0.8563755992
0.01495490233 0.02598931917 -0.04649721464 0.7313719435 0.06300374115 0.6790623012
-0.01050876925 0.0455080524 -0.04297754033 -0.4897039881 -0.005374045156 0.8718721946
-0.01561488104 0.02598505306 -0.04735180473 0.7801569885 0.002366405048 -0.6255793102
0.004071831412 0.03094295247 -0.0404613266 0.1807162788 0.02640112988 0.9831808618
0 0.03104652341 -0.04004334132 0.04398953029 0.03542119614 0.9984038562
0.01231860352 0.03174168841 -0.04411407344 0.5836867306 -0.01709344447 0.8117989989
-0.01575872093 0.03090113322 -0.04754052311 0.7703383079 -0.02500580995 -0.6371448822
0.004052117957 0.03600122325 -0.04046104643 -0.222877428 -6.939640355e-05 -0.9748464737
-0.005679619683 0.03590531921 -0.04087123532 -0.2236759948 -0.00256293263 0.9746601873
-0.01040194297 0.03564303064 -0.04289901781 -0.4958500679 -0.009703770159 0.8683539295
-0.01567829778 0.03607307943 -0.04744443639 0.7637981828 0.006675961596 -0.6454206129
0.004032531738 0.04102759806 -0.04046126387 0.2059918095 -0.01305176588 0.9784666708
-0.01559864765 0.04120923445 -0.04735452864 0.7579737945 0.009442410152 -0.652216657
-0.0145034256 0.05764529419 -0.06961370087 0.7502846355 0.5610883309 0.3496467512
0.01913463084 0.04170823034 -0.05297237651 0.8366447054 0.003999051595 0.5477313617
0.01215700181 0.04529611969 -0.0440071195 0.5722938706 -0.003378231478 0.8200416533
0.004013061788 0.04602421358 -0.04046148088 0.204766231 -0.01242265244 0.9787320718
-0.00562472868 0.04594229084 -0.04086146673 -0.2214946879 -0.01764502203 0.9750019264
0.01465624062 0.04652762349 -0.04620900027 0.7264125667 -0.0174873919 0.6870363702
-0.01551977062 0.04631185786 -0.04727104823 0.7543856884 0.008775880972 -0.656372773
0.01904791451 0.04604585075 -0.05278081131 0.8358928237 -0.003056588769 0.5488841814
-0.01904797745 0.04604559135 -0.05278207397 0.8432530725 0.004752915673 -0.5374957353
0.008826646593 0.05068474876 -0.04207911682 0.4237977234 0.001203403743 0.9057560607
0.003993711895 0.05099288008 -0.04046245914 0.2079129611 0.01785286093 0.9779843945
-0.002393659115 0.05104882813 -0.04016806412 -0.1545168639 0.03187594293 0.9874758038
0.01896280479 0.05035372543 -0.05261212794 0.8400275263 0.01158255058 0.542420132
-0.01544139152 0.05138424344 -0.04718873299 0.7499947834 0.03097190687 -0.6607182197
0.003974491384 0.05593534088 -0.04046529728 0.1826506929 0.06765857902 0.9808471038
-0.002382157564 0.05598670069 -0.04017305247 -0.1355405481 0.08885026084 0.9867798087
-0.01040611956 0.05550112406 -0.04292516793 -0.4773539196 0.03581447289 0.877980956
0.01886123021 0.05549496078 -0.05241081365 0.8697483835 0.09892129287 0.4834793968
0.01708470058 0.0552253418 -0.04917873955 0.8010979975 0.08088849757 0.5930421987
-0.01036392005 0.05963312848 -0.04291527621 0.4216645789 -0.161515897 -0.8922508604
-0.01877814102 0.05975331497 -0.05226629257 0.8714138682 -0.1161988779 -0.4765875483
0.01548833752 0.06060000229 -0.05207603836 0.8411331305 0.2998491949 0.450095009
0.0145034256 0.05764529419 -0.06961370087 0.7581887487 0.1353207908 -0.6378386198
0.01035115814 0.05686475182 -0.07410509491 0.6063071317 -0.02973134103 -0.7946745934
0.007790406942 0.05746452141 -0.07579479218 0.3929431243 -0.2974870827 -0.8701132896
0.0184072504 0.06060000229 -0.06254351425 0.856928918 0.08448568682 -0.5084633696
0.01526578093 0.05968092155 -0.06799064255 0.8329623251 -0.1111846495 -0.5420440376
0.01343514156 0.06007771301 -0.07272562154 0.6952354895 -0.05200407361 -0.7168983125
-0.0111705157 0.05962952487 -0.07357634608 -0.562457558 -0.4816948666 -0.6720204988
-0.01526578856 0.05968089104 -0.06799082565 0.7502846355 0.5610883309 0.3496467512
-0.01756702042 0.06060000229 -0.06249320984 -0.475035563 0.7113610497 -0.5179832728
-0.0008670783838 0.05984914398 -0.07758115387 0.04642145687 0.04419308898 -0.9979438958
-0.006052879333 0.0600337321 -0.07647899373 -0.3514654759 -0.1234738605 -0.9280227503
