# .PCD v0.7 - Point Cloud Data file format
VERSION 0.7
FIELDS x y z normal_x normal_y normal_z
SIZE 4 4 4 4 4 4
TYPE F F F F F F
COUNT 1 1 1 1 1 1
WIDTH 555
HEIGHT 1
VIEWPOINT 0 0 0 1 0 0 0
POINTS 555
DATA ascii
0.01263869238 -0.01144845104 -0.01225415373 0.699438831 -0.7146440369 -0.008319995213
-0.0005774154365 -0.01787085247 -0.0008244404793 0.00812722913 0.9868338591 0.1615329151
0.009076733589 0.01881235504 -0.04116374969 0.5287997957 0.5737698183 0.6254270315
-0.008108001471 -0.01501069641 -0.02112591553 -0.5041639805 -0.8635961511 0.004513147571
0.01016137886 -0.01369715786 -0.007370718002 0.5618657643 -0.8247245127 -0.06431439203
0.01508206139 0.0290629631 -0.04662808914 0.7075962205 0.01381269622 0.7064819871
0.003849587043 -0.01814672184 0 -0.1134488104 0.9419498452 0.3160061022
-0.01689141273 -0.002595083952 -0.02258023643 0.9505650369 0.3105183955 -0.002106358661
0.003466191649 0.05989890862 -0.07728453064 0.1985857121 0.15504289 -0.9677424333
0.007440898895 -0.0178690815 0 -0.4759280057 0.785217806 0.396138272
-0.009547315598 -0.01264500332 -0.05013483047 -0.5834592167 -0.780943334 -0.2229413634
0 -0.01706616592 -0.02404397392 0.05871532102 -0.9982653112 0.004345054489
-0.002642706394 -0.01305995846 -0.05641306305 -0.1633083373 -0.8928893923 -0.419617588
-0.01289228439 -0.01114876413 -0.02014988899 0.7286265039 0.6846595401 0.01856695704
0.003194764733 -0.01675549507 -0.01475278234 0.2129858207 -0.9770552901 -1.572832547e-05
-0.008081330538 -0.01772959185 0 0.3615036208 0.8887978821 0.2816974566
-0.004619549692 -0.0181471324 0 -0.2702683776 -0.9328267762 -0.2383048673
0.006876057625 0.01939241791 -0.01141005421 -0.3150380283 -0.9490787765 0.0007187937123
0.007948757966 -0.01535206731 -0.0006525675058 -0.4354109094 0.8398916827 0.3240359569
-0.002424737692 -0.01689114952 -0.01930026817 -0.1326955074 -0.9911558387 0.001416238709
0.01000262547 -0.01731112289 0 -0.389006869 0.7661699506 0.5115244497
0.01130567592 -0.01465335751 -0.0005008594309 -0.5146357988 0.7950271342 0.3210636236
-0.01243323112 0.01720129037 -0.04228424931 0.697052044 -0.5028565871 -0.5111298276
0 -0.01706653023 -0.01972875595 0.07399774648 -0.9970902263 0.01831431727
-0.0122814126 -0.0148015399 0 0.604510878 0.6970535842 0.3855942156
0.00386292243 -0.01656442451 -0.002175181707 -0.1641030975 0.9753771635 0.1473416519
-0.004494199991 0.02004857826 -0.004242084026 -0.2338720758 0.9622000213 0.139552754
0.003264031887 -0.01674862576 -0.02325847816 0.1377066289 -0.9897343122 0.03824755644
0.004457612991 -0.008035517693 -0.06353215027 0.2437809888 -0.7866007141 -0.5673007545
-0.004632033587 -0.01640057087 -0.001793532372 -0.2571418606 -0.9523903787 -0.1638005804
-0.006876057625 0.01939241791 -0.01141005421 0.3196765665 -0.9475218938 -0.003025480224
-0.002324700117 -0.01689213181 -0.002938480377 -0.11284222 -0.9840562331 -0.1374771378
0.01755804062 -0.008994552612 0 0.8134568479 -0.4242432508 -0.3978763888
-0.01251961867 -0.01198189227 -0.0005604902705 0.7042900582 0.6667245543 0.2438316688
-0.008976665735 -0.01490310335 -0.0009086654782 0.4175415571 0.8275789624 0.3751960942
-0.0163948822 -0.004722289085 -0.01017438412 0.891812335 0.4513894238 0.03030424431
0.01517026567 0.01381933498 -0.006369799376 0.721979318 0.6826622558 0.1127745936
-0.008022922039 -0.01505534363 -0.01693553352 -0.4820026987 -0.8761660726 -0.0025321183
0.01457422352 -0.01396938705 0 0.5781499943 -0.5479219776 -0.6045858836
0.01865482616 0.0136358285 -0.05002788353 0.8860965122 0.2785395984 0.3704708669
-0.01457422352 -0.01396938705 0 0.6162099726 0.5760308032 0.5370975549
0.007777420759 -0.01517505264 -0.00484989202 0.4918756265 -0.8548469993 -0.1652119122
0.003903000037 -0.01655872281 -0.006117574692 0.1925212936 -0.974283124 -0.1170809368
-0.01199651003 -0.01170013571 -0.04504255104 -0.6818530714 -0.7153890527 -0.1526266433
0 -0.01705222702 -0.007280644417 -0.01411748502 -0.9996295483 -0.02326935453
-0.004778969407 -0.01637279224 -0.01382894754 -0.2731398389 -0.9619657436 -0.004066516755
-0.002348938704 -0.01689189339 -0.006902830601 -0.1095944231 -0.9913573063 -0.07210931703
0.003229042649 -0.01675251675 -0.01896146679 0.2288984651 -0.9733943609 0.01043604
-0.008185064475 0.0289260807 -0.04173801231 -0.3864617551 -0.005867728386 0.9222867676
-0.002398940086 -0.0168914032 -0.01508091927 -0.1641690133 -0.986428815 -0.002593850339
-0.004680030704 -0.01639213753 -0.005724946737 0.2713661464 0.9533938516 0.1319112518
-0.008571818193 -0.01467897193 -0.005681853533 -0.4579066361 -0.8809699054 -0.1192205455
0.007459875584 -0.01530115509 -0.02999363645 0.4210191112 -0.9070501192 0.001728960268
0.01529055754 -0.01064740276 0 0.7825453782 -0.4869069966 -0.3880003966
0.01251965014 -0.01198226388 -0.0005613750617 -0.6792423231 0.6963395323 0.2318213155
-0.002373679638 -0.01689165115 -0.01094939613 -0.1405189257 -0.9899812646 0.01383933611
0.007857671022 -0.01513728142 -0.008799610853 0.4857354722 -0.8740702824 0.007886220699
-0.005343976736 -0.007923789263 -0.06320491791 0.3333131281 0.752800981 0.5676205085
0.01038484732 0.05716456477 -0.04286974589 0.4490762011 0.03190304027 0.8929237155
0.00328447032 0.02162933445 -0.04028593636 -0.2938156874 -0.499150654 -0.8151815543
0.009497393131 0.05764409065 -0.07475646973 0.5089720919 -0.3580760099 -0.7827700689
0.00394388636 -0.01655226008 -0.0101398805 0.2452597698 -0.9694539292 0.00259316457
-0.00462055254 0.02002719879 -0.01455733919 0.2381043997 -0.9711340884 -0.01431353188
0 0.05984100723 -0.07762905121 0.008547225515 0.1617299241 -0.9867980424
0 -0.01705816269 -0.01134647846 0.04099590318 -0.9991460129 0.005155655956
0.01239199257 -0.01170754051 -0.004590052605 0.7102748101 -0.685145415 -0.1615099204
-0.00472898972 -0.01638256454 -0.009735122681 -0.2810361105 -0.9595226779 -0.01830123326
0.01761023649 0.02509297562 -0.04993973923 0.8284727622 0.006260651656 0.5599943629
-0.008659754276 -0.01462698873 -0.009624613603 -0.4758882834 -0.8787384876 0.03672890129
0.01630641985 0.06060000229 -0.05211850357 0.8353039151 0.1546087677 0.5276016474
0.007224168301 -0.01540747706 -0.01708895175 0.3998150073 -0.9165070506 -0.01275876649
-0.0156144837 -0.01041128131 0 0.8244297718 0.4549362215 0.336672817
0.007148831685 -0.01544115384 -0.01296480719 0.4055087224 -0.9138444695 -0.02123585919
-0.01705541611 0.05691391563 -0.04913995171 0.8123046252 -0.06589279552 -0.5794992108
0 -0.01706422424 -0.01549804306 0.06738372088 -0.9975698324 0.01771619816
-0.01644839096 0.01228894567 -0.03707123184 0.7813677866 -0.6240438912 -0.005796881711
-0.008749491056 -0.01457394218 -0.01364816602 -0.4800505419 -0.8770980369 0.01582753921
-0.008511749744 -0.01024681282 -0.05727539571 -0.4604988991 -0.7788434554 -0.4258446146
-0.01239199257 -0.01170754051 -0.004590052605 0.7359116963 0.657993789 0.1596187611
0.01461955214 0.04905885506 -0.04617670822 0.7287775146 -0.01468809462 0.6845930135
0.01251455212 -0.01158348322 -0.008395112991 0.7286414436 -0.6848706937 0.005812016995
0.003236968219 0.03688222027 -0.0402863102 0.2139833013 0.01723676999 0.976685231
0.01026510811 -0.01362227631 -0.0113133564 0.6238742199 -0.7812710742 -0.01991146164
-0.01733600616 0.04074000804 -0.04951347733 0.8057620082 -0.01669831676 -0.5920040138
-0.01924748039 0.06060000229 -0.06259381866 0.009645659925 0.9868892262 -0.1611105719
-0.004830004215 -0.01636281395 -0.0180092268 -0.3032610881 -0.9526607794 -0.02168298316
0.01276484585 -0.01130611897 -0.0161782856 0.7018669131 -0.7122917826 -0.004822119934
-0.00476682049 0.05673195171 -0.04061172962 -0.1693304506 0.07796432374 0.982470744
-0.01251455212 -0.01158348322 -0.008395112991 0.7312282507 0.6820324348 0.01170483886
0.01633347263 -0.007019951248 -0.0008212419629 0.844123931 -0.3001194235 -0.4442782019
0.01903966045 -0.006526635408 0 0.9148400019 -0.1871168456 -0.3578478126
-0.0007998102109 0.04858670235 -0.04008565013 -0.08821207658 0.01570366545 0.9959779237
0.01037095356 -0.01354586601 -0.01533646679 0.5923559754 -0.8055615114 -0.01360329536
0.008456789017 0.01874732208 -0.01349097729 0.3854639832 0.9226723014 -0.009661360596
0.00730107975 -0.01537285995 -0.0212996343 0.392463857 -0.9197331149 -0.007944706777
-0.008218606353 0.02465689182 -0.04175204277 -0.499007877 0.1001417513 0.8607919425
-0.004071766694 -0.01653147952 -0.02272134272 -0.2694206119 -0.9629992841 -0.006701697174
-0.01263869238 -0.01144845104 -0.01225415373 0.7532958715 0.6576656262 -0.004610208871
0.003373473644 -0.01672918606 -0.03670471573 0.1687224282 -0.9856174146 -0.009542233256
0.003026987982 0.05300824203 -0.04027306595 0.1437422631 0.04608202394 0.9885416576
0.01210852313 -0.01053890085 -0.04941852665 0.6520462107 -0.7295655257 -0.2063247025
-0.01633347263 -0.007019951248 -0.0008212419629 0.865835214 0.3182918865 0.3860306427
-0.01903966045 -0.006526635408 0 0.9226958978 0.1982508972 0.3306491524
-0.0007667982578 0.02051885732 -0.01294575278 0.05214320832 -0.9984666572 -0.01858548704
0.01274287033 -0.01131882095 -0.04153965378 0.7276816145 -0.6845290642 -0.04358242895
0.01572809823 -0.006458960851 -0.006060026407 0.8550149233 -0.4902408521 -0.1691549227
0.01047898674 -0.01346787643 -0.01944269753 0.6002294006 -0.799807787 0.005671897602
0.01882750511 0.0572019666 -0.05234397252 0.859054816 0.07951053508 0.5056707407
0.007148260355 0.06021824169 -0.04183465862 -0.2670923162 -0.09724907774 -0.9587514336
0.007379631996 -0.01533746052 -0.02560025152 0.4252565811 -0.905020085 0.009771693108
0.004121451378 -0.01659545708 -0.0272752533 0.3016208587 -0.9532369109 -0.01908531677
-0.01768736267 0.02068610382 -0.05005725479 0.8513184649 -0.07204202349 -0.5196795342
0.002478017569 -0.01689062691 -0.0280145607 0.08570165091 -0.9962896991 0.007877980073
0 -0.01706579399 -0.02845324707 0.03176320778 -0.9994300147 -0.01143435157
-0.004145186782 -0.01647887325 -0.02922135925 -0.2575419716 -0.9662636236 -0.002596664371
0.01961907196 0.01377101994 -0.05262734985 0.9190300151 0.153001077 0.3632829501
-0.004935285568 -0.01633888626 -0.0266326952 -0.2865563144 -0.9580453498 -0.005881025631
0.01395596218 -0.009833310127 -0.02804513741 0.7958427183 -0.6054989344 -0.00232555003
0.008968810081 0.01852436066 -0.03624063873 -0.3956668153 -0.9044056678 -0.1596814306
-0.008194888115 -0.01496503305 -0.02540530872 -0.5183371674 -0.8551272005 -0.009167978711
0.005475674629 0.01983485413 -0.02054361725 -0.2660960743 -0.9638052624 -0.01650137478
-0.01047690392 -0.01344063282 -0.01937451553 -0.602440672 -0.7981573482 -0.003175570441
-0.01144442606 -0.007172097683 -0.05827677536 0.5373085328 0.7167383753 0.4445060652
0.01644822264 0.01229013586 -0.03706734467 0.7700230389 0.6355621993 0.05590358074
-0.01276484585 -0.01130611897 -0.0161782856 0.7203616596 0.6933979282 0.01668509742
0.007413009303 0.02101065445 -0.04120399203 0.4289033377 0.4353687725 0.791514977
-0.01572855091 -0.00646254619 -0.00606923159 0.8513411435 0.505242876 0.1412370121
0.01897587681 -0.003252476931 0 0.9030465766 -0.07908289714 -0.422199924
0.008507261753 -0.01475948858 -0.04102590752 0.4854144957 -0.8727291005 -0.0521218239
0.01066502237 0.01756163597 -0.009613241673 0.5187170987 0.8546846695 0.02113497723
0.01922428513 0.03733610344 -0.05321338272 0.8925848822 -0.003570755978 0.4508652545
0.01745513058 -0.003251730561 0 0.9148400019 -0.1871168456 -0.3578478126
-0.0008088617722 0.03692981084 -0.04007999293 -0.09430761011 0.002614245731 0.9955396729
0.01491176033 -0.008349556923 -0.01085833454 0.8323906069 -0.5535746333 0.02609603282
0.01210091019 -0.01205939579 -0.02026508331 0.6904399971 -0.7231658666 0.01799276998
0.01058927822 -0.01338825703 -0.0236348114 0.6609830381 -0.750291849 0.01278923819
0.006781367302 0.01941443062 -0.006256754398 -0.3121677876 -0.9441596352 -0.105422273
0.003336212754 -0.01673683548 -0.03212656593 0.1562161447 -0.9877153027 -0.00387258439
0 -0.01706541443 -0.03295985794 0.05291045337 -0.9982727919 -0.02553266115
-0.004183139404 -0.01650841904 -0.03307253011 -0.2406014201 -0.9706238515 -0.0005436264371
-0.0165208931 -0.004238276005 -0.01330147839 0.9361826674 0.3514672752 0.005724302561
-0.008283635378 -0.01491817284 -0.02977637577 -0.5280409026 -0.8491936204 0.006557452991
-0.01058767796 -0.01336754894 -0.02358232307 -0.6108738283 -0.7917257925 -0.001853456988
-0.01491176033 -0.008349556923 -0.01085833454 0.8674166918 0.4971750757 -0.0201302472
-0.0007927715381 0.05993960063 -0.04100972621 0.02193597711 -0.1756760929 -0.9842035985
-0.01745513058 -0.003251730561 0 0.9226958978 0.1982508972 0.3306491524
-0.01897587681 -0.003252476931 0 0.9226958978 0.1982508972 0.3306491524
0.01505218601 -0.008111520767 -0.01457358646 0.8456890476 -0.5331742407 0.02313576992
-0.01731020737 0.004835571051 0 0.1888049406 -0.1179177148 -0.9749092814
-0.006146522045 -0.01261192799 -0.05516948318 -0.363167242 -0.8381427561 -0.406972081
-0.009076733589 0.01881235504 -0.04116374969 0.5998149549 -0.604190216 -0.5245723999
0.0136836586 -0.01023813248 -0.02003469467 0.8234659205 -0.567287462 0.009424078872
0.01222547436 -0.01193277264 -0.02438663673 0.710346876 -0.7035844472 0.01939694638
-0.004011553288 0.02018231583 -0.03053891563 0.2081282878 -0.9780774548 0.006863544394
0.0107019062 -0.01330695057 -0.02791569901 0.5929372056 -0.8052265521 -0.005972432194
0.007541877111 -0.01526405525 -0.03448336283 0.4270790353 -0.9040888311 0.01506264055
-0.01269391251 0.01616291475 -0.02450565147 0.6040188978 -0.7969118805 0.009624236902
0 -0.01706502533 -0.03756724548 -0.02806116699 -0.9994823483 -0.01573551186
-0.004229941209 -0.01649643453 -0.03766651154 -0.2461830242 -0.9691628122 0.01083337726
-0.008374319315 -0.0148702898 -0.03424281502 -0.5271103597 -0.8497122033 0.01199334473
-0.01070073032 -0.01329190445 -0.02787706947 -0.6203913547 -0.7842017053 0.01192696104
-0.01302197266 -0.01098524332 -0.02419356632 0.7410865395 0.6713909459 0.004993873989
-0.01519037914 -0.00782663393 -0.01824913597 0.8701942547 0.4925962228 0.0105318735
-0.01331842556 0.03290872192 -0.04493310547 -0.6535266384 0.01400384964 0.7567739591
-0.01505218601 -0.008111520767 -0.01457358646 0.8807089789 0.4734491146 -0.01405810478
-0.01051260519 0.04468329239 -0.0429230442 -0.5193747881 0.01842640944 0.8543478782
0.003085998964 0.03302011185 -0.04025673752 0.1050428382 0.02519894313 0.994148387
0.0196543347 0.0008078471919 0 -0.07935225231 -0.03661074686 -0.9961741179
0.01485000229 0.02117263451 -0.04635875702 0.7391528719 0.1615577069 0.6538747122
-0.00760205698 -0.01531515312 -0.03772818756 -0.4354411353 -0.8997290417 -0.02964235584
0 -0.0120182662 -0.05874689484 -0.01883699549 0.8636018711 0.5038223654
0.01738238907 0.0008075632652 0 0.12993409 -0.01097863476 -0.9914618509
0.01639112473 -0.004692883492 -0.01009790134 0.9347227858 -0.355193938 -0.01142716315
0.01519037914 -0.00782663393 -0.01824913597 0.8697433562 -0.4934491796 -0.007375737166
0.01381847095 -0.010037714 -0.02400049591 0.7868216743 -0.6171190575 -0.008701820579
0.01235262299 -0.01180352306 -0.02859368324 0.7267031024 -0.6867716063 -0.01572773714
0.01081694889 -0.01322390079 -0.03228837585 0.6347814347 -0.7726804721 -0.004173512729
0.00677246666 -0.0156730423 -0.03865914536 0.4079507575 -0.9125643431 -0.02832841463
-0.01891213417 0.05292814445 -0.05251540756 0.8496489649 0.004611293325 -0.5273285242
0.003410387516 -0.01666933823 -0.04125077057 0.1871125342 -0.9797431012 -0.0713607401
0 -0.01697693443 -0.04205091858 0.02930478398 -0.9983428962 -0.04952465258
-0.003410387516 -0.01666933918 -0.04125077057 -0.1807492409 -0.9783536655 -0.1007661507
-0.01081621647 -0.01321463299 -0.03226426697 -0.5813145872 -0.8135685301 -0.01340139891
0.006245437145 -0.006460912228 -0.06445189667 -0.3087354701 0.7677926296 0.5614061698
-0.01315429258 -0.0108184166 -0.02831941032 0.7507132702 0.6606196735 0.003351555144
-0.01738238907 0.0008075632652 0 -0.12993409 -0.01097863476 -0.9914618509
-0.008075739384 0.02082335243 -0.04135261612 -0.5796654775 0.544634586 0.6061032106
-0.01771055603 0.01499142838 -0.0484236145 0.8690160066 -0.2952513137 -0.3970363232
-0.0196543347 0.0008078471919 0 0.07935225231 -0.03661074686 -0.9961741179
0.0109344902 -0.01313904858 -0.0367559967 0.6476715799 -0.761904386 0.004819870618
-0.004339849631 0.05724801763 -0.07704046885 -0.2231424509 -0.06287317454 -0.97275609
0.01651594543 -0.004199980259 -0.01320055866 0.9375994645 -0.3476665023 -0.005936943915
0.01533113098 -0.007536473274 -0.02199272919 0.867154501 -0.498016196 0.004789570931
0.01711403847 0.05353370285 -0.04921759605 0.8156136947 0.04326679212 0.5769768503
0.0124824419 -0.01167155933 -0.03288907623 0.7374436346 -0.6752729169 -0.01354154763
0.01616410732 0.01269282436 -0.03027263546 0.7525461051 0.6585151253 0.005673580967
0.007740714741 -0.01464694347 -0.0455848671 0.4401029288 -0.8878303742 -0.1344121974
-0.01961747615 0.01699146779 -0.05382343801 0.9029601049 -0.1187501045 -0.4129908735
0.003441250086 -0.01632695293 -0.04515611458 0.1950259508 -0.9763067336 -0.09375521558
-0.005637798786 0.01978964615 -0.03188956261 0.2723435154 -0.9621836921 0.005617142449
0 -0.01659080124 -0.0458513298 0.05941755156 -0.9838042117 -0.169111879
0.004071099281 0.02017889786 -0.03638081741 -0.3057415788 -0.8979195523 -0.3166426449
-0.01966108131 0.006137075424 -0.01702143478 0.9172556381 -0.3981153095 -0.01209523566
-0.004732496381 -0.015921561 -0.04530535984 -0.2870559957 -0.9459818989 -0.150721937
-0.008507261753 -0.01475948858 -0.04102590752 -0.5327011064 -0.8450133707 -0.0467111833
-0.01093422031 -0.01313567543 -0.03674710846 -0.5884047111 -0.8083416653 -0.01906956287
0.01245038462 0.02056347752 -0.04415351868 0.6549100833 0.3115038934 0.6885187776
-0.004875724077 0.03343960571 -0.04061620903 -0.2317912525 -0.02140198753 0.972530087
-0.01328933144 -0.01064817667 -0.03253011703 0.760619842 0.6491932791 0.002354223219
0.0144617548 0.05994573402 -0.046037817 0.756187108 0.1128955507 0.6445429794
-0.01533113098 -0.007536473274 -0.02199272919 0.868852056 0.4950714162 0.0006305741199
0.01670703602 -0.003445379734 -0.01795051479 0.9294232651 -0.3685706806 -0.01811208562
0.007538427966 0.03696231679 -0.04150040599 0.3833576433 0.01005079894 0.9235452879
-0.01140337467 0.01708785439 -0.008589399338 0.5394075004 -0.8419201744 -0.01449028476
0.01191971652 0.01670811685 -0.0254447511 -0.5776568641 -0.816229929 0.009013897057
-0.01342682505 -0.01047063017 -0.03681839943 0.7532721862 0.6572069985 0.02568997238
0.01547435188 -0.007239475727 -0.02580266953 0.8824529952 -0.4703420373 0.007421536588
-0.01229292107 0.06005503464 -0.07281925201 0.6725749229 0.3921985363 0.6275534091
0.01409622097 -0.009624794006 -0.03217115784 0.8054368092 -0.5926775743 -0.00219987093
0.01261431503 -0.01152922821 -0.03725560379 0.7359755779 -0.6769119173 -0.01141073759
-0.01753339958 0.02947455406 -0.04981932449 0.8287229419 0.009887678262 -0.5595717285
0.01105047226 -0.01300110912 -0.04118508911 0.6553432683 -0.7542071378 -0.04119215965
0.007074261189 0.01933924103 -0.02219411087 -0.3267091575 -0.9451239171 0.001381228669
0.003476727366 -0.01532534361 -0.04987545776 0.1892063963 -0.9434736993 -0.2721365804
-0.0007966062758 0.05271225484 -0.04009013748 0.03800204287 -0.03453117593 -0.9986808512
0 -0.01594070625 -0.04903188705 0.0214458982 -0.9685540955 -0.2478770613
-0.01318122546 0.01326562548 -0.0001420543691 0.6616173125 -0.678611578 -0.3189809681
-0.00399841795 -0.01516062012 -0.04993001022 -0.2275606427 -0.9380027525 -0.261470821
0.01955622387 0.021333148 -0.05417619324 0.9021846565 0.03907401558 0.4295766134
-0.008885362784 -0.01406745974 -0.04567170842 -0.5131934947 -0.8515071274 -0.1075548653
0.004007382679 0.01764799881 0 0.2217916304 0.8912498758 0.3955782243
-0.01824731827 0.009538684845 -0.02177129364 0.8563911459 -0.5161529008 -0.01343086407
-0.01105047226 -0.01300110912 -0.04118508911 0.6726125453 0.7389740882 0.03885435496
-0.01547435188 -0.007239475727 -0.02580266953 0.8594756117 0.511163746 -0.003646591309
-0.0185999279 0.008849473953 -0.02902406502 0.8493304593 -0.5277138053 0.0124864166
0.012400479 0.02487439664 -0.04416826248 0.6198155265 0.04169614603 0.7836390397
0.003847038905 0.02016728592 -0.01409818395 -0.1850473093 -0.9826617394 -0.01154985514
-0.01671210957 -0.003484012604 -0.01805421925 0.9451322225 0.3264887239 0.01141030861
0.01881829166 0.004836671114 0 -0.165945503 -0.0707651755 -0.9835925884
0.006689295769 0.01943583488 -0.001246004224 0.2751824883 0.9279028896 0.2515369271
0.01731020737 0.004835571051 0 -0.165945503 -0.0707651755 -0.9835925884
0.01561876297 -0.00692416048 -0.02965032387 0.8437008466 -0.5367594497 -0.007627230754
-0.01304725289 0.04093680477 -0.04472019196 -0.646639556 -0.002952027148 0.7627899909
-0.003752754879 -0.006705746937 -0.06518403397 0.1610022854 0.7439819906 0.648512962
0.006973484516 0.01936976814 -0.01671227837 -0.3141485486 -0.9493172252 -0.01036799817
0.01423933506 -0.009412032127 -0.03638119507 0.8153007068 -0.5790153127 -0.005101486434
-0.01940752792 0.02849538803 -0.05374243355 0.8822491978 0.009786934033 -0.4706809629
0.01199651003 -0.01170013571 -0.04504255104 0.6781959286 -0.7225368815 -0.134129554
0.006942061901 -0.01427866316 -0.04954503441 0.3857372672 -0.8937884871 -0.2287988219
0 -0.01466141748 -0.05311125946 0.04106818018 -0.9352710916 -0.3515414481
-0.00779894352 -0.01405560017 -0.04894184875 -0.4865056623 -0.8472128837 -0.2134070529
0.01586958981 0.01444714737 -0.04428721237 0.8335733985 0.440777901 0.3329718176
-0.01356296778 -0.01024607944 -0.04107927895 0.768450454 0.6383685112 0.04437954176
-0.01561876297 -0.00692416048 -0.02965032387 0.8446968679 0.5351575796 0.009672968972
0.003505153418 -0.01400352097 -0.05385683823 0.19991101 -0.9126431925 -0.3565361008
-0.01881829166 0.004836671114 0 0.1888049406 -0.1179177148 -0.9749092814
0.01689141273 -0.002595083952 -0.02258023643 0.9509265015 -0.3094012189 0.003110372531
0.01576590919 -0.006602873325 -0.03357084274 0.8475427326 -0.5307011376 -0.005255369518
-0.0008003029029 0.02052588272 -0.02935713005 0.06159887866 -0.998098695 0.002138491693
0.01438306522 -0.009173337936 -0.04061890411 0.8192918516 -0.5732322289 -0.01287142904
0.007550973415 -0.007567002058 -0.06216750431 0.3963505303 -0.7531734516 -0.5250104846
0.009547315598 -0.01264500332 -0.05013483047 0.5841273841 -0.7772748786 -0.2337497854
0.006980529308 -0.01340950584 -0.05222949791 0.3896481812 -0.8658171905 -0.3139026722
0.01409319973 0.01524429989 -0.04158314896 0.7340099622 0.5938135071 0.3295677383
-0.004376098951 -0.01387338193 -0.05350032171 0.2415606195 0.8984823931 0.3665758536
-0.0078430686 -0.01320590782 -0.05167170715 -0.4782376327 -0.8293758133 -0.2888330435
-0.01210852313 -0.01053890085 -0.04941852665 -0.6846922634 -0.7005240794 -0.2011529731
-0.01576590919 -0.006602873325 -0.03357084274 0.8545664698 0.5192094292 0.01173530244
0.003647547388 0.0597706459 -0.04105445251 -0.2000360869 -0.1296706395 -0.971169959
0.01880474949 0.007736954689 -0.0008422763348 -0.1257314884 -0.09044728491 -0.98793263
0.01616309166 0.009055158819 0 -0.2461611898 -0.1742755792 -0.953432059
0.01591058159 -0.006232238293 -0.03744636917 0.8513376383 -0.5245454277 -0.008736123451
0.0145506568 -0.008317750216 -0.04578062248 0.7874591482 -0.6056996865 -0.1141752147
0.01019143263 -0.01081296889 -0.05361796188 0.5612030608 -0.7622829653 -0.3224527955
0.007013913631 -0.01242405558 -0.05464796257 0.4018376898 -0.8343338195 -0.3773771968
-0.0150617466 0.01405058098 -0.023285532 0.6963989085 -0.7176140569 -0.007656737108
0.003822760105 -0.01219801871 -0.057500103 0.2539894963 -0.8547778454 -0.4525971396
0.002642706394 -0.01305995846 -0.05641306686 0.1397957179 -0.8859740047 -0.4421619841
0.003359043312 0.04903638535 -0.04032169037 0.2135955663 -0.0003163943993 0.9769221228
0.01042724323 0.05302274895 -0.0428874321 0.4764475611 -0.003644510394 0.8791953361
0.007248464982 0.0450016257 -0.041390529 0.3816247219 0.0002921746185 0.9243173082
0 -0.01314695072 -0.0566545105 0.0320978205 -0.8963307491 -0.4422227021
-0.004766775513 -0.01169385452 -0.05784071884 -0.2505870991 -0.8475905945 -0.4677566566
0.003159883857 0.02031745815 -0.02442336464 -0.1482943416 -0.9888725455 -0.011826964
0.01891192722 0.05292891884 -0.0525112915 0.8475435446 -0.006761320922 0.5306827909
-0.00903902928 -0.01154464213 -0.05393193054 -0.481200295 -0.8000449409 -0.3582936904
-0.009709219933 -0.008354540825 -0.05899412155 -0.4931035542 -0.7458372924 -0.4478566937
-0.0145506568 -0.008317750216 -0.04578062248 0.7862382486 0.6084825745 0.1076028481
-0.01591058159 -0.006232238293 -0.03744636917 0.8619949959 0.5068123375 0.01028987867
-0.01648805094 0.00882835714 0 0.7717595422 -0.5018176255 -0.390597337
-0.01880474949 0.007736954689 -0.0008422763348 0.2030206363 -0.1176160082 -0.9720849221
0.007072304666 0.04104874611 -0.04132189512 0.3311867832 0.01814471343 0.9433907377
0.01605073738 -0.005796444416 -0.04123019028 0.8568305639 -0.5153825669 -0.01490618935
0.007056104898 -0.01076539373 -0.05786399555 0.3820452414 -0.8072787538 -0.4498249074
-0.0128969574 0.05270473576 -0.04460971165 -0.6467617957 -0.00421679369 0.7626804038
-0.01133851528 -0.01004116344 -0.05318453598 -0.6001677295 -0.7401354112 -0.3033121651
-0.01605073738 -0.005796444416 -0.04123019028 0.8667299224 0.4985480765 0.01513463107
-0.01075607157 0.02087714577 -0.04301669884 -0.6060724885 0.3953154383 0.6902186921
0.01842674065 0.008921869993 -0.008932899475 0.8324541397 0.5535266257 0.02506750811
0.01467495537 -0.007026053429 -0.04985996628 0.7347898433 -0.6455623665 -0.2081660805
-0.008059287906 0.04494013309 -0.0416870575 -0.3906072161 0.01758901305 0.9203893901
0.01433692074 0.05697317352 -0.04590459671 0.7546365207 0.07942215971 0.6513185412
0.01251759052 -0.008043955644 -0.0545291659 0.6537397563 -0.6850692826 -0.3214100326
0.01458884811 0.06060000229 -0.07320671082 0.7000748691 -0.4665826084 -0.5405514288
0.009676426888 -0.009554080963 -0.05707349014 0.4580368914 -0.7837399268 -0.419468632
-0.008026608706 0.04910296504 -0.04167451986 -0.3900725749 0.02242394081 0.9205110283
0.003552531481 -0.01004571724 -0.06116617966 0.2096185288 -0.8129394188 -0.5433135134
0 -0.01019434977 -0.06159256172 0.01575030796 -0.8070588919 -0.5902608515
0.0145034256 0.05764529419 -0.06961370087 0.7000748691 -0.4665826084 -0.5405514288
0.007331466198 0.03324563917 -0.04142074267 0.385637486 -0.01317987239 0.9225562424
-0.004084712601 -0.009859775162 -0.06117191772 -0.2102835806 -0.8068461199 -0.5520689763
-0.01251759052 -0.008043955644 -0.0545291659 -0.6437331772 -0.7021131366 -0.3043759845
-0.01467495537 -0.007026053429 -0.04985996628 0.7422910044 0.6408007951 0.1959040732
-0.002366419792 0.02043657684 -0.02402015686 0.1413339357 -0.9899502852 -0.004811585654
-0.01564983892 0.0369802227 -0.04722237396 0.7497691803 -0.03532678608 -0.6607557752
0.01490538464 0.04106691895 -0.04645457382 0.7355155721 0.01694395957 0.6772959068
-0.01421333599 0.01041596889 0 0.782637229 -0.5223992351 -0.3384937326
-0.01923317719 0.00725427103 -0.009058169365 0.8529713908 -0.5217926811 -0.01312266804
0.01961747615 0.01699146779 -0.05382343801 0.9057012289 0.1178451903 0.4072073122
0.003115006208 0.0203208828 -0.0189249754 -0.1585428412 -0.9873292415 -0.006718368343
0.01966108131 0.006137075424 -0.01702143478 0.9172556381 0.3981153095 0.01209523566
0.01520859369 0.01279820251 -0.0007454211215 0.6925792594 0.6625454339 0.2852499209
0.01218347963 0.013049414 0 -0.63885936 -0.693125931 -0.3338190555
-0.01021846485 0.01788203239 -0.02158693314 0.4726076274 -0.8812649372 0.003760454986
0.01086602402 -0.007566245397 -0.05851589076 0.5341974491 -0.7154694665 -0.4502627321
0.00621343708 -0.009116006851 -0.06119487381 0.3005977816 -0.7885073745 -0.5365604291
-0.008427944303 -0.007387122393 -0.0616405077 0.4250608786 0.7310833952 0.5337043364
-0.01623825328 0.01211430772 -0.001207499842 0.8043989142 -0.5346369216 -0.2590477733
0.00973822403 -0.007092542171 -0.06076969528 -0.4827030366 0.7391264579 0.4697763911
0.003129584312 -0.006766955733 -0.0653670702 -0.1201377216 0.7520319538 0.6480855409
-0.009132598877 0.01841431713 -0.009433418751 0.4522699025 -0.8916661531 -0.01958077572
-0.01438931847 0.0146838913 -0.006172243118 0.6954848528 -0.7068434729 -0.1291244531
0 -0.006866209189 -0.06566381709 -0.02881504647 0.7825494196 0.6219212964
0.008338142395 0.01879681587 -0.008218529701 0.4060328342 0.9131523208 0.03591902885
-0.01280115032 0.06019311714 -0.04453386307 0.6396234205 -0.05173490733 -0.7669454865
-0.01762030411 0.01058946896 -0.008807629585 0.8134961887 -0.5813413525 -0.0163151114
-0.01287573624 0.01607839203 -0.006778607368 0.6255795398 -0.7730464532 -0.1051162242
0.01792827415 0.01007335663 -0.01517497826 0.860567371 0.5092719417 0.008117228085
0.01726157093 0.04502694702 -0.04941299629 0.8057444765 0.001626599861 0.5922610849
-0.00478218025 0.05344098091 -0.04061048889 -0.2000728966 0.02320106501 0.979506277
0.01098517227 0.01630471361 -0.0006576941535 0.5116631564 0.8062306042 0.2969731087
0.007683014313 0.01732785002 -0.0005157631238 -0.4935602391 -0.8215100478 -0.2855162548
0.0147318821 0.05289412079 -0.04629892197 0.7238544901 0.0002186427483 0.6899526284
-0.00834270917 0.01710888248 -0.00038743286 -0.4102223438 0.8482414873 0.3349686671
-0.01906510735 0.04518016815 -0.05281664022 0.8555639456 0.002493909367 -0.517691139
-0.01458884811 0.06060000229 -0.07320671082 0.6725749229 0.3921985363 0.6275534091
-0.01177906132 0.0160845644 -0.0009750991106 0.5599372113 -0.7708846595 -0.3036563208
-0.01595198345 0.01294943237 -0.006583307266 0.7918410012 -0.5892885261 -0.160395953
-0.01616410732 0.01269282436 -0.03027263546 0.7673402057 -0.6412383393 -0.00154950603
-0.01792827415 0.01007335663 -0.01517497826 0.863803106 -0.5038222027 -0.002717021759
0.01824731827 0.009538684845 -0.02177129364 0.8564895476 0.5159904811 0.01339694781
-0.0007776432832 0.02052421633 -0.01824783834 0.01921233884 -0.9997169691 -0.01403095554
0.01605016708 0.05995854568 -0.06633167267 0.8344767672 -0.4003906027 -0.3785972667
0.01540423679 0.01357059669 -0.01200245905 0.735367343 0.6774110755 0.01868436906
-0.004453076124 0.01749184084 0 -0.2903646956 0.9033013391 0.3158085405
-0.01540497303 0.01356555557 -0.01201772308 0.7721140246 -0.6354711236 -0.004047726936
0.0185999279 0.008849473953 -0.02902406502 0.8494424142 0.5275311054 -0.01259038238
-0.004442138672 0.01983335876 0 -0.2156776223 0.9360101041 0.2781514845
0.01564706039 0.01330363703 -0.01784590435 0.7480225151 0.6635955048 0.01016478749
0.01133209467 0.01708637524 -0.006110425472 -0.5739988764 -0.8096370656 -0.1225280045
-0.0007415362994 0.01827240308 0 -0.03421669897 0.8664544395 0.498082244
-0.01448139477 0.05940329742 -0.06964961243 0.7550458638 0.492326403 0.4330363224
-0.01564791965 0.01329783201 -0.01786374187 0.7530591414 -0.6579334769 -0.005046738513
-0.0130795042 0.02507015457 -0.04473622742 -0.6358271599 -0.009722803833 0.7717702313
0.01899524689 0.007958369732 -0.03711003494 0.8614767168 0.5061326713 0.04108023273
-0.01293969941 0.04935830593 -0.04464121437 -0.6453042003 -0.01577289725 0.763762859
-0.0007562452952 0.0205142142 -0.007790259361 0.01907953358 -0.9997069223 -0.01490103536
0.01673705482 0.01198262501 -0.02454439354 0.7707093453 0.6370467431 -0.013362344
0.0123188591 0.01644662333 -0.01312490273 -0.576743518 -0.8168684777 0.00963351582
0.01521690769 0.01717732906 -0.04570617981 0.7305800038 0.2968202363 0.6149395136
0.003335780859 0.01998470545 -0.000749579072 0.16963727 0.9187203957 0.3566174856
-0.01711403847 0.05353370285 -0.04921759605 0.8131176044 -0.03577119081 -0.5809992972
-0.0007431471348 0.02017104403 -0.001387568355 -0.02527252556 0.9717403542 0.2346955122
-0.006689295769 0.01943583488 -0.001246004224 -0.2903646956 0.9033013391 0.3158085405
-0.009788453102 0.01809435844 -0.005442243576 0.4745199657 -0.8663468145 -0.1558011527
-0.01231917763 0.01644368601 -0.01313420296 0.5684484304 -0.822520319 0.01807503285
-0.01673772049 0.01197818279 -0.02455825043 0.7840287464 -0.6206394078 0.01027863817
-0.01899524689 0.007958369732 -0.03711003494 0.8614109576 -0.5062354864 -0.0411921636
-0.007074261189 0.01933924103 -0.02219411087 0.3302256581 -0.943881511 -0.006221574129
0.01937206268 0.00803619051 -0.04517175102 0.8736478261 0.3906800662 0.2900147613
0.0150617466 0.01405058098 -0.023285532 -0.6839644452 -0.7293208329 -0.01684519154
-0.004545907395 0.02898457173 -0.0405515055 -0.2278197148 -0.004831697699 0.9736913434
0.01169271469 0.01685583146 -0.01783605194 -0.5537721237 -0.8326073468 -0.0100717984
0.004494162083 0.02004962635 -0.004238764644 -0.2146121548 -0.9647198995 -0.1525029131
-0.006781367302 0.01941443062 -0.006256754398 0.3511984628 -0.9305115923 -0.1039606477
-0.01250376606 0.0163047328 -0.01873558044 0.5728528488 -0.8195776464 -0.01149326349
-0.01937206268 0.00803619051 -0.04517174911 0.893552469 -0.3507154941 -0.2802902557
-0.007178487778 0.01930157852 -0.02786126518 0.3642899414 -0.9312818936 0.002621672734
0.01174829896 0.05766578929 -0.07291658274 0.5697019286 -0.3866906163 -0.7251965802
-0.01289004564 0.01601662207 -0.0304572525 -0.5782032992 0.8158715746 0.005875248851
0.00379380703 0.02017377536 -0.008888851484 -0.2250611473 -0.9741729068 0.01829283179
-0.004556482911 0.02003803921 -0.009326829433 0.2857657366 -0.9581713963 -0.01566904762
-0.0008121476968 0.02052588908 -0.03516727956 -0.02503518613 -0.93802404 -0.3456647795
-0.008456789017 0.01874732208 -0.01349097729 0.3683565877 -0.9296553709 0.007369909208
-0.009324770927 0.01832719898 -0.01747783852 0.4190897976 -0.907943648 -0.001440037626
0.005722604275 0.01976599693 -0.03782452774 -0.3655660076 -0.848345041 -0.3829780483
0.01496759391 0.02512165594 -0.04651141167 0.7093826711 0.04039996652 0.7036647416
0.019538517 0.0102310133 -0.04955813789 0.8864814471 0.3056999081 0.3474164792
0.01666863155 0.01235748911 -0.04251928139 0.8110717538 0.557414673 0.1773456865
0.007219115787 0.04916041607 -0.04138052283 0.3794225652 -0.01075499253 0.9251609845
-0.008151701689 0.03317248726 -0.04172405624 -0.3936517238 -0.02268688464 0.9189796655
0.013681427 0.01538681507 -0.02975818443 -0.6066056141 -0.7942595537 -0.03437135992
0.01021846485 0.01788203239 -0.02158693314 -0.4470862093 -0.8944733678 0.005596050293
-0.01347362595 0.02084449348 -0.04502105484 -0.6775293436 0.1231828729 0.7251068669
0.008578929901 0.01869636917 -0.0189186821 0.388235733 0.9215591887 -0.00129515381
-0.006973484516 0.01936976814 -0.01671227837 0.3362077946 -0.9417874931 -0.0007979962195
-0.0008056154781 0.04111072922 -0.04008128484 -0.02648992329 -0.02028205153 0.9994433062
-0.01666863203 0.01235748863 -0.04251928139 0.8148671226 -0.5391504203 -0.2128576914
-0.019538517 0.0102310133 -0.04955813789 0.9043847483 -0.2807262546 -0.3213736096
0.01765762615 0.01294576979 -0.0464064064 0.8584243923 0.3654649907 0.3599206904
0.01389955997 0.01519680595 -0.03597861481 -0.65602076 -0.7544834575 -0.0197857238
0.01209866428 0.01664642906 -0.03115632057 -0.5638462544 -0.8257826779 -0.01266373711
0.008704726219 0.01864389038 -0.02450882149 -0.4698909374 -0.8827237498 0.001135119536
-0.003897424698 0.02019492531 -0.01934438705 0.1955975903 -0.9806226951 -0.01098692732
-0.005475674629 0.01983485413 -0.02054361725 0.259108113 -0.9658386022 0.004333614634
-0.009538393974 0.01821744061 -0.02592837238 0.4435321958 -0.896018825 -0.02072333316
0.003206104755 0.02031393147 -0.03008623219 -0.1273165774 -0.9918611574 -0.001390503037
-0.01229340553 0.01643938192 -0.03755389277 0.6670026495 -0.731410418 -0.1419375427
0.002436364651 0.02044169426 -0.03546177292 -0.1833509423 -0.9363234615 -0.2994675398
-0.01706161404 0.01344622898 -0.04570000839 0.8335967076 -0.3959018934 -0.3851989355
0.01149032831 0.0170606699 -0.03834153175 -0.608752645 -0.7685417385 -0.19688528
0.01053057289 0.01769586945 -0.03329272842 -0.4656063112 -0.8848136785 0.01776280746
0.007178487778 0.01930157852 -0.02786126518 -0.411198012 -0.9114833113 0.01069430793
0.008834349632 0.01858981705 -0.03026901817 -0.4230288159 -0.9061114845 0.002932335134
0.00555552721 0.01981258583 -0.02613193893 -0.2729402566 -0.9620201311 0.004569862499
-0.01540202141 0.05310194397 -0.04698423258 0.7711608645 0.0123028277 -0.6365214541
0 0.02057052422 -0.02356698227 -0.005663654005 -0.9997868646 -0.01985317291
-0.004754586816 0.02000065041 -0.02549547577 0.198989347 -0.9799517289 -0.009891855437
-0.008834349632 0.01858981705 -0.03026901817 0.4266013365 -0.9040303672 -0.02721019587
0.006461851597 0.01952620506 -0.03279571247 -0.3115035362 -0.949756904 0.03045275254
-0.01961907196 0.01377101994 -0.05262734985 0.8923060604 -0.1681780981 -0.4189343885
-0.01053195381 0.01768197823 -0.03333953476 0.4255676431 -0.9048124313 0.01437516481
-0.0195990963 0.01228022861 -0.05163215256 0.8842925386 -0.308011947 -0.3509349608
-0.01416379595 0.01705262184 -0.04431054115 0.6950510398 -0.4573576828 -0.5547323698
0.01187990824 0.01785362053 -0.04251794942 0.6757925208 0.4796748548 0.5596574869
-0.007285904408 0.01926276398 -0.03370186234 0.362605685 -0.9263534921 -0.1019133203
-0.008968810081 0.01852436066 -0.03624063873 -0.4412584824 0.8853458092 0.1464709866
-0.01591898219 0.01726046721 -0.04663660558 0.8194484394 -0.2229898348 -0.527996012
0.01772071838 0.01731168079 -0.04954716873 0.8795129861 0.1527433796 0.4506954263
-0.004896908283 0.01997101307 -0.03710766411 0.25413647 -0.8904173037 -0.3775866522
-0.01772071838 0.01731168079 -0.04954716873 0.8523581355 -0.1504465086 -0.5008507332
0.01075607157 0.02087714577 -0.04301669884 0.5524710451 0.4028263355 0.7297305584
0 0.02169585037 -0.04004372978 -0.1127967655 -0.5644848867 -0.8177002522
-0.00410837547 0.02157918485 -0.04046812948 -0.2631293376 0.5601683423 0.7854771671
0.01768736267 0.02068610382 -0.05005725479 0.8322951943 0.07694455747 0.5489665242
-0.01589132547 0.02138383007 -0.04749777412 0.7734398062 -0.08914454182 -0.6275700096
0.01718763733 0.04929001872 -0.04931507365 0.8017266741 -0.01588431454 0.5974797307
0.01071243922 0.02517907461 -0.04301349386 0.5071300118 0.04210669847 0.86084039
0.007391554197 0.02473877716 -0.04144375292 0.4217574134 0.1762840858 0.889406884
0.003273812056 0.02504664612 -0.04028419971 0.2481961767 0.3250144534 0.9125591833
-0.01741145897 0.03642821121 -0.04962822914 0.8117273747 -0.01862853343 -0.5837393655
0 0.02511033535 -0.04004358673 0.04135144652 0.3421470157 0.9387361064
0.007361429903 0.02900356081 -0.04143221792 0.3413338714 0.005499628049 0.9399260303
-0.004095027606 0.02499857394 -0.04046533712 -0.27194719 0.2795139406 0.9208239152
-0.01071243922 0.02517907461 -0.04301349386 -0.5229029534 0.01872458578 0.8521865354
-0.01955576611 0.02133556175 -0.05416735268 0.8798914752 -0.04211007244 -0.4733051169
-0.01583714581 0.02487952042 -0.04743464851 0.7576101521 -0.0283848543 -0.6520898386
0.01741145897 0.03642821121 -0.04962822914 0.8139997921 0.01204081096 0.5807403527
-0.01761023649 0.02509297562 -0.04993973923 0.8238663459 -0.008170687401 -0.5667252279
0.01948152828 0.02492519951 -0.0539560833 0.9046823475 0.009669262475 0.4259769424
0.003424617052 0.02894935951 -0.04030909424 0.1648573768 0.004329626899 0.9863079132
-0.0004888538361 0.02867290459 -0.04006465378 -0.02510974772 0.02287507837 0.9994229492
-0.01948152828 0.02492519951 -0.0539560833 0.884312998 -0.004771574352 -0.4668701678
-0.01897993851 0.04949393082 -0.05264893341 0.8495738292 -0.002303303442 -0.5274646942
0.0123492074 0.02917478085 -0.04413432884 0.6061868599 -0.0139797143 0.7951993828
0.010668396 0.02946328163 -0.04298803711 0.5011960893 -0.02113246864 0.8650756608
-0.010668396 0.02946328163 -0.04298803711 -0.522561035 0.01403309751 0.8524863851
0.01753339958 0.02947455406 -0.04981932449 0.8236886076 -0.02251959282 0.5665950455
-0.013199893 0.02899775648 -0.04483681774 -0.6550631989 -0.002537644597 0.7555698285
-0.01576971658 0.02922445043 -0.04735394414 0.7597902989 -0.002142224957 -0.6501646811
0.01940752792 0.02849538803 -0.05374243355 0.9028307307 -0.003816879625 0.4299791893
-0.0157027216 0.03354481506 -0.04727504539 0.7562379989 0.009808329013 -0.6542231162
-0.0008121269279 0.03272563553 -0.04007882055 -0.09134346596 0.01417255511 0.9957185897
0.01467610435 0.03328835144 -0.04619901352 0.7040883862 -0.01298258018 0.7099936598
0.01733600616 0.04074000804 -0.04951347733 0.8092710703 0.01604151008 0.5872163185
0.01230841255 0.03259645462 -0.04410732841 0.6060594437 0.0191892437 0.7951878543
0.01063351727 0.03287081528 -0.04297348595 0.5537041046 0.00923214782 0.8326623157
0.0119777565 0.06030076218 -0.04387719345 0.5874184296 0.066525178 0.8065444744
-0.01063351727 0.03287081528 -0.04297348595 -0.5225652035 0.01515218912 0.8524646733
0.01931562233 0.03292949041 -0.05347708639 0.8972279982 -0.005092525688 0.4415382038
0.01747228432 0.03295965385 -0.0497235508 0.8182222424 -0.004226635318 0.5748865085
-0.01747228432 0.03295965385 -0.0497235508 0.8142447208 0.002720871648 -0.5805154016
-0.007925906754 0.04110633926 -0.04163312149 -0.3913009301 0.001068691478 0.9202621583
-0.01931562233 0.03292949041 -0.05347708639 0.8717501312 0.007532129199 -0.4898928208
-0.0155841713 0.04125222143 -0.0471592687 0.7463973786 -0.01065082057 -0.6654152938
-0.009474707603 0.0603194046 -0.07476663208 -0.5285824031 -0.34602751 -0.7751552138
0.01225768375 0.03685140101 -0.04407375463 0.6018093071 0.02121248534 0.7983580577
0.01059014002 0.03710851542 -0.04295539093 0.4951065005 0.003434859298 0.8688255031
-0.004859970927 0.03680631828 -0.04061473179 -0.2815823889 0.01137049775 0.9594696817
0.01035104179 0.06046721649 -0.04285564423 0.4451918099 0.06830916963 0.8928259124
-0.00828477459 0.03704268265 -0.04177690277 -0.3931872626 -0.01950123056 0.9192515861
-0.01059014002 0.03710851542 -0.04295539093 -0.5237073778 0.001882222431 0.8518961437
0.01450530739 0.04521255035 -0.0460498703 0.6949076997 -0.01176241309 0.7190027361
0.01046983369 0.04886187617 -0.04290519969 0.491483152 0.01824069813 0.8706960367
-0.01292804832 0.03706619568 -0.04461903534 -0.6491138543 -0.001766276203 0.7606892167
0.01479166174 0.03718464851 -0.04632819653 0.7022168305 -0.0006554758245 0.7119628455
0.003223965963 0.04106518237 -0.04028958321 0.2130767066 -0.0159232041 0.9769057112
-0.00484037439 0.04099439303 -0.04061289152 -0.2808017438 0.01376274734 0.9596671128
-0.01922428513 0.03733610344 -0.05321338272 0.8666244675 0.004996306394 -0.4989359371
0.01220720625 0.04108520889 -0.04404034615 0.5985158826 -0.001285000758 0.8011099095
-0.01054697561 0.04132549477 -0.04293738365 -0.5216606834 -0.01373113791 0.8530425472
0.01054697561 0.04132549477 -0.04293738365 0.4928662855 -0.01532274421 0.8699701363
0.01915226269 0.04083768463 -0.05301567841 0.8554361053 -0.009880655904 0.5178141003
-0.01915226269 0.04083768463 -0.05301567841 0.8631790467 0.01107065451 -0.5047765584
0.01215700181 0.04529611969 -0.0440071195 0.5943771323 -0.02056127159 0.8039235403
0.01051260519 0.04468329239 -0.0429230442 0.4905661704 0.01409744636 0.8712899026
0.00321102351 0.04522893906 -0.04029284286 0.211530519 -0.01799600886 0.9772057016
-0.0008023840189 0.04527239863 -0.04008263143 -0.0876474339 -0.01362741116 0.9960583422
0.01906506538 0.04518034108 -0.05281579844 0.8848711561 -0.001610418466 0.4658330642
-0.004820868731 0.04516312504 -0.04061106014 -0.2780941726 -0.001438535147 0.9605527376
-0.01299335384 0.04515712293 -0.04468061384 -0.6428241052 -0.01718897192 0.765820938
-0.01551882076 0.0455035553 -0.04709647179 0.744450663 0.002762473005 -0.66767176
-0.01726157093 0.04502694702 -0.04941299629 0.8027756557 -4.109880616e-05 -0.5962811794
-0.004801466028 0.04931089719 -0.04060958672 -0.2687801367 -0.02127156495 0.9629666446
-0.01046983369 0.04886187617 -0.04290519969 -0.5168534379 0.03090838922 0.8555157481
0.01210702324 0.04948807335 -0.04397404099 0.5939544197 -0.01481019883 0.8043623595
-0.01546678305 0.04888888168 -0.04704646683 0.7613571655 -0.001427015726 -0.6483311115
-0.01718763733 0.04929001872 -0.04931507365 0.7985970595 0.01252518599 -0.6017357031
-0.01284365988 0.05687113698 -0.04456776428 -0.6418816954 0.0281420227 0.7662870974
0.01897977924 0.04949455261 -0.05264577103 0.8429254134 0.002172454655 0.5380260476
0.01206719017 0.05282736588 -0.04394701385 0.5926437078 -0.00337059599 0.8054576803
0.007189945618 0.05330119197 -0.04137344297 0.3592277109 0.01466082049 0.933134777
-0.008805158059 0.05317284012 -0.04207182884 -0.4280785843 0.02474618051 0.9034026523
0.01201743952 0.05698539988 -0.04390843201 0.602413386 0.04011279812 0.7971756869
0.007393014022 0.05693874414 -0.0414538814 0.3551955404 0.03677853849 0.9340682348
0.003175101161 0.05678563404 -0.04030188847 0.1392479614 0.09950804282 0.9852452256
-0.0007934149504 0.05682155673 -0.04009460704 -0.03301442081 0.1143879081 0.9928874329
-0.008972287059 0.05708296585 -0.04215004683 0.4670223267 -0.03983922321 -0.8833476002
0.01705541611 0.05691391563 -0.04913995171 0.8141895404 0.08128705873 0.5748806888
-0.01533753061 0.05729736519 -0.04692226219 0.7666082419 -0.07899025405 -0.6372380585
-0.01882759666 0.05720164108 -0.05234579468 0.8712737847 -0.06846044026 -0.4859991361
-0.004760069728 0.05989678383 -0.04128381538 -0.2181369455 0.09070539114 0.9716937815
-0.0083462286 0.06018504047 -0.04205690289 0.3265086438 -0.1323610772 -0.9358806819
0.01701157951 0.05944154739 -0.04908189011 0.8063688687 0.1001075738 0.5828788221
-0.01529896927 0.05980597687 -0.04688520432 0.8028322739 -0.08462615958 -0.5901684108
-0.01701157951 0.05944154739 -0.04908189011 0.8240766592 -0.09913090889 -0.5577371448
0.01876241302 0.06060000229 -0.05225445938 0.8673098833 0.126479358 0.4814317588
0.006913747787 0.06008437157 -0.07617681122 0.3690820298 -0.01689765826 -0.9292431998
0.006930392742 0.05739898014 -0.07617209244 0.3690820298 -0.01689765826 -0.9292431998
0.003474593401 0.05720521832 -0.0772865448 0.2036857454 -0.08216016336 -0.9755828128
0 0.05714490318 -0.07763217545 0.0736310512 0.02060567916 -0.9970726525
-0.007790386915 0.05746469498 -0.07579375839 -0.4297309654 -0.1096212733 -0.896278123
0.0184072504 0.06060000229 -0.06254351425 0 0 1
-0.009497393131 0.05764409065 -0.07475646973 -0.5285824031 -0.34602751 -0.7751552138
-0.01174834029 0.05766554387 -0.07291805267 -0.5895983229 -0.3752475198 -0.7152364061
-0.0145034256 0.05764529419 -0.06961370087 0.7001257423 0.4664552996 0.5405954111
-0.01630641985 0.06060000229 -0.05211850357 0.8623870712 -0.1457276121 -0.4848216192
-0.01876241302 0.06060000229 -0.05225445938 0.8754412224 -0.1169641964 -0.4689584661
0.01448139477 0.05940329742 -0.06964961243 0.7000748691 -0.4665826084 -0.5405514288
0.01229292043 0.06005503845 -0.07281923421 0.6433321958 -0.4305333074 -0.6330598368
-0.01605018234 0.05995848465 -0.06633203888 0.7938255177 0.4941912076 0.3544236134
-0.01756702042 0.06060000229 -0.06249320984 0.009745560596 0.9869311305 -0.1608476538
0.009474707603 0.0603194046 -0.07476663208 0.5089720919 -0.3580760099 -0.7827700689
-0.004329388221 0.05993975576 -0.07704069265 -0.2187139043 0.1082630328 -0.9697645816
-0.007771708488 0.0601473465 -0.07580026245 -0.3667289813 -0.008093959997 -0.930292611
