# .PCD v0.7 - Point Cloud Data file format
VERSION 0.7
FIELDS x y z normal_x normal_y normal_z
SIZE 4 4 4 4 4 4
TYPE F F F F F F
COUNT 1 1 1 1 1 1
WIDTH 581
HEIGHT 1
VIEWPOINT 0 0 0 1 0 0 0
POINTS 581
DATA ascii
-0.0184072504 0.06060000229 -0.06254351425 0 0 1
0.01602898216 -0.008992650986 0 0.5179786908 -0.4012903744 -0.7554231339
0.007246063471 0.04500707054 -0.04136353111 0.3452951268 0.007670800589 0.9384628039
0.005626842499 0.04512435722 -0.04079864693 0.3008682544 -0.002258925223 0.9536630384
-0.0008006212115 -0.01706422424 -0.01549804306 -1.731413e-07 0.9238747709 -0.3826949277
-0.00399058938 -0.01661958694 -0.01442464542 0.2314532734 0.9726565474 0.01919955819
-0.007128142357 -0.01553639412 -0.01180990791 0.4308135843 0.9021534535 -0.02277722245
0.0136836586 -0.01023813248 -0.02003469467 0.8212439125 -0.5705637304 -0.003932647685
-0.0008092454672 -0.01706653023 -0.01972875595 -1.372039126e-07 0.9255031275 -0.3787399649
0.01045276737 0.05052919006 -0.04289807892 0.4798867539 0.007832004346 0.8772954822
-0.008660561562 -0.0147042141 -0.009801322937 -0.4837326833 -0.875190883 -0.006603742201
-0.0116264801 -0.01253646183 -0.004569303513 -0.6405347476 -0.7679118423 -0.005161352122
-0.0007940105796 0.06060000229 -0.04191954803 0.03402263405 -0.6058734071 -0.7948332372
-0.01303004932 -0.01100921535 -0.00088388592 0.6585394092 0.567053591 0.4947484931
-0.01452501488 -0.01064437675 0 -0.4470148108 -0.3661715069 -0.8161471598
-0.0160560379 -0.01064642715 0 -0.1258957195 -0.02677398755 -0.9916821171
0.01966108131 0.006137075424 -0.01702143478 0 0 1
-0.009055872917 0.02370709038 -0.04210300827 -0.4479454852 -0.005378145854 0.8940446957
0.01755804062 -0.008994552612 0 0.05856788626 -0.09709928557 -0.9935499642
0.01371528149 0.05341925812 -0.04526197433 0.6767771031 -0.002502241345 0.7361837349
-0.004083467484 0.02756520653 -0.04041580963 -0.1910969149 -0.002233091005 0.9815686336
0.0145005455 -0.008990921974 0 0.6342627166 -0.39766354 -0.6630041593
0.009076733589 0.01881235504 -0.04116374969 -0.4177847976 -0.5886354125 -0.6920724052
0.01924748039 0.06060000229 -0.06259381866 0 0 1
0.01306798267 0.0159133749 -0.01226178265 0.7055506007 0.6825205089 -0.190693746
0.01315750504 -0.01087861919 -0.004610801697 0.7924000014 -0.6099990274 0.001850504728
-0.01960450363 0.01866879845 -0.05418761826 0.9987413534 -0.01789712505 -0.04685511637
-0.01374952221 0.05090689278 -0.04529016304 -0.6750307557 0.003049841357 0.7377832862
0.0103679266 0.05881764603 -0.04286268616 0.4453725622 0.04249844869 0.8943361575
0.008842817307 -0.01460895252 -0.01796585846 0.4922609128 -0.8704026184 0.008858651518
0.01174176025 -0.01242258549 -0.008382375717 -0.6810160474 0.7322614013 0.00322230536
0.01026510811 -0.01362227631 -0.0113133564 0.5742003022 -0.8186767382 -0.007900081208
0.005749119759 -0.01608231544 -0.0259901371 0.3799195157 -0.9249910061 0.007266380847
0.008751003265 -0.01466106987 -0.013851264 0.487410704 -0.8731274322 0.00890465276
-0.008751003265 -0.01466106987 -0.013851264 -0.4904027676 -0.8714483021 0.009109458051
0.007203026772 -0.01550173473 -0.01590520859 -0.43370009 0.900801975 -0.02144839813
-0.01395596218 -0.009833310127 -0.02804513741 0.834705746 0.5504244868 0.01729745517
0.005626660824 -0.01611174393 -0.01739578819 -0.3716870002 0.9283276276 -0.007522613191
0.00779894352 -0.01405560017 -0.04894184875 0.4237742921 -0.8785085166 -0.2205405532
-0.009129968643 -0.01444375134 -0.030835186 -0.5082224553 -0.8611726906 0.009567280401
0.007178487778 0.01930157852 -0.02786126518 -0.3861461208 -0.9224021368 -0.008091439843
0.004033347607 -0.01661388397 -0.01862266541 -0.2512896573 0.9676849302 0.02096148978
-0.00648358345 0.03753621483 -0.04109475136 -0.318240494 -0.004148012737 0.9480009399
0.00161699158 -0.01697883987 -0.01951451206 -9.432467833e-06 0.9255160715 -0.3787083329
-0.01021846485 0.01788203239 -0.02158693314 -0.4650910344 0.8852020622 0.01037490983
-0.002424737692 -0.01689114952 -0.01930026817 -0.1809534319 -0.9831461215 0.02606835896
0.01590829754 0.01575536251 -0.04578593826 0.7849466739 0.3620046058 0.5028035247
-0.005687236309 -0.01609718704 -0.02164707184 -0.338596203 -0.9406477769 -0.02311646922
-0.01105047226 -0.01300110912 -0.04118508911 -0.6441827046 -0.7635960889 -0.04415490952
-0.004033347607 -0.01661388397 -0.01862266541 -0.234170959 -0.9720087837 -0.01904957906
-0.005626660824 -0.01611174393 -0.01739578819 -0.3342716419 -0.9421956455 -0.02301814617
-0.007203026772 -0.01550173473 -0.01590520859 0.4355535466 0.8998741675 -0.02279453005
-0.01026392078 -0.01360640335 -0.0112746191 -0.5743708123 -0.8185616733 -0.007413296881
0.01582361603 0.02575135803 -0.04741845322 0.7802238458 -0.01636854708 0.6252861914
0.01824731827 0.009538684845 -0.02177129364 0 0 1
-0.01174176025 -0.01242258549 -0.008382375717 0.6790537431 0.7340798594 0.003574063608
-0.008836407661 0.04904201508 -0.04199253464 -0.4340579276 -0.01583201286 0.900745837
0.003713860512 0.01670938683 0 0 -0 -1
0.01556201458 0.01348545361 -0.03598144531 0.7055502912 0.6856869207 -0.1789755104
0.01721013451 0.01042009258 0 -0.4584103748 -0.3110111929 -0.832545474
-0.006525835276 0.03078400517 -0.04110628891 -0.3190580913 0.00936662603 0.9476888734
-0.006193954468 -0.01035465813 -0.0593562088 -0.320961373 -0.8106913549 -0.4896563326
-0.01315750504 -0.01087861919 -0.004610801697 0.7924000014 0.6099990274 -0.001850504728
-0.0145005455 -0.008990921974 0 -0.6066040501 -0.2224415822 -0.7632504627
-0.01602898216 -0.008992650986 0 -0.512686897 -0.2519417806 -0.8207785845
-0.01755804062 -0.008994552612 0 -0.03861358845 -0.06619371587 -0.9970593677
-0.005398291588 0.01985343742 -0.01512695408 -0.2766201056 0.9582456342 0.07243356801
-0.01620546341 0.01263610744 -0.01238202667 0 0 1
0.01731020737 0.004835571051 0 0 -0 -1
-0.01409622097 -0.009624794006 -0.03217115784 0.8436287239 0.5367019171 0.01554439948
0.01905566216 -0.007348026752 0 0.09437028361 -0.05618532703 -0.9939504307
-0.01879386902 0.05890662766 -0.05227812576 0.8644303745 -0.2296192604 -0.4472528623
0.01035104179 0.06046721649 -0.04285564423 -0.4337814956 -0.0796428355 -0.8974912996
0.01752850533 -0.007346333981 0 0.06437537419 -0.05377627569 -0.9964757515
0.01369934495 0.01147109509 0 -0.1669204831 -0.1720648966 -0.9708404728
0.0160020256 -0.007344782829 0 0.0617381214 -0.05572456346 -0.9965355876
0.01463330555 -0.008764873505 -0.003512837887 0.8335481023 -0.5379257899 -0.1258308617
-0.01071242523 0.02518045235 -0.04301348495 -0.5279547734 -0.003189187562 0.849266499
-0.009076733589 0.01881235504 -0.04116374969 0.4612633618 -0.5903301264 -0.6623793874
0.0008878592253 -0.0108216114 -0.06068711853 0.05858668477 -0.8390507242 -0.540889529
0.01185920525 -0.01230509377 -0.01226764107 -0.6877568163 0.7259347497 0.003049722257
-0.00760205698 -0.01531515312 -0.03772818756 -0.41530114 -0.9096582579 0.00684229338
0.01037095356 -0.01354586601 -0.01533646679 -0.5789877941 0.8153163786 -0.005686560621
0.009674069405 0.01514605522 0 -0.1650288674 -0.1549983873 -0.9740333531
0.01900771332 -0.004886715889 0 0.09437372637 -0.005165501592 -0.9955234389
0.007279485226 -0.01546634674 -0.02008658409 -0.4383173209 0.8985601804 -0.02162240412
0.004076973438 -0.01660635948 -0.02290651894 -0.2541195869 0.9669523206 0.02065054953
-0.006536455631 0.02908667088 -0.04110914803 -0.3205075711 0.001176570366 0.947245223
0.001634565055 -0.01697852898 -0.02382720566 -6.242063233e-06 0.92712387 -0.3747550261
-0.0008040526509 0.0427869339 -0.04004285431 -0.05413077929 0.01266683012 0.9984535093
-0.0008180397749 -0.01706616592 -0.02404397392 -4.327740355e-08 0.9271156397 -0.3747753868
-0.00963918972 -0.01068013477 -0.05498267746 -0.5265818583 -0.7678556722 -0.3648413533
0.01960908413 0.01302562428 -0.05212975121 0.9987413686 0.01789671196 0.04685495104
-0.002451090336 -0.01689089203 -0.02361043739 -1.297137401e-05 0.9270997708 -0.3748146407
0.0008814507723 -0.01314695072 -0.0566545105 0.05091760049 -0.8920943954 -0.4489710321
-0.002448232889 0.02763376617 -0.04014999771 0.1134153344 5.571112268e-05 -0.9935476631
-0.004076973438 -0.01660635948 -0.02290651894 -0.2365918183 -0.9714222576 -0.01905541864
-0.01420161724 0.01120782137 0 0.1748857673 -0.1976957758 -0.9645368571
-0.007279485226 -0.01546634674 -0.02008658409 0.4405998724 0.8974010219 -0.02330575918
-0.01036932755 -0.01352436256 -0.01528332615 0.579414873 0.8150164828 -0.005151482233
-0.01185920525 -0.01230509377 -0.01226764107 0.6850389777 0.7284982206 0.003455653645
0.008012129784 -0.006166115761 -0.06357641983 0.4580484256 -0.7045524133 -0.542030937
-0.01962672043 0.01533420944 -0.05338746643 0.9987412424 -0.01789781423 -0.04685721958
-0.004037578583 0.03936581802 -0.04042023087 -0.192161486 -0.001889727375 0.9813614993
0.006237888813 -0.007136486769 -0.06366479111 0.326246362 -0.7229312448 -0.6090432879
-0.004416374207 -0.01177322578 -0.05805773926 -0.2744797567 -0.8381737299 -0.4713020917
-0.01463330555 -0.008764873505 -0.003512837887 0.8335481023 0.5379257899 0.1258308617
-0.002300394773 0.02043488693 -0.01322091961 -6.770665157e-06 0.9564849536 -0.2917816538
0.01053057289 0.01769586945 -0.03329272842 0.4768450113 0.8789462184 0.008507669355
-0.002222787857 0.01905234718 0 -0.1740876802 0.7816018155 0.5989925556
-0.0160020256 -0.007344782829 0 -0.07154853255 -0.07210030102 -0.9948278012
-0.01116218662 0.06053196716 -0.07348760223 -0.4412197316 -0.2215838074 -0.8696124222
-0.01829208374 -0.007347180367 0 -0.1259017767 -0.07356460858 -0.9893113721
0.001602055013 0.04692709827 -0.04010385895 0.07886404002 0.0006779273595 0.9968851507
0.01299876976 -0.009168716431 -0.0507286644 0.7701293422 -0.6025081744 -0.2094867442
0.01748440838 -0.004885592699 0 0.09437372637 -0.005165501592 -0.9955234389
-0.006876057625 0.01939241791 -0.01141005421 0.3701748592 -0.9289310111 -0.007599355393
-0.00243644309 0.02043836594 -0.03547335815 -3.461510056e-06 0.9614673251 -0.2749192295
0.004330140591 -0.01560376453 -0.04813256073 0.2580236699 -0.9394236481 -0.2256257856
0.01600445366 -0.005939834118 -0.0005933719277 0.5982532007 -0.2784806511 -0.751359857
0.01477122974 -0.008559158325 -0.00715121603 0.8755651067 -0.4829343734 0.01265444253
-0.01935228539 0.03116064835 -0.05358293915 0.9830496361 -0.009418666061 -0.1830975194
-0.01366985321 0.05675789261 -0.04522663116 -0.6709207902 -0.001783663127 0.7415268787
-0.01118173981 0.01357427979 0 0.1662679587 -0.2165713937 -0.9620040527
0.01341817951 -0.01059180832 -0.01224066639 0.8036378205 -0.5951185212 -0.0004462050547
-0.01586423969 0.02313364506 -0.04746707726 0.7809446119 0.001601939479 -0.6245982284
0.01197884655 -0.01218347549 -0.01622628975 -0.7010731745 0.7128857309 0.01703932406
0.01105047226 -0.01300110912 -0.04118508911 0.6441827046 -0.7635960889 -0.04415490952
0.01047898674 -0.01346787643 -0.01944269753 -0.5855293596 0.8106249719 -0.006521044489
-0.007518779278 -0.01535429668 -0.03317364883 -0.4114656855 -0.9113984079 0.00699511881
0.006973484516 0.01936976814 -0.01671227837 -0.3761252433 -0.9265345245 -0.007973474597
0.01413378525 0.02276049232 -0.0456249733 0.6645765837 0.02176614918 0.7469030721
0.001621509939 0.03440665627 -0.04009722137 0.07694643894 0.00769599763 0.9970055251
0.01723861313 0.008830918312 0 -0.5297067718 -0.2457049178 -0.8118126812
0.008936517715 -0.01455504608 -0.02216524696 0.4970742919 -0.8676635815 0.008778250344
-0.01731020737 0.004835571051 0 0 0 -1
-0.004166903973 -0.01658431816 -0.03173975754 0.2424091011 0.9697704882 0.02798263596
0.0016525217 -0.01697821045 -0.02823390388 -3.880928731e-06 0.9287160791 -0.3707916455
0.01614364815 -0.005629497051 -0.003961904764 0.9031856145 -0.4290625871 -0.01269023431
-0.002478017569 -0.01689062691 -0.0280145607 -8.336074583e-06 0.9287011678 -0.3708289914
0.0121569891 0.04529720306 -0.0440071106 0.574705953 -0.005147545732 0.8183437971
-0.004121451378 -0.01659545708 -0.0272752533 0.2399980619 0.970353082 0.02856267583
-0.008012129784 -0.006166115761 -0.06357641983 0.3993270514 0.7242793599 0.5621008048
-0.005749119759 -0.01608231544 -0.0259901371 -0.3427078897 -0.9391562808 -0.02316856863
-0.01595198345 0.01294943237 -0.006583307266 0.705514895 -0.6816185199 0.1940230044
0.01355084515 -0.01042876244 -0.01613028145 0.8118814762 -0.5838143981 -0.003035975305
-0.007357563972 -0.01543007469 -0.02435661316 0.4444997113 0.8954792817 -0.02317029786
-0.006473075151 0.03921536446 -0.04109183502 -0.3137547254 -0.009327459204 0.9494582512
0.01395596218 -0.009833310127 -0.02804513741 0.834705746 -0.5504244868 -0.01729745517
-0.01245764875 0.01893954182 -0.0437707653 -0.6322001734 0.3199626665 0.7056534793
-0.008936517715 -0.01455504608 -0.02216524696 -0.5006516649 -0.865586804 0.0103631613
0.00878633976 0.05484430504 -0.041975914 0.4461874497 -0.00228783605 0.8949366042
-0.01197884655 -0.01218347549 -0.01622628975 0.6979757334 0.7158746583 0.01879758598
-0.01286778545 0.05726316071 -0.07182029724 0.7692113282 0.2083807341 0.6040624158
-0.007914858818 -0.01117055607 -0.05636254883 -0.4161599112 -0.8070870021 -0.4188334983
-0.01341817951 -0.01059180832 -0.01224066639 0.8036378205 0.5951185212 0.0004462050547
-0.002268735886 0.02043577385 -0.008043344498 -5.166870491e-06 0.9551902176 -0.2959926489
0.008908736229 0.04068565369 -0.04202635574 0.4222965915 0.00965331414 0.9064063119
-0.008222836494 0.0188449173 -0.003094578743 0.3846380238 -0.9099026744 -0.1553406377
-0.01477122974 -0.008559158325 -0.00715121603 0.8751019923 0.4837796645 -0.01239916063
0.0008680902719 -0.01594070625 -0.04903188705 0.05753001216 -0.969204769 -0.239441879
0.01378375435 0.04838890457 -0.04531596375 0.6732548717 0.00573561498 0.7393882474
-0.01600445366 -0.005939834118 -0.0005933719277 0.7772575432 0.296751165 0.5548057837
-0.007992013454 -0.007502058506 -0.06196958542 0.4200688374 0.7312245309 0.53745033
-0.01824606085 -0.004886154294 0 -0.127037309 -0.01369920651 -0.9918033343
-0.01069489384 0.01758999443 -0.03945269775 0.4735806188 -0.8739226931 -0.1094555797
-0.0175794239 0.0268500309 -0.04989145279 0.8146390514 0.00107374874 -0.5799672948
0.003558058858 -0.009422653675 -0.06208081245 0.2145070566 -0.7847191204 -0.5815519106
0.01491176033 -0.008349556923 -0.01085833454 0.8309249803 -0.556384361 -0.0003463507634
0.01210091019 -0.01205939579 -0.02026508331 0.7085537917 -0.7056538549 -0.002039925377
0.0194259758 0.02760533905 -0.05379569626 0.9714326995 0.005937923122 0.2372409141
-0.01284724522 -0.01082320881 -0.0451419487 0.7648218008 0.6337850143 0.1156034974
0.01938908005 0.02938543701 -0.05368917084 -4.531561647e-06 0.05973516002 -0.9982142609
-0.0007409201562 0.01905199146 0 0.007646061094 -0.8931856624 -0.4496230757
0.009032212257 -0.01449999142 -0.02645400429 0.501826044 -0.8649252227 0.008659136116
0.01407428169 0.02709435081 -0.04556371117 -0.6641826267 -6.022469353e-05 -0.7475703544
0.007437302113 -0.01539259434 -0.02871756554 -0.4470603328 0.8942243094 -0.02235941299
-0.000811878264 0.03273545074 -0.04004327011 -0.05292508414 0.01213705602 0.9985247255
0.004166903973 -0.01658431816 -0.03173975754 -0.2424091011 0.9697704882 0.02798263596
0.0008362102509 -0.01706541443 -0.03295985794 9.372921519e-07 0.9302899582 -0.3668250177
-0.002505521536 -0.0168893528 -0.03251337433 -1.058925497e-06 0.930287857 -0.3668303466
0.004047351122 0.03685158348 -0.04041883469 0.2097088384 -0.006250296715 0.9777439015
-0.01058767796 -0.01336754894 -0.02358232307 0.5922980399 0.8056898021 -0.006853812016
0.003738069534 0.02021462059 -0.003714502573 -0.1501825948 -0.9661684956 -0.2096750495
-0.002366419792 0.02043657684 -0.02402015686 -4.593605222e-06 0.959010267 -0.283371325
-0.01210091019 -0.01205939579 -0.02026508331 0.7052424639 0.7089653837 0.00107321865
-0.01355084515 -0.01042876244 -0.01613028145 0.8118814762 0.5838143981 0.003035975305
0.01924248886 0.03645783615 -0.05326594162 0.9987433641 0.01789990975 0.04681117374
-0.01614364815 -0.005629497051 -0.003961904764 0.9029681639 0.4295445569 0.01183083597
-0.01073014164 0.02345969963 -0.04302472687 -0.5286454464 -0.0006535009378 0.8488424854
0.01895998573 -0.002436766148 0 0 0 -1
-0.004445796967 -0.009349880219 -0.06187060165 -0.2816503958 -0.7692747245 -0.5734888427
-0.006436464667 0.04506558704 -0.04108167648 -0.3109224601 -0.002135494109 0.9504328822
0.01744051743 -0.002436207533 0 0.07679253019 0.02649609931 -0.9966949704
0.01626941681 -0.005188227177 -0.007066958427 0.9147730755 -0.4032161808 -0.02463598585
0.001588060349 0.06060000229 -0.04192348289 -0.01739029922 -0.6590554121 -0.7518933044
0.005942876339 -0.01603093147 -0.03959010315 0.3642090025 -0.930965643 -0.02558855257
0.01505218601 -0.008111520767 -0.01457358646 0.8386445558 -0.544663241 -0.004154864085
0.007193433285 0.05247961044 -0.04134885406 0.3419768286 0.006110084139 0.9396885205
0.007518779278 -0.01535429668 -0.03317364883 0.4114656855 -0.9113984079 0.00699511881
0.008834349632 0.01858981705 -0.03026901817 -0.4375702458 -0.8990992174 0.0123643584
0.005876992702 -0.01605158615 -0.03496445847 0.3872648455 -0.9219367854 0.00764873971
-0.00902616787 0.02713373566 -0.04208713913 -0.4389267612 -0.004712953003 0.8985104821
-0.004379197121 -0.01390768337 -0.05359429932 -0.2642226079 -0.894863758 -0.3597294373
0.0008968272805 -0.005467708588 -0.06713243866 -0.03361114842 0.7172424779 0.6960125851
0.004213336945 -0.01657196236 -0.03630091476 0.2621223153 -0.9648237341 -0.02017558046
-0.00635889411 0.05747547531 -0.0410665493 -0.3119110424 0.06837195812 0.9476480238
0.01381847095 -0.010037714 -0.02400049591 0.8264153586 -0.562228702 -0.03060296826
0.01050402927 0.04552110672 -0.04291946793 0.4962066495 -0.0003580470325 0.8682043727
0.001689605176 -0.01697571754 -0.03733788109 -9.550346178e-07 0.9318564802 -0.3628270942
-0.000845600009 -0.01706502533 -0.03756724548 1.607088409e-08 0.9318553924 -0.3628298881
-0.002533610344 -0.01688640976 -0.03710851669 6.606689358e-06 0.9318611306 -0.3628151501
0.01956479073 0.0108763485 -0.05036467361 0.998741403 0.01789625204 0.04685439188
-0.004213336945 -0.01657196236 -0.03630091476 0.2448665205 0.9691389384 0.02846234809
-0.01305800629 -0.008145926476 -0.05305634689 0.7404557435 0.6261017729 0.2443805677
-0.005876992702 -0.01605158615 -0.03496445847 -0.3872648455 -0.9219367854 0.00764873971
0.01284724522 -0.01082320881 -0.0451419487 0.7648218008 -0.6337850143 -0.1156034974
-0.01070073032 -0.01329190445 -0.02787706947 0.5949147686 0.8037712071 0.005316452311
-0.01222547436 -0.01193277264 -0.02438663673 0.7065987979 0.6506494019 -0.2781609149
0.01124105835 0.01719981194 -0.00332451725 0.5853030622 0.7962052444 0.1532238043
-0.0136836586 -0.01023813248 -0.02003469467 0.8212439125 0.5705637304 0.003932647685
0.01151828241 0.02846344185 -0.04356638908 0.5628176139 0.01331585335 0.8264738481
-0.01059012794 0.03710969925 -0.04295538712 -0.5221999137 -0.005152762378 0.8528075394
-0.006085180283 -0.01450172615 -0.05014822006 -0.3460347969 -0.900139126 -0.264593033
0.0008731901646 -0.01512897396 -0.05184426498 0.04018177941 -0.9506605071 -0.3076199356
-0.01505218601 -0.008111520767 -0.01457358646 0.8386445558 0.544663241 0.004154864085
-0.002416843891 0.04109510422 -0.04015800858 -0.1168085181 0.0007043079211 0.9931542046
-0.01627077484 -0.005198983192 -0.007094573975 0.9139467106 0.4052262974 0.02220491211
0.01764107513 0.02333441734 -0.04998806763 0.8166117882 -0.0009084455789 0.5771865921
-0.01744051743 -0.002436207533 0 -0.06604461745 0.03910509207 -0.9970500992
-0.01895998573 -0.002436766148 0 0 -0 -1
0.01146205139 -0.006550004959 -0.0591794548 0.6202195403 -0.6478593346 -0.442273676
0.0174113884 -0.0008107025623 0 0 0 -1
-0.008850818634 0.04737707901 -0.04199927521 -0.436134758 -0.01047426068 0.8998204058
0.01639112473 -0.004692883492 -0.01009790134 0.9989483283 0.01644323579 0.04280020304
-0.01046755409 -0.01087938595 -0.0529356041 -0.6270209776 -0.7243618469 -0.2866088074
0.009788453102 0.01809435844 -0.005442243576 -0.4812325704 -0.8765381862 0.009799049491
0.01519037914 -0.00782663393 -0.01824913597 0.8469174538 -0.5316819936 -0.006714468963
-0.01438931847 0.0146838913 -0.006172243118 0.7055982318 -0.6816202669 0.1937135697
0.01235262299 -0.01180352306 -0.02859368324 0.7066866014 -0.6517538275 0.2753379665
-0.01093422031 -0.01313567543 -0.03674710846 -0.6433285266 -0.7655873727 -0.002093242689
0.0008546693921 -0.01697693443 -0.04205091858 0.03278603725 -0.9982193814 -0.04983113836
0.00760205698 -0.01531515312 -0.03772818756 0.41530114 -0.9096582579 0.00684229338
0.007682565689 -0.015191432 -0.04216408157 0.4508622668 -0.89086765 -0.05548014586
-0.0008546693921 -0.01697693443 -0.04205091858 -0.1039589582 -0.9921244099 -0.06986909439
0.0176329937 0.01231003857 -0.04558844757 0.8004527032 0.4753339567 0.3651480516
-0.01075901794 0.01851150703 -0.04222428513 -0.5530302041 0.4910367005 0.6730828716
0.01399163914 0.03311889648 -0.04548069382 0.6582793408 -0.00143645833 0.7527723733
-0.01199758434 0.05864485168 -0.04389304352 -0.5557900689 0.006282461354 0.8312989414
-0.01664886093 -0.003746755362 -0.01647707558 0.9989492864 -0.01640207954 -0.042793632
-0.002561149597 -0.01681843758 -0.04163861847 -0.1166318659 -0.9901185841 -0.07786011412
0.007416437626 0.01827655697 0 -0.266938107 -0.4819542206 -0.8345442926
-0.004259625435 -0.01652024078 -0.04086292267 -0.251210459 -0.9661560402 -0.05861579324
-0.005942876339 -0.01603093147 -0.03959010315 -0.3876510847 -0.9217911225 -0.00526905459
-0.01673772049 0.01197818279 -0.02455825043 0.7701373572 -0.6245825715 -0.1295571785
0.01591058159 -0.006232238293 -0.03744636917 0.8844014614 -0.4664457309 -0.01619985165
-0.01482860565 0.0142831316 -0.01735704422 0.7055353241 -0.6833098822 0.1879029307
-0.01037206173 0.01779099083 -0.02734792328 -0.4708879552 0.882135103 0.01010908882
-0.009229859352 -0.01438628292 -0.0353119812 -0.5119986073 -0.8589363548 0.009260918108
-0.004356556416 -0.01482494736 -0.0510222168 -0.2580542679 -0.9182638203 -0.3003324012
-0.0163948822 -0.004722289085 -0.01017438412 0.9267780731 0.3750384151 0.02070242784
0.01217704391 0.04361507797 -0.04402038574 0.5973267097 -0.002458473043 0.801994238
0.003575865388 -0.006742208719 -0.06528707886 -0.1950288976 0.7252541877 0.6602803134
-0.004431895256 -0.01059178638 -0.06003210449 -0.2763876568 -0.8074167221 -0.5212370862
-0.0174113884 -0.0008107025623 0 0 0 -1
0.01394507885 0.03653730774 -0.04544316101 0.6568469763 0.01382578639 0.7538971398
-0.0189283123 -0.0008108881116 0 0 -0 -1
-0.003738145351 0.02021252441 -0.003721141338 0.177094394 -0.9663254748 -0.186688651
0.0008905732632 -0.009567088127 -0.06249800491 0.05958050362 -0.8055773086 -0.5894873735
-0.02044595909 -0.0008110892177 0 0 -0 -1
0.01664268303 -0.003699503183 -0.01635089302 -0.194382635 -0.9675351905 -0.1615272311
0.01965429783 0.0008096360266 0 0 0 -1
-0.002397503853 0.04939822388 -0.04016639709 -0.08006788703 -0.001424916839 0.9967883943
-0.01535039902 0.05646022415 -0.04693462753 0.7526326235 -0.001647513974 -0.6584386226
-0.01530619431 0.01378369427 -0.02949272156 0.7055298098 -0.6849308802 0.1819268447
0.01738235664 0.0008093508482 0 0 0 -1
0.01651594543 -0.004199980259 -0.01320055866 9.256168997e-07 -0.9876149366 -0.1568972177
0.01533113098 -0.007536473274 -0.02199272919 0.8548475787 -0.5188466615 -0.005810257403
0.01881829166 0.004836671114 0 -0.2205971588 -0.1535614395 -0.9632007983
0.007747112751 -0.01474919033 -0.04585154343 0.4546799053 -0.8798291785 -0.1384442138
0.0124824419 -0.01167155933 -0.03288907623 0.7067772475 -0.6528446378 0.2725065163
-0.01075607157 0.02087714577 -0.04301669884 -0.5586098858 0.1323621909 0.8188011027
0.0109344902 -0.01313904858 -0.0367559967 0.6432705583 -0.765635942 -0.002143147214
0.001491529614 0.02049313545 -0.002829594851 -0.05875822614 -0.9217845665 -0.3832240648
-0.008704726219 0.01864389038 -0.02450882149 0.4325804085 -0.9015142104 0.01209622081
-0.01385269737 0.04332962036 -0.04537244415 -0.6811336592 -0.004680855916 0.7321441306
0.009331957817 -0.01432754517 -0.03988773346 0.5176587848 -0.8555746212 -0.004631424581
-0.01409319973 0.01524429989 -0.04158314896 -0.6895235885 0.6451241066 0.329199192
0.006075247765 0.05643659973 -0.07654811859 0.3657183391 -0.0336645397 -0.9301165493
0.003441250086 -0.01632695293 -0.04515611458 0.2151486611 -0.9676052999 -0.1321023743
0.0008621142507 -0.01659080124 -0.0458513298 0.03785946592 -0.987419342 -0.1535242781
0.01052977371 0.04300603867 -0.0429302063 0.4922382786 -0.001848721356 0.8704585339
0.008937869072 0.03731990433 -0.04203997803 0.4414353244 -0.01059779284 0.8972304838
0.003789561033 0.02021177292 -0.008766230583 0.1895638096 0.9802957183 0.05555057923
-0.002583956242 -0.01645965004 -0.04550576019 -0.1509461527 -0.9791075938 -0.1362482249
-0.00429854393 -0.01619425583 -0.04480646896 -0.2528778979 -0.9591492021 -0.1268289275
-0.01007061195 0.01795802879 -0.01603699493 -0.458846707 0.8884555742 0.0103146534
-0.01418048382 0.01486722279 -0.0008523262143 -0.2266233021 0.2675645887 0.9365100479
-0.006000703812 -0.01578799438 -0.04373600006 -0.3519170101 -0.9303139536 -0.1032974628
0.006085180283 -0.01450172615 -0.05014822006 0.3514736616 -0.8989074938 -0.2615943097
-0.01292949486 -0.01007261848 -0.04811816406 0.7685650839 0.6139440003 0.1799457591
0.01409319973 0.01524429989 -0.04158314896 0.6895236377 0.6451239983 0.3291993011
-0.007682565689 -0.015191432 -0.04216408157 -0.4197508285 -0.9062279229 -0.05059835716
-0.009331957817 -0.01432754517 -0.03988773346 -0.5178594897 -0.8554552159 -0.004233499056
-0.0124824419 -0.01167155933 -0.03288907623 0.7067777738 0.6528446031 -0.2725052343
-0.009041002274 0.02542245865 -0.04209506607 -0.4418470286 -0.01457351119 0.8969720263
-0.00617164278 -0.01152055836 -0.05734707642 -0.3197454362 -0.8401524458 -0.4380715967
-0.01533113098 -0.007536473274 -0.02199272919 0.8548475787 0.5188466615 0.005810257403
0.01772208786 0.01650885582 -0.04927249908 0.8044070596 0.2604574515 0.5339393209
-0.0165208931 -0.004238276005 -0.01330147839 -0.3614115875 -0.9235259747 -0.1283800549
-0.01362454319 0.06008547974 -0.04519049454 -0.661376689 0.00767199794 0.7500146769
-0.01591058159 -0.006232238293 -0.03744636917 0.8844014614 0.4664457309 0.01619985165
-0.01460448265 0.0144950037 -0.01165341949 0.7055610227 -0.6824684553 0.1908414286
-0.01738235664 0.0008093508482 0 0 -0 -1
-0.01063351727 0.03287081528 -0.04297348595 -0.5237105652 0.002029283656 0.8518938466
-0.01889674377 0.0008095358014 0 0 -0 -1
-0.02041185188 0.0008097362518 0 0 0 1
0.01735342216 0.00242404151 0 0 -0 -1
0.01191729164 0.01675798988 -0.02526815414 0.5298796741 0.845463501 0.0664755548
0.01547435188 -0.007239475727 -0.02580266953 0.8624677657 -0.5060821156 -0.005499575119
-0.01736601448 0.03901963806 -0.04955701447 0.8463913893 -0.004325395143 -0.5325438076
0.01409622097 -0.009624794006 -0.03217115784 0.8436287239 -0.5367019171 -0.01554439948
0.01261431503 -0.01152922821 -0.03725560379 0.7068722657 -0.653920899 0.2696647138
-0.01042724323 0.05302274895 -0.0428874321 -0.5159639663 0.0008883739531 0.8566098273
0.009419603348 -0.01402291965 -0.04391284943 0.5260057522 -0.8464707483 -0.08249376322
0.00604678154 -0.01524434376 -0.04717321014 0.3504521772 -0.9181680176 -0.1847992503
0.01362454033 0.06008549118 -0.04519042969 0.6613965331 0.007768086306 0.7499961885
0.0194337883 0.008458031654 -0.04664858627 0.9987413564 0.01789664087 0.04685523679
0.002602382421 -0.0158377037 -0.04875697708 0.1693428994 -0.9582126895 -0.2305459263
0.01736601448 0.03901963806 -0.04955701447 0.8463913893 0.004325395143 0.5325438076
-0.0008680902719 -0.01594070625 -0.04903188705 -0.052141711 -0.9716696146 -0.2305198515
-0.004330140591 -0.01560376453 -0.04813256073 -0.2550250489 -0.9413230679 -0.2210726265
0.01879382324 0.05890678406 -0.05227721786 0.8148890551 0.3374185865 0.4712796679
0.007074261189 0.01933924103 -0.02219411087 -0.3812275467 -0.9244457154 -0.008104126817
-0.007747112751 -0.01474919033 -0.04585154343 -0.4219262905 -0.8958933699 -0.1391160494
-0.009419603348 -0.01402291965 -0.04391284943 -0.5260057522 -0.8464707483 -0.08249376322
-0.003842813492 0.02020096016 -0.0139877243 -4.238789779e-05 0.9565036004 -0.291720518
-0.01261431503 -0.01152922821 -0.03725560379 0.7068723625 0.6539208838 -0.2696644968
0.01133851528 -0.01004116344 -0.05318453598 0.6732155174 -0.6812238278 -0.2876020923
-0.01547435188 -0.007239475727 -0.02580266953 0.8624677657 0.5060821156 0.005499575119
-0.01886528206 0.002424594641 0 0 0 -1
-0.02037785912 0.002425193787 0 0 0 -1
0.01677138901 -0.003191256285 -0.01955013657 0.9989507595 0.01633857163 0.04278353969
0.01561876297 -0.00692416048 -0.02965032387 0.870036308 -0.4929620671 -0.005022263417
0.01138559723 -0.008958453178 -0.05537465286 0.6752522628 -0.6570685601 -0.3351048924
-0.01899524689 0.007958369732 -0.03711003494 0 0 1
0.007275490284 0.04082899857 -0.04137174225 0.319115652 0.004176072026 0.9477065796
0.01423933506 -0.009412032127 -0.03638119507 0.8147298259 -0.516489768 -0.2635405667
0.01046982288 0.04886288834 -0.04290519714 0.4817090365 -0.004360145674 0.8763203714
0.01114577484 -0.01257706261 -0.04494315338 -0.6607115726 0.7438502267 0.1007326064
0.009489372253 -0.01343026924 -0.04725073242 0.5271253706 -0.8327862997 -0.1691325595
-0.006674567223 0.01827570343 0 -0.209118649 0.4696407646 0.8577336083
0.003487193227 -0.0149299531 -0.05130614662 0.2072351216 -0.9338409215 -0.29153857
0.00973822403 -0.007092542171 -0.06076969528 0.5771883977 -0.650868801 -0.4931768013
0.01366983509 0.05675798035 -0.04522614288 0.6709802883 -0.001711007633 0.7414732127
-0.0008731901646 -0.01512897396 -0.05184426498 -0.07581660097 -0.9486555201 -0.3070904543
-0.006547100544 0.02738546562 -0.04111201668 -0.3211677718 -0.007731447698 0.9469907534
-0.01242105293 0.02314875984 -0.04418188095 -0.5849852099 -0.007155272702 0.8110123959
-0.002617830038 -0.01503495884 -0.05159007645 -0.1718816663 -0.9369131013 -0.3043855014
-0.00779894352 -0.01405560017 -0.04894184875 -0.4237742921 -0.8785085166 -0.2205405532
-0.008872488976 0.04487344933 -0.04200940895 -0.436015251 0.004065703144 0.8999300922
-0.009489372253 -0.01343026924 -0.04725073242 -0.5271253706 -0.8327862997 -0.1691325595
0.01751808357 0.03034794807 -0.04979532242 0.8124169891 -0.0009685182814 0.5830760652
-0.01114577484 -0.01257706261 -0.04494315338 0.6607115726 0.7438502267 0.1007326064
-0.01274287033 -0.01131882095 -0.04153965378 0.7487751843 0.661450037 0.04265643909
-0.01423933506 -0.009412032127 -0.03638119507 0.8147298259 0.516489768 0.2635405667
0.01140298939 0.01709145355 -0.008578175545 -0.5179979516 -0.8553352552 -0.008928791154
-0.01561876297 -0.00692416048 -0.02965032387 0.870036308 0.4929620671 0.005022263417
-0.0167753582 -0.003221269846 -0.01963136292 0.9989510845 -0.01632548992 -0.04278094471
-0.01881829166 0.004836671114 0 0.1852974751 -0.1631162908 -0.9690500098
0.01689141273 -0.002595083952 -0.02258023643 0 0 1
0.01576590919 -0.006602873325 -0.03357084274 0.8744651649 -0.4849789247 -0.01030136023
0.009547315598 -0.01264500332 -0.05013483047 0.5295261461 -0.8135602695 -0.2402535087
0.0078430686 -0.01320590782 -0.05167170715 0.4487407814 -0.841153162 -0.301816284
-0.01416653156 0.01357861423 0 0.1939558322 -0.2836290269 -0.9391143223
0.01595121288 0.01295477867 -0.006567355633 0.7055114719 0.6816201482 -0.1940297309
0.006117990017 -0.01361310387 -0.05278728867 -0.3563064067 0.8731693082 0.33259751
0.004379197121 -0.01390768433 -0.05359429932 0.2666560641 -0.8944010388 -0.3590840087
0.01310916805 -0.007027487278 -0.05515649796 0.7239283017 -0.6095832701 -0.3230109144
-0.006689295769 0.01943583488 -0.001246004224 -0.04977553756 0.8558700937 0.5147900335
0.002631109715 -0.0140993576 -0.05411937714 0.1726888388 -0.9095645598 -0.3779826406
-0.0008776265979 -0.01419386101 -0.05437825394 -0.0526348616 -0.9249987061 -0.3763070091
-0.002631109715 -0.01409935856 -0.05411937714 -0.1734314587 -0.910777561 -0.3747075706
-0.0008848364949 -0.01201826668 -0.05874689484 -0.07999407878 -0.8652165033 -0.4949761103
0.0008848364949 -0.01201826572 -0.05874689484 0.05978361718 -0.8680898231 -0.4927940524
0.004018125057 0.04437091064 -0.04042301178 0.2078807154 0.003984324155 0.9781460695
-0.006117990017 -0.01361310387 -0.05278728867 -0.3108149909 -0.888783667 -0.3368347291
-0.009547315598 -0.01264500332 -0.05013483047 -0.5327614508 -0.806197702 -0.2573140141
-0.01122144127 -0.01188835716 -0.04806135178 -0.6658428699 -0.7254448011 -0.1743075247
-0.01240046215 0.02487578773 -0.04416825104 -0.5831498169 0.001008563888 0.8123640033
-0.01438306522 -0.009173337936 -0.04061890411 0.8604354924 0.5095537725 0.00239088182
-0.01576590919 -0.006602873325 -0.03357084274 0.8744651649 0.4849789247 0.01030136023
-0.01689141273 -0.002595083952 -0.02258023643 0 0 1
0.01877150345 0.007238452911 0 -0.2868501685 -0.1058792668 -0.9521063815
0.008578929901 0.01869636917 -0.0189186821 -0.427412005 -0.9039901414 0.01099100929
0.01576350594 0.007235304832 0 -0.2910915661 -0.1010098766 -0.951347836
0.007881305218 -0.01223618317 -0.05412644196 0.4248214491 -0.8317919643 -0.3572798127
0.01450361824 -0.008691405296 -0.0442808609 0.8194296074 -0.5679156219 -0.07750461235
0.01209866428 0.01664642906 -0.03115632057 0.5409479903 0.8387140387 0.06272187123
0.01128438663 -0.01102591133 -0.05076592636 0.670509535 -0.7037738058 -0.2347751984
0.007969409943 -0.008787773132 -0.06024633026 0.4811711753 -0.7303020641 -0.4849053467
0.009596592903 -0.01171760845 -0.05268667221 0.5323823749 -0.7905269358 -0.3027146686
0.006146522045 -0.01261192799 -0.05516948318 0.35979756 -0.8521874415 -0.3798977235
0.003704737663 0.01905305862 0 0.01810732812 0.7458190787 0.6659024151
0.01482860565 0.0142831316 -0.01735704422 0.7055348088 0.683313214 -0.1878927488
0.0119777565 0.06030076218 -0.04387719345 -0.5484067077 -0.02693904521 -0.8357777042
0.003520824432 -0.01297169781 -0.05616809082 0.1991902352 -0.8759696359 -0.4393181618
-0.01060745335 0.03541706467 -0.04296261215 -0.525224762 -0.001134805934 0.8509627851
-0.0008814507723 -0.01314695072 -0.0566545105 -0.08039576545 -0.8938845108 -0.4410294801
-0.002642706394 -0.01305995846 -0.05641306305 -0.1727420049 -0.8824513237 -0.4375384109
0.01228576279 0.01653134537 -0.03723036575 0.550497322 0.8326182242 0.06082426421
0.01570628834 0.01325378036 -0.0009629005194 0.5719463396 0.3997344275 0.7163028494
-0.01931033707 0.007614349365 -0.04369491196 0 0 1
0.0114238987 0.03698115349 -0.04351456642 0.5631401245 0.001394993882 0.8263602448
-0.004398942471 -0.01288343716 -0.05592311478 -0.2752138898 -0.8667202059 -0.4159968745
0.001554721832 0.02050464821 -0.01831301212 -7.971270956e-06 0.9577439192 -0.2876222959
-0.01924248886 0.03645783615 -0.05326594162 0.9987433641 -0.01789990975 -0.04681117374
-0.007881305218 -0.01223618317 -0.05412644196 -0.4352939709 -0.8268903888 -0.3560497771
-0.01886134529 0.05549557114 -0.05241350555 0.8761900876 0.0009614820104 -0.4819647352
-0.01450361824 -0.008691405296 -0.0442808609 0.8194296074 0.5679156219 0.07750461235
0.005613202095 0.04761795425 -0.04079507828 0.3038708513 -0.0002761163604 0.9527131937
-0.01651534176 0.00723605752 0 0.4200159271 -0.1644390422 -0.8924944943
-0.003966766596 0.05758435822 -0.04043035126 -0.1832111328 0.1684328796 0.9685370648
-0.01877150345 0.007238452911 0 0.3759094694 -0.2235992149 -0.8992749646
-0.006237888813 -0.007136486769 -0.06366479111 -0.3321351409 -0.7223900747 -0.606497179
0.01883799553 0.008235456467 -0.00168455267 -0.4665402307 -0.3621225135 -0.8069742861
0.0192789917 0.03469676208 -0.05337132645 0.9402626786 0.03972343052 -0.3381244509
0.01573743343 0.008829084396 0 -0.4638327344 -0.3626177602 -0.8083115454
0.007914858818 -0.01117055607 -0.05636254883 0.4572952907 -0.786377398 -0.4153210866
-0.005250254631 0.01988463211 -0.004763026714 0.2545628371 -0.9668387133 -0.02051010565
0.003534668922 -0.01185530949 -0.05828859711 0.1968435374 -0.8490552643 -0.4902629702
-0.002652963638 -0.01193739319 -0.05851945496 -0.1708428381 -0.8536789476 -0.4919806694
-0.01046982288 0.04886288834 -0.04290519714 0.5181227174 -0.006728731919 -0.855279822
0.01199757671 0.05864489365 -0.04389279556 0.5557571488 0.006343273152 0.8313204884
-0.01299876976 -0.009168716431 -0.0507286644 0.7543565698 0.6190712237 0.2183963956
-0.01459769535 -0.007944095135 -0.04728038406 0.8077959818 0.571116206 0.1459175484
0.003998781204 0.04934763336 -0.04042577744 0.2136040705 -0.01152080649 0.9768523799
-0.0007988955379 0.04942149734 -0.04004662704 -0.04798208439 -0.002905443251 0.9988439708
-0.01605073738 -0.005796444416 -0.04123019028 0.8951679743 0.4453598492 0.01813566674
-0.01648802328 0.008830001354 0 0.5594818236 -0.4530036185 -0.694094958
-0.01883799553 0.008235456467 -0.00168455267 0.488327381 -0.4540172913 -0.7452547673
-0.01739628792 0.03729333115 -0.04960445404 0.8052002934 0.0009887694095 -0.5930021162
-0.01117979908 0.05875595093 -0.07347383118 -0.5100932189 -0.2088580516 -0.8343759478
0.01569848442 0.01120993233 0 -0.4738795702 -0.2608146413 -0.841078995
0.003960394859 0.05922365952 -0.04043126297 -0.1484917054 -0.400054742 -0.9043817871
0.01305800629 -0.008145926476 -0.05305634689 0.7657585457 -0.5908300361 -0.2540348756
0.009676426888 -0.009554080963 -0.05707349014 0.5646268373 -0.7115163635 -0.4182594877
0.007943963528 -0.01001580143 -0.05839014816 -0.4711669528 0.7579246803 0.4511672435
0.006193954468 -0.01035465908 -0.0593562088 0.3277954477 -0.8030041174 -0.4977293761
-0.0008878592253 -0.0108216114 -0.06068711853 -0.07940077472 -0.8361815111 -0.5426748543
0.01576969528 0.0292258358 -0.04735391998 0.7776249365 -0.001973774739 0.6287253474
-0.01592381382 0.01880557632 -0.04735149002 0.7892587209 -0.2030986312 -0.5795011798
-0.002662112951 -0.01074577522 -0.06047098923 -0.1701962867 -0.8237323257 -0.5408311007
-0.008158308029 0.01827741051 0 0.2804220123 -0.5362194072 -0.796135819
-0.007943963528 -0.01001580143 -0.05839014816 -0.4281027962 -0.7819746614 -0.4530382156
0.01269258022 0.01620948982 -0.001544718981 0.4220883586 0.5601286377 0.7128094604
0.003842556953 0.02020785904 -0.01396520138 -3.920137717e-06 0.9564784872 -0.2918028503
-0.008952504158 0.03563152695 -0.04204778671 -0.4453004473 -0.005361792667 0.8953651561
-0.009676426888 -0.009554080963 -0.05707349014 -0.5646268373 -0.7115163635 -0.4182594877
-0.01138559723 -0.008958453178 -0.05537465286 0.673917825 0.6646561798 0.3225940605
0.008850818634 0.04737707901 -0.04199927521 0.4267108171 -0.001984988948 0.9043859455
-0.01467495537 -0.007026053429 -0.04985996628 0.8052673903 0.5606592816 0.1928875323
-0.01124120617 0.01719841957 -0.003328798294 -0.6010472307 0.7791992672 0.1777378084
-0.0008178147972 0.02511033535 -0.04004358673 -0.03502997339 -0.0005781431437 0.9993860949
-0.01620236778 0.01094665241 0 0.5094231876 -0.2707456829 -0.8168138044
-0.0007451799512 0.02054623032 -0.002660873413 0.0758801601 -0.9066734637 -0.4149523244
-0.01891213417 0.05292814445 -0.05251540756 0.8784430722 0.001431350714 -0.4778448704
-0.005475674629 0.01983485413 -0.02054361725 -0.2817322939 0.9567203087 0.07289146384
0.0057514925 0.02233685112 -0.04083128738 0.3891532593 0.2441883096 0.8882183348
0.00735872221 0.02901399422 -0.0413958931 0.3200149057 -0.003624911691 0.9474055732
-0.01923317719 0.00725427103 -0.009058169365 0 0 1
0.01732283211 0.01108799171 -0.002657299995 0.7075201809 0.35052089 0.6136369442
-0.004063702106 0.03264481354 -0.04041649628 -0.1860438832 0.01489229376 0.982428569
-0.002426585317 0.03691285706 -0.04015378571 0.1153550655 -0.0007026526786 -0.9933240736
0.01142680073 -0.007794190407 -0.05737409592 0.6640003604 -0.6334473501 -0.3973008633
-0.002237915993 0.02043835258 -0.003003663301 0.1412252651 -0.9407812507 -0.3081980903
-0.01540200615 0.05310295105 -0.0469842186 0.7592504319 0.01056982162 -0.6507127327
0.01153733635 0.02674785709 -0.0435784626 0.5626462234 -0.003909328611 0.8266885414
0.00621343708 -0.009116006851 -0.06119487381 0.3335171262 -0.7648072943 -0.5512133245
0.01069489384 0.01758999443 -0.03945269775 -0.4735806188 -0.8739226931 -0.1094555797
-0.0008905732632 -0.009567088127 -0.06249800491 -0.07860663672 -0.8031958738 -0.5905060415
0.003970444679 0.06060000229 -0.04194316101 -0.1205010079 -0.4731233306 -0.8727163463
-0.002670320749 -0.009495427132 -0.06229102325 -0.1564439402 -0.7983827025 -0.5814725737
-0.01227793121 0.03515312195 -0.04408715439 -0.5761850274 -0.00697198163 0.8172895482
-0.004468109608 -0.00667330265 -0.0650825119 -0.2743394573 -0.6912685305 -0.6684950867
-0.007969409943 -0.008787773132 -0.06024633026 -0.4311022056 -0.7514093128 -0.4995347164
-0.01579662228 0.02749071503 -0.04738614655 0.7780569762 0.0158454258 -0.6279938409
-0.008171705246 0.01671314049 0 -0.1090208515 0.4874826965 0.8662996448
-0.009709219933 -0.008354540825 -0.05899412155 -0.5658503076 -0.6821372573 -0.4631438131
0.01116218472 0.06053197861 -0.07348754883 0.4412114423 -0.2222722749 -0.8694409118
0.007346754074 0.03071287727 -0.04139242172 0.3206611457 0.009037264496 0.9471508631
-0.01553185558 0.0446555748 -0.04710899734 0.7600404295 -0.004336357781 -0.6498613249
-0.01142680073 -0.007794190407 -0.05737409592 0.6640003604 0.6334473501 0.3973008633
0.001533058733 0.0205007019 -0.01300528288 -7.135064998e-06 0.9564731294 -0.2918204116
0.007370717525 0.02731122971 -0.0413993721 0.3298818153 0.0004951647436 0.9440221092
-0.01310916805 -0.007027487278 -0.05515649796 0.7239283017 0.6095832701 0.3230109144
-0.004103418827 0.02244919968 -0.04041946793 -0.19605607 -0.01230909925 0.9805154275
-0.01269480038 0.01199764252 0 0.1738763853 -0.1745431561 -0.9691757783
-0.01948152828 0.02492519951 -0.0539560833 -0.5255590148 0.06167108833 -0.8485189443
-0.01732283211 0.01108799171 -0.002657299995 0.7583742702 -0.3610026983 -0.5427204788
-0.005637798786 0.01978964615 -0.03188956261 -0.291905309 0.9539271798 0.06938462457
-0.01966108131 0.006137075424 -0.01702143478 0 0 1
0.01762030411 0.01058946896 -0.008807629585 0.8836855186 0.4104381762 0.2250342367
0.01342021513 0.01357746696 0 -0.2861320561 -0.2710174891 -0.919063636
0.01118173981 0.01357427979 0 -0.1803834025 -0.1942452214 -0.9642254
0.007992013454 -0.007502058029 -0.0619695816 -0.4693381666 0.7050441825 0.5316336954
0.0008929489851 -0.008251968384 -0.064166008 0.059730324 -0.766543429 -0.6394086798
-0.0008929489851 -0.00825196743 -0.06416600037 -0.08144366411 -0.7640729588 -0.6399683142
0.005586110115 0.05258312225 -0.04079274368 0.3021502321 0.0003951592116 0.9532602379
0.01578952217 0.01343622589 -0.04183455658 0.7758303235 0.5605868417 0.2895335942
-0.002677435637 -0.008180558205 -0.06395689774 -0.1606349173 -0.7530703462 -0.6380293701
0.008338142395 0.01879681587 -0.008218529701 -0.4146388021 -0.9099428385 0.008870987941
-0.004457612991 -0.008035517693 -0.06353215027 0.2678486248 0.7449508025 0.610987247
-0.006973484516 0.01936976814 -0.01671227837 0.3761252433 -0.9265345245 -0.007973474597
-0.00973822403 -0.007092542171 -0.06076969528 0.5771885362 0.650868735 0.4931767264
-0.01146205139 -0.006550004959 -0.0591794548 0.6202195403 0.6478593346 0.442273676
-0.01570639992 0.01325299931 -0.0009651995301 0.4825674375 -0.1972247468 -0.8533645572
-0.01762030411 0.01058946896 -0.008807629585 0.8832552581 -0.4100511622 -0.2274163439
-0.004024596691 0.04270579529 -0.04042208481 -0.1845273563 0.01436343294 0.9827224158
0.01418048382 0.01486722279 -0.0008523262143 -0.3061903229 -0.2396988302 -0.9212990594
0.01673705482 0.01198262501 -0.02454439354 0.7995542432 0.5940928656 0.08812876536
0.01116335678 0.01514804268 0 -0.2943820917 -0.5122021984 -0.8068383308
-0.006781367302 0.01941443062 -0.006256754398 -0.3365942087 0.9416200123 -0.007489397685
0.001593075722 0.05270950699 -0.04011003685 0.05698588472 0.008449211248 0.9983392308
0.008185141563 0.01514435196 0 -0.02306766468 -0.05237265305 -0.9983611511
0.0008949922323 -0.006878950596 -0.06569300842 0.0495904513 -0.7393553305 -0.6714867701
0.009041002274 0.02542245865 -0.04209506607 0.4469961846 -0.0193211898 0.8943271787
-0.002683621168 -0.006811114311 -0.06549163818 -0.1185167319 -0.7351788894 -0.6674322324
-0.0008949922323 -0.00687895155 -0.06569300842 -0.08245939926 -0.7285136253 -0.680050252
-0.008185141563 0.01514435196 0 0.04591027043 -0.0558939346 -0.997380627
-0.01287573624 0.01607839203 -0.006778607368 0.5970678284 -0.8021233179 -0.01040150183
-0.01041871309 0.01514704895 0 0.3569931408 -0.4058747032 -0.8413213552
-0.01702202034 0.01160195446 -0.03105254936 0.8203431953 -0.559042977 -0.1204491254
-0.01265305901 0.01515031528 0 0.2549857149 -0.2470401433 -0.9348547763
0.009078164101 0.02112663174 -0.04211150742 0.4267073519 0.2219115777 0.8767417451
-0.01792827415 0.01007335663 -0.01517497826 0 0 1
0.01620399094 0.01264618969 -0.0123514986 0 0 1
-0.0008158289194 0.02766108322 -0.04004347992 -0.04600595181 -0.00396637412 0.9989332912
0.01114502716 0.01671720695 0 -0.2822124178 -0.513320126 -0.810468136
0.01555797768 0.04295622253 -0.04713409805 0.7666973334 0.002801553574 0.6420026092
0.009658186913 0.01671501732 0 -0.3500167332 -0.4604889043 -0.8157439889
-0.0136471796 0.05842305374 -0.0452085495 -0.6667036297 0.00255966426 0.7453185348
0.007428616285 0.01671235847 0 -0.1047293121 -0.4497213274 -0.8870076093
0.005199597359 0.01671032524 0 -0.1000821895 -0.1801782138 -0.9785291854
0.002689170837 -0.00540284729 -0.06693722534 -0.08236245949 0.719796628 0.6892816837
-0.01229823685 0.03344993591 -0.04410059357 -0.5807845157 -0.001333075845 0.8140562445
-0.002689170837 -0.005402846813 -0.06693722534 0.1033106468 0.7156667938 0.690758967
-0.004456728935 0.01670985603 0 0.128150842 -0.2858570053 -0.9496647483
-0.006685527325 0.01671157646 0 0.03803284706 -0.1899909029 -0.9810489077
-0.01824731827 0.009538684845 -0.02177129364 0 0 1
0.0185999279 0.008849473953 -0.02902406502 0 0 1
0.01646551514 0.01232414246 -0.01833476448 0 0 1
0.01460448265 0.0144950037 -0.01165341949 0.7055602573 0.6824722813 -0.1908305753
0.009654040337 0.01815176964 -0.0003923169971 0.3754289651 0.6511609625 0.659577511
0.01048691082 0.04719355011 -0.042912323 0.4929378231 -0.007156836521 0.870035104
0.01876241302 0.06060000229 -0.05225445938 0.7012800477 0.609064874 0.3704676422
0.005186824322 0.01905412579 0 -0.09017113426 -0.2020370631 -0.9752180226
0.001481854007 0.01905216932 0 0.06234724303 0.7674027439 0.638126829
-0.004445780993 0.01905359221 0 -0.1068906853 0.7937614276 0.5987630395
-0.0185999279 0.008849473953 -0.02902406502 0 0 1
0.01899524689 0.007958369732 -0.03711003494 0 0 1
0.008222836494 0.0188449173 -0.003094578743 -0.3685335541 -0.9128278794 -0.1758643856
0.01953729248 0.02223484421 -0.05411708069 0.9987410361 0.01789691384 0.04686195923
-0.01286880016 0.06060000229 -0.07312806702 0.3328753711 0.4394160348 0.8343305914
0.006689295769 0.01943583488 -0.001246004224 -0.1610924384 -0.8894485401 -0.427703777
0.01931033707 0.007614349365 -0.04369491577 0 0 1
0.007205091476 0.05082433701 -0.04135210419 0.3375630496 0.01163855832 0.9412309661
0.01326615334 0.01574327183 -0.01791391182 0.7055222447 0.6833942747 -0.1876449505
0.01156973553 0.01697987175 -0.0139880228 -0.5286276933 -0.8488180432 -0.007790465851
0.009927055359 0.01803181839 -0.0106483078 -0.4647464649 -0.8854281296 0.005267888347
0.006781367302 0.01941443062 -0.006256754398 0.3369379522 0.9414984637 -0.00731157677
0.005250254631 0.01988463211 -0.004763026714 -0.2884656212 -0.9574463272 -0.009171476776
-0.006452122688 0.04256349564 -0.04108602142 -0.3120617793 0.006643078486 0.9500385863
0.01535039902 0.05646022415 -0.04693462753 0.7526854089 0.001680968502 0.6583781965
-0.008338142395 0.01879681587 -0.008218529701 0.4149523414 -0.9097985938 0.009004064827
0.01007061195 0.01795802879 -0.01603699493 0.4580416404 0.8888717017 0.01024468419
-0.005323223591 0.01986925507 -0.009871518135 0.2575612504 -0.9660461392 -0.02042202651
0.009055872917 0.02370709038 -0.04210300827 0.4338171174 -0.006362102722 0.900978486
-0.009927055359 0.01803181839 -0.0106483078 0.4654797407 -0.8850413332 0.005518104708
0.005658815384 0.03927928543 -0.04080702209 0.3076745662 -0.0004763892102 0.9514915314
-0.01326615334 0.01574327183 -0.01791391182 -0.7055222447 0.6833942747 -0.1876449505
