# .PCD v0.7 - Point Cloud Data file format
VERSION 0.7
FIELDS x y z normal_x normal_y normal_z
SIZE 4 4 4 4 4 4
TYPE F F F F F F
COUNT 1 1 1 1 1 1
WIDTH 573
HEIGHT 1
VIEWPOINT 0 0 0 1 0 0 0
POINTS 573
DATA ascii
0.0136836586 -0.01023813248 -0.02003469467 0.7747652479 -0.6321857993 -0.008940117476
0.0078430686 -0.01320590782 -0.05167170715 0.4559834033 -0.8434602726 -0.2839963107
0.006282021046 -0.01585515213 -0.008477226019 0.3983337969 -0.9170687956 -0.01774853387
0.01122144127 -0.01188835716 -0.04806135178 0.6793000882 -0.7111542137 -0.1811382746
0.003161198735 -0.01675841236 -0.01063154411 0.1949560245 -0.9807960493 -0.005590906006
-0.01561876297 -0.00692416048 -0.02965032387 0.8415317686 0.5402030101 0.002233887597
-0.003948717833 -0.01662517357 -0.01031369209 -0.2240845753 -0.9745206309 0.009779721626
-0.01106156301 -0.01295574856 -0.01177113008 -0.6408437193 -0.7673590535 0.02189544328
0 -0.01705816269 -0.01134647846 -0.04861389743 -0.9987798958 0.008683818611
-0.008795642853 -0.01036231852 -0.05671801949 -0.5388042697 -0.7337352073 -0.4139113486
0.01755804062 -0.008994552612 0 0.7493571731 -0.4127563542 -0.5177798946
-0.002373679638 -0.01689165115 -0.01094939613 -0.1242546415 -0.9922469394 0.00260676989
0.007914858818 -0.01117055607 -0.05636254883 0.4454027679 -0.7885815497 -0.4239758411
-0.005509261608 -0.01613995552 -0.009156553268 -0.2457724788 -0.9690420734 0.02352336194
-0.01608319092 -0.0123062067 0 0.7363384812 0.4701872632 0.4865486396
0.01883799553 0.008235456467 -0.00168455267 -0.6069416567 -0.3143702857 -0.7299268106
0.01047898674 -0.01346787643 -0.01944269753 0.596462732 -0.8026072536 0.007335246889
0.009331957817 -0.01432754517 -0.03988773346 0.5793079684 -0.8145543492 -0.03005810979
0.00635380888 0.06060000229 -0.0419825325 -0.2300078164 -0.1815195003 -0.9561103887
0.008660561562 -0.0147042141 -0.009801322937 0.4753078606 -0.8798182423 0.001516010172
0.003194764733 -0.01675549507 -0.01475278234 0.1507943613 -0.9883445841 0.02088165907
-0.007128142357 -0.01553639412 -0.01180990791 -0.400076559 -0.9158082863 -0.03512733419
0.00779894352 -0.01405560017 -0.04894184875 0.445568681 -0.8699880636 -0.2111618331
0 0.02057009506 -0.0292050724 -0.01653273572 0.9998450615 0.006043318466
-0.008650790453 0.05666056633 -0.07527233505 -0.541393368 -0.02693023908 -0.8403380173
-0.01401853657 -0.01021483803 -0.00029462864 0.7566921039 0.4701697443 0.45426586
0.003215414047 0.01775177701 0 0.1571045911 0.8500146854 0.5027854235
0 0.01983169365 0 -0.0001307932331 0.8768998289 0.4806731456
0 0.05846706581 -0.0400568161 -0.006518837946 0.229452664 0.9732979912
-0.01654768689 -0.009544543584 0 0.7945831203 0.3847134407 0.4697161201
-0.01775909805 0.007768727144 0 0.6069416567 -0.3143702857 -0.7299268106
0.008704726219 0.01864389038 -0.02450882149 -0.4208841542 -0.9071071628 -0.003622691023
0.006478314519 0.03837596226 -0.04109255695 0.3209638986 -0.01086646877 0.9470290891
0.01315750504 -0.01087861919 -0.004610801697 0.7277603601 -0.6630664396 -0.1752362831
0.01174176025 -0.01242258549 -0.008382375717 0.7086196898 -0.7055904811 -0.0004563187983
0.01026510811 -0.01362227631 -0.0113133564 0.5904266451 -0.8070909955 0.0007083678937
0.008751003265 -0.01466106987 -0.013851264 0.5309484626 -0.8473394067 -0.01047186754
0.005626660824 -0.01611174393 -0.01739578819 0.4004012199 -0.9160320492 -0.02375179968
0.006999647617 -0.01292464352 -0.05345686531 0.4193828327 -0.8376639149 -0.3499102817
-0.01903966045 -0.006526635408 0 0.8241911424 0.2093550373 0.5261933382
0.004033347607 -0.01661388397 -0.01862266541 0.2476287772 -0.9687732726 0.01258312446
-0.008527037303 0.01984666697 -0.04156053543 -0.4935930283 0.6027276849 0.6269651188
0 -0.01706653023 -0.01972875595 -0.01529430149 -0.9998745848 0.004110839553
-0.01494136143 0.01434026289 -0.04170885277 0.731076986 -0.6414198371 -0.2326091854
0.01463330555 -0.008764873505 -0.003512837887 0.8175061289 -0.5158345826 -0.2561218707
-0.002424737692 -0.01689114952 -0.01930026817 -0.1471578255 -0.9891120466 -0.00139054726
-0.01235262299 -0.01180352306 -0.02859368324 0.7387162595 0.673878089 0.01366049693
-0.004830004215 -0.01636281395 -0.0180092268 -0.2579228991 -0.965942781 0.02074420267
0.009823249181 0.05941772715 -0.04256119537 -0.4468033751 -0.05513260941 -0.8929317664
-0.01315750504 -0.01087861919 -0.004610801697 -0.6573082397 -0.7144440485 -0.2398240595
-0.01592483521 0.0172204628 -0.04677238464 0.7759635199 -0.2887814165 -0.5607904326
0.01827672482 -0.006525884151 0 0.851182586 -0.2672530274 -0.4517344625
0.01328734398 -0.01074438095 -0.008407850266 0.7537854823 -0.6571203655 0.0005213815827
0.01185920525 -0.01230509377 -0.01226764107 0.6911207383 -0.7227191103 -0.005404876639
-0.0185999279 0.008849473953 -0.02902406502 0.8647217822 -0.5021747242 -0.008762749425
-0.002452205896 0.02593395042 -0.04015050888 -0.1238662223 0.001944342248 0.9922970213
0.01037095356 -0.01354586601 -0.01533646679 0.5872787629 -0.8093761205 -0.003734992035
-0.004813093662 0.04682479477 -0.04061033154 -0.2019256593 0.01121013398 0.9793366944
0.01575046968 0.008032194614 0 -0.4738290673 -0.296480233 -0.8292077462
-0.01482860565 0.0142831316 -0.01735704422 0.7088942414 -0.7053142201 -0.000897404492
0.008842817307 -0.01460895252 -0.01796585846 0.5014333671 -0.8651589728 -0.008033061985
0.01673705482 0.01198262501 -0.02454439354 0.8024812911 0.5966697713 0.002993568072
0.006483360767 -0.01578176689 -0.02086682796 0.4040171941 -0.914687065 0.01084803955
0.003264031887 -0.01674862576 -0.02325847816 0.1545626372 -0.9878277013 -0.017516387
0.005398291588 0.01985343742 -0.01512695408 -0.2565158972 -0.9665186635 -0.006423977341
0.003575865388 -0.006742208719 -0.06528707886 0.1930022201 -0.7462248301 -0.6371017548
0 -0.01706616592 -0.02404397392 -0.02998929368 -0.9994875974 -0.01118860966
0.003477396727 0.05630646324 -0.07728721619 0.2249962446 0.00445050129 -0.9743494665
-0.002451090336 -0.01689089203 -0.02361043739 -0.0841296806 -0.9964367738 0.005996057994
-0.004076973438 -0.01660635948 -0.02290651894 -0.2333883826 -0.9723489934 0.008203528125
0.01616899943 0.05878486919 -0.04799939156 0.7908768961 0.2205358114 0.5708569795
-0.005687236309 -0.01609718704 -0.02164707184 -0.3274524758 -0.94475435 0.01463195921
-0.01381847095 -0.010037714 -0.02400049591 0.7842323191 0.6204672837 -0.0001396847444
-0.007279485226 -0.01546634674 -0.02008658409 -0.4167093087 -0.9090343017 -0.003160768438
0.01823075581 -0.004067720652 0 0.7946022093 -0.1290662526 -0.5932530922
-0.008842817307 -0.01460895252 -0.01796585846 0.5106540503 0.8597631524 -0.006305764321
-0.01806424952 0.004836121082 0 0.3395179389 -0.1342182441 -0.9309742382
-0.01883799553 0.008235456467 -0.00168455267 0.6069416567 -0.3143702857 -0.7299268106
-0.01402928686 -0.009651769638 -0.007779533148 0.8372691665 0.5466596651 0.01198137477
0.01226798439 -0.007410838842 -0.05626529694 0.6354487274 -0.6770097498 -0.3712986852
-0.01463330555 -0.008764873505 -0.003512837887 0.8324180585 0.4705936018 0.2926120944
0.006085180283 -0.01450172615 -0.05014822006 0.3687653145 -0.8959432416 -0.2475840275
-0.01216701651 0.04445614052 -0.04401374817 -0.5790513465 -0.007037244898 0.8152607039
-0.01920608139 0.03821437073 -0.05316082382 0.8910878001 0.0006426025849 -0.4538304965
-0.002422683239 0.03858813095 -0.04015547752 -0.1219664469 -0.01241561943 0.9924565674
-0.01306798267 0.0159133749 -0.01226178265 0.6139538452 -0.7893089005 0.00722049931
-0.0167585144 -0.006583720684 -0.0001483429819 0.7856523964 0.2804502709 0.5514507753
-0.01140337467 0.01708785439 -0.008589399338 0.5465028895 -0.8372634204 0.01801545498
0.01477122974 -0.008559158325 -0.00715121603 0.8558722215 -0.5171304394 0.007671315546
-0.00478218025 0.05344098091 -0.04061048889 -0.2012498501 -0.0126299443 0.9794585149
-0.002387899756 0.05352143478 -0.04017056274 -0.1199192239 -0.01122043174 0.9927202434
0.01341817951 -0.01059180832 -0.01224066639 0.7600960198 -0.6498107495 -0.0001743844981
-0.009129968643 -0.01444375134 -0.030835186 -0.5123040924 -0.8588032902 0.001193982279
0.002689170837 -0.00540284729 -0.06693722534 -0.08160411348 0.735495532 0.6725972725
0.01197884655 -0.01218347549 -0.01622628975 0.7240981429 -0.6896958926 -0.001206318894
-0.01951868629 0.02313248825 -0.05406336403 0.9074001728 0.0008605497766 -0.4202668032
0.007357563972 -0.01543007469 -0.02435661316 0.4591167279 -0.8883647914 -0.004452808279
0.003505153418 -0.01400352097 -0.05385683823 0.2284016571 -0.9015189836 -0.3675543568
-0.01061613512 0.03456893158 -0.04296623421 -0.5398130656 0.01039926973 0.8417206837
0.005749119759 -0.01608231544 -0.0259901371 0.4017538691 -0.9155572808 -0.01867335524
-0.005637798786 0.01978964615 -0.03188956261 -0.2782544936 0.9604973032 -0.004400843045
0.003299734473 -0.01674304199 -0.027644907 0.157072212 -0.987565139 0.006589117383
-0.007285904408 0.01926276398 -0.03370186234 0.3429143751 -0.9393083946 0.01046284774
-0.01702618313 0.05859949684 -0.04910123253 0.813789892 -0.225374735 -0.5356792329
0 -0.01706579399 -0.02845324707 -0.0338168835 -0.9994120501 -0.005654430472
0.002961334705 0.0198324337 0 0.1002758089 0.8180005194 0.5664096683
0.01548833752 0.06060000229 -0.05207603836 0.7765191122 0.4032005846 0.4841976425
0.01389955997 0.01519680595 -0.03597861481 0.6587914936 0.7523255483 -0.0001932362613
-0.002478017569 -0.01689062691 -0.0280145607 -0.1288507815 -0.9916515166 -0.004974512922
-0.01412186098 0.02362897491 -0.0456126976 -0.6940234811 -0.003713385477 0.7199427883
-0.0147309556 0.01433993959 -0.03598391724 -0.7118565971 0.7009068794 0.04460640754
-0.01572943258 0.0318202467 -0.04730572891 0.737623569 -0.01152669083 -0.6751137725
-0.004935285568 -0.01633888626 -0.0266326952 -0.2627755184 -0.9648144427 0.009061904726
-0.01128890705 -0.01275001431 -0.01981979942 -0.6461130145 -0.7629561616 -0.02087745239
-0.01197884655 -0.01218347549 -0.01622628975 0.7130853443 0.7010401225 0.007213763157
-0.005248593569 -0.01376039362 -0.05319079399 -0.2973139964 -0.8903560138 -0.3447760959
0.00961392355 0.05310640907 -0.04243381119 0.4783333783 0.0005927099853 0.8781781299
-0.01341817951 -0.01059180832 -0.01224066639 0.7566661221 0.6537653493 -0.006873704916
0.01614364815 -0.005629497051 -0.003961904764 0.9153570593 -0.3223313694 -0.2412963786
0 0.03189161301 -0.04004330635 -0.03579248528 0.009751633012 0.9993116649
0.01491176033 -0.008349556923 -0.01085833454 0.866701057 -0.4986896576 0.01174321904
0.0121415782 -0.01009731388 -0.05074729538 0.6947528773 -0.6835349146 -0.2238268529
0.01355084515 -0.01042876244 -0.01613028145 0.7682459608 -0.6401515847 -0.002022936399
0 0.02056084251 -0.01280816936 0.0003308412534 -0.9997893351 0.02052257178
-0.009331957817 -0.01432754517 -0.03988773346 -0.5382746791 -0.8422219499 -0.03037362303
-0.006876057625 0.01939241791 -0.01141005421 0.356107781 -0.9344379082 0.003611643856
0.01210091019 -0.01205939579 -0.02026508331 0.7336783838 -0.6794967512 -0.0004406326339
-0.01082049227 0.01746601295 -0.0150218091 0.5198098588 -0.8542636611 -0.005595354099
-0.01042724323 0.05302274895 -0.0428874321 -0.5308493213 0.001358135705 0.8474651341
0.01812445116 0.0016168807 0 0 -0 -1
0.01058927822 -0.01338825703 -0.0236348114 0.6230201791 -0.781847718 0.0236643695
0.01702202034 0.01160195446 -0.03105254936 0.7981120201 0.6012838147 0.03840543778
0.009032212257 -0.01449999142 -0.02645400429 0.5515000292 -0.83414633 -0.006900576827
-0.005475674629 0.01983485413 -0.02054361725 -0.2523201423 0.9676437329 0.0003899177668
-0.008138410091 0.03486417007 -0.04171846104 -0.3931929594 0.01868546438 0.9192660932
0.003336212754 -0.01673683548 -0.03212656593 0.1594965388 -0.987187721 -0.004610591366
-0.01467495537 -0.007026053429 -0.04985996628 0.7815388493 0.592097714 0.1965129109
0 -0.01706541443 -0.03295985794 -0.03513400242 -0.9992526648 -0.0161156379
-0.002505521536 -0.0168893528 -0.03251337433 -0.1331438697 -0.9910934968 0.002527970267
0.01196681929 0.01670465088 -0.002434618115 -0.6304356719 -0.7172104053 -0.2969176622
-0.004166903973 -0.01658431816 -0.03173975754 -0.2594692405 -0.9657014135 0.00982309491
-0.007437302113 -0.01539259434 -0.02871756554 -0.3949917317 -0.9185883488 0.01330328011
-0.01140657616 -0.01265016079 -0.0239844799 -0.6739502119 -0.7387596403 0.005030477337
-0.002400908709 0.02043745804 -0.02966124535 -0.1011494877 0.9948559362 0.005517911384
-0.01355084515 -0.01042876244 -0.01613028145 0.7668058029 0.6418557518 -0.005482193624
-0.01966108131 0.006137075424 -0.01702143478 0 0 1
-0.01491176033 -0.008349556923 -0.01085833454 0.8991859872 0.4375294584 0.005703807246
-0.01131530905 0.01716420364 -0.03224792767 0.5652492707 -0.8244823223 0.0268730766
-0.01614364815 -0.005629497051 -0.003961904764 0.8805957807 0.3786271104 0.2849431211
0.01409622097 -0.009624794006 -0.03217115784 0.8111886924 -0.5847671866 0.004499193019
-0.01746974373 -0.00406725359 0 0.8135134896 0.1116542069 0.5707268527
-0.01899176788 -0.004068187714 0 0.7774826886 0.153097667 0.6099850599
-0.008644157887 -0.0137429347 -0.04809629059 -0.5333020016 -0.8253041791 -0.1856394007
-0.0173811512 0.0381564846 -0.04958073425 0.8424749041 0.007174629531 -0.5386878137
0.01818505096 -0.001623641089 0 0.7854745766 -0.187010522 -0.5899633499
0.02044595909 -0.0008110892177 0 0 0 -1
0.01576590919 -0.006602873325 -0.03357084274 0.8788825432 -0.4770002483 -0.006019837402
0 -0.009567088127 -0.06249800491 -0.01972487716 -0.7975258817 -0.6029621855
0.01626941681 -0.005188227177 -0.007066958427 0.9155229254 -0.4022543435 -0.003035823805
0.01505218601 -0.008111520767 -0.01457358646 0.8758821143 -0.4824930805 0.0055631998
-0.002670320749 -0.009495427132 -0.06229102325 -0.1955243869 -0.787502726 -0.5844738408
-0.01970297241 -0.001623927683 0 -0.02082336486 0.004444306454 -0.9997732921
0.01222547436 -0.01193277264 -0.02438663673 0.7187967037 -0.6952170394 -0.002137023414
0.01586423969 0.02313364506 -0.04746707726 0.7472920741 0.02720720737 0.663938494
0.0107019062 -0.01330695057 -0.02791569901 0.6085439038 -0.7931902397 0.02288144906
-0.01575046968 0.008032194614 0 0.4738229227 -0.2965261745 -0.8291948298
-0.009927055359 0.01803181839 -0.0106483078 0.5005836685 -0.8656220746 0.01069648763
0.009787986517 0.03467722797 -0.04250896931 0.4872619128 0.01682650122 0.8730937505
0.009129968643 -0.01444375134 -0.030835186 0.5582950938 -0.8295467562 -0.012600298
0.003466261506 -0.01572073412 -0.04844476891 0.2238603026 -0.9452999763 -0.237264662
0.007518779278 -0.01535429668 -0.03317364883 0.4186260275 -0.9081570143 -0.001756835249
0.003373473644 -0.01672918606 -0.03670471573 0.1605881485 -0.9870171528 0.002930287051
0.008338142395 0.01879681587 -0.008218529701 -0.3987815121 -0.9169911835 -0.0100237167
0 -0.01706502533 -0.03756724548 -0.0342507681 -0.9993081148 -0.0144974704
-0.002533610344 -0.01688640976 -0.03710851669 -0.1294974942 -0.99151015 -0.01174824988
-0.008456789017 0.01874732208 -0.01349097729 0.4074811764 -0.913211483 0.001969292243
0.003206104755 0.02031393147 -0.03008623219 -0.1617174632 -0.9868344294 -0.002295882183
-0.005045164824 -0.01631177425 -0.03563268661 -0.2595669401 -0.9657245186 0.001075992867
-0.01070073032 -0.01329190445 -0.02787706947 -0.6512971024 -0.7585707314 0.01955837135
0.01069489384 0.01758999443 -0.03945269775 -0.5284357655 -0.7942998138 -0.2997389658
-0.0136836586 -0.01023813248 -0.02003469467 0.7883200999 0.6151335122 0.01273508233
-0.01505218601 -0.008111520767 -0.01457358646 0.8865761058 0.4623553812 0.0145020736
-0.01245622253 0.01816960716 -0.04343003464 0.6982958979 -0.418349804 -0.5808324031
-0.01627077484 -0.005198983192 -0.007094573975 0.9038725607 0.4277538868 0.006403619429
0.01191801357 0.01436223936 0 -0.3311309451 -0.3759691098 -0.8654475869
-0.01792673937 -0.001352599402 0 -0.02082336486 0.004444306454 -0.9997732921
-0.007747112751 -0.01474919033 -0.04585154343 -0.4493749621 -0.8809331852 -0.1483875555
0.01639112473 -0.004692883492 -0.01009790134 0.927284591 -0.3743515042 -0.002058786931
0.01519037914 -0.00782663393 -0.01824913597 0.8830747377 -0.4692314468 0.0009256773667
0.01748752594 0.03209047699 -0.04974743652 0.8675411057 -0.003410432326 0.4973537965
0.01381847095 -0.010037714 -0.02400049591 0.7843816181 -0.6202244495 -0.008192037512
0.009645260096 0.04978446484 -0.04244560623 0.4815438391 0.01451984481 0.8763017204
-0.009723721981 -0.007723541498 -0.05988190842 0.5343685818 0.7034115756 0.4686815274
-0.01054697561 0.04132549477 -0.04293738365 -0.5312002114 -0.004306266941 0.8472353814
0.01235262299 -0.01180352306 -0.02859368324 0.7386384312 -0.6740611886 -0.007401480048
0.01081694889 -0.01322390079 -0.03228837585 0.6248191934 -0.7807459746 0.0060579396
0.005182574749 0.0198339138 0 0.1794309988 0.916954102 0.3563701607
0.01008217478 -0.01376266575 -0.03603398895 0.5622921356 -0.8269386064 -0.0003089654489
-0.01142680073 -0.007794190407 -0.05737409592 0.6349061945 0.6727685718 0.3798375613
0.00677246666 -0.0156730423 -0.03865914536 0.4177872865 -0.9080292405 -0.03060525519
0.003410387516 -0.01666933823 -0.04125077057 0.1733915886 -0.9830087434 -0.06024257096
-0.002642706394 -0.01305995846 -0.05641306305 -0.111893208 -0.8893619473 -0.4433003911
0.01646551514 0.01232414246 -0.01833476448 0.7881248916 0.6154493384 0.009014829892
-0.002430495501 0.03523410988 -0.04015209007 -0.1229610706 -0.01502978607 0.9922976774
0 -0.01697693443 -0.04205091858 -0.03481889476 -0.9965981752 -0.0746975357
-0.005942876339 -0.01603093147 -0.03959010315 -0.3658290336 -0.9303945007 -0.02313420315
-0.004840369225 0.04099549866 -0.04061289024 -0.2011603878 0.002430995631 0.9795553015
-0.00760205698 -0.01531515312 -0.03772818756 -0.4253589613 -0.9049172616 -0.01394645985
0.01114502716 0.01671720695 0 0.4786879207 0.7174178843 0.5061318542
-0.01292949486 -0.01007261848 -0.04811816406 0.7121207656 0.6775050517 0.1840405392
-0.009229859352 -0.01438628292 -0.0353119812 -0.5375083983 -0.8431778996 -0.01165124378
-0.01164932919 -0.01244309616 -0.0325766716 -0.6777002489 -0.7353322653 -0.002971902542
-0.002683621168 -0.006811114311 -0.06549163818 0.1631464338 0.7257943328 0.668285738
-0.01146205139 -0.006550004959 -0.0591794548 0.6101919548 0.6617100859 0.4356667768
-0.01519037914 -0.00782663393 -0.01824913597 0.8928434327 0.4496167854 -0.0259875138
-0.0163948822 -0.004722289085 -0.01017438412 0.9140783234 0.4053234643 -0.0131798314
0.01533113098 -0.007536473274 -0.02199272919 0.8921522642 -0.4516940766 0.00606619329
0.01395596218 -0.009833310127 -0.02804513741 0.8024028685 -0.5967721624 0.003552860072
0 0.02057052422 -0.02356698227 0.007949060684 -0.9999377234 -0.007833380485
0.0124824419 -0.01167155933 -0.03288907623 0.7102712485 -0.7039259534 -0.001733675245
0.007682565689 -0.015191432 -0.04216408157 0.4328085797 -0.897420578 -0.08551631097
-0.002662112951 -0.01074577522 -0.06047098923 -0.1646436277 -0.8383188362 -0.5197249318
0.006873908281 -0.01526859236 -0.04479377174 0.4173988482 -0.9026547499 -0.1048456197
0 0.04112018967 -0.04004292297 -0.039831844 -0.0006265159687 0.9992062008
0.003441250086 -0.01632695293 -0.04515611458 0.2096122882 -0.9680972861 -0.1372965157
0 -0.01659080124 -0.0458513298 -0.03101311357 -0.9898167086 -0.1389282911
0.01138559723 -0.008958453178 -0.05537465286 -0.6195410784 0.6931869704 0.3683214306
-0.01274287033 -0.01131882095 -0.04153965378 0.7240691862 0.6888493552 0.03479050814
-0.002583956242 -0.01645965004 -0.04550576019 -0.1973634907 -0.9682786882 -0.1532450144
0.01770270538 0.01980244255 -0.05007794952 0.8628336657 0.1187147793 0.4913500447
-0.005149623871 -0.01599112511 -0.04427123451 -0.2790217654 -0.9516929673 -0.1281692256
-0.007682565689 -0.015191432 -0.04216408157 -0.4296349968 -0.9000098949 -0.07345718835
0.01286880016 0.06060000229 -0.07312806702 0.5874826329 -0.3046103004 -0.7497177608
-0.01093422031 -0.01313567543 -0.03674710846 -0.6504523111 -0.7593031748 0.01924784908
0.01792827415 0.01007335663 -0.01517497826 0.8599972809 0.5102978087 0.0009073255795
-0.01395596218 -0.009833310127 -0.02804513741 0.7928046317 0.6094675749 -0.003176643631
-0.01368120861 0.05592391014 -0.04523568535 -0.6866324098 0.01815365885 0.7267780807
0.01591433048 0.01965681458 -0.04743186378 0.7512838471 0.1367798149 0.6456499541
-0.01533113098 -0.007536473274 -0.02199272919 0.9240108334 0.3823003017 -0.007103463575
-0.0165208931 -0.004238276005 -0.01330147839 0.9327524442 0.3603705279 0.01029371159
-0.01812445116 0.0016168807 0 0 -0 -1
-0.0203948555 0.001617465019 0 0 0 -1
0.01591058159 -0.006232238293 -0.03744636917 0.8894409524 -0.4569292648 -0.01050900488
0.00963918972 -0.01068013477 -0.05498267746 0.5783228319 -0.7343390795 -0.355371381
0.01664268303 -0.003699503183 -0.01635089302 0.9421236491 -0.3351414295 -0.009124262045
0.003231758595 0.03855822277 -0.0402876215 0.1338046087 -0.003905147221 0.9910000386
-0.01946297646 0.02582026672 -0.05390251923 0.9055744802 -0.0002334936778 -0.4241872302
0.01547435188 -0.007239475727 -0.02580266953 0.8899703102 -0.4528728031 0.05347028384
0.01261431503 -0.01152922821 -0.03725560379 0.720976901 -0.6929162811 -0.007702966098
0.01105047226 -0.01300110912 -0.04118508911 0.6282474975 -0.7770136371 -0.03943209002
-0.01388729954 0.04078840065 -0.04540003777 -0.6743069979 0.01653651333 0.7382659523
0.009419603348 -0.01402291965 -0.04391284943 0.5746566617 -0.8103014928 -0.1148094591
0.01274287033 -0.01131882095 -0.04153965378 0.723262698 -0.6897857009 -0.03296598911
-0.005329617023 -0.009232943535 -0.06153273582 -0.2825451486 -0.7848841776 -0.5514753546
0.00604678154 -0.01524434376 -0.04717321014 0.3838781093 -0.9040570479 -0.1879320392
0.008968810081 0.01852436066 -0.03624063873 -0.4568456715 -0.8887178739 -0.03837411942
0 -0.01594070625 -0.04903188705 -0.0314834784 -0.9709224595 -0.2373149136
-0.002602382421 -0.0158377037 -0.04875697708 -0.1743490613 -0.9550132587 -0.2399001471
-0.008165021777 0.03147710085 -0.04172962856 -0.3921907649 0.01806524239 0.9197065026
-0.005188461065 -0.01542405415 -0.04765288544 -0.294184113 -0.9354222564 -0.1960635353
-0.009419603348 -0.01402291965 -0.04391284943 -0.536871588 -0.8373567866 -0.1029684903
-0.01105047226 -0.01300110912 -0.04118508911 -0.6440059679 -0.7638265319 -0.04272402659
-0.01261431503 -0.01152922821 -0.03725560379 0.7143125837 0.6998261716 -0.000928605783
-0.01409622097 -0.009624794006 -0.03217115784 0.8233472426 0.5675332124 -0.002317517222
0.01458884811 0.06060000229 -0.07320671082 0.5773547218 -0.3881001455 -0.718359104
-0.01923317719 0.00725427103 -0.009058169365 0 0 1
-0.01664886093 -0.003746755362 -0.01647707558 0.9407279468 0.3390100896 0.01015328592
0.01806424952 0.004836121082 0 -0.3395179389 -0.1342182441 -0.9309742382
0.008929605484 0.01514520359 0 -0.3397235821 -0.552495931 -0.7611413364
0.01677138901 -0.003191256285 -0.01955013657 0.9491514441 -0.3146552496 -0.01017890736
0.01495005083 0.01120887685 0 -0.4729208881 -0.3429143876 -0.811637577
0.01561876297 -0.00692416048 -0.02965032387 0.8415317686 -0.5402030101 -0.002233887597
0.006060646772 0.05912584877 -0.0765519371 0.4245051329 0.01947920494 -0.9052159702
0.01423933506 -0.009412032127 -0.03638119507 0.8434911367 -0.5371425742 -0.0007466008331
0.0185999279 0.008849473953 -0.02902406502 0.8340219271 0.5516585723 -0.008957946623
-0.0155972681 0.04040022087 -0.04717185402 0.7354637475 -0.006286600262 -0.6775349103
0.01011605358 0.02925585492 -0.0426851031 0.5029643772 -0.01835921813 0.8641121307
0.009489372253 -0.01343026924 -0.04725073242 0.5700020544 -0.8024396019 -0.1766022179
-0.01732100201 0.04160019302 -0.04949170876 0.8287988895 0.005688233222 -0.5595176894
-0.01940752792 0.02849538803 -0.05374243355 0.9026217362 0.003678207606 -0.4304189496
0.007411494573 -0.007160078367 -0.06280789566 -0.4195706958 0.72217158 0.5499351237
0.003487193227 -0.0149299531 -0.05130614662 0.2249043574 -0.9242305323 -0.3085708235
0 -0.01512897396 -0.05184426498 -0.03444123058 -0.9475809727 -0.31765406
-0.002617830038 -0.01503495884 -0.05159007645 -0.1603157625 -0.9382093996 -0.3066952538
0.006552428842 0.02653297043 -0.04111314392 0.3290217572 0.0001355884866 0.9443223311
-0.005220868349 -0.01466333675 -0.05058521843 -0.2873219394 -0.9196733104 -0.2676697691
0.01007061195 0.01795802879 -0.01603699493 -0.4735517799 -0.8807344965 -0.007447045303
-0.01114577484 -0.01257706261 -0.04494315338 -0.654520222 -0.7490720327 -0.1024420267
-0.01423933506 -0.009412032127 -0.03638119507 0.8139867327 0.5807375198 -0.01302045311
0.008222836494 0.0188449173 -0.003094578743 -0.3504680024 -0.8991989515 -0.2619416441
0.01289693165 0.05270487595 -0.04460898495 0.6164836087 0.01572003682 0.7872107981
-0.0167753582 -0.003221269846 -0.01963136292 0.948470515 0.3165982564 0.01300870014
-0.01733443069 0.01109481812 -0.03815324402 0.8280866905 -0.5595764081 -0.03386261115
0.0194337883 0.008458031654 -0.04664858627 0.9015410355 0.3646349485 0.2329487405
-0.002403287768 0.04691500092 -0.04016388893 -0.1219988569 0.01223067438 0.9924548803
0.01438306522 -0.009173337936 -0.04061890411 0.8299007649 -0.5575353844 -0.02046987173
0 -0.00756545949 -0.0649295063 -0.03072357336 -0.7591820371 -0.6501528256
0.01284724522 -0.01082320881 -0.0451419487 0.7309629427 -0.6737779465 -0.1082425758
0.009547315598 -0.01264500332 -0.05013483047 0.5637699166 -0.7929729472 -0.2309921777
-0.01586958981 0.01444714737 -0.04428721237 0.7370819787 -0.516235514 -0.436131919
0 -0.01419386101 -0.05437825394 -0.004095014104 -0.9222257038 -0.3866302913
-0.002631109715 -0.01409935856 -0.05411937714 -0.1516365472 -0.9122754756 -0.3804731452
0.00958270359 0.0564169054 -0.04242246056 0.4560344883 0.02682931687 0.8895576053
0.01572943258 0.0318202467 -0.04730572891 0.7490555552 0.01259418135 0.6623874711
0 0.02596191406 -0.0400435524 -0.03900910573 0.00361949884 0.9992322998
-0.008695192099 -0.01292545557 -0.05090326881 -0.5384633812 -0.8071099663 -0.2421377489
-0.01122144127 -0.01188835716 -0.04806135178 -0.6724739202 -0.7194051214 -0.1738824257
0 0.02340514565 -0.0400436573 -0.03548061155 0.3214080719 0.9462758464
-0.01284724522 -0.01082320881 -0.0451419487 0.7184679383 0.6852981726 0.1190388016
0.01292949486 -0.01007261848 -0.04811816406 0.7269066749 -0.6602565187 -0.1888597772
-0.01576590919 -0.006602873325 -0.03357084274 0.8788825432 0.4770002483 0.006019837402
0.01586958981 0.01444714737 -0.04428721237 -0.737081974 -0.5162355834 -0.4361318449
-0.01689141273 -0.002595083952 -0.02258023643 0.953298308 0.3020161495 0.002929399419
0.01775909805 0.007768727144 0 -0.6069416567 -0.3143702857 -0.7299268106
0.009676426888 -0.009554080963 -0.05707349014 0.5616362712 -0.7246408744 -0.3993248076
0.01711403847 0.05353370285 -0.04921759605 0.8460502092 -0.002055742963 0.5330992566
0.009596592903 -0.01171760845 -0.05268667221 0.5765633569 -0.7645591892 -0.2881387542
0.006159082413 -0.01206624317 -0.0562582798 0.3718228012 -0.8272820994 -0.4211319657
0.003819341024 -0.01257220713 -0.05679797363 0.2171216877 -0.8683706016 -0.4458594745
0 -0.01314695072 -0.0566545105 -0.006176189434 -0.8913201829 -0.4533323132
-0.00873894906 -0.01197689581 -0.05340655708 -0.5374868568 -0.7854090962 -0.3069860427
-0.01128438663 -0.01102591133 -0.05076592636 0.6895185985 0.6894121229 0.2219797898
-0.01702202034 0.01160195446 -0.03105254936 0.7911118926 -0.5850527335 -0.178480454
-0.01450361824 -0.008691405296 -0.0442808609 0.8171261355 0.5699318181 0.08650203184
-0.01721013451 0.01042009258 0 0.4738229227 -0.2965261745 -0.8291948298
-0.01591058159 -0.006232238293 -0.03744636917 0.8894409524 0.4569292648 0.01050900488
0.01605073738 -0.005796444416 -0.04123019028 0.8946595979 -0.4461246205 -0.02360141712
0.01459769535 -0.007944095135 -0.04728038406 0.7808475474 -0.600717875 -0.171508432
0.01133851528 -0.01004116344 -0.05318453598 0.6530755074 -0.7038661513 -0.2794008278
0.002652963638 -0.01193739319 -0.05851945496 0.1461230277 -0.8602391978 -0.4885044354
0.01174137878 0.01686619377 -0.01955724907 -0.5604970319 -0.8280642927 0.0123533152
0 -0.0120182662 -0.05874689484 -0.0314698171 -0.8639071268 -0.5026670138
-0.002652963638 -0.01193739319 -0.05851945496 -0.1583330551 -0.8532973721 -0.4968040242
0.01772071838 0.01731168079 -0.04954716873 0.8792757613 0.1014188893 0.465390529
-0.00963918972 -0.01068013477 -0.05498267746 -0.5628305417 -0.7500102235 -0.3474283322
0.009540230433 0.03160299492 -0.04237064616 0.484547589 0.02030369795 0.8745292413
-0.01133851528 -0.01004116344 -0.05318453598 0.6801120435 0.6792113957 0.2758976045
-0.01299876976 -0.009168716431 -0.0507286644 0.7031849841 0.6711164883 0.2348053178
-0.01210702324 0.04948807335 -0.04397404099 -0.5919926623 0.01001738886 0.8058810953
-0.01459769535 -0.007944095135 -0.04728038406 0.7760023494 0.6070151972 0.1713268925
-0.01605073738 -0.005796444416 -0.04123019028 0.8946595979 0.4461246205 0.02360141712
0.01923317719 0.00725427103 -0.009058169365 0 0 1
0.01721013451 0.01042009258 0 -0.4738290673 -0.296480233 -0.8292077462
-0.01449241018 0.05852429581 -0.06963165665 0.7870487229 0.3725455902 0.4916951199
0.01467495537 -0.007026053429 -0.04985996628 0.7774186924 -0.6014930389 -0.183919278
-0.005343976736 -0.007923789263 -0.06320491791 0.2829553014 0.754414003 0.5922801781
-0.01962120438 0.01697139549 -0.05389522934 0.9094249661 -0.100695132 -0.4034931492
0.01305800629 -0.008145926476 -0.05305634689 0.7255675719 -0.6377548028 -0.2584966344
-0.01474529648 0.01662020206 -0.04480234146 0.7254113394 -0.423787119 -0.5423862705
0.007369109313 -0.009719411214 -0.05933089574 0.4282348886 -0.7694469391 -0.4738842561
0 -0.0108216114 -0.06068711853 -0.01717296916 -0.8335285835 -0.5522093713
-0.01347053337 0.01556783962 -0.0237431488 0.6735266384 -0.7387114231 0.02583216304
-0.005312924862 -0.01047322226 -0.05969415665 -0.2955943847 -0.8062716083 -0.512396383
-0.007956686735 -0.009401787281 -0.05931823921 -0.4386325699 -0.7678428966 -0.4669247849
0.01581011915 0.02662103653 -0.04740229988 0.745798871 -0.0157211609 0.6659856524
-0.01138559723 -0.008958453178 -0.05537465286 0.6367174652 0.6854699504 0.3531597606
-0.01305800629 -0.008145926476 -0.05305634689 0.7156357508 0.6519396187 0.250679488
-0.01449381065 0.01458525467 -0.029625453 -0.6888947728 0.7248565395 -0.002643701548
-0.01495005083 0.01120887685 0 0.4729391117 -0.342975829 -0.8116009964
-0.01756702042 0.06060000229 -0.06249320984 0.009645659925 0.9868892262 -0.1611105719
0.01966108131 0.006137075424 -0.01702143478 0 0 1
-0.01931033707 0.007614349365 -0.04369491196 0.9005987848 -0.3922681187 -0.187209914
0.01732283211 0.01108799171 -0.002657299995 0.66735238 0.6165336874 0.4177643035
0.003567524314 -0.008108037949 -0.063744524 0.1790055214 -0.7595142924 -0.6253759372
0.01468443457 0.01389987246 -0.0006050755779 0.6424402827 0.6012777148 0.4751163992
-0.01286778545 0.05726316071 -0.07182029724 -0.6096654734 -0.3306456099 -0.7204037002
0.01269480038 0.01199764252 0 -0.4132107088 -0.3853069652 -0.8251032982
-0.005722604275 0.01976599693 -0.03782452774 0.3266365243 -0.9005602917 -0.2868793159
0.009723721981 -0.007723541498 -0.05988190842 0.5507834742 -0.6815942197 -0.4817332084
-0.005356773376 -0.006567107677 -0.06476720428 0.2265605272 0.7177994677 0.6583572371
0.01306798267 0.0159133749 -0.01226178265 -0.5962849162 -0.802719668 0.009243009103
0.00621343708 -0.009116006851 -0.06119487381 0.3613566821 -0.7697968318 -0.5261503455
0.003558058858 -0.009422653675 -0.06208081245 0.2025166996 -0.7916022235 -0.5765005691
-0.01310916805 -0.007027487278 -0.05515649796 0.7046449501 0.6332000937 0.3202079569
-0.01269480038 0.01199764252 0 0.4134352575 -0.3856465365 -0.8248321264
-0.01732283211 0.01108799171 -0.002657299995 0.6830791811 -0.6353143942 -0.360247766
0.003071412563 0.02032421017 -0.01358379889 -0.197535948 -0.980293786 0.001908520305
-0.00555552721 0.01981258583 -0.02613193893 -0.2672345559 0.9636237212 -0.003875052864
0.01762030411 0.01058946896 -0.008807629585 0.8475494907 0.5306759565 0.006549041666
0.01146205139 -0.006550004959 -0.0591794548 0.5775403989 -0.6750389287 -0.4590964304
-0.01924748039 0.06060000229 -0.06259381866 0.009645659925 0.9868892262 -0.1611105719
-0.002677435637 -0.008180558205 -0.06395689774 -0.1917201552 -0.7589149802 -0.6223274338
-0.008002071619 -0.006834087133 -0.06277300262 0.4111461537 0.7071179329 0.5752765155
-0.01191801357 0.01436223936 0 0.331653243 -0.376509588 -0.8650125182
0.01962289619 0.01455261469 -0.05300740814 0.9091807455 0.161409262 0.3838455706
-0.01744183636 0.034695961 -0.04967583466 0.8364998705 -0.00474548317 -0.5479465732
-0.01762030411 0.01058946896 -0.008807629585 0.8362979748 -0.548091566 -0.01418917124
0.01769640732 0.01428646469 -0.04782398987 0.8751212487 0.2619646642 0.4068627714
0.01517026567 0.01381933498 -0.006369799376 0.7244684372 0.6891878176 0.01286995317
0.006245437145 -0.006460912228 -0.06445189667 -0.3684301129 0.7026433349 0.6087294931
0 0.01827228928 0 -9.026609807e-05 0.7871862704 0.6167153051
-0.008929605484 0.01514520359 0 0.3400422895 -0.5527409735 -0.7608210417
0.00593769145 0.01749298573 0 0.2323812534 0.8479406716 0.4764405214
-0.01595198345 0.01294943237 -0.006583307266 0.7588084135 -0.6511682363 -0.01377387739
-0.002458183885 0.02337620258 -0.04015127754 -0.05601032432 -0.2875856512 -0.9561157549
-0.01792827415 0.01007335663 -0.01517497826 0.8629530788 -0.5040647219 0.03508190265
0.01824731827 0.009538684845 -0.02177129364 0.8191406869 0.5735698326 -0.005116857547
0.003029098749 0.0203260355 -0.008397518158 -0.1938868829 -0.9810017413 0.006592442214
0.01605016708 0.05995854568 -0.06633167267 0.7379972799 0.4177603785 -0.5299398843
0.01540423679 0.01357059669 -0.01200245905 0.7464510829 0.6653593546 -0.01037835233
0.008910560131 0.01746433449 -9.807924926e-05 0.3983381492 0.7754300531 0.4899336197
-0.01903093147 0.04690951157 -0.05274871826 0.8823770182 -0.002187091734 -0.4705380053
0 0.02056965065 -0.03501424026 -0.06806367067 0.9908590863 0.1164714892
0 -0.005467708588 -0.06713243866 0.02243174693 0.7584374054 0.6513597461
-0.002689170837 -0.005402846813 -0.06693722534 0.09425044551 0.7326507677 0.6740472581
0.01156973553 0.01697987175 -0.0139880228 -0.5531603829 -0.8330694293 -0.002986097839
-0.003215414047 0.01775177701 0 -0.1571055826 0.8503750547 0.5021753701
0.01482860565 0.0142831316 -0.01735704422 0.7265288624 0.6869689316 0.01514922529
-0.005182574749 0.0198339138 0 -0.1793747857 0.9170480997 0.3561565234
-0.00593769145 0.01749298573 0 -0.2323046789 0.8481095457 0.4761772094
-0.008910560131 0.01746433449 -9.807924926e-05 -0.3984293741 0.7754227527 0.4898709917
0.01899524689 0.007958369732 -0.03711003494 0 0 1
0.003252664864 0.03183297205 -0.04028264236 0.1282972084 0.01379443397 0.9916398237
-0.01114502716 0.01671720695 0 -0.4787802535 0.7174220296 0.5060386352
-0.01196693182 0.01670362854 -0.002437747777 0.6183385523 -0.7232221451 -0.3075827751
-0.01915226269 0.04083768463 -0.05301567841 0.8882114956 0.003207190322 -0.4594236095
-0.01620546341 0.01263610744 -0.01238202667 0.7762757793 -0.6303636818 0.006127249002
-0.01824731827 0.009538684845 -0.02177129364 0.8189658309 -0.5738261664 0.00430100159
0.0038971982 0.02020093346 -0.01932446098 -0.2015448477 -0.9794251733 0.01029583852
0.01287573624 0.01607839203 -0.006778607368 -0.5841255556 -0.8116548723 -0.003701833276
-0.01206720448 0.05282728195 -0.04394745064 -0.5824490468 0.01630130342 0.8127037439
-0.01287573624 0.01607839203 -0.006778607368 0.6055438377 -0.7958034708 -0.003673746109
0.01530619431 0.01378369427 -0.02949272156 0.7709919618 0.6353191106 -0.04405703665
-0.01460448265 0.0144950037 -0.01165341949 0.6855076137 -0.7280563248 -0.00364683737
-0.01646723366 0.01231253242 -0.01837043953 0.7881400934 -0.6154264512 -0.00924534097
0.01140298939 0.01709145355 -0.008578175545 -0.547139465 -0.8369645979 -0.01134318343
-0.005182119846 0.02636001523 -0.04068912252 -0.254492946 0.008683192817 0.967035647
0.009788453102 0.01809435844 -0.005442243576 0.4780946062 0.87657435 0.05516299916
0.006689295769 0.01943583488 -0.001246004224 -0.3643942516 -0.8696573512 -0.3330359153
-0.006689295769 0.01943583488 -0.001246004224 0.3642605757 -0.8697694811 -0.332889295
-0.01549277687 0.04719785881 -0.04707144547 0.7274182347 0.01227974504 -0.6860844844
-0.008222836494 0.0188449173 -0.003094578743 0.3503904792 -0.8992398557 -0.2619049332
0.0129123853 0.02934414991 -0.04459859212 0.6266910946 0.003865749233 0.7792581908
-0.009788453102 0.01809435844 -0.005442243576 0.508214274 -0.8595634889 -0.05356174297
-0.002411023617 0.04359386063 -0.04016053391 -0.1213129672 0.01423364638 0.9925122505
-0.01673772049 0.01197818279 -0.02455825043 0.7938594291 -0.6075584202 0.02568993863
-0.01899524689 0.007958369732 -0.03711003494 0 0 1
0.01931033707 0.007614349365 -0.04369491577 0.9005988315 0.3922679652 0.1872100109
0.009921385527 0.01940228415 -0.04212437057 -0.5389825881 -0.4076191849 -0.7371189659
0.0150617466 0.01405058098 -0.023285532 0.7388539736 0.6736965234 -0.01509304762
0.01326615334 0.01574327183 -0.01791391182 -0.6234393136 -0.781841588 0.006866847882
0.009927055359 0.01803181839 -0.0106483078 -0.4658066963 -0.8848619932 -0.006585939099
0.0128542788 0.05603983498 -0.04457567215 0.6320959308 0.01443029502 0.7747557685
0.006015810966 0.01964953136 -0.005509890556 -0.3109379833 -0.9479705981 -0.06833239159
-0.002382155418 0.05598758316 -0.04017305374 -0.1057852768 0.1600108112 0.9814305964
0.002987974405 0.02032733059 -0.003356409431 -0.1141649633 -0.9745239583 -0.1930528838
0 0.02054623032 -0.002660873413 9.918250883e-05 -0.9648951696 -0.2626353021
-0.002988030672 0.0203254385 -0.00336240232 0.1143596026 -0.9745881778 -0.1926129927
-0.007776207209 0.01903306866 -0.01781548023 0.3456841921 -0.9383509148 -5.046320953e-06
-0.01408614731 0.02623012543 -0.04557592773 -0.6863242135 -0.002602774803 0.7272910693
-0.006015810966 0.01964953136 -0.005509890556 0.310411262 -0.94815098 -0.06822439081
-0.01046129513 0.0496960392 -0.04290163803 -0.5324393653 0.01184069609 0.8463853261
-0.008338142395 0.01879681587 -0.008218529701 0.3986818589 -0.9170356703 -0.009917398701
0.01228576279 0.01653134537 -0.03723036575 -0.6172109342 -0.7853015814 -0.04849834017
0.003159883857 0.02031745815 -0.02442336464 -0.1620989831 -0.9867180419 0.0105558311
-0.01326615334 0.01574327183 -0.01791391182 -0.6649198169 0.7469020203 0.004359946508
0.01733443069 0.01109481812 -0.03815324402 0.8211089231 0.5694339837 0.03905220421
0.008456789017 0.01874732208 -0.01349097729 -0.4083635148 -0.9127609739 -0.01032687568
0.006876057625 0.01939241791 -0.01141005421 -0.3662971669 -0.9304791644 -0.005908484761
0.01759481716 0.02597225475 -0.04991557503 0.8485867957 0.007690315181 0.5290002922
0.005323223591 0.01986925507 -0.009871518135 -0.2542808446 -0.9669802987 -0.01703977712
-0.005323223591 0.01986925507 -0.009871518135 0.2539088949 -0.9670810254 -0.0168690081
0.0173811512 0.0381564846 -0.04958073425 0.8598996219 -0.00274247852 0.5104557954
0 0.02055343437 -0.007663716793 0.0002024892778 -0.9997956281 0.02021536851
-0.007889493704 0.0189915657 -0.02335146618 0.3516745646 -0.9361198114 0.002167797434
-0.0179434576 0.06060000229 -0.05220771408 0.7338445996 -0.4184113924 -0.5351672732
-0.008046194673 0.04660785294 -0.04168198013 -0.3887682524 0.01688385915 0.9211808624
-0.003029239058 0.0203212986 -0.008412742615 0.193723098 -0.9810336371 0.006660646116
-0.003897424698 0.02019492531 -0.01934438705 0.1971249728 -0.9803497449 0.007491509228
-0.0194337883 0.008458031654 -0.04664858627 0.901540997 -0.3646350775 -0.2329486876
0.01951224327 0.009585678101 -0.04875160217 0.9094248096 0.3457982193 0.2310197117
0.01759036732 0.01179439545 -0.04439622688 0.8566207589 0.4255861368 0.2916801597
0.01556201458 0.01348545361 -0.03598144531 0.7336177379 0.6792777187 0.01966711775
0.013681427 0.01538681507 -0.02975818443 0.6492554679 0.7599764832 -0.03005133088
0.003253731966 0.02031029606 -0.03592129517 -0.1734899175 -0.9732100556 -0.1508755651
0.01191729164 0.01675798988 -0.02526815414 0.5878354908 0.808935888 0.008494986944
-0.01114467669 0.01727449036 -0.02630803871 0.5550361343 -0.8318208014 -0.00300731521
-0.01116218662 0.06053196716 -0.07348760223 -0.6096654734 -0.3306456099 -0.7204037002
-0.01284777641 0.05903313446 -0.07184208679 -0.6096654734 -0.3306456099 -0.7204037002
0.01117975712 0.05875619507 -0.07347234344 0.5704993946 -0.2440360265 -0.7842046025
-0.004867839098 0.03512475014 -0.04061546993 -0.2163832862 -0.01968587539 0.9761100039
0.008578929901 0.01869636917 -0.0189186821 -0.4270384661 -0.90420926 -0.00661533731
-0.00476480794 0.06060000229 -0.04195497131 0.1537179253 -0.3239622923 -0.9334983838
0.01592483521 0.0172204628 -0.04677238846 0.7759635423 0.2887813905 0.560790415
0.00655963397 0.01949436951 -0.03877437592 -0.4089745373 -0.8321152485 -0.3745985064
-0.003071604133 0.02031792355 -0.01360432196 -0.196197292 0.980563586 -0.001294734101
-0.005398291588 0.01985343742 -0.01512695408 0.2729955053 -0.9619414313 -0.01192211303
-0.004923448205 0.02324831104 -0.04062445831 -0.2023950566 0.2052601551 0.9575513092
-0.01759036732 0.01179439497 -0.04439622688 0.8566207551 -0.4255862393 -0.2916800213
-0.01149032831 0.0170606699 -0.03834153175 0.5764309902 -0.7922123697 -0.2003169362
0.007777940273 0.05925347519 -0.07579854202 0.4447157132 0.004236100671 -0.8956617609
-0.01951224327 0.009585678101 -0.04875160217 0.9094248003 -0.3457982851 -0.2310196499
-0.005210184097 0.05638934708 -0.07681606293 -0.2688094008 0.008229950798 -0.9631582289
0.01958194351 0.01157828856 -0.05099841309 0.9010547079 0.2983203794 0.3148100454
0.01494136095 0.01434026289 -0.04170885277 0.7152178123 0.6679037167 0.2058351431
-0.01242448425 0.01687974739 -0.0418995285 0.6111578101 -0.5592071972 -0.5601548372
0.01209866428 0.01664642906 -0.03115632057 -0.5969963923 -0.8022439138 -0.0001014948289
0.01037132454 0.01779852104 -0.02732295036 -0.5090037256 -0.8607585905 -0.003139442955
0.007074261189 0.01933924103 -0.02219411087 -0.3657811208 -0.9306987898 -0.001983526564
0.005475674629 0.01983485413 -0.02054361725 -0.3003920449 -0.9536756067 0.0163540972
0.002332814217 0.02044083214 -0.01852548981 -0.1116177012 -0.993677083 -0.01213850942
-0.01958194351 0.01157828856 -0.05099841309 0.9010547079 -0.2983203794 -0.3148100454
0.01053057289 0.01769586945 -0.03329272842 -0.5148469147 -0.8572386592 0.008633394237
0.008834349632 0.01858981705 -0.03026901817 -0.427405235 -0.9040554679 -0.00291134913
0.006367007494 0.01955708218 -0.02699660206 -0.31556186 -0.9489047976 0.0006305413919
-0.002366419792 0.02043657684 -0.02402015686 0.1193322796 -0.9928542073 0.0005744876727
-0.003953646421 0.02018871498 -0.0248590126 -0.1867379259 0.9824065538 -0.00251199383
-0.007178487778 0.01930157852 -0.02786126518 0.3318792171 -0.9432588033 -0.01090940716
0 0.06060000229 -0.04191954803 -0.004844697471 -0.380418498 -0.92480176
-0.008834349632 0.01858981705 -0.03026901817 0.3941320448 -0.9189512536 -0.01373043404
-0.01769640732 0.01428646469 -0.04782398987 0.8751212529 -0.2619646413 -0.4068627773
0.01474529648 0.01662020206 -0.04480234019 0.7525590949 0.4054843457 0.5188807705
0.01242448425 0.01687974739 -0.0418995285 0.7248323776 0.5448874874 0.421563341
0.003170003712 0.05842556 -0.04030317211 0.1076678516 0.2082705959 0.9721270455
0.006461851597 0.01952620506 -0.03279571247 -0.3239140987 -0.9460856765 0.001244774034
-0.004011553288 0.02018231583 -0.03053891563 0.2231401286 -0.9747809998 -0.003238137691
-0.008968810081 0.01852436066 -0.03624063873 0.3908991669 -0.9189454883 -0.05231663928
0.01245622253 0.01816960716 -0.04343003464 0.7034371062 0.3811342359 0.5999274388
-0.00243644309 0.02043836594 -0.03547335815 -0.1442689389 0.9768410988 0.1580124711
-0.004071212292 0.02017602921 -0.03639080048 0.2548089248 -0.9519929441 -0.1696521332
0.01897977924 0.04949455261 -0.05264577103 0.8805306913 0.0008117459651 0.4739884415
-0.007396663666 0.01922274208 -0.03972422409 -0.4138819976 0.7217068431 0.5548341416
-0.01772071838 0.01731168079 -0.04954716873 0.8792021689 -0.101316553 -0.4655518255
0.01962120438 0.01697139549 -0.05389522934 0.9095447629 0.1011474359 0.4031098119
0.01416678762 0.02016751003 -0.04558663177 0.7024079567 0.175803662 0.6897217807
0.01245038462 0.02056347752 -0.04415351868 0.7159938333 0.1772918628 0.6752187987
0.006589854002 0.02054142666 -0.04111977768 -0.3187700217 -0.5208604318 -0.7918901969
0 0.02084016609 -0.04004376602 0.04820759979 -0.7341482656 -0.6772756834
-0.002464181423 0.02081023026 -0.04015205002 -0.1914156302 0.6647204629 0.7221542514
-0.01227793121 0.03515312195 -0.04408715439 -0.59173126 -0.0007772731626 0.8061349216
-0.004935490131 0.02067828274 -0.04062721825 -0.3274667883 0.5023598234 0.8002500299
-0.01245038462 0.02056347752 -0.04415351868 -0.6296396826 0.1282845009 0.7662225244
-0.01416678762 0.02016751003 -0.04558663177 0.721630086 -0.1654021134 -0.6722292465
-0.01591433048 0.01965681458 -0.04743186378 0.751283831 -0.1367798461 -0.6456499663
0.00990117383 0.02272226763 -0.04256867504 0.5491964832 0.1074699754 0.8287541416
0.00653644681 0.02908678627 -0.04110870361 0.3254734936 -0.002282814317 0.945548409
0.01239019203 0.02573721504 -0.04416145325 0.6333003266 0.01105360525 0.7738271862
0.006573821664 0.02311451817 -0.04111908531 0.3333162827 0.09854696134 0.9376506557
0.007796644688 0.05656941605 -0.07579291534 0.4510443379 0.01975971106 -0.8922827798
0.003279134691 0.02334004879 -0.0402850666 0.09671071309 0.2485256538 0.9637852652
-0.008232081771 0.02294177914 -0.04175767899 -0.5078413082 0.1164492881 0.8535436538
-0.01073902178 0.0225972147 -0.04303036118 -0.5785645773 0.07786423385 0.8119114428
-0.002609652042 0.05627106094 -0.07748905182 -0.1550672029 0.002304033617 -0.987901237
0.0179434576 0.06060000229 -0.05220771408 0.7765191122 0.4032005846 0.4841976425
-0.01770270538 0.01980244255 -0.05007794952 0.8627373815 -0.1187342762 -0.4915143763
0.009700451374 0.04394166374 -0.04246970558 0.4863880371 0.004270293001 0.8737324774
-0.01958937168 0.01955253887 -0.05420262146 0.9076813398 -0.05719555462 -0.415744217
0.01412186098 0.02362897491 -0.0456126976 0.6754923203 -0.007930850333 0.7373243702
0.01242105293 0.02314875984 -0.04418188095 0.6438224721 0.03359795453 0.7644369182
-0.01242105293 0.02314875984 -0.04418188095 -0.607669725 0.05418650856 0.7923391494
-0.01586423969 0.02313364506 -0.04746707726 0.745682008 -0.03653392912 -0.665299643
-0.01765654755 0.02245209122 -0.05001231384 0.8611498891 -0.03881977275 -0.5068667416
0.01951868629 0.02313248825 -0.05406336403 0.90751398 -0.001094089643 0.4200204509
0.003271154046 0.02589892578 -0.0402837677 0.1273248913 0.000551846367 0.9918609114
-0.01458884811 0.06060000229 -0.07320671082 0.6269023913 0.3903945698 0.6742295393
-0.00820516324 0.02636790085 -0.04174641895 -0.3959398237 -0.01528762003 0.9181491952
-0.01879386902 0.05890662766 -0.05227812576 0.8675432239 -0.2354606664 -0.4380947721
-0.01070358801 0.02603876209 -0.04300787735 -0.5044549434 -0.002931587081 0.8634330408
-0.01239019203 0.02573721504 -0.04416145325 -0.5970310367 0.01465538818 0.8020842604
0.01408614731 0.02623012543 -0.04557592773 -0.6782284074 -0.01645686497 -0.7346668626
0.003263204396 0.02844780636 -0.04028247833 0.1277167509 0.01633673445 0.9916761279
0.01926074028 0.03557729912 -0.05331863403 0.894581302 -0.004368173662 0.4468838923
0 0.02850871372 -0.04004344559 -0.03728715925 0.01379934688 0.9992093103
-0.004624828974 0.02866245651 -0.04055064774 -0.206686031 0.016563768 0.9782671037
-0.002446251035 0.02848171711 -0.04014974213 -0.1232629631 0.01248301202 0.9922955287
-0.01581011915 0.02662103653 -0.04740229988 0.7421709523 0.0135597032 -0.6700734378
-0.01759481716 0.02597225475 -0.04991557503 0.8569893161 0.001723664374 -0.5153312926
0.01946297646 0.02582026672 -0.05390251923 0.9055744802 0.0002334936778 0.4241872302
0.01406241608 0.0279585762 -0.0455514946 0.6915293602 0.006086009975 0.7223227149
-0.008185054302 0.02892738247 -0.0417380085 -0.3863632799 -0.009980896788 0.9222926855
-0.010668396 0.02946328163 -0.04298803711 -0.5437551226 -0.009349846069 0.8391918416
-0.0123492074 0.02917478085 -0.04413432884 -0.596213633 -0.01631464939 0.8026600377
-0.01405057859 0.02882073212 -0.04553930664 -0.6830527073 0.01381627516 0.7302383923
