# .PCD v0.7 - Point Cloud Data file format
VERSION 0.7
FIELDS x y z
SIZE 4 4 4
TYPE F F F
COUNT 1 1 1
WIDTH 1393
HEIGHT 1
VIEWPOINT 0 0 0 1 0 0 0
POINTS 1393
DATA ascii
0.01584278 0.004904122 -0.0372204
0.009631191 -0.01347332 0.006428277
0.01287508 0.01043035 0.02151136
0.01530892 -0.00633547 0.002555367
0.01059644 -0.01275075 -0.02806469
0.01031056 0.01296475 0.02257407
0.01588122 -0.004801061 -0.01730856
0.01550506 -0.000266991 0.039
0.01534572 -0.006236787 0.008075377
0.01550642 0.005805931 -0.02710962
0.01055856 0.0127791 0.02967152
0.01524151 -0.006516187 0.03638884
0.0154791 -0.005879201 -0.02535855
0.0163277 0.002837437 -0.02087785
0.00826452 0.01435256 -0.002876742
0.01166075 0.01175538 0.02261136
0.01385635 0.009119518 -0.01497647
0.01625482 -0.003172459 0.02160368
0.0160752 0.003998173 -0.02544761
0.0143357 -0.008295408 0.009679231
0.007969524 0.01451364 0.02066832
0.01364782 0.009398088 0.02780291
0.01245887 0.01095727 -0.024092
0.01351377 0.009577162 -0.00390327
0.01620756 0.003389722 -0.02160465
0.01477513 0.007490638 0.003360683
0.01366467 0.009375571 0.002037644
0.01646321 0.001912637 0.007874722
0.01588486 -0.004791314 0.03048268
0.01452759 0.007943974 0.01519845
0.014782 0.007478062 -0.03104261
0.01251342 -0.01090271 0.02007781
0.01368125 0.009353428 0.007619335
0.009284568 0.0137328 -0.003123675
0.009320039 0.01370624 0.005709768
0.01595148 -0.004566901 0.01940277
0.01273559 0.006181343 -0.039
0.01215095 0.01126518 -0.01078041
0.01306744 -0.01017339 0.01550019
0.01576882 0.005102426 0.01694472
0.01642373 -0.002395992 0.01547873
0.0150642 -0.006961261 0.004805861
0.008818946 -0.01404982 0.03450426
0.01644702 -0.002138935 0.0297899
0.008188183 0.01439425 0.002246759
0.01291053 0.01038299 0.02370726
0.01643188 -0.002350589 0.003761097
0.01252292 -0.01089321 0.01715298
0.01614935 -0.003657316 0.02899375
0.01632625 -0.001092512 0.039
0.01426879 0.008417945 0.01778345
0.01636963 -0.002644728 -0.001373037
0.01130484 -0.01211129 -0.02601914
0.009375172 0.01366497 0.02660435
0.01588059 0.004802766 -0.02387138
0.01655109 0.0006839085 0.01932781
0.01473047 0.00757244 -0.005825661
0.01512905 -0.006817698 0.02130858
0.009219724 0.01378134 -0.007850357
0.01652611 -0.001033113 -0.001768202
0.01056312 0.01277569 0.03367576
0.01130687 0.0109587 -0.039
0.007658971 0.01374593 0.039
0.01595969 -0.004529181 -0.01406069
0.01433607 -0.0034047 -0.039
0.01120676 -0.01220937 0.005233143
0.009227556 0.01377548 -0.01163058
0.01509194 -0.00691045 -0.005926189
0.01524817 0.006498328 0.001105686
0.01612368 0.0037753 0.01419412
0.01006737 0.0131468 -0.03390147
0.01653533 0.0009041637 -0.002022255
0.01450929 0.007977491 0.01195535
0.01290079 -0.01039601 0.01482191
0.01391522 0.009040881 -0.001207846
0.01647394 -0.001762569 0.01660881
0.01289543 -0.01040316 -0.008123802
0.013733 -0.009284302 -0.02031936
0.01605995 -0.004068289 -0.02097428
0.01623273 0.003274007 -0.02027607
0.01084785 -0.01256254 -0.02598168
0.01577477 -0.005086455 -0.001915557
0.01181729 0.01159884 -0.01334081
0.01525444 0.006481532 0.02674015
0.01587821 -0.004809126 -0.01348897
0.01587064 -0.004829432 -0.02756297
0.01080292 -0.01259618 0.03196023
0.01306067 0.01018242 -0.002029284
0.009995398 -0.01320068 0.03008691
0.00933852 -0.01369241 -0.03226398
0.01205841 -0.01135772 -7.365036e-05
0.01058574 -0.01275875 0.005460289
0.01568945 -0.005315218 -0.006579694
0.01463895 0.007740047 0.01819732
0.009382303 -0.01365964 -0.03609477
0.01324628 -0.0003301502 -0.039
0.01599457 -0.004368834 -0.007704461
0.01131817 0.01209797 0.00748802
0.01449409 -0.008005327 0.005431844
0.008878664 0.01401721 -0.03504592
0.014099 -0.008728889 -0.03888186
0.01515089 0.005647332 0.039
0.01212814 -0.01128799 -0.03485542
0.01606665 -0.004037491 -0.02191702
0.01114323 0.0122729 -0.01574121
0.01640924 0.002462625 -0.004475307
0.0137192 0.009302732 0.03797202
0.01216312 -0.01125301 -0.01208661
0.01499381 0.007090161 0.03302769
0.01156252 0.01185362 0.003968452
0.0151313 -0.00681167 0.03767532
0.01184547 0.01157067 0.01210131
0.01035646 -0.01293039 -0.007552615
0.01586366 0.004848158 0.005241217
0.008006404 0.01449351 0.03106472
0.01278434 -0.01055157 0.02531463
0.01087597 -0.01254017 -0.01035802
0.01062471 0.01272958 -0.00410342
0.009906791 0.01326701 0.002642088
0.01637909 0.002601232 -0.02489573
0.007737993 0.01464007 0.01630193
0.01513788 0.006794033 -0.002397132
0.008872663 -0.01402049 0.01156086
0.0129289 -0.01035845 -0.01059618
0.01549011 0.005849673 0.02386298
0.01657756 -0.000313715 0.03809035
0.0137586 0.009250105 -0.03330969
0.01575548 0.005138195 -0.02965317
0.01276152 0.01058204 -0.01911722
0.009294869 0.01372509 0.01080938
0.01458185 -0.007844615 -0.007354128
0.01042809 -0.01287677 -0.02459229
0.01602683 0.004220508 0.01252682
0.01502344 0.007035898 -0.02689968
0.01230777 0.01110836 0.01180521
0.01355045 -0.009528155 -0.006039909
0.01197921 0.01143693 -0.02419076
0.01173529 -0.01126894 0.039
0.01506828 0.006953778 -0.03189175
0.0152416 0.00651596 -0.03378622
0.01641193 0.00245026 -0.006139089
0.01163704 -0.0117791 -0.01184717
0.008383223 0.01428775 -0.006689125
0.01541111 0.006061471 -0.01434993
0.01133513 0.012081 -0.007714884
0.01436063 0.008249754 0.0254365
0.01168546 0.01173067 0.01063616
0.01273979 0.01061107 -0.001428113
0.0106572 -0.01270526 0.03490899
0.01331537 0.00984219 0.03320808
0.01524205 -0.006514741 0.01569196
0.01321597 0.009974972 -0.02330728
0.0148089 0.007428804 0.02404382
0.01444456 0.008096035 -0.03509138
0.0164802 0.001675093 -0.02107705
0.01050762 0.01281723 0.01598375
0.01303427 0.0102177 -0.01964343
0.01556773 0.005641579 -0.02256543
0.01562495 0.005488142 0.03247792
0.01620825 -0.003386552 0.003465019
0.01646489 -0.001889069 0.03487329
0.01651492 -0.001189622 -0.003880293
0.01646372 0.001905458 0.01323125
0.009899502 -0.01327246 0.009802341
0.01636465 -0.002667616 -0.006013003
0.01591448 -0.0005935231 -0.039
0.01022384 0.01302967 0.007939659
0.01555912 -0.005664649 0.03512533
0.01570974 -0.005260822 0.006127067
0.01486627 -0.007323731 0.01664832
0.01275729 -0.01058769 -0.004237107
0.01646995 -0.001818356 -0.008542246
0.01334942 -0.009064179 -0.039
0.01526118 -0.006463462 0.03108066
0.009279543 0.01373656 -0.007177613
0.01135275 -0.01206338 0.03814255
0.01268055 -0.0106902 -0.03124117
0.01451158 -0.00779654 0.039
0.01180641 -0.01160972 0.02016104
0.0128198 0.01050419 0.03340886
0.008981698 0.01395952 0.0168711
0.01586871 0.00483461 -0.006860373
0.008302284 0.01433194 -0.01668842
0.0121541 -0.01126203 -0.0228173
0.01419924 -0.008545303 -0.02801003
0.01627671 -0.003071855 0.01086826
0.01482361 -0.007401852 -0.006401314
0.01350315 0.009591348 0.009051151
0.0149583 0.007155195 -0.008230886
0.01648761 -0.00157142 -0.01394163
0.01429049 -0.008378193 0.02824593
0.01651247 -0.001223802 -0.01134116
0.01137525 0.01204088 -0.03160465
0.01649895 -0.001412864 -0.01812014
0.008467206 0.01424189 -0.02012948
0.01418718 0.008567398 0.02194463
0.01613843 -0.0037075 0.01457334
0.01367719 -0.009358856 0.03887063
0.01602194 -0.004243009 -0.001396667
0.01657785 0.0003097672 0.02378
0.01607401 -0.00400367 0.01725039
0.009632946 0.01347201 0.006270138
0.009694045 -0.01342627 -0.003209725
0.01028879 0.01298105 -0.02719485
0.01173479 -0.01168134 -0.01021598
0.01289067 -0.01040952 0.01209062
0.01035624 0.01293056 0.001784996
0.01060512 -0.01274424 0.03851129
0.01658516 -0.0002074815 -0.01990349
0.008801724 0.01405923 0.003334587
0.01636318 0.002674372 0.02061019
0.01601923 -0.004255445 -0.03507426
0.01376952 -0.00923552 -0.03855151
0.01553024 0.005742068 0.0332357
0.01532953 0.0062802 0.01558082
0.01576863 0.005102917 -0.03659823
0.01560661 -0.005537313 -0.008625355
0.015706 0.005270853 0.02353466
0.009290694 -0.01372821 0.004969666
0.01657935 0.0002886833 0.005223412
0.01272249 -0.007570282 0.039
0.01329501 0.009869382 -0.008084396
0.009966775 0.01102 0.039
0.008094906 0.01444518 -0.007665151
0.01403178 -0.008851996 -0.01637026
0.01462559 0.007764507 0.03027453
0.0162343 0.003266808 -0.0170227
0.01059835 -0.01274932 -0.004094847
0.01400248 -0.006274498 -0.039
0.01327495 -0.009896185 0.005332636
0.01362102 0.009433889 -0.008520321
0.01598104 -0.004431015 0.01471541
0.01645189 0.002070897 -0.02673223
0.01226801 -0.01114813 -0.01291118
0.01178178 -0.01163435 0.01405414
0.01360427 -0.005580017 -0.039
0.01544613 -0.0059676 -0.02080215
0.008354412 0.01430348 -0.02616552
0.01437084 -0.004681754 0.039
0.01586796 0.004836611 0.002325413
0.01230934 0.01110679 -0.02043255
0.01609966 0.003885721 -0.02360545
0.01298667 -0.004937849 0.039
0.01472784 -0.007577258 0.01285533
0.01204956 -0.01136657 0.02190506
0.01657673 -0.0003252884 0.03605306
0.01411482 0.008699917 -0.029771
0.01404566 0.008826577 0.002249366
0.0162994 0.002967561 0.03838346
0.0093659 -0.01367191 0.0165571
0.01437843 0.008217145 -0.02154203
0.009293829 0.01372587 -0.03693843
0.009229179 -0.01377426 -0.02242039
0.01646519 -0.001884966 -0.01716292
0.01296707 -0.01030746 0.01944947
0.01434641 0.008275796 -0.03023268
0.01656559 -0.0004811074 -0.005735619
0.01147165 -0.009408575 -0.039
0.01598229 0.004425261 -0.03402699
0.00839044 0.0142838 -0.03097295
0.01318453 0.01001697 -0.03275473
0.01006779 0.01314649 -0.01474683
0.01040307 -0.01289549 0.001847935
0.01571334 0.005251173 5.034256e-05
0.01234687 -0.01106926 0.02406562
0.01462376 0.007767858 0.004006364
0.01659761 3.346218e-05 -0.009431408
0.01596187 0.00451915 -0.0103116
0.01312182 -0.01010074 -0.01351144
0.01274905 0.0105987 0.0281294
0.01612538 0.003767486 -0.03750703
0.01002207 -0.01318071 -0.03167922
0.00939114 0.01365302 -0.009189734
0.01400246 0.008905679 -0.01607333
0.01578026 -0.005071761 -0.005511619
0.01191874 -0.0108875 -0.039
0.01408254 -0.005392874 0.039
0.01609097 -0.003925673 0.01936946
0.01658712 -0.0001801317 -0.02250167
0.01317265 -0.01003283 0.03785823
0.01357869 0.009490439 0.01030886
0.01264913 0.01073219 0.001691974
0.01431604 0.008331406 0.01847237
0.0163705 -0.002640686 -0.02203639
0.0164377 0.002269255 0.02717823
0.01556104 0.005659514 -0.01500231
0.01237678 -0.01103935 -0.006312088
0.01619419 0.003451208 0.00624926
0.01643736 -0.002273961 0.01074788
0.01642874 0.002372986 -0.01391249
0.01600837 -0.00430539 0.02877816
0.01636904 -0.002647434 -0.004386559
0.009942215 0.01324049 0.03554675
0.01474743 -0.007541381 -0.02707556
0.01645707 -0.001998428 0.03042657
0.009343068 -0.013689 0.01563173
0.01154114 -0.01187499 0.02299407
0.01562519 0.005487522 -0.006444934
0.01056713 0.01277268 -0.01283515
0.01602928 -0.004209274 -0.02465523
0.01628938 -0.003013624 0.001969845
0.01559751 -0.005561712 0.02989118
0.01532668 -0.006287852 0.003285763
0.01323064 0.009955376 0.03396548
0.01533897 0.006254895 -0.004342758
0.01272628 0.01062912 0.01241531
0.01602898 0.004210635 0.0376863
0.01646016 0.001955187 0.00116011
0.01649575 -0.001457631 0.004613876
0.01028941 0.01298058 -0.02628933
0.0160659 -0.004040948 -0.01327169
0.013745 0.009268267 0.0213814
0.01501218 -0.003441755 -0.039
0.01649663 -0.00144536 -0.0213255
0.009716358 -0.01340956 0.02949499
0.01648047 0.001671247 0.005451532
0.01274185 0.01060833 0.01024795
0.01645542 0.002021526 0.004718296
0.01612203 -0.0037829 -0.00735297
0.01596513 -0.004504161 0.02489697
0.01212581 -0.01129032 0.03072272
0.01216109 0.01125504 -0.02359292
0.01362181 -0.009432825 -0.003337116
0.01095972 0.01245641 0.03010973
0.01620117 -0.003419082 -0.02065095
0.01552147 0.005765595 0.0364949
0.01014928 -0.01308548 -0.01562659
0.01644543 0.002161105 -0.0360251
0.01274094 -0.01060953 -0.01118836
0.01203269 -0.01138345 0.004375921
0.008246202 0.01436256 0.03318948
0.009361084 -0.01367552 -0.01780718
0.01041054 0.01288991 -0.01718785
0.01287118 -0.006512081 -0.039
0.01301921 -0.01023781 0.004518461
0.0113703 -0.01204583 0.01839505
0.01641111 0.002454015 -0.02929583
0.01625042 -0.003192693 -0.0075623
0.01642801 0.002376352 -0.002924198
0.01568061 -0.005338927 -0.02402236
0.008036001 0.01447734 -0.02345567
0.01248315 -0.01093298 0.02477385
0.01134203 0.009309832 -0.039
0.01125736 -0.01215877 -0.02213942
0.01645568 -0.002017899 -0.01850739
0.01640332 -0.002489821 0.009548217
0.01463367 -0.007749701 -0.02399507
0.01478809 0.007466911 -0.01017792
0.01562411 -0.00549039 -0.03401578
0.01426847 0.008418523 -0.03881816
0.009714214 0.01341117 -0.001232568
0.01225686 0.008970846 0.039
0.01300991 -0.01025023 -0.01176024
0.01293226 0.01035396 -0.02904844
0.01423705 -0.001435989 -0.039
0.01657595 0.0003362066 0.0143381
0.01319566 0.0100021 0.01424165
0.01648045 -0.001671573 -0.02354347
0.01553691 0.005724195 -0.03018581
0.01511834 0.006846432 -0.02926887
0.0160622 -0.004057921 -0.0111973
0.01382044 -0.009167486 0.01725349
0.01064143 -0.01271707 -0.01153358
0.01140323 -0.01201291 0.01091356
0.01505606 0.006976158 -0.03820094
0.01241872 0.01099741 0.01930156
0.01597489 0.004459278 0.01517872
0.01085902 -0.01255418 -0.03835151
0.01658821 0.0001648943 -0.03504597
0.01491198 -0.007240017 0.03709596
0.0155802 -0.005608134 0.01858928
0.0153726 -0.006164737 0.005099279
0.0164675 -0.001852522 -0.0379883
0.01647787 0.00170752 -0.01583014
0.01274623 0.01060247 0.01785328
0.01250841 -0.006960847 0.039
0.0099375 -0.01324402 0.0251422
0.01518535 0.00666677 0.01819382
0.01588417 -0.00418231 -0.039
0.01037425 0.008581188 0.039
0.01627771 -0.0003571324 0.039
0.01608562 0.00395029 0.02375292
0.01644141 0.002217366 0.03302249
0.01436632 0.008239321 0.008202475
0.01642371 -0.00239609 0.02259567
0.0102833 -0.01298515 0.02443201
0.01342901 -0.009690382 0.0003587208
0.01452384 0.007950841 -0.02387127
0.01354824 -0.009531114 0.0009951248
0.01468422 0.00765714 -0.02323688
0.01577223 -0.005093275 0.004419639
0.0128577 0.003034081 -0.039
0.01255426 -0.01085892 -0.01985867
0.01364637 0.008764093 -0.039
0.01140113 -0.012015 -0.02723622
0.01644083 -0.002225436 0.0070757
0.01274837 0.01059961 -0.02549866
0.01490265 0.007257102 -0.0121234
0.01058432 0.01275982 0.02559327
0.01013234 0.01309816 -0.00543568
0.01643731 0.002274735 -0.01805995
0.0165425 0.0008039132 0.01024706
0.01160731 -0.01180882 -0.001363224
0.01643344 0.002328817 0.03678583
0.01552084 0.005767293 -0.004846683
0.0158212 0.004961994 -0.01463571
0.01107934 0.01233679 0.003019969
0.01359971 -0.009462351 -0.02308564
0.01127019 0.01214594 -0.03370991
0.01403169 0.008852158 -0.02807903
0.0131556 -0.01005562 -0.007023937
0.01429299 -0.008373613 0.00091436
0.01577268 -0.00509206 0.02867533
0.01406123 0.008798063 0.00816696
0.01116347 0.01225267 0.03241504
0.01345486 0.009655848 -0.03368764
0.0165992 1.118523e-05 -0.03400072
0.01465786 -0.007705401 0.0104862
0.01440143 -0.008175024 0.0340708
0.01091602 -0.01250011 0.01233955
0.01645618 -0.002010932 -0.03561761
0.0134255 0.009695073 0.0005301948
0.01534313 0.006243731 -0.007017707
0.01463062 0.007755301 0.02083436
0.009222037 0.01377961 0.0004997568
0.01060215 0.01274647 0.02638025
0.009909332 0.01326511 0.03655921
0.01647792 0.00170686 0.02668374
0.01579046 -0.005044415 -0.01795098
0.01037375 -0.01291745 0.03371456
0.01659988 -1.697075e-06 -0.03637841
0.01247375 0.01094238 0.02231679
0.01234251 -0.01107362 0.02339509
0.01244483 -0.0109713 -0.02510469
0.01508114 0.006930222 0.0101617
0.009994218 0.01320156 -0.003147815
0.01442393 0.008133828 0.0338219
0.01059266 0.01275357 -0.000440752
0.01627446 -0.003082196 0.02471178
0.009812951 -0.01333726 0.03400732
0.0132422 0.009939928 0.01502491
0.01637603 -0.002615302 0.03340784
0.01508205 -0.006928565 0.01468536
0.009358887 0.01367716 0.02586948
0.0159145 -0.004711835 0.03248668
0.01473172 0.007570145 -0.01747343
0.009350981 0.01368308 -0.03549134
0.01562434 -0.005489787 0.02130675
0.01140915 0.01200699 -0.01666759
0.009400149 0.01364628 -0.01499415
0.01451704 -0.007963304 -0.009385637
0.007852253 0.01457768 0.03575978
0.0104199 0.0128829 0.003361015
0.01105268 -0.01236345 -0.03004592
0.01223141 0.01118473 0.0248453
0.01653403 0.0009223667 -0.009848566
0.01216887 0.01009436 0.039
0.01399908 -0.008911879 -0.01816856
0.01017545 0.0130659 0.01796164
0.01005078 0.01315922 0.01458016
0.01506588 0.006958175 0.03160389
0.01420688 -0.00853132 0.01267112
0.01646124 0.001940113 0.02412289
0.01135936 0.01205677 -0.004839234
0.01643425 0.002317477 0.03828674
0.01533285 0.00627131 -0.03461916
0.01007589 0.01314042 -0.0006490607
0.01425797 0.008437761 0.02072477
0.007815599 0.01459769 -0.006845008
0.01482606 -0.00739738 -0.03512043
0.007811656 0.01459984 0.01830863
0.01201699 -0.01139914 0.005518509
0.01485615 0.007342261 0.03243716
0.009742481 0.01339001 0.02356069
0.0146886 0.007649105 -0.03244212
0.00991712 0.01315646 -0.039
0.009859571 -0.01330236 0.02076662
0.01464527 -0.007728463 -0.002126507
0.01574874 -0.005156255 0.01269371
0.01273712 -0.01061464 -0.01341764
0.01570599 -0.005270888 -0.02817656
0.01176641 0.009526137 0.039
0.01606863 0.004028364 0.02003611
0.008149265 0.0144155 -0.03829603
0.01376157 0.00924614 -0.03860657
0.009040043 -0.01391585 -0.01323123
0.01477257 0.007495337 -0.0168306
0.01443571 0.008112246 0.01636155
0.009346353 -0.01368655 -0.03451021
0.01267882 0.01069252 -0.006550038
0.01659309 9.659646e-05 0.008333507
0.01602603 -0.004224209 0.02549881
0.01651046 -0.001251952 0.001895799
0.0090294 0.01392381 -0.0330551
0.01286612 0.01044231 -0.03219542
0.01343369 -0.009684124 0.00743428
0.01598408 -0.004417063 0.03535466
0.01444942 -0.008087146 0.03494874
0.01067498 -0.01269195 -0.02241171
0.0160843 0.003956363 0.003806957
0.01595629 0.004544797 0.01126921
0.01605714 0.004081185 0.0333428
0.01139282 0.01202332 0.02001736
0.01604685 -0.0041285 -0.008425919
0.01613578 -0.003719679 0.01123762
0.01537916 0.006147131 -0.01720021
0.01650218 0.001367737 -0.01874896
0.01033043 -0.01294987 -0.03267058
0.007858204 0.01457443 -0.01849017
0.01659859 1.973925e-05 -0.007996582
0.01496462 0.007143614 -0.03752962
0.01478402 -0.007474373 0.01390484
0.01402156 0.00887071 -0.02210407
0.01284104 0.01047582 -0.03470461
0.01443055 -0.008121691 -0.02521084
0.01654204 0.0008104002 -0.02216935
0.01531568 -0.006317332 0.02656858
0.01532664 0.006287948 0.01181879
0.01435893 0.008252858 -0.01818117
0.01381476 -0.009175076 0.02258068
0.01588186 0.004799342 0.0305697
0.01465337 -0.007713639 0.03558345
0.01659434 -7.918694e-05 -0.00418851
0.01461346 0.007786717 -0.03704607
0.01172045 0.01168544 0.039
0.01217539 0.01124074 -0.004140731
0.01475032 0.005852094 -0.039
0.01585659 -0.004867096 0.01413196
0.01432146 -0.008321474 0.01180911
0.01067537 -0.01269166 0.006376378
0.01620579 -0.003397884 0.01893983
0.01067598 0.01241553 0.039
0.01587795 -0.004809843 -0.0165511
0.01566702 -0.005375353 0.03571943
0.01441595 0.008148439 -0.003953661
0.01205029 -0.01136584 -0.01594568
0.01647572 -0.001737632 0.03834927
0.01627168 0.003094999 0.0005623436
0.01561537 -0.005513844 -0.00741818
0.01232042 0.01109571 0.02767291
0.01280043 -0.01053006 0.01402176
0.01226867 -0.01114747 0.03805965
0.01659349 -9.102543e-05 -0.03713816
0.01488303 -0.007293043 -0.005467977
0.007735695 0.01464132 0.003938775
0.01204567 0.01137046 0.03838049
0.009539273 0.01354213 -0.02887143
0.01532627 0.006288951 0.004068562
0.01590238 -0.00474433 -0.02383178
0.008383644 0.01428752 -0.02785213
0.008506582 0.01422039 -0.01838151
0.009320281 0.01370606 -0.02262819
0.01414564 0.008643475 0.01419418
0.01016342 -0.0130749 0.006612717
0.01334533 -0.009802166 -0.01227008
0.01318291 0.01001913 0.007789579
0.01184404 0.01157209 0.02703209
0.01481814 -0.002692309 0.039
0.01429942 0.008361846 0.004050657
0.01601346 0.004281999 0.007506045
0.01093574 0.01248039 0.01182616
0.01457872 -0.007850345 0.02479271
0.01559674 -0.005563779 -0.01281836
0.01435332 0.008263137 -0.02010542
0.01659666 4.666904e-05 -0.02498095
0.01195551 0.01146062 0.01902888
0.01625895 0.003153511 0.006946746
0.01531572 0.006317223 -0.0184734
0.0123063 0.01110983 -0.0029371
0.01351754 -0.009572116 -0.02778558
0.01605698 0.004081939 0.02573308
0.01357423 -0.009496391 0.02373798
0.01377465 -0.00922866 0.003730887
0.0152957 0.006370914 -0.0371297
0.01655359 0.0006489002 0.01095971
0.01562413 -0.005490347 0.0245411
0.01531879 0.006308986 0.01005784
0.01432794 -0.008309616 -0.03598286
0.01002774 0.01317646 -0.02864717
0.0165631 -0.0005159553 0.03678984
0.01385077 0.007688741 0.039
0.01000179 0.01319589 0.00878722
0.01652556 0.001040797 0.02643018
0.01365913 -0.00938298 -0.01633184
0.01091217 -0.01250396 -0.03255106
0.01030827 0.01296646 0.01729687
0.01400107 0.004745976 -0.039
0.01279571 -0.01053638 0.02241925
0.01536136 0.006194863 -0.01289292
0.01621764 0.003343377 -0.02770535
0.01647151 -0.001796534 -0.02191305
0.01136271 0.01205342 -0.01945119
0.01132704 -0.01208909 -0.003407952
0.01248258 0.01093356 -0.02473308
0.01267996 -0.010691 0.03231779
0.01261121 0.01078283 0.008312441
0.009381281 0.01153588 0.039
0.009964893 -0.01322351 0.00488147
0.0161702 0.003561466 -0.03279579
0.01570927 0.005262089 0.02428386
0.01364363 -0.009403681 0.005838215
0.01533253 -0.00627215 -0.02195084
0.01602554 -0.003406729 -0.039
0.009391823 -0.01365251 0.02458851
0.008391996 0.01428295 -0.02691869
0.01429315 0.008373329 -0.0167404
0.01561836 -0.005505821 0.002900208
0.01645209 0.002068042 -0.03753933
0.01513037 -0.006814183 0.01403407
0.01344217 0.009672809 -0.0002393761
0.0165704 -0.0004138827 -0.01768595
0.009927706 -0.01325135 0.01709765
0.0147888 0.007465612 0.03755783
0.01597277 -0.004469055 0.01796827
0.01446997 -0.008049501 0.008199556
0.01376276 0.009244536 0.02230956
0.01289275 0.01040675 0.001165043
0.01649733 0.00143551 -0.03750201
0.01643995 0.002237848 0.03587042
0.01069299 0.01267847 0.03559175
0.01524896 -0.005551414 -0.039
0.009010148 -0.01260848 0.039
0.008711587 -0.01410845 0.016142
0.01270745 -0.01065427 -0.003268375
0.01277807 0.009267626 -0.039
0.0111672 -0.01224894 -0.004927716
0.01606336 -0.00405259 0.0158699
0.01309702 -0.01013387 0.0007258646
0.01643633 -0.002288486 0.003046152
0.01041933 0.01288332 0.00405433
0.008870178 -0.01402185 0.02452092
0.009837484 0.01331889 -0.02511747
0.01550745 0.003284816 0.039
0.008875035 0.0140192 0.004076679
0.01237205 0.01104408 0.0334543
0.0161945 -0.003449759 0.01233933
0.01623686 -0.003255052 -0.0105943
0.0163416 0.002773555 0.004637512
0.01646329 0.001911408 -0.01304125
0.01651133 -0.001239774 -0.008126858
0.01513269 0.00680794 -0.0191144
0.01299678 -0.01026777 -0.02829876
0.01403913 0.008838533 -0.02027331
0.007436401 0.01480475 0.03628792
0.01403707 0.008842294 0.02959502
0.0139384 0.009009921 -0.02920352
0.0113988 -0.01201733 -0.01345189
0.01558267 0.005601513 -0.01075287
0.01659595 -5.65802e-05 0.023192
0.01528683 0.006394687 0.02583434
0.01500047 0.007077957 0.01867487
0.01289854 -0.01039901 -0.02207666
0.01078134 -0.01261233 -0.002853047
0.01180851 -0.01160762 -0.02607846
0.01648502 -0.001607629 0.02232122
0.01430869 0.008344862 0.0271167
0.0100007 -0.01319671 0.003784367
0.01563659 0.005456953 -0.02034299
0.01611335 -0.003822824 -0.005134186
0.01113452 -0.01150838 0.039
0.01607509 -0.003998672 -0.002896957
0.01644639 0.002147707 0.003932113
0.01612472 0.003770535 0.006983027
0.0113897 0.01202643 -0.03306748
0.0131175 0.01010651 0.01570779
0.0158915 -0.00477351 0.01738319
0.01024304 0.01301529 0.02387845
0.01051644 0.01281063 0.03042599
0.01137246 -0.01204368 0.003376725
0.01658151 0.0002585758 0.03525323
0.01659341 -9.2144e-05 -0.003372829
0.0118969 0.01151923 -0.01398563
0.01377526 -0.009227845 0.02797131
0.01313422 -0.01008418 0.002126341
0.01094591 -0.01247022 -0.02409642
0.009259307 0.01375171 0.008196822
0.01153232 0.01188381 -0.0002670069
0.01104017 0.01083021 0.039
0.00900825 -0.01393965 0.01228732
0.01330038 -0.009862213 -0.02233012
0.01511511 -0.006855092 0.02062356
0.0159972 0.001404983 -0.039
0.01610247 -0.003872835 0.002969174
0.01457248 0.001986413 0.039
0.01056113 -0.01277718 0.03259668
0.008629244 0.01415341 0.03622287
0.01124233 -0.0121738 -0.01280353
0.01658432 -0.0002191982 0.02203512
0.009062374 -0.01389913 -0.03168775
0.01222808 -0.009993755 0.039
0.01510269 -0.006888379 -0.01473851
0.009737144 -0.013394 -0.02955252
0.01210868 -0.01130746 -0.0265494
0.01233182 -0.01108431 -0.0179607
0.01659028 0.0001359243 -0.01876261
0.01602318 0.004237317 0.01937616
0.01651263 0.001221532 0.006863651
0.01139772 0.01201841 0.02712662
0.01418178 0.008577286 0.0259761
0.01472224 -0.007587505 0.002213573
0.008259088 0.01435553 0.03238564
0.01609359 0.003913642 -0.03562412
0.007828962 0.01459039 -0.009058006
0.01605448 -0.004093433 -0.03291675
0.00976652 0.01337201 0.01990173
0.01607818 0.003984475 -0.02900597
0.0108885 0.01252763 0.03155826
0.01024768 0.01301182 0.03441352
0.01650418 0.001339706 -0.01424103
0.01644243 -0.00220308 -0.01402629
0.01154183 0.0118743 -0.03452689
0.01290048 0.01039641 0.01862623
0.01648046 0.001671309 0.00911088
0.01028548 -0.01298352 -0.01649052
0.0114294 0.01198673 -0.01486965
0.01649135 -0.0015191 0.002578612
0.0112927 0.01212344 -0.01082038
0.01627589 0.002816037 0.039
0.01259691 0.01080193 0.00649567
0.0165434 -0.0007913832 0.03738054
0.01624099 -0.003236076 -0.003170524
0.0108489 0.01256175 0.02446081
0.0158902 -0.004776997 0.005165254
0.01642956 -0.002369223 -0.01610441
0.01659514 6.800748e-05 -0.01181159
0.01118532 -0.01223081 0.02147256
0.01585831 0.004862481 0.03680505
0.01460543 -0.007801426 0.02903433
0.01512028 -0.006841225 -0.03494841
0.01585476 0.0004808598 0.039
0.008131224 0.01050898 0.039
0.01609493 -0.003907479 -0.02382526
0.01327417 0.009897224 -0.02181915
0.01369172 0.009253627 0.039
0.01055796 -0.01277955 0.01127234
0.01582102 0.004962476 -0.00488338
0.01595955 -0.004529806 0.004151488
0.01609042 0.003928218 -0.01115495
0.01136345 0.01205268 0.01344564
0.01172944 0.01168669 -0.01767908
0.01459673 -0.007817363 0.01907587
0.01656116 -0.0005430794 0.001793469
0.009267132 -0.01374585 -0.01000626
0.01658543 0.0002036997 -0.03330499
0.01337947 -0.009756567 0.01090066
0.01571497 0.005246807 -0.004238553
0.01023656 0.01302015 -0.03676216
0.01238752 -0.01102861 -0.01544907
0.01238548 -0.01103065 -0.02340785
0.01657883 0.0002959837 0.0008554373
0.01377489 -0.009228333 -0.009709129
0.01614602 0.003672624 -0.007699448
0.009524137 -0.01355346 0.03535493
0.01613714 -0.003713453 -0.001037832
0.01659371 -8.79326e-05 -0.002739062
0.01432448 0.008315951 0.001922943
0.01424874 -0.008454663 0.03074291
0.008611973 0.01416284 -0.005443765
0.01482705 -0.007395568 0.001575809
0.0105278 0.01280212 0.0138183
0.01533461 -0.00626659 0.0117051
0.01237256 0.01104358 -0.03589264
0.01641984 -0.002413875 0.00133014
0.01285664 -0.01045498 0.02454383
0.01345422 -0.009656702 0.03095499
0.01638123 -0.00259138 0.03421227
0.01152298 0.01189315 0.003226407
0.01426895 0.00841765 0.0002167959
0.01466632 0.007689921 0.004632588
0.0159706 -0.004479007 -0.002097317
0.01556198 0.005656977 -0.01376042
0.01320937 -0.009983787 -0.02151121
0.01426229 0.008429852 -0.01058002
0.01048202 -0.01221882 -0.039
0.01611422 0.003818799 0.01744314
0.01305603 -0.009835615 0.039
0.01466638 0.007689803 -0.03175977
0.008980355 -0.01396053 0.009836357
0.01659856 -2.016064e-05 -0.02061712
0.01550639 0.005806029 0.01505847
0.01226831 0.01114782 0.03617892
0.01597531 -0.004457375 0.01282985
0.008459126 0.0142463 -0.01306885
0.01658025 0.0002761133 -0.01370301
0.01275206 0.003552807 0.039
0.01227677 0.01113936 -0.0332933
0.01654189 0.0008125469 0.005706085
0.01385442 0.0091221 -0.03266656
0.01653431 -0.0009184217 -0.022183
0.01644874 -0.002114938 0.002095154
0.01481154 0.007423963 -0.004179328
0.01564348 0.00543847 -0.02353055
0.01039595 0.01290083 -0.03481558
0.0154517 -0.005952658 -0.0298317
0.01060326 0.01274564 0.02800356
0.009285145 -0.01373237 -0.03368021
0.01508869 -0.006916409 0.02344041
0.01550265 0.005816053 0.006731647
0.0128343 -0.01048482 -0.02770457
0.01434672 -0.008275226 -0.006110729
0.01651808 -0.001145445 -0.0378599
0.01005546 0.01315571 -0.008783293
0.01374112 -0.009273449 0.03177525
0.01592794 -0.00467513 -0.03353007
0.01282998 -0.0104906 -0.001730803
0.01401719 -0.008878717 -0.02891294
0.01497879 -0.00407535 -0.039
0.01433304 0.008300266 -0.02851283
0.01058727 0.01275761 -0.00845829
0.01164312 -0.01177301 -0.006182023
0.01654727 -0.0007372276 -0.003401047
0.00910285 0.01386883 0.01996158
0.01607731 -0.003988464 -0.01054032
0.01270258 0.01066078 0.0004884377
0.01239891 -0.01101723 0.0005543838
0.01652785 0.001008767 -0.01217273
0.01637497 0.00262016 0.01135437
0.01319486 -0.01000316 -0.003006133
0.01407703 0.008769128 -0.007666672
0.01238133 -0.0110348 -0.03418289
0.009814515 -0.01333608 0.02164233
0.01649518 -0.001465517 -0.01973562
0.01648036 0.001672749 0.003481124
0.01105785 0.01235828 -0.02382626
0.01647992 -0.001678976 0.008987644
0.01621847 -0.003339576 0.001025279
0.01460892 0.007795026 -0.0001784527
0.01378304 0.009217459 -0.03008012
0.01287319 0.01043287 -0.02967369
0.01543424 -0.005999469 0.03173816
0.01637317 0.002628444 0.02357243
0.01079088 0.01260519 -0.007596611
0.01613349 -0.003730205 0.01653477
0.009859886 0.01330212 0.03047473
0.009937562 -0.01324397 -0.02888581
0.01207622 -0.01133991 -0.002714092
0.0160361 -0.00417792 -0.02740353
0.01656467 -0.0004939065 0.02922582
0.01113434 -0.007373952 -0.039
0.01364897 0.009396546 0.03057896
0.01315622 -0.01005479 -0.03895447
0.01541448 0.006052448 -0.02016491
0.01581869 -0.00496872 0.03834826
0.01483269 0.00738523 -0.002364983
0.01430477 -0.008352051 -0.01841668
0.0155372 0.005723408 -0.03652948
0.0131773 -0.01002663 -0.0087967
0.008773751 -0.0140745 0.00893409
0.01292074 0.01036935 0.02442064
0.01649146 0.001517533 0.03840634
0.01568342 0.005331376 -0.001075256
0.01655909 0.0005719488 -0.02924664
0.008811876 0.01405368 -0.03186092
0.01124538 -0.01217075 0.03038483
0.01059518 -0.01275168 -0.03594694
0.008109582 0.01443717 -0.001491247
0.01466592 -0.007690648 0.0344721
0.01476993 0.007500166 -0.01114251
0.01463209 -0.007752605 0.03054201
0.01626441 0.003128402 0.03094784
0.01323007 0.0009369562 0.039
0.01144078 -0.01197535 -0.009054289
0.01016076 -0.01307689 -0.009122007
0.01606594 0.004040769 -0.02278435
0.01356185 0.009512927 0.01196614
0.01646106 0.001942608 0.01818607
0.009747511 0.01338624 0.03451878
0.01617727 0.003528983 0.00997513
0.01314908 -0.01006432 0.008562664
0.008338239 0.01431231 -0.008502975
0.01320643 0.009987708 -0.001251431
0.01655663 0.0006063813 0.000201745
0.01504529 0.006995891 -0.01778206
0.009189726 -0.009631853 0.039
0.01367572 0.009360821 0.02977455
0.01337698 0.009635344 -0.039
0.01635471 -0.002713294 -0.01715259
0.01557471 -0.005622856 0.02329298
0.0165435 0.0007899814 -0.0316658
0.01575339 0.005143801 -0.0101405
0.01326118 0.009914573 0.03592767
0.008297169 0.01433473 -0.0153627
0.01601192 -0.004289052 -0.03071327
0.01321383 0.009977825 -0.02678243
0.01461575 0.007782526 -0.00087413
0.008247858 0.01436166 -0.01373196
0.01025323 -0.01300767 -0.002809071
0.01655681 0.000603921 -0.004811558
0.008863065 -0.01402573 0.0006821616
0.01538993 0.00611826 -0.02181468
0.009526805 -0.01355146 0.0070606
0.0165852 0.0002069252 0.03082101
0.01304927 -0.01019766 -0.01284637
0.01628044 -0.00305469 0.03838765
0.01246935 0.01094678 -0.03207425
0.01597235 -0.004470949 -0.005549053
0.01399611 -0.008917312 0.003049971
0.01204353 0.0113726 0.009954414
0.01643439 -0.002315569 0.03153644
0.01658249 0.0002448975 -0.016283
0.01628857 0.003017336 0.002576437
0.01213111 0.01128502 -0.03654591
0.01476191 0.007514861 -0.0385215
0.01584063 0.004909884 -0.003103483
0.01060322 0.01274567 -0.006336214
0.01581124 0.004988682 -0.01976038
0.01381144 -0.009179518 0.006921336
0.01323393 0.009950977 0.009568065
0.01299615 0.01026861 0.006807504
0.01419352 0.000573409 0.039
0.01564227 -0.00544171 0.01362621
0.009627373 0.009234292 0.039
0.01512447 0.006829992 -0.01610336
0.0103126 0.01296322 0.0197072
0.01462453 -0.007766459 0.02696757
0.01122953 0.0121866 -0.02068385
0.008124257 0.01442915 0.03391608
0.009264919 0.01374751 -0.008574074
0.01652796 -0.001007228 -0.005204
0.01277603 -0.01056266 -0.03663696
0.01492001 -0.007225312 -0.02519556
0.0143364 0.008294121 -0.01270494
0.01132927 0.01195207 -0.039
0.01188862 -0.01152752 -0.03414714
0.0146445 0.007729885 0.012527
0.01358132 -0.008712719 0.039
0.01286523 0.007036366 -0.039
0.009350021 0.0136838 -0.01098971
0.01501459 -0.007052115 -0.0005129092
0.01607442 -0.004001736 0.0184778
0.0142213 -0.008504917 -0.009908676
0.0108123 -0.01258915 0.002495498
0.01395859 -0.00023925 -0.039
0.009345634 0.01368708 0.01503765
0.01618 0.003516398 -0.03199337
0.01118293 0.0122332 -0.006861628
0.01177446 0.007869034 -0.039
0.01325923 -0.009917175 0.02701383
0.01646704 0.0018591 -0.01757486
0.01633202 0.00281761 0.003980465
0.01655009 -0.0006978589 -0.0194863
0.01288521 0.01041681 -0.002618012
0.01408047 -0.008762815 0.01449155
0.01615781 -0.003618404 -0.03511386
0.008462778 0.01424431 -0.02884311
0.01089568 0.01252045 0.01727502
0.01443418 0.008115048 0.01718482
0.01325547 -0.009922197 -0.03413405
0.01658912 -0.0001521851 0.01758509
0.01467477 -0.007674446 0.03333725
0.01142022 0.01199591 -0.005968627
0.01506628 0.006957445 0.01153051
0.00926383 -0.01374832 -0.002019544
0.01161883 0.0117973 0.03169508
0.01273966 0.01061124 0.03241541
0.01554967 -0.005689986 -0.0156868
0.008166854 0.01440589 0.01081301
0.01138424 -0.00681328 0.039
0.01388372 0.009082956 -0.006401605
0.01199202 0.01142411 0.002713814
0.01648482 -0.001610433 -0.03382868
0.01364866 0.009396957 -0.03483503
0.01222673 0.0111894 -0.01709346
0.01659577 5.913143e-05 -0.02429535
0.01504326 -0.00699961 0.03457524
0.01433148 -0.008303124 -0.01598807
0.01330287 -0.009858886 -0.008036612
0.0121076 0.01130853 0.01366099
0.009818039 -0.01333345 0.01909768
0.01179332 0.01162281 -0.007660374
0.01446186 -0.008064354 0.01834314
0.01322031 -0.009969174 -0.01606137
0.01618627 -0.003487591 0.03401191
0.01209623 -0.01131991 -0.01976129
0.0112691 -0.01214703 -0.004083023
0.0151824 -0.006674668 -0.003153838
0.01582596 0.00494922 -0.008371937
0.01613038 0.00374453 0.01200842
0.009717482 0.01340872 -0.03286456
0.01441097 0.004176296 -0.039
0.01652547 0.001042138 0.009019839
0.0112635 -0.01215263 -0.007435447
0.01429134 0.008376647 -0.01947836
0.01276559 -0.0105766 -0.007083742
0.0155057 -0.005807881 -0.03626874
0.01031606 0.01296063 0.0273031
0.01368125 0.009353433 0.02912251
0.01206272 -0.01135341 0.02069033
0.01441116 -0.008157214 -0.01997443
0.01138468 0.01203146 -0.01158828
0.01335393 -0.00979067 -0.001791546
0.01214801 -0.01126812 0.02525348
0.01615482 -0.003632175 -0.01383143
0.01141162 -0.01200451 0.007079126
0.0101519 -0.01308352 0.03470245
0.01457216 -0.007862348 -0.005670969
0.01137771 -0.01203843 0.01903123
0.009405015 -0.01364263 -0.006594273
0.01653965 0.0008437855 -0.03665893
0.01459858 0.007813974 -0.001954845
0.0159784 0.004443173 -0.03515619
0.01425289 -0.00844705 0.0214073
0.009394319 -0.01365064 -0.001243952
0.01184906 0.01156707 0.02005236
0.0162513 -0.003188684 -0.01822702
0.01649388 -0.001483823 -0.01329773
0.01355515 -0.00952188 -0.02377033
0.01157718 0.01183895 -0.01558699
0.01511183 -0.006863882 0.007249412
0.01486941 -0.007317978 -0.01266627
0.01176241 -0.01165372 0.007683202
0.01552316 -0.005761049 -0.0355647
0.01266365 0.01071278 0.01362987
0.01384857 -0.009129917 -0.001453533
0.01031963 0.01295796 0.03114349
0.01597421 0.00446242 0.02985156
0.01235513 -0.011061 -0.0208783
0.01658229 0.000247626 -0.02708284
0.0121094 -0.01130673 0.03641902
0.01199244 0.01142369 0.01498244
0.01299178 -0.01027446 -0.009380466
0.01528981 0.006386711 0.004802143
0.009997278 0.01319927 -0.038259
0.01305092 -0.01019545 -0.03290949
0.01069917 0.007866082 0.039
0.01632553 -0.002847433 0.02993229
0.01427965 0.008398052 -0.0046511
0.01323849 0.009944883 -0.03722587
0.0139258 -0.009026743 -0.01976277
0.0165486 0.0007186586 -0.01773405
0.008473786 0.01423829 0.004618371
0.01096065 0.01245548 -0.003192329
0.01621208 0.003368956 0.01256441
0.01600812 -0.004306551 0.03641195
0.0114862 -0.01192993 -0.0337354
0.01648633 -0.001589275 0.01213327
0.01581151 -0.004987954 0.02260542
0.01335523 0.009788943 -0.02444868
0.01055337 -0.01278299 0.003746109
0.01360213 -0.009459124 0.01004831
0.0153025 -0.006352672 -0.01937847
0.009797736 0.01334865 -0.0141933
0.01288028 0.0104234 -0.02147394
0.0151075 -0.006875502 0.01719859
0.01658259 0.0002434135 -0.002120152
0.01317341 0.01003182 -0.004200073
0.008459549 0.01424607 -0.02548828
0.01378173 -0.009219209 0.01265751
0.01601522 0.004273886 0.02789096
0.01645684 -0.002001627 -0.03318559
0.01655954 0.0005657457 -0.03727274
0.01374999 -0.002986475 -0.039
0.0125452 0.01087093 -0.0267489
0.01163174 0.01178439 -0.01272688
0.007641268 0.01469288 0.02563166
0.01094914 -0.01246699 0.03332371
0.01651225 0.001226905 -0.03279552
0.008480883 0.01423442 -0.01433842
0.01545156 -0.005953036 0.003897518
0.01256273 0.01084759 -0.008644169
0.014254 0.008445028 0.0009964457
0.01641491 -0.002436564 0.03831884
0.01518131 0.006677593 0.02424704
0.01085832 0.01255471 0.01469369
0.01434352 0.008281086 0.01045572
0.01648521 -0.001604953 -0.006762993
0.01351274 -0.009578526 -0.03674405
0.01655684 -0.0006034606 -0.02332749
0.01333892 0.009810728 -0.01346204
0.01588228 -0.004798211 -0.02072492
0.00851537 0.01421559 0.02442976
0.009807869 -0.01334106 -0.02268387
0.01235156 0.01106457 -0.01798753
0.01609661 0.003899756 -0.03030782
0.00893589 -0.01398597 0.02280389
0.01215314 -0.01126299 -0.01411883
0.01656401 0.0005031998 -0.00546881
0.008969302 0.009809203 0.039
0.01585801 0.004863295 -0.01531254
0.01068177 0.01268687 0.03832957
0.01542286 0.00597384 -0.039
0.008815615 -0.01405164 0.03238262
0.01590903 0.004726498 0.02465457
0.01085733 0.01255544 0.02744395
0.01446641 -0.002133086 -0.039
0.008896413 -0.01400752 0.01958583
0.01598013 -0.004435201 -0.02540967
0.009466297 -0.01214972 0.039
0.01126723 -0.0121489 -0.02278342
0.01288226 0.01042076 -0.0160803
0.01603493 0.004183304 -0.02619928
0.01264127 -0.003953898 0.039
0.01465425 0.007712011 -0.01944282
0.01634678 0.002749737 0.03231347
0.01330538 -0.00985553 0.03005964
0.009856371 -0.01330475 -0.00708463
0.01232636 0.01108977 -0.02534889
0.0160399 0.00416044 -0.03298491
0.01430503 0.005477282 0.039
0.01176424 -0.01165189 0.02135289
0.00958896 0.01350493 0.004186516
0.01370712 -0.009318871 -0.01551203
0.0163364 -0.002797478 0.03773878
0.01132619 0.01208994 0.01428201
0.008882281 0.01401524 0.03416679
0.01145758 -0.01195856 0.02757453
0.01644165 0.00221405 0.00974133
0.01489937 -0.007263125 0.02450868
0.01536591 -0.006182667 -0.002475747
0.009131223 -0.01384759 0.02528321
0.01014702 0.01308718 -0.01370153
0.01291322 -0.0103794 0.02663658
0.008406326 0.01427513 -0.0006271248
0.01505106 -0.006275261 -0.039
0.01337753 0.009759157 0.02319807
0.009542713 -0.01353955 -0.0004168205
0.01016456 0.01307404 -0.01557146
0.01651927 0.001128772 0.002193069
0.01650109 -0.001382891 -0.005869605
0.01299294 0.01027291 -0.01161413
0.01653866 0.0008575859 -0.007036649
0.009692404 -0.0134275 0.03099938
0.01558684 -0.005590336 -0.03798093
0.01268796 -0.0106803 0.01327944
0.0158853 0.004790124 0.0006131935
0.01411972 0.007773461 -0.039
0.01640348 -0.002489082 -0.007560542
0.01370771 -0.009318083 -0.03289297
0.01119605 0.01222008 -0.01830968
0.00970196 -0.01342034 -0.01175766
0.0159141 -0.004712912 -0.03814043
0.009321815 0.01370492 -0.01736263
0.01243487 0.01098127 -0.0113525
0.01598508 0.004412432 -0.007560384
0.01375456 -0.009255492 -0.03149372
0.01236882 0.007624198 0.039
0.01369844 0.009330458 0.036811
0.0130419 -0.0102075 0.007884334
0.009088599 0.0138795 -0.0008019042
0.01555589 0.0056733 0.01435381
0.01121657 -0.01219956 -0.01887362
0.01065067 0.01271015 0.01101714
0.01390512 0.009054376 -0.03725022
0.0165755 -0.0003425519 0.03438453
0.01657282 -0.0003800832 -0.03471197
0.01272759 0.01062736 -0.01769927
0.01541951 0.006038967 -0.03078816
0.01441869 0.008143414 0.02339433
0.01397145 -0.006016343 0.039
0.01106021 -0.01235592 0.01520944
0.01643526 0.002303432 -0.01698632
0.01605028 -0.004112714 0.008902245
0.01160601 -0.01181012 -0.02323629
0.0151325 -0.006808468 0.03228386
0.01535857 0.006202353 0.02327294
0.0131057 -0.01012227 0.03234702
0.01559323 0.005573203 0.007456634
0.009346069 -0.01368676 -0.03108467
0.01498684 0.007102922 -0.001502006
0.01638969 -0.00255248 -0.002888966
0.01621054 -0.00337605 0.02539016
0.01510753 -0.006875408 0.03293195
0.01472843 -0.007576175 0.002991927
0.0120018 -0.01141433 0.00860585
0.01070077 -0.01267264 -0.02529946
0.01336481 0.003805803 0.039
0.01585897 0.004860723 0.01035893
0.01532668 -0.006287841 -0.03454377
0.01403903 0.008838699 0.02349386
0.01658315 -0.0002355209 0.01347101
0.01430373 0.008353951 0.03541486
0.01067096 0.01269496 -0.01512166
0.01085815 0.01255483 0.02910751
0.0142968 -0.008366639 0.03261365
0.007695086 0.01258781 0.039
0.0132763 -0.009894375 -0.02716041
0.01214783 -0.0112683 -0.008345014
0.01546945 0.005905077 0.03407025
0.01093724 0.01247889 -0.02660236
0.01357783 -0.0008728945 -0.039
0.01410021 -0.008726674 0.03199739
0.01611258 0.003826338 -0.0005310745
0.01214387 -0.01127227 -0.03828324
0.01256875 0.01083955 -0.02840176
0.01615992 -0.003608708 -0.027789
0.01560943 -0.005529761 0.01525249
0.01127646 -0.01213967 -0.02142179
0.01620379 0.003407045 0.0337381
0.0112769 0.008515274 -0.039
0.01511346 -0.006859514 -0.001327499
0.01606354 -0.004051796 0.02683512
0.009309265 -0.01371431 -0.01660043
0.01587355 -0.004821627 0.007706363
0.0135905 0.009474661 -0.01128951
0.01538581 0.006129324 0.03805968
0.008093232 0.01444609 0.02710233
0.0123955 -0.01102063 0.01394414
0.01314947 0.0100638 -0.022641
0.01550741 -0.005803291 -0.004352928
0.01271473 -0.01064454 -0.0004722424
0.016549 0.0007130053 0.0304129
0.01485745 -0.007339895 0.02756505
0.01598314 0.004421364 -0.0360113
0.01550002 0.005823103 -0.03336
0.01518901 0.006656946 -0.02827733
0.008782744 0.01406959 0.01590569
0.0165932 9.509288e-05 0.02147863
0.01431006 -0.005651662 -0.039
0.01216656 0.01124958 0.01836337
0.01462428 -0.007766909 -0.03076065
0.009760873 0.01337624 -0.007496263
0.009414284 -0.01363569 0.02869342
0.01377776 0.009224511 -0.03640798
0.01004518 0.01316341 0.03363094
0.01414127 0.008651472 -0.02502435
0.0099174 0.01029899 -0.039
0.01371253 -0.009311639 -0.02241534
0.01657359 -0.0003693136 0.03113631
0.015481 -0.005874102 -0.01503121
0.01509653 -0.006902051 0.0002260248
0.01026416 -0.01299948 0.01358244
0.01288048 -0.01042313 0.01055053
0.01194094 -0.01147519 0.009434843
0.0132382 -0.004312222 0.039
0.01077699 -0.01261559 -0.0004444886
0.0146434 0.007731895 -0.03043527
0.01426841 0.008418633 0.02819375
0.0133529 -0.009792055 0.03382371
0.01564876 0.005424328 0.03830545
0.01624582 -0.003213845 0.004115578
0.01001232 -0.009025132 0.039
0.01646121 -0.001940507 -0.02465613
0.008858929 0.01402799 -0.006100993
0.01474393 -0.007547792 0.03258882
0.01193141 0.01148472 -0.01642643
0.01027569 0.01299085 -0.01038215
0.01633802 0.00278999 0.01642963
0.0165821 0.0002502533 -0.02991409
0.01430563 -0.008350477 -0.01935986
0.01650263 0.001361395 -0.0352557
0.01248316 -0.01093298 -0.03711492
0.01403837 -0.008839925 -0.0309511
0.0135469 -0.0095329 0.02133832
0.01509375 -0.00690714 0.006371623
0.01237156 0.01104457 0.01464706
0.01042032 -0.01288258 -0.02983534
0.007836194 0.01458644 -0.0008686314
0.01637583 0.002616227 0.01384056
0.01647581 0.001736359 -0.008378005
0.01044802 -0.01286185 0.0005557699
0.01628188 -0.003048085 -0.03147194
0.01627497 0.003079862 -0.03570466
0.01438808 0.007306139 0.039
0.01656815 -0.000445292 -0.0293141
0.01001993 -0.01318231 0.01056964
0.01566974 0.005368072 -0.02658612
0.01466602 0.007690472 -0.03614283
0.01246304 -0.007034739 -0.039
0.01653122 0.0009616189 0.0389234
0.01474556 -0.007544803 0.007905845
0.01262639 -0.005898506 0.039
0.01028098 -0.0129869 -0.01419826
0.01621281 0.003365584 0.0207713
0.009244621 0.0137627 -0.002418977
0.01138874 0.01202739 -0.02947245
0.01552012 -0.00576921 0.0253254
0.008880301 0.01401632 0.02861703
0.01622374 -0.003315348 0.01526342
0.0117484 -0.01166773 -0.01247113
0.01232293 -0.0110932 0.005986225
0.01221665 0.01119948 0.03537877
0.01374799 -0.009264269 0.01935965
0.01619281 0.003457538 0.01060444
0.01396647 0.008971599 0.01001121
0.01565213 -0.005415278 0.01783882
0.0164458 -0.002156034 -0.01338283
0.01373705 -0.009278885 -0.02111138
0.01310354 -0.002480172 0.039
0.01606303 0.004054111 -0.002862768
0.01215758 -0.01125856 0.001107277
0.01141168 0.01200445 0.01178135
0.0162754 0.003077866 -0.007428562
0.01567965 -0.005341503 0.02392119
0.01189866 -0.0072607 0.039
0.01644002 0.002236819 0.01560299
0.01565246 -0.005414403 0.008645643
0.01431006 0.008342352 0.03310551
0.0132644 0.009910275 0.01736186
0.01086974 0.01254615 0.001854496
0.01314545 0.01006917 0.02979552
0.01072652 -0.007933868 -0.039
0.01526653 0.006449111 0.02785584
0.01655375 0.0006466054 0.006405977
0.01471104 -0.00760802 -0.01983578
0.008952433 0.01397693 -0.03097898
0.01302719 0.01022715 -0.03410543
0.0131331 -0.01008567 0.009867517
0.01653139 0.0009593142 -0.009156784
0.01479692 0.007450749 0.001108127
0.01657412 0.0003619221 -0.01256232
0.01437121 -0.008230363 -0.008814081
0.008933582 -0.01398723 0.01297752
0.01189022 -0.01152591 0.006971374
0.007536497 0.01475009 0.03844733
0.01410667 0.008714834 0.0359073
0.009871729 -0.01329325 0.01133689
0.01214976 -0.01126637 0.01159284
0.01400616 -0.008898911 -0.02558385
0.01637083 0.002639167 -0.01003861
0.01650072 0.001388127 0.006187375
0.00938821 -0.01365521 -0.009351116
0.01229346 0.01112268 0.02612295
0.01013942 0.01309286 0.01104956
0.01108575 -0.01233038 -0.01951032
0.0121118 -0.01130433 0.01255093
0.01207283 0.0113433 0.005876291
0.01156552 -0.006906223 -0.039
0.01210353 0.01131261 -0.01193009
0.009847476 0.01331141 0.02567759
0.01511055 0.006867303 0.01690639
0.01628121 0.003051157 -0.003604207
0.0152658 -0.006451082 -0.02518311
0.01516045 0.006733516 0.02881899
0.01317644 0.01002777 -0.01039708
0.01657911 0.0002921578 0.03157395
0.0147454 0.007545084 0.02323684
0.01175427 0.01166186 -0.01997924
0.01248566 0.01071875 0.039
0.01005151 0.01315867 0.03831717
0.009231525 -0.0137725 0.02166924
0.01624508 -0.003217254 -0.01144483
0.009814867 -0.01333582 -0.01022195
0.01125691 0.01215922 0.02956624
0.01649359 -0.001487872 -0.02519953
0.01593031 -0.004664239 0.005791618
0.01362696 0.008284391 0.039
0.01403948 -0.008837885 0.005435
0.01008045 -0.013137 0.0383531
0.01370239 -0.009325188 -0.008885878
0.007362278 0.01484522 0.0371377
0.01492262 -0.007019944 0.039
0.0126175 -0.01077443 0.01163743
0.01249933 0.00798262 -0.039
0.01596508 -0.004504379 0.008340591
0.01403226 0.008851108 -0.008389645
0.01126589 0.01215024 0.006702232
0.01423806 0.008474204 -0.02339537
0.01510006 0.00689544 0.005260272
0.01308114 -0.01015508 0.02837727
0.01362641 0.009426682 0.00350427
0.01397129 -0.002699539 0.039
0.01213354 0.01128259 0.02132457
0.01623276 -0.003273893 0.01312535
0.01180702 0.01160911 -0.01134165
0.01405811 -0.008803763 0.02984825
0.01618011 0.003515905 0.03515505
0.0160071 -0.004311213 0.02782918
0.01637194 -0.002634071 -0.009747131
0.01557175 -0.00563078 -0.01931155
0.01659053 -0.000132373 -0.001506371
0.01484189 -0.007368387 -0.002621392
0.01657603 -0.000335231 0.009208006
0.01651458 0.001194338 0.03562589
0.01625613 -0.003166466 -0.037646
0.01399444 0.008920365 0.01192559
0.01431538 0.008332621 0.007553378
0.0143116 0.008339541 0.03232808
0.0128998 -0.01039732 0.0038203
0.01253386 0.01088227 0.03095235
0.01377297 0.009230911 0.01479641
0.01377108 0.009233432 0.006888845
0.0106592 0.01270376 0.009426967
0.01658673 -0.0001855821 0.03212788
0.01442549 -0.008130969 0.03202108
0.01045261 -0.008618413 -0.039
0.01284756 0.01046711 0.01936708
0.009427665 0.01362568 -0.01660542
0.01168098 -0.01173515 -0.02179471
0.0163694 -0.00264577 0.01764986
0.01574733 -0.005160031 0.01085193
0.01103476 -0.01238137 0.003841896
0.008149058 0.01441561 -0.02066486
0.01331866 0.009837791 -0.03214126
0.01079932 -0.008925534 0.039
0.01531715 0.006313406 -0.02102423
0.01429288 -0.008373829 -0.02986436
0.01544292 0.005976196 -0.03834142
0.01566545 0.005379569 -0.003526995
0.01653661 -0.0008862937 -0.00982687
0.01483503 0.007380954 -0.007504353
0.01563892 -0.005450702 -0.0162866
0.01601175 -0.004289875 0.0009942017
0.01638498 0.002574137 -0.008002324
