ply
format ascii 1.0
comment VCGLIB generated
element vertex 576
property float x
property float y
property float z
property float nx
property float ny
property float nz
property uchar red
property uchar green
property uchar blue
property uchar alpha
property float quality
element face 0
property list uchar int vertex_indices
property uchar red
property uchar green
property uchar blue
property uchar alpha
end_header
13.0328 7.430382 39 1.417539 0.8554016 3.14187 255 255 255 255 0.1935042 
16.42827 2.375137 -5.132643 3.101171 0.4483562 -0.39466 255 255 255 255 0.2499861 
10.01106 -13.18895 33.14243 1.889792 -2.489683 2.548392 255 255 255 255 0.2503309 
12.16684 11.24929 28.75882 2.296739 2.123532 2.211326 255 255 255 255 0.2501957 
11.84552 11.57061 23.69375 2.236083 2.184189 1.821863 255 255 255 255 0.2501109 
15.07618 6.939312 21.47337 2.845936 1.309936 1.651132 255 255 255 255 0.2499329 
16.53139 -0.9593744 12.77929 3.120635 -0.1811017 0.9826266 255 255 255 255 0.2502057 
10.677 -10.85697 39 1.253307 -1.446393 3.117087 255 255 255 255 0.2042399 
13.72134 9.299872 4.762564 2.590183 1.75554 0.3662038 255 255 255 255 0.2499976 
15.49385 5.839653 -1.415531 2.924779 1.102353 -0.1088425 255 255 255 255 0.2498691 
16.30225 2.954458 1.921927 3.077381 0.5577145 0.1477805 255 255 255 255 0.2499734 
12.75493 -10.59085 1.890643 2.407753 -1.999237 0.1453754 255 255 255 255 0.250217 
16.18969 3.47187 -35.152 3.056134 0.6553864 -2.702912 255 255 255 255 0.2497455 
16.20035 3.422876 -13.2804 3.058146 0.6461378 -1.021159 255 255 255 255 0.2498588 
13.57989 9.488826 -21.0473 2.563481 1.791209 -1.618371 255 255 255 255 0.2498706 
11.75838 11.65776 -27.877 2.219633 2.200639 -2.143522 255 255 255 255 0.2498139 
16.35603 2.707227 34.44157 3.087533 0.5110446 2.648286 255 255 255 255 0.2501506 
16.54967 -0.7036821 24.90276 3.124087 -0.1328345 1.914826 255 255 255 255 0.2502147 
8.558459 14.19206 11.43277 1.615583 2.67904 0.8790902 255 255 255 255 0.2497946 
16.43598 -2.293303 -31.565 3.102626 -0.4329082 -2.4271 255 255 255 255 0.2499783 
15.31966 -6.306659 23.28023 2.891898 -1.19051 1.790066 255 255 255 255 0.2501249 
16.30407 -2.946073 -23.83127 3.077725 -0.5561317 -1.832436 255 255 255 255 0.2499681 
10.93807 12.47807 -28.61699 2.064782 2.355489 -2.200421 255 255 255 255 0.2497372 
14.30477 8.352045 -17.49471 2.700317 1.576618 -1.345206 255 255 255 255 0.2498342 
11.10957 12.30656 4.564365 2.097157 2.323114 0.3509638 255 255 255 255 0.2498901 
15.25957 6.467761 -8.559532 2.880555 1.220921 -0.6581604 255 255 255 255 0.2498583 
13.58872 -4.264576 -39 0.9018963 -0.2497508 -3.21185 255 255 255 255 0.1675089 
10.63111 12.72479 -15.86701 2.006839 2.402062 -1.220048 255 255 255 255 0.2497741 
10.4159 -12.88589 -30.46935 1.966213 -2.432475 -2.342853 255 255 255 255 0.2500462 
14.32812 -8.309288 26.23349 2.704724 -1.568547 2.017149 255 255 255 255 0.2502219 
10.84114 -12.56756 -21.04198 2.046485 -2.372384 -1.617962 255 255 255 255 0.2500806 
14.33935 -8.28872 -5.111652 2.706844 -1.564664 -0.3930455 255 255 255 255 0.2501271 
16.50726 1.296635 -22.82536 3.116082 0.2447666 -1.755091 255 255 255 255 0.249996 
11.27387 12.14226 26.48801 2.128172 2.292099 2.036719 255 255 255 255 0.2500017 
12.17227 11.24386 -1.494465 2.297763 2.122508 -0.1149125 255 255 255 255 0.250016 
15.31133 -6.328989 9.888419 2.890326 -1.194725 0.7603413 255 255 255 255 0.2500802 
9.271152 13.74284 -25.66859 1.750119 2.594241 -1.973713 255 255 255 255 0.2497712 
10.69829 12.6745 18.10482 2.01952 2.39257 1.392118 255 255 255 255 0.2498923 
14.57333 7.860212 -16.31786 2.751013 1.483775 -1.254716 255 255 255 255 0.2498394 
15.30306 6.351161 33.63078 2.888765 1.19891 2.585942 255 255 255 255 0.2499565 
15.44401 -5.973258 -22.79049 2.915372 -1.127574 -1.752409 255 255 255 255 0.2499451 
16.11722 -3.805005 -11.81262 3.042454 -0.7182723 -0.9082973 255 255 255 255 0.2499486 
16.44558 -2.159036 -19.39826 3.104438 -0.4075626 -1.491573 255 255 255 255 0.2500315 
16.02834 -4.213583 23.11836 3.025676 -0.7953994 1.777621 255 255 255 255 0.2500823 
12.64263 -10.74086 4.35635 2.386555 -2.027555 0.3349688 255 255 255 255 0.2502292 
12.74543 -10.60354 16.05201 2.405959 -2.001634 1.234272 255 255 255 255 0.2502822 
14.52501 -7.948711 15.75927 2.741891 -1.500481 1.211764 255 255 255 255 0.2501868 
12.97636 -10.29505 17.45814 2.449552 -1.9434 1.342394 255 255 255 255 0.2502838 
16.12368 -3.775328 24.79235 3.043672 -0.7126701 1.906337 255 255 255 255 0.2501031 
15.26945 -6.441285 -27.53244 2.88242 -1.215923 -2.117027 255 255 255 255 0.2499915 
8.249704 14.36065 30.49622 1.557299 2.710865 2.34492 255 255 255 255 0.2498673 
14.74501 -7.5458 7.208856 2.783422 -1.424423 0.5543047 255 255 255 255 0.2501562 
14.05341 8.81238 30.33275 2.652867 1.663516 2.33235 255 255 255 255 0.2501081 
9.890131 -13.27948 15.36559 1.866963 -2.506772 1.181493 255 255 255 255 0.2502496 
9.813496 -13.33685 24.1047 1.852497 -2.517601 1.853462 255 255 255 255 0.2502899 
10.34779 9.73654 -39 0.6283979 0.7252101 -3.209635 255 255 255 255 0.170921 
16.31396 -2.900642 36.87317 3.079591 -0.5475558 2.835257 255 255 255 255 0.2501718 
12.50638 10.90975 24.34333 2.360834 2.059437 1.871811 255 255 255 255 0.2502097 
16.49271 -1.500065 24.37266 3.113335 -0.2831683 1.874066 255 255 255 255 0.250203 
16.48072 1.667727 -16.90045 3.111072 0.3148178 -1.299512 255 255 255 255 0.249939 
14.40414 8.170055 -1.358052 2.719075 1.542264 -0.1044241 255 255 255 255 0.2498924 
11.13515 12.28099 -8.315269 2.101985 2.318287 -0.6393787 255 255 255 255 0.2498499 
13.35199 9.793266 -9.319172 2.52046 1.848678 -0.7165709 255 255 255 255 0.2499293 
11.056 -9.581771 39 0.9447945 -0.9504092 3.172399 255 255 255 255 0.1828636 
14.7996 -7.445826 -34.20833 2.793726 -1.405551 -2.63035 255 255 255 255 0.2500335 
14.55865 -7.887092 27.71062 2.748242 -1.488849 2.130729 255 255 255 255 0.2502185 
16.56144 -0.5391854 19.32481 3.126308 -0.1017824 1.485926 255 255 255 255 0.2502146 
13.54145 9.540177 25.83579 2.556225 1.800903 1.986569 255 255 255 255 0.2501205 
11.69401 11.72212 12.89657 2.207482 2.212789 0.9916444 255 255 255 255 0.2500412 
16.51305 -1.215652 5.419132 3.117175 -0.2294794 0.4166888 255 255 255 255 0.2501988 
10.80317 -12.59598 -37.24515 2.039319 -2.377748 -2.863858 255 255 255 255 0.2500072 
11.36935 -12.04678 19.79181 2.146196 -2.274075 1.521835 255 255 255 255 0.2502775 
16.19302 3.456559 38.87722 3.056762 0.6524961 2.989352 255 255 255 255 0.2500867 
14.86475 -7.326529 -3.92394 2.806023 -1.383031 -0.3017197 255 255 255 255 0.2501217 
16.46723 -1.856314 -27.97831 3.108526 -0.3504175 -2.151311 255 255 255 255 0.250036 
14.81528 7.417123 11.93476 2.796685 1.400133 0.9176887 255 255 255 255 0.2499081 
13.2788 9.891037 -18.2917 2.506644 1.867135 -1.406488 255 255 255 255 0.2498852 
16.51137 -1.239161 -30.48399 3.116858 -0.2339171 -2.343978 255 255 255 255 0.2500932 
15.75376 0.7328899 -39 2.381151 0.1383481 -3.070807 255 255 255 255 0.222481 
9.801916 13.34552 -3.803162 1.850311 2.519238 -0.2924335 255 255 255 255 0.2498352 
16.40048 -2.502887 16.40418 3.095924 -0.4724714 1.261353 255 255 255 255 0.2501198 
15.13623 -6.798458 -27.02277 2.857272 -1.283347 -2.077837 255 255 255 255 0.2500383 
9.286044 13.73169 -27.39866 1.75293 2.592136 -2.106742 255 255 255 255 0.2497668 
14.70885 7.61203 8.205608 2.776595 1.436925 0.630946 255 255 255 255 0.2498983 
8.608451 -14.16476 29.93301 1.62502 -2.673887 2.301613 255 255 255 255 0.2503236 
15.29418 -6.374995 34.99888 2.887087 -1.20341 2.691139 255 255 255 255 0.2501857 
8.331294 14.3161 5.912417 1.572701 2.702456 0.4546189 255 255 255 255 0.2497702 
14.87408 -7.309426 22.05706 2.807786 -1.379803 1.696014 255 255 255 255 0.2501929 
14.95338 7.164199 -13.6724 2.822755 1.352388 -1.0513 255 255 255 255 0.2498491 
13.2964 -9.867532 -20.82908 2.509966 -1.862697 -1.601593 255 255 255 255 0.2501082 
16.26006 -3.148374 -16.45899 3.069418 -0.5943199 -1.265566 255 255 255 255 0.2499858 
13.70131 -9.326626 4.728194 2.586402 -1.76059 0.3635607 255 255 255 255 0.2501815 
13.9977 8.914404 19.96535 2.642351 1.682775 1.535179 255 255 255 255 0.2500663 
15.88079 -4.802229 -7.230614 2.997822 -0.9065183 -0.5559777 255 255 255 255 0.2498979 
12.40502 11.01111 27.05295 2.3417 2.078572 2.080159 255 255 255 255 0.250222 
12.84001 -3.09875 39 0.001292579 -0.0003795354 3.302569 255 255 255 255 0.1291623 
8.848443 -14.03372 4.263477 1.670324 -2.64915 0.3278278 255 255 255 255 0.250227 
13.16099 10.04841 37.90023 2.484405 1.896843 2.914229 255 255 255 255 0.2502405 
8.77136 14.07581 -3.572101 1.655773 2.657095 -0.2746663 255 255 255 255 0.2497822 
14.16711 8.604153 -7.003007 2.67433 1.624209 -0.5384765 255 255 255 255 0.2499045 
9.795088 13.35063 -36.26902 1.849022 2.520203 -2.788802 255 255 255 255 0.2497229 
15.27511 6.426102 21.92591 2.883489 1.213057 1.685929 255 255 255 255 0.2499297 
9.37094 13.66814 33.1301 1.768955 2.58014 2.547444 255 255 255 255 0.2498787 
15.28152 -6.408931 34.27615 2.884697 -1.209816 2.635566 255 255 255 255 0.2501839 
16.53993 -0.8398608 -18.53708 3.122249 -0.158541 -1.425355 255 255 255 255 0.2501737 
10.04339 13.16475 26.42045 1.895894 2.485115 2.031524 255 255 255 255 0.2498997 
11.38832 12.02781 19.31595 2.149777 2.270494 1.485244 255 255 255 255 0.2500002 
12.14917 -11.26696 -28.20927 2.293403 -2.126869 -2.16907 255 255 255 255 0.2500724 
11.65186 11.76427 -1.341248 2.199526 2.220746 -0.1031314 255 255 255 255 0.2499822 
16.51097 -1.244797 18.3107 3.116782 -0.2349811 1.407949 255 255 255 255 0.2502041 
16.51634 -1.169756 -28.93079 3.117795 -0.2208155 -2.22455 255 255 255 255 0.2501055 
13.75358 -9.256805 27.23025 2.596268 -1.74741 2.093791 255 255 255 255 0.250249 
16.51431 -1.198144 -32.77868 3.117412 -0.2261743 -2.520422 255 255 255 255 0.2500902 
16.36206 -2.67951 36.08345 3.088671 -0.5058126 2.774534 255 255 255 255 0.2501768 
15.74533 -5.16539 -9.717041 2.972253 -0.9750723 -0.7471645 255 255 255 255 0.2499045 
12.40356 11.01257 -31.25558 2.341424 2.078847 -2.403308 255 255 255 255 0.2498292 
13.15248 -10.05979 -4.150466 2.482798 -1.898989 -0.3191383 255 255 255 255 0.250186 
16.34738 2.746969 -8.756003 3.085901 0.5185468 -0.673268 255 255 255 255 0.2499373 
8.461563 14.24497 -17.33221 1.597292 2.689028 -1.33271 255 255 255 255 0.249738 
16.51459 1.194234 -10.89396 3.117464 0.2254362 -0.8376595 255 255 255 255 0.2500176 
16.42591 2.385995 28.51302 3.100725 0.4504057 2.192426 255 255 255 255 0.2501532 
14.86814 -7.32031 -8.347832 2.806664 -1.381857 -0.6418821 255 255 255 255 0.2501094 
16.29784 -2.974703 7.028651 3.07655 -0.5615361 0.5404484 255 255 255 255 0.2500736 
13.69639 9.333196 -25.23297 2.585474 1.761831 -1.940217 255 255 255 255 0.2498495 
9.879335 13.28756 -17.41759 1.864926 2.508298 -1.339276 255 255 255 255 0.2497873 
16.46467 1.892217 16.24803 3.108041 0.357195 1.249345 255 255 255 255 0.2500986 
15.4651 -5.916724 -28.0391 2.919353 -1.116902 -2.155986 255 255 255 255 0.2499235 
14.67031 7.682606 -20.12249 2.76932 1.450248 -1.547261 255 255 255 255 0.2498313 
16.16553 -3.582931 -4.475562 3.051573 -0.6763514 -0.344135 255 255 255 255 0.2500048 
16.59673 0.04573067 -6.965772 3.13297 0.008632612 -0.5356129 255 255 255 255 0.2502036 
15.10878 -4.713383 39 2.312312 -0.7095424 3.067937 255 255 255 255 0.2226306 
14.08462 8.755228 -11.48361 2.658758 1.652727 -0.8829998 255 255 255 255 0.2498963 
7.912703 14.54467 -17.54573 1.493684 2.745602 -1.349128 255 255 255 255 0.249702 
8.968699 13.96805 -24.19814 1.693025 2.636754 -1.860647 255 255 255 255 0.249759 
12.96263 10.31339 10.77759 2.44696 1.946862 0.8287117 255 255 255 255 0.2500781 
14.85478 -7.344779 5.343803 2.804142 -1.386476 0.4108967 255 255 255 255 0.2501475 
16.5244 -1.056984 -31.58205 3.119317 -0.1995275 -2.428411 255 255 255 255 0.250109 
11.77198 -11.64416 30.30349 2.2222 -2.198071 2.330099 255 255 255 255 0.2503339 
16.02489 4.229453 22.51697 3.025024 0.7983953 1.731378 255 255 255 255 0.2499333 
9.076574 -11.08915 -39 0.6806876 -0.7855555 -3.201891 255 255 255 255 0.1704234 
15.79194 5.040444 -33.34866 2.98105 0.9514862 -2.56425 255 255 255 255 0.2496773 
16.47882 -1.694279 0.1650314 3.110713 -0.3198301 0.01268983 255 255 255 255 0.2501433 
10.52942 12.80091 -11.67255 1.987643 2.416433 -0.897527 255 255 255 255 0.2497914 
16.54534 -0.7642527 22.36717 3.12327 -0.1442685 1.719859 255 255 255 255 0.2502127 
14.86965 7.317548 19.41859 2.806949 1.381336 1.493136 255 255 255 255 0.2499262 
9.342331 13.68956 18.20931 1.763555 2.584183 1.400152 255 255 255 255 0.2498513 
13.99498 8.919387 1.395573 2.641837 1.683716 0.1073084 255 255 255 255 0.249975 
16.545 -0.768978 14.88054 3.123206 -0.1451605 1.144196 255 255 255 255 0.2502094 
13.29818 -9.865155 24.45253 2.510302 -1.862249 1.880207 255 255 255 255 0.2502788 
11.69679 -11.71934 25.30603 2.208007 -2.212264 1.945834 255 255 255 255 0.2503094 
15.29308 -6.377939 20.23027 2.886879 -1.203966 1.555548 255 255 255 255 0.2501148 
16.51027 1.254622 24.04346 3.116649 0.2368358 1.848752 255 255 255 255 0.2501438 
9.52516 13.55269 12.56688 1.798068 2.558347 0.9662939 255 255 255 255 0.2498503 
11.0063 12.40983 23.80341 2.077663 2.342609 1.830295 255 255 255 255 0.2499364 
16.3657 1.820553 39 3.013092 0.3312723 3.008181 255 255 255 255 0.2464549 
13.16201 -10.04706 -24.58815 2.484597 -1.896587 -1.890636 255 255 255 255 0.250092 
9.283998 13.73322 -19.86814 1.752543 2.592426 -1.527704 255 255 255 255 0.249782 
15.55062 -5.687437 9.954596 2.935496 -1.073619 0.7654296 255 255 255 255 0.2500277 
16.45339 -2.049887 23.87363 3.105912 -0.3869584 1.835695 255 255 255 255 0.2501816 
11.32112 -12.09501 -35.21653 2.137092 -2.283179 -2.707873 255 255 255 255 0.2500242 
15.12729 -6.82244 13.27765 2.855583 -1.287874 1.020947 255 255 255 255 0.2501521 
16.53019 0.9760437 37.42697 3.12041 0.1842484 2.87784 255 255 255 255 0.2502134 
14.81967 7.409073 35.12066 2.797515 1.398613 2.700501 255 255 255 255 0.2500025 
16.39638 -2.521733 -27.24092 3.09515 -0.4760289 -2.094612 255 255 255 255 0.2499794 
14.60427 7.803558 1.63386 2.756853 1.47308 0.1256302 255 255 255 255 0.2498819 
14.62536 7.764921 -34.54246 2.760835 1.465787 -2.656043 255 255 255 255 0.249797 
13.97043 -8.964344 20.7139 2.637203 -1.692202 1.592736 255 255 255 255 0.2502102 
15.25651 6.47598 32.97366 2.879977 1.222473 2.535415 255 255 255 255 0.2499561 
15.28129 -6.409543 -1.830952 2.884655 -1.209931 -0.1407859 255 255 255 255 0.2500582 
7.750714 14.63312 18.96093 1.463105 2.7623 1.457946 255 255 255 255 0.2498377 
16.48207 -1.648942 -31.36293 3.111325 -0.3112718 -2.411562 255 255 255 255 0.2500471 
16.5006 1.389759 -29.81405 3.114824 0.2623457 -2.292466 255 255 255 255 0.249978 
10.79619 12.60121 19.91286 2.038 2.378735 1.531142 255 255 255 255 0.2498963 
10.39594 12.90083 28.66153 1.962445 2.435295 2.203846 255 255 255 255 0.2499207 
11.68344 11.73269 -10.50183 2.205487 2.214784 -0.8075076 255 255 255 255 0.2499265 
14.81953 -2.690217 -39 1.709793 -0.2458315 -3.135172 255 255 255 255 0.1973379 
15.33678 -6.260771 19.44555 2.895129 -1.181848 1.495209 255 255 255 255 0.2501037 
9.061877 13.8995 18.89421 1.710614 2.623814 1.452816 255 255 255 255 0.2498389 
9.524794 -13.55297 13.13813 1.797999 -2.558398 1.01022 255 255 255 255 0.2502427 
12.41569 11.00044 16.23719 2.343715 2.076557 1.248512 255 255 255 255 0.2501498 
9.893108 13.27725 -9.775734 1.867526 2.506351 -0.7516772 255 255 255 255 0.2498139 
10.34772 12.93694 -24.89935 1.953342 2.44211 -1.914564 255 255 255 255 0.2497493 
12.6096 10.78498 -19.80344 2.380319 2.035885 -1.522728 255 255 255 255 0.2499082 
12.20501 -11.21112 -9.651464 2.303944 -2.116327 -0.7421218 255 255 255 255 0.2501588 
16.29474 2.988967 35.88011 3.075964 0.5642287 2.758898 255 255 255 255 0.2501256 
15.5207 5.767667 20.98124 2.929847 1.088764 1.613293 255 255 255 255 0.2499211 
10.58924 12.75613 -30.16752 1.998935 2.407979 -2.319645 255 255 255 255 0.2497247 
8.785009 -14.06835 -1.143889 1.658349 -2.655688 -0.0879564 255 255 255 255 0.2502061 
15.86961 -4.832179 16.44876 2.995713 -0.9121719 1.264781 255 255 255 255 0.2500153 
16.43561 2.298494 -6.777809 3.102556 0.4338881 -0.5211603 255 255 255 255 0.2499795 
16.58953 -0.1464412 27.19528 3.131611 -0.02764381 2.091103 255 255 255 255 0.2502237 
13.16926 -10.03736 -23.00764 2.485967 -1.894756 -1.769107 255 255 255 255 0.2500992 
11.41615 11.99998 -24.40444 2.155031 2.26524 -1.876509 255 255 255 255 0.2498171 
14.83733 -7.376743 -11.8555 2.800847 -1.39251 -0.9115936 255 255 255 255 0.2501008 
15.44178 -5.979247 37.54222 2.91495 -1.128704 2.886702 255 255 255 255 0.2501778 
15.36208 -3.87548 39 2.363373 -0.6443806 3.06484 255 255 255 255 0.2237974 
16.35971 2.690314 22.86158 3.088228 0.507852 1.757875 255 255 255 255 0.2500998 
16.40786 2.468968 -25.97832 3.097317 0.4660685 -1.997528 255 255 255 255 0.2498742 
11.7388 11.67733 29.2017 2.215937 2.204334 2.245381 255 255 255 255 0.2501081 
15.74535 5.165357 -27.23754 2.972255 0.9750661 -2.094353 255 255 255 255 0.2497121 
12.4036 11.01253 -16.12651 2.341432 2.078839 -1.240001 255 255 255 255 0.2499311 
14.06093 -8.798611 -15.57485 2.654286 -1.660917 -1.197583 255 255 255 255 0.2500941 
16.55475 0.6327425 13.35791 3.125045 0.1194432 1.027118 255 255 255 255 0.2501183 
8.886249 -14.01307 16.9637 1.67746 -2.645253 1.304375 255 255 255 255 0.2502756 
15.80571 -5.003517 2.46899 2.983649 -0.9445154 0.1898457 255 255 255 255 0.2499558 
11.28647 12.12966 24.30282 2.130551 2.289721 1.868695 255 255 255 255 0.2499966 
11.5068 -11.90934 16.01981 2.172142 -2.248129 1.231797 255 255 255 255 0.2502629 
15.8721 4.825507 -12.17111 2.996183 0.9109124 -0.935863 255 255 255 255 0.24975 
9.587658 -13.50591 -15.19308 1.809866 -2.549515 -1.168228 255 255 255 255 0.2501326 
9.40323 13.64397 30.07169 1.775051 2.575577 2.312276 255 255 255 255 0.2498749 
15.54567 1.910675 -39 2.253695 0.3240329 -3.081881 255 255 255 255 0.2180982 
15.32796 6.284415 30.54717 2.893464 1.186311 2.348836 255 255 255 255 0.2499486 
12.00827 11.40786 32.27117 2.266805 2.153466 2.481399 255 255 255 255 0.2501751 
16.29584 -2.983931 -28.00275 3.07617 -0.5632781 -2.153191 255 255 255 255 0.2499443 
8.805724 -14.05704 18.47818 1.66226 -2.653553 1.420827 255 255 255 255 0.2502809 
16.46353 -1.908082 35.65007 3.107826 -0.3601899 2.74121 255 255 255 255 0.2502021 
16.40441 -2.484807 11.38288 3.096667 -0.4690586 0.8752543 255 255 255 255 0.2501043 
13.89312 -9.070396 -17.21807 2.62261 -1.712222 -1.323934 255 255 255 255 0.2500951 
11.2698 12.14633 -9.193704 2.127404 2.292868 -0.7069235 255 255 255 255 0.2498749 
15.05042 -6.98649 -2.042176 2.841073 -1.318842 -0.1570271 255 255 255 255 0.2501209 
13.65176 -9.39282 26.36215 2.577048 -1.773086 2.027042 255 255 255 255 0.2502549 
16.49176 1.513375 15.47319 3.113155 0.2856807 1.189767 255 255 255 255 0.2500984 
14.30828 8.345624 -26.27451 2.700979 1.575406 -2.020304 255 255 255 255 0.2498136 
16.0198 4.252844 10.23853 3.024064 0.8028108 0.7872627 255 255 255 255 0.2498793 
16.34561 -2.755103 4.839439 3.085567 -0.5200823 0.3721151 255 255 255 255 0.2500741 
15.79427 5.034178 26.32915 2.981491 0.9503034 2.024505 255 255 255 255 0.2499264 
12.75111 -10.59595 -31.98965 2.407032 -2.000201 -2.459753 255 255 255 255 0.2500612 
16.484 1.621886 28.75742 3.111691 0.3061645 2.211219 255 255 255 255 0.2501637 
11.8526 11.56353 33.5735 2.23742 2.182852 2.581538 255 255 255 255 0.2501473 
16.54565 -0.7598767 27.43233 3.123329 -0.1434424 2.10933 255 255 255 255 0.250215 
16.32852 -2.833692 31.15523 3.08234 -0.5349176 2.395592 255 255 255 255 0.2501557 
9.738861 -13.39272 -21.3554 1.838408 -2.528148 -1.642062 255 255 255 255 0.250104 
16.51865 1.137419 -15.54815 3.118231 0.2147114 -1.19553 255 255 255 255 0.2500247 
13.49118 9.607327 12.68133 2.546736 1.813578 0.9750949 255 255 255 255 0.2500375 
16.48928 1.548089 -3.841546 3.112687 0.2922338 -0.2953849 255 255 255 255 0.2500016 
15.04994 6.98736 12.33362 2.840983 1.319006 0.9483577 255 255 255 255 0.2499111 
10.57578 -12.1652 39 1.751734 -2.041711 3.041706 255 255 255 255 0.2333851 
16.5952 0.06705292 -0.8894634 3.132683 0.01265762 -0.06839275 255 255 255 255 0.2502028 
12.81019 10.51702 7.463783 2.418185 1.985302 0.5739064 255 255 255 255 0.2500713 
11.25281 -11.95399 -39 2.046722 -2.175899 -3.012382 255 255 255 255 0.2446894 
12.23644 -11.1797 10.87232 2.309876 -2.110395 0.8359954 255 255 255 255 0.2502538 
9.842457 13.31517 9.456832 1.857964 2.513509 0.7271559 255 255 255 255 0.2498603 
15.93951 4.62193 -26.83675 3.008907 0.8724831 -2.063536 255 255 255 255 0.2496837 
10.46022 -12.85272 -26.43329 1.974579 -2.426212 -2.032511 255 255 255 255 0.25006 
9.024393 -13.92756 -19.60271 1.703538 -2.629111 -1.507295 255 255 255 255 0.250135 
16.33311 -2.678979 -39 3.063297 -0.4990657 -3.001343 255 255 255 255 0.2489336 
16.31941 2.875568 33.04201 3.080621 0.5428224 2.54067 255 255 255 255 0.2501262 
10.44778 12.86203 -19.54674 1.972231 2.42797 -1.502991 255 255 255 255 0.2497657 
16.24141 3.234118 -9.782805 3.065897 0.6105059 -0.7522213 255 255 255 255 0.2498919 
12.35213 -11.064 -30.59614 2.331716 -2.088556 -2.352602 255 255 255 255 0.2500654 
15.88484 4.791361 17.53275 2.998587 0.9044667 1.348131 255 255 255 255 0.2498717 
16.55169 0.6754599 -0.5574799 3.124468 0.127507 -0.04286605 255 255 255 255 0.2501053 
8.725687 -10.16087 39 0.09390545 -0.1461197 3.285855 255 255 255 255 0.136837 
8.828689 14.0445 12.29031 1.666595 2.651186 0.9450285 255 255 255 255 0.2498136 
15.12043 -6.840825 -18.86139 2.854289 -1.291345 -1.450292 255 255 255 255 0.2500661 
10.28514 12.98378 0.1264954 1.941528 2.450953 0.009726286 255 255 255 255 0.2498391 
8.203472 12.14057 39 0.7251767 1.098885 3.174911 255 255 255 255 0.1797765 
15.85811 4.863011 34.252 2.993542 0.9179921 2.63371 255 255 255 255 0.2499436 
9.579649 13.5119 37.04052 1.808354 2.550647 2.848125 255 255 255 255 0.2498957 
12.81541 -10.51006 -29.70048 2.419169 -1.983987 -2.283733 255 255 255 255 0.2500712 
11.0883 -12.32783 24.36227 2.093142 -2.32713 1.873266 255 255 255 255 0.250293 
11.07265 12.34349 20.49865 2.090187 2.330084 1.576185 255 255 255 255 0.2499386 
12.06119 -6.351164 39 0.3173414 -0.1705112 3.267674 255 255 255 255 0.1438475 
9.984017 13.2092 29.4105 1.884686 2.493505 2.261436 255 255 255 255 0.249902 
15.47595 -5.88763 -11.2214 2.921401 -1.11141 -0.862838 255 255 255 255 0.2499661 
11.83627 11.57987 25.72881 2.234336 2.185935 1.978343 255 255 255 255 0.2501162 
9.863495 -13.29942 -27.9749 1.861935 -2.510536 -2.151049 255 255 255 255 0.2500745 
16.29496 -2.987946 -13.79585 3.076006 -0.564036 -1.060791 255 255 255 255 0.2500065 
16.43796 -2.265623 -21.32197 3.102999 -0.427683 -1.639491 255 255 255 255 0.250014 
12.76168 10.58183 -23.09986 2.409027 1.997535 -1.776197 255 255 255 255 0.2498704 
9.994215 -13.20156 36.84487 1.886611 -2.492064 2.833081 255 255 255 255 0.2503479 
12.18384 -10.77291 39 2.111084 -1.891684 3.027497 255 255 255 255 0.239222 
13.27438 9.896942 27.014 2.50581 1.868249 2.077164 255 255 255 255 0.2501556 
16.33092 2.822642 1.200947 3.082794 0.5328315 0.09234297 255 255 255 255 0.2499807 
16.55979 -0.5622511 -35.49094 3.125997 -0.1061365 -2.728974 255 255 255 255 0.2501488 
8.713312 14.1075 -19.2121 1.644815 2.663078 -1.47726 255 255 255 255 0.2497511 
14.34094 -8.285809 -34.72619 2.707144 -1.564115 -2.67017 255 255 255 255 0.2500325 
9.017803 -13.9325 -8.809674 1.702294 -2.630042 -0.6773947 255 255 255 255 0.2501764 
12.73185 -10.62168 -22.99983 2.403396 -2.005057 -1.768506 255 255 255 255 0.2501027 
14.52907 -7.941279 -15.21919 2.742657 -1.499078 -1.170235 255 255 255 255 0.2500946 
16.18115 -3.511139 -33.3422 3.054521 -0.6627992 -2.563753 255 255 255 255 0.24987 
16.53582 -0.8973503 -14.02376 3.121473 -0.1693934 -1.078317 255 255 255 255 0.2501821 
16.25299 -3.180914 30.56846 3.068082 -0.6004626 2.350474 255 255 255 255 0.2501419 
12.45775 10.95838 -34.3744 2.351654 2.068618 -2.64312 255 255 255 255 0.2498114 
8.785918 14.06786 18.09737 1.658521 2.655595 1.391546 255 255 255 255 0.249821 
9.76704 13.37162 -6.046169 1.843727 2.524166 -0.4649032 255 255 255 255 0.2498296 
14.06824 -8.785217 8.270414 2.655667 -1.658388 0.6359299 255 255 255 255 0.2501703 
16.175 3.539422 -26.0727 3.05336 0.6681383 -2.004786 255 255 255 255 0.2497853 
10.5223 -12.80624 20.16021 1.986298 -2.417439 1.550162 255 255 255 255 0.2502703 
16.53447 -0.9162263 9.611288 3.121218 -0.1729566 0.7390324 255 255 255 255 0.250205 
11.29327 12.12286 35.16724 2.131835 2.288437 2.704084 255 255 255 255 0.2500363 
11.76863 11.6475 1.088871 2.221569 2.198702 0.08372562 255 255 255 255 0.2500096 
16.40305 2.491095 25.38385 3.096409 0.4702455 1.951818 255 255 255 255 0.2501289 
16.45057 -2.089253 8.257855 3.10538 -0.3943896 0.6349643 255 255 255 255 0.2501274 
11.83629 11.57984 -19.17621 2.234341 2.185931 -1.474499 255 255 255 255 0.2498771 
10.50472 -12.8194 28.39469 1.98298 -2.419923 2.183328 255 255 255 255 0.2503081 
15.5698 5.636015 -31.82761 2.939117 1.063912 -2.447293 255 255 255 255 0.2497277 
14.04303 8.831389 6.450624 2.650908 1.667104 0.4960024 255 255 255 255 0.2499919 
14.01028 -8.891363 9.596926 2.644726 -1.678426 0.7379283 255 255 255 255 0.2501746 
9.894344 -13.27633 37.51091 1.867759 -2.506176 2.884294 255 255 255 255 0.2503512 
14.02574 8.863049 -12.27987 2.647645 1.673081 -0.9442255 255 255 255 255 0.2499023 
8.04166 14.47425 0.8148985 1.518027 2.73231 0.06266009 255 255 255 255 0.2497425 
10.94703 -12.4691 -31.46361 2.066474 -2.353797 -2.419303 255 255 255 255 0.2500342 
15.40133 6.087701 -2.078798 2.907315 1.149177 -0.1598428 255 255 255 255 0.2498699 
9.486576 13.58158 24.43999 1.790784 2.563799 1.879243 255 255 255 255 0.2498692 
14.14863 8.638 15.05044 2.670842 1.630598 1.15726 255 255 255 255 0.2500166 
16.2155 -3.353224 -32.14426 3.061006 -0.6329895 -2.47164 255 255 255 255 0.2498903 
15.56663 -5.644516 7.243841 2.938518 -1.065517 0.556994 255 255 255 255 0.2500122 
15.97505 4.458555 0.04718423 3.015616 0.8416429 0.003627956 255 255 255 255 0.2498141 
13.78196 -9.218895 33.28089 2.601626 -1.740254 2.559039 255 255 255 255 0.2502659 
15.30883 -6.335702 30.44865 2.889853 -1.195993 2.341261 255 255 255 255 0.2501614 
16.44011 -2.235506 -1.854387 3.103406 -0.4219979 -0.1425875 255 255 255 255 0.2500796 
16.47886 1.693738 30.1321 3.11072 0.319728 2.316921 255 255 255 255 0.2501699 
9.865666 -13.29779 -23.43199 1.862345 -2.51023 -1.801736 255 255 255 255 0.2500917 
15.98241 -4.424699 -20.14674 3.017006 -0.8352518 -1.549126 255 255 255 255 0.2498512 
16.06245 4.056802 20.69089 3.032114 0.765804 1.590967 255 255 255 255 0.2499446 
15.0635 -6.962544 -37.205 2.843541 -1.314322 -2.860771 255 255 255 255 0.2500235 
9.75012 13.38429 32.26601 1.840534 2.526557 2.481003 255 255 255 255 0.2498956 
10.57055 12.77012 32.47439 1.995406 2.410621 2.497025 255 255 255 255 0.2499358 
11.20075 12.21539 11.20458 2.114369 2.305903 0.8615441 255 255 255 255 0.2499325 
16.47915 1.689704 17.33548 3.110775 0.3189664 1.332962 255 255 255 255 0.250106 
15.04403 -1.378964 39 1.75274 -0.2520064 3.130965 255 255 255 255 0.1974068 
13.22455 -9.963506 -17.42279 2.496403 -1.880814 -1.339675 255 255 255 255 0.2501245 
15.62563 -5.486323 -4.964129 2.949656 -1.035655 -0.3817031 255 255 255 255 0.2499443 
14.18914 -8.563812 36.19846 2.678488 -1.616594 2.783377 255 255 255 255 0.2502538 
12.16573 11.2504 -9.845907 2.296529 2.123742 -0.7570726 255 255 255 255 0.2499594 
7.715345 14.65243 29.53803 1.456428 2.765945 2.271242 255 255 255 255 0.2498917 
10.04196 -13.16582 35.44394 1.895624 -2.485317 2.72536 255 255 255 255 0.2503414 
15.57914 -5.610979 -28.80564 2.940879 -1.059186 -2.214928 255 255 255 255 0.2498826 
15.33382 6.268694 -31.50186 2.894571 1.183343 -2.422245 255 255 255 255 0.2497758 
14.74627 7.543499 17.44996 2.783659 1.423989 1.341764 255 255 255 255 0.2499276 
14.91254 -7.238991 3.553913 2.815046 -1.366507 0.2732681 255 255 255 255 0.2501408 
9.702925 9.653842 -39 0.2888905 0.3333975 -3.259915 255 255 255 255 0.151313 
16.46283 -1.917937 -30.65209 3.107694 -0.3620502 -2.356904 255 255 255 255 0.2500209 
15.98382 -4.418223 -34.40602 3.017272 -0.8340296 -2.645553 255 255 255 255 0.249782 
14.37236 8.228254 30.63818 2.713077 1.55325 2.355835 255 255 255 255 0.2500558 
15.25755 6.473189 -32.25803 2.880173 1.221946 -2.480388 255 255 255 255 0.2497877 
12.53704 -10.87909 14.58468 2.366622 -2.053649 1.121447 255 255 255 255 0.2502768 
16.44029 2.233065 12.58099 3.103439 0.421537 0.9673789 255 255 255 255 0.2500769 
15.72748 1.907744 39 2.429569 0.2724792 3.065181 255 255 255 255 0.2236377 
11.9461 11.47003 -28.53959 2.255069 2.165202 -2.194469 255 255 255 255 0.2498205 
10.33133 -12.9492 15.70103 1.950249 -2.444425 1.207286 255 255 255 255 0.2502502 
14.93114 -7.204933 36.12665 2.818557 -1.360078 2.777855 255 255 255 255 0.2502297 
16.08817 -3.938553 -14.4289 3.03697 -0.7434821 -1.109469 255 255 255 255 0.2499236 
9.866005 9.007067 -39 0.09509871 0.1097498 -3.288616 255 255 255 255 0.1409626 
12.25229 -11.16384 7.41082 2.31287 -2.107401 0.5698338 255 255 255 255 0.2502382 
9.306248 -13.71657 9.191556 1.756744 -2.589282 0.7067586 255 255 255 255 0.2502351 
16.53755 -0.8731743 -37.2575 3.121799 -0.1648296 -2.864808 255 255 255 255 0.2501102 
10.87103 -12.54511 37.4528 2.052127 -2.368144 2.879825 255 255 255 255 0.2503489 
13.35493 5.331346 39 1.0718 0.3147088 3.194365 255 255 255 255 0.1724221 
15.82966 4.939295 -25.32207 2.988171 0.9323922 -1.947068 255 255 255 255 0.2497034 
15.09567 6.903615 23.15675 2.849616 1.303197 1.780571 255 255 255 255 0.249937 
16.53513 -0.9070216 -12.97804 3.121342 -0.171219 -0.9979089 255 255 255 255 0.2501844 
16.40036 2.503431 -21.55241 3.095902 0.4725742 -1.657211 255 255 255 255 0.2498935 
10.96163 -12.4545 -29.38887 2.06923 -2.351042 -2.259773 255 255 255 255 0.250044 
12.00896 -11.40718 -6.834789 2.266935 -2.153337 -0.5255415 255 255 255 255 0.2501678 
13.0443 10.2043 5.536317 2.462377 1.926268 0.4256994 255 255 255 255 0.2500345 
13.55716 9.519189 -0.9155922 2.559191 1.796941 -0.07040155 255 255 255 255 0.2499701 
15.92551 -4.68232 3.473255 3.006264 -0.8838831 0.267066 255 255 255 255 0.2499441 
16.17828 3.524324 -19.4443 3.05398 0.6652881 -1.495115 255 255 255 255 0.2498197 
15.02416 7.034581 2.798492 2.836116 1.32792 0.2151817 255 255 255 255 0.2498885 
11.88237 -9.355972 39 1.373414 -1.112649 3.130964 255 255 255 255 0.19897 
9.952352 -13.2329 -24.92104 1.878709 -2.49798 -1.916232 255 255 255 255 0.2500831 
9.242296 -13.76444 -7.912605 1.744672 -2.598319 -0.6084172 255 255 255 255 0.2501721 
12.35387 11.06226 2.263724 2.332044 2.088227 0.1740625 255 255 255 255 0.250052 
16.54643 -0.7490245 32.50836 3.123475 -0.1413939 2.499637 255 255 255 255 0.2502173 
15.56542 -5.64777 -31.27479 2.938289 -1.066131 -2.404786 255 255 255 255 0.2498805 
16.37745 2.608742 18.24528 3.091578 0.4924537 1.402918 255 255 255 255 0.2500835 
12.54961 -10.86512 15.22688 2.368995 -2.051013 1.170827 255 255 255 255 0.2502799 
8.864065 11.22851 -39 0.565377 0.8797438 -3.201279 255 255 255 255 0.1730195 
15.99114 -4.384589 -12.12375 3.018654 -0.8276803 -0.9322212 255 255 255 255 0.2498942 
14.07462 -8.773531 34.95091 2.656871 -1.656183 2.68745 255 255 255 255 0.250254 
16.53533 -0.9042735 11.45203 3.121379 -0.1707003 0.8805711 255 255 255 255 0.250206 
15.98151 4.428877 -28.18069 3.016835 0.8360405 -2.166874 255 255 255 255 0.2496993 
16.15114 3.649073 -4.783788 3.048857 0.6888369 -0.3678364 255 255 255 255 0.2498826 
11.56387 -11.85226 -19.3327 2.182916 -2.237355 -1.486532 255 255 255 255 0.2501018 
12.58841 4.353405 39 0.07374679 0.02165401 3.295246 255 255 255 255 0.1313511 
9.328337 13.70003 -26.31012 1.760913 2.58616 -2.023042 255 255 255 255 0.2497696 
12.59547 -10.80386 -2.637247 2.377652 -2.039448 -0.2027836 255 255 255 255 0.2501974 
16.46212 -1.927735 -34.70621 3.107561 -0.3638997 -2.668634 255 255 255 255 0.2500069 
16.52853 -0.999318 3.99806 3.120096 -0.1886419 0.3074195 255 255 255 255 0.2502013 
11.69213 -11.48925 -39 2.120249 -2.078378 -3.014031 255 255 255 255 0.2440525 
7.944804 14.52714 -28.52728 1.499743 2.742294 -2.193523 255 255 255 255 0.2496849 
11.48479 -11.93134 32.19426 2.167987 -2.252284 2.475485 255 255 255 255 0.2503369 
14.77635 7.488405 -14.24777 2.789338 1.413589 -1.095541 255 255 255 255 0.2498461 
15.47455 5.891399 20.24675 2.921136 1.112121 1.556816 255 255 255 255 0.2499205 
14.67267 7.678294 -8.654751 2.769765 1.449434 -0.6654827 255 255 255 255 0.2498583 
9.375837 13.66447 36.4538 1.76988 2.579448 2.80301 255 255 255 255 0.2498848 
11.02519 -11.27229 -39 1.667217 -1.696842 -3.07141 255 255 255 255 0.2215923 
16.56374 0.5069751 2.035672 3.126743 0.09570199 0.1565272 255 255 255 255 0.2501335 
11.26785 -12.14828 13.41658 2.127037 -2.293234 1.031629 255 255 255 255 0.2502463 
8.553668 14.19468 29.21056 1.614679 2.679534 2.246062 255 255 255 255 0.2498444 
11.30794 10.07829 39 1.354626 1.17379 3.128863 255 255 255 255 0.1981883 
15.87603 -4.814972 36.99879 2.996924 -0.9089239 2.844917 255 255 255 255 0.250115 
14.80431 -7.43721 4.169568 2.794614 -1.403925 0.3206074 255 255 255 255 0.2501459 
10.73258 12.64883 16.66132 2.025993 2.387724 1.281124 255 255 255 255 0.2498864 
13.73803 9.277585 -31.96995 2.593332 1.751333 -2.458238 255 255 255 255 0.2498161 
8.312292 14.32648 14.39418 1.569114 2.704414 1.1068 255 255 255 255 0.2497845 
16.48295 1.636509 37.01332 3.111493 0.3089248 2.846032 255 255 255 255 0.2502048 
14.03946 -8.83792 -36.3018 2.650234 -1.668337 -2.791322 255 255 255 255 0.2500279 
16.43535 -2.302162 -26.53908 3.102506 -0.4345805 -2.040646 255 255 255 255 0.2499935 
10.88459 -12.53154 -35.39307 2.054688 -2.365583 -2.721448 255 255 255 255 0.250015 
15.23721 -0.583067 -39 1.902868 1.809743e-08 -3.118153 255 255 255 255 0.2042421 
16.57329 0.3733988 -27.73954 3.128546 0.07048674 -2.132952 255 255 255 255 0.250142 
11.44436 -8.579462 -39 0.797452 -0.5953916 -3.205935 255 255 255 255 0.169133 
8.863952 14.02525 9.088619 1.673251 2.647551 0.6988435 255 255 255 255 0.2498103 
11.55414 -11.862 -31.3298 2.181078 -2.239193 -2.409015 255 255 255 255 0.2500466 
16.37504 -2.619819 -15.52157 3.091123 -0.4945448 -1.193486 255 255 255 255 0.2500136 
9.975961 13.21523 -22.40766 1.883166 2.494643 -1.722973 255 255 255 255 0.2497673 
16.5136 1.208052 -5.419917 3.117278 0.2280446 -0.4167491 255 255 255 255 0.2500178 
15.81462 4.979622 -27.88836 2.985332 0.9400048 -2.144396 255 255 255 255 0.2496956 
14.08255 6.718759 39 2.004035 0.9248818 3.088582 255 255 255 255 0.2144889 
15.96586 -4.500821 -3.797301 3.01388 -0.8496215 -0.2919825 255 255 255 255 0.2499243 
16.38625 -2.568302 29.28949 3.093238 -0.4848199 2.252131 255 255 255 255 0.2501588 
16.33396 2.808662 -36.30256 3.083368 0.5301926 -2.791382 255 255 255 255 0.2497946 
14.05418 8.81097 10.7833 2.653013 1.66325 0.8291508 255 255 255 255 0.2500114 
10.54146 8.467476 -39 0.1884334 0.2174638 -3.274793 255 255 255 255 0.1471427 
10.92393 -12.4922 -14.10512 2.062114 -2.358158 -1.084573 255 255 255 255 0.2501134 
13.18499 -10.01635 35.56598 2.488936 -1.89079 2.734744 255 255 255 255 0.250324 
15.70019 -5.286417 33.27843 2.963731 -0.9979185 2.55885 255 255 255 255 0.2501211 
12.86221 10.44753 15.07134 2.428005 1.972185 1.158868 255 255 255 255 0.2501173 
16.24216 -3.230652 -3.85835 3.066039 -0.6098516 -0.2966762 255 255 255 255 0.25003 
9.721691 -13.40557 13.72303 1.835167 -2.530575 1.055193 255 255 255 255 0.2502425 
12.65484 10.72455 28.80983 2.388859 2.024477 2.215249 255 255 255 255 0.250231 
12.61705 -10.77503 36.57521 2.381726 -2.034006 2.812346 255 255 255 255 0.2503754 
16.51907 1.131549 -21.52633 3.11831 0.2136033 -1.655206 255 255 255 255 0.2500231 
11.34382 12.07231 -9.904422 2.141377 2.278894 -0.761572 255 255 255 255 0.2498878 
14.15243 -8.631031 -3.316242 2.67156 -1.629283 -0.2549928 255 255 255 255 0.2501332 
15.95287 -4.560532 -9.664679 3.011429 -0.860893 -0.743138 255 255 255 255 0.2498901 
14.54298 7.915802 26.01266 2.745283 1.494268 2.000168 255 255 255 255 0.2500042 
13.70015 2.994989 -39 0.7227474 0.2122177 -3.229646 255 255 255 255 0.1617807 
16.38654 -2.566992 -37.38593 3.093292 -0.4845725 -2.874683 255 255 255 255 0.2499364 
7.577089 14.72793 11.99927 1.43033 2.780196 0.92265 255 255 255 255 0.2498128 
16.43568 2.297447 16.92537 3.10257 0.4336905 1.301427 255 255 255 255 0.2500979 
15.05193 6.98372 17.62601 2.841359 1.318319 1.355301 255 255 255 255 0.2499236 
15.11297 6.860818 29.86803 2.852881 1.295119 2.296616 255 255 255 255 0.2499525 
14.13956 -8.654599 -6.835578 2.66913 -1.633732 -0.5256021 255 255 255 255 0.2501219 
14.99328 7.091131 -4.904433 2.830287 1.338595 -0.3771125 255 255 255 255 0.2498701 
11.59211 -11.82403 -20.06187 2.188246 -2.232026 -1.5426 255 255 255 255 0.250099 
15.96313 -4.513362 -12.85559 3.013366 -0.8519888 -0.9884935 255 255 255 255 0.2498788 
9.723306 13.40436 17.27273 1.835472 2.530346 1.328137 255 255 255 255 0.2498682 
9.599606 13.49696 11.34251 1.812121 2.547827 0.8721492 255 255 255 255 0.2498518 
13.40528 4.03723 -39 0.6899205 0.2025789 -3.232964 255 255 255 255 0.1606709 
8.319338 14.32263 18.68335 1.570444 2.703688 1.436603 255 255 255 255 0.2498053 
16.34511 -2.757401 -6.684686 3.085473 -0.5205162 -0.5139994 255 255 255 255 0.2500371 
14.20876 -1.068307 39 0.9613055 -0.1382151 3.20851 255 255 255 255 0.1664549 
14.708 -7.613577 -35.81765 2.776435 -1.437217 -2.754095 255 255 255 255 0.2500285 
13.75621 -9.253292 37.43545 2.596765 -1.746747 2.878492 255 255 255 255 0.2502814 
16.29189 3.002052 14.34898 3.075427 0.5666988 1.103323 255 255 255 255 0.2500316 
16.53316 -0.9345134 31.7443 3.120971 -0.1764087 2.440887 255 255 255 255 0.2502143 
12.75587 10.58959 26.11134 2.407931 1.999 2.007756 255 255 255 255 0.2502025 
13.19458 10.00354 26.14864 2.490746 1.888372 2.010625 255 255 255 255 0.250158 
11.33681 -12.07932 31.13831 2.140054 -2.280218 2.394291 255 255 255 255 0.2503291 
12.74762 -10.60061 23.59204 2.406373 -2.001081 1.814042 255 255 255 255 0.2503168 
13.40309 2.958525 39 0.4819395 0.06929254 3.255479 255 255 255 255 0.147341 
16.52843 -1.000701 8.918255 3.120077 -0.188903 0.6857437 255 255 255 255 0.2502035 
8.800312 14.06 -12.27385 1.661238 2.654111 -0.9437623 255 255 255 255 0.2497689 
12.6782 -10.69335 -32.61357 2.393269 -2.018587 -2.507727 255 255 255 255 0.2500589 
16.34111 2.775816 24.3502 3.084717 0.5239922 1.872339 255 255 255 255 0.2501002 
9.293016 13.72647 11.91249 1.754246 2.591151 0.915977 255 255 255 255 0.2498379 
14.24074 8.469303 -5.340377 2.68823 1.598753 -0.4106334 255 255 255 255 0.2499003 
14.89463 7.271797 -21.85889 2.811665 1.372699 -1.680776 255 255 255 255 0.2498293 
15.54761 -5.695521 -0.1626511 2.934927 -1.075145 -0.0125072 255 255 255 255 0.2499786 
9.646188 -13.46209 -35.22583 1.820914 -2.541244 -2.70859 255 255 255 255 0.2500543 
9.578438 -11.17075 39 0.8546987 -1.116084 3.166024 255 255 255 255 0.1842221 
16.46773 -1.849445 -11.46452 3.108618 -0.3491209 -0.8815309 255 255 255 255 0.2500896 
15.27731 -6.420205 -36.08558 2.883904 -1.211944 -2.774697 255 255 255 255 0.2499653 
13.39144 -9.740571 -9.780508 2.527907 -1.838731 -0.7520443 255 255 255 255 0.2501583 
16.10527 -3.859949 8.191443 3.040197 -0.728644 0.6298583 255 255 255 255 0.2500415 
13.88333 9.083479 37.36882 2.620762 1.714691 2.873369 255 255 255 255 0.2501633 
9.625595 13.47751 20.55707 1.817027 2.544154 1.580677 255 255 255 255 0.2498691 
9.42032 -13.63118 27.29407 1.778277 -2.573162 2.098699 255 255 255 255 0.2503053 
13.89433 9.068789 -33.90234 2.622837 1.711918 -2.606823 255 255 255 255 0.249806 
16.03525 -4.181834 33.69431 3.026979 -0.7894064 2.590828 255 255 255 255 0.2501177 
16.52428 -1.05875 -33.39838 3.119294 -0.1998609 -2.568072 255 255 255 255 0.250103 
15.34071 -6.250232 -38.34348 2.895871 -1.179858 -2.948312 255 255 255 255 0.2499376 
16.46294 1.916427 -11.19393 3.107714 0.3617651 -0.8607257 255 255 255 255 0.2499613 
10.14877 13.08587 1.043801 1.915787 2.470223 0.08025986 255 255 255 255 0.2498458 
11.33176 12.08438 -25.09629 2.139099 2.281172 -1.929707 255 255 255 255 0.2498074 
10.61085 12.73995 -29.12888 2.003014 2.404926 -2.239781 255 255 255 255 0.2497278 
9.950842 -13.23403 -12.47069 1.878424 -2.498193 -0.9588971 255 255 255 255 0.2501306 
9.782592 13.35998 -12.7877 1.846663 2.521969 -0.9832737 255 255 255 255 0.249806 
11.98577 -7.887466 39 0.8849013 -0.5686915 3.200685 255 255 255 255 0.1713239 
11.88891 11.52722 -25.54752 2.244274 2.175998 -1.964403 255 255 255 255 0.2498373 
11.2719 -12.14424 -35.9122 2.1278 -2.292472 -2.761365 255 255 255 255 0.2500201 
11.85737 -11.55876 -27.72182 2.23832 -2.181952 -2.131589 255 255 255 255 0.250069 
12.77292 5.054171 39 0.4812431 0.1413057 3.254057 255 255 255 255 0.1483672 
12.74891 10.59889 -38.2931 2.406616 2.000756 -2.944438 255 255 255 255 0.2497882 
15.06768 6.954873 20.53489 2.844332 1.312874 1.578971 255 255 255 255 0.2499306 
16.38095 -2.59267 23.5239 3.092237 -0.4894198 1.808803 255 255 255 255 0.2501395 
14.61679 7.780632 -5.224815 2.759216 1.468753 -0.4017479 255 255 255 255 0.2498659 
16.14634 3.671142 -17.77641 3.047951 0.6930029 -1.366867 255 255 255 255 0.2498159 
16.59918 -0.01150699 -15.70349 3.133432 -0.002172169 -1.207475 255 255 255 255 0.250207 
15.568 5.640833 -8.782575 2.938777 1.064822 -0.6753106 255 255 255 255 0.2498244 
16.51311 1.21484 -29.17963 3.117186 0.2293262 -2.243684 255 255 255 255 0.2500063 
16.58241 0.2459184 16.9879 3.130268 0.04642216 1.306236 255 255 255 255 0.2501819 
12.60529 10.79074 -13.15139 2.379506 2.036971 -1.011238 255 255 255 255 0.2499534 
13.92997 -9.021177 23.18243 2.629566 -1.702931 1.782547 255 255 255 255 0.2502211 
9.417428 13.63334 38.39869 1.777731 2.573571 2.952557 255 255 255 255 0.2498902 
8.076448 14.45526 -12.09996 1.524594 2.728724 -0.930391 255 255 255 255 0.2497222 
12.07206 -11.34407 33.61531 2.278848 -2.141424 2.584752 255 255 255 255 0.2503551 
16.17886 -3.52164 5.681388 3.05409 -0.6647814 0.4368546 255 255 255 255 0.2500505 
12.79558 -10.53654 -14.89898 2.415426 -1.988987 -1.145614 255 255 255 255 0.2501394 
8.454252 13.56092 39 1.387885 2.159591 3.053733 255 255 255 255 0.2279521 
11.70648 8.652462 39 1.000226 0.724365 3.182637 255 255 255 255 0.1764677 
16.32231 -2.862232 16.9585 3.081168 -0.540305 1.303975 255 255 255 255 0.2501093 
14.60984 -7.793353 36.49127 2.757905 -1.471154 2.805892 255 255 255 255 0.250241 
15.56723 -5.642893 -37.00682 2.938632 -1.065211 -2.845534 255 255 255 255 0.2498641 
8.97644 13.96346 -1.530672 1.694486 2.635887 -0.1176965 255 255 255 255 0.2497991 
11.42185 11.99428 25.14874 2.156107 2.264164 1.93374 255 255 255 255 0.2500278 
16.20833 -3.386189 4.966529 3.059652 -0.6392123 0.3818876 255 255 255 255 0.2500529 
15.8488 4.887972 35.02581 2.991785 0.9227039 2.69321 255 255 255 255 0.2499457 
16.49433 1.477506 -13.53839 3.11364 0.2789097 -1.040996 255 255 255 255 0.249971 
16.51241 -1.224688 -29.7255 3.117053 -0.2311852 -2.285656 255 255 255 255 0.2500972 
15.15451 4.799307 39 2.398587 0.7042885 3.060256 255 255 255 255 0.2255191 
12.1231 7.318978 -39 0.7389935 0.4749222 -3.217505 255 255 255 255 0.1674127 
8.724263 -14.10152 37.51555 1.646882 -2.66195 2.88465 255 255 255 255 0.250353 
13.9713 8.962756 -13.60042 2.637367 1.691902 -1.045766 255 255 255 255 0.2499049 
9.36345 -13.67375 -33.05011 1.767542 -2.581198 -2.541293 255 255 255 255 0.2500722 
13.94979 8.994699 4.106228 2.633307 1.697932 0.3157368 255 255 255 255 0.2499936 
14.27295 8.41033 4.789589 2.694309 1.587621 0.3682815 255 255 255 255 0.2499449 
13.68775 9.344747 16.0746 2.583841 1.764011 1.236011 255 255 255 255 0.2500536 
15.45295 5.949308 -27.89761 2.917058 1.123053 -2.145107 255 255 255 255 0.2497673 
12.88807 10.41299 -20.60461 2.432886 1.965663 -1.584332 255 255 255 255 0.2498751 
12.07717 -11.33896 31.65667 2.279811 -2.14046 2.434148 255 255 255 255 0.2503462 
15.41986 6.038033 27.36198 2.910812 1.139801 2.10392 255 255 255 255 0.2499387 
10.88085 -12.53528 -23.25356 2.053982 -2.366289 -1.788016 255 255 255 255 0.2500706 
10.68979 -12.68086 -4.96465 2.017916 -2.39377 -0.3817423 255 255 255 255 0.2501547 
15.07605 -6.939551 17.88035 2.845912 -1.309981 1.374858 255 255 255 255 0.2501749 
12.10004 11.31609 -29.87328 2.284128 2.136143 -2.297019 255 255 255 255 0.2498206 
16.2129 -3.365169 24.11376 3.060515 -0.6352445 1.854159 255 255 255 255 0.250115 
11.92943 -11.4867 -29.24901 2.251922 -2.168349 -2.249018 255 255 255 255 0.2500634 
16.16768 -3.573083 -8.733057 3.051977 -0.6744924 -0.6715029 255 255 255 255 0.2499848 
12.56491 -10.84468 -16.26938 2.371883 -2.047154 -1.250987 255 255 255 255 0.250135 
13.94613 -7.445754 39 2.131318 -1.142435 3.067582 255 255 255 255 0.2230272 
10.20468 13.04401 -1.848618 1.926341 2.462322 -0.1421444 255 255 255 255 0.2498342 
16.58891 0.1550086 19.86269 3.131495 0.02926106 1.527284 255 255 255 255 0.2501977 
15.54563 -5.700828 -5.829994 2.934554 -1.076147 -0.4482813 255 255 255 255 0.2499572 
15.47077 -5.901515 -3.063628 2.920424 -1.114031 -0.2355694 255 255 255 255 0.2499903 
13.31215 9.846497 28.13458 2.512938 1.858727 2.163328 255 255 255 255 0.2501594 
11.3706 -12.04553 20.75025 2.146433 -2.273839 1.595531 255 255 255 255 0.250282 
9.767014 -13.37164 -1.718065 1.843723 -2.52417 -0.1321053 255 255 255 255 0.2501778 
12.84453 -10.47116 38.98148 2.424666 -1.976644 2.997369 255 255 255 255 0.2503638 
15.7833 5.063595 -35.24494 2.97942 0.9558564 -2.710059 255 255 255 255 0.2496711 
15.55412 5.678044 17.47365 2.936158 1.071846 1.343587 255 255 255 255 0.249912 
14.08798 -8.749072 -33.97812 2.659392 -1.651565 -2.61265 255 255 255 255 0.2500352 
10.43202 -12.87382 -31.19079 1.969257 -2.430196 -2.398326 255 255 255 255 0.2500429 
15.18751 6.660973 13.41412 2.866952 1.257394 1.03144 255 255 255 255 0.2499119 
12.35008 11.06605 -22.95834 2.331329 2.088942 -1.765315 255 255 255 255 0.249882 
9.950602 -13.23421 -35.74986 1.878378 -2.498227 -2.748883 255 255 255 255 0.2500419 
15.98993 -4.390166 11.55945 3.018425 -0.8287331 0.8888316 255 255 255 255 0.2500095 
13.20306 9.992216 -17.57871 2.492346 1.886234 -1.351665 255 255 255 255 0.249889 
16.59464 -0.07489726 11.55035 3.132577 -0.01413841 0.8881311 255 255 255 255 0.2502179 
13.20543 -9.989046 29.08546 2.492794 -1.885636 2.236443 255 255 255 255 0.2503015 
16.45323 2.052153 8.595283 3.105881 0.3873861 0.6609094 255 255 255 255 0.2500587 
13.64784 -9.398066 2.643662 2.576307 -1.774076 0.2032768 255 255 255 255 0.2501794 
9.851469 -11.59266 -39 1.214089 -1.401134 -3.122895 255 255 255 255 0.2013858 
14.65721 7.706593 28.24576 2.766848 1.454776 2.171876 255 255 255 255 0.2499959 
16.53328 -0.9328473 17.75116 3.120993 -0.1760942 1.364924 255 255 255 255 0.2502083 
12.07637 -11.33976 -24.57252 2.279661 -2.14061 -1.889433 255 255 255 255 0.2500877 
13.24066 9.941986 35.28228 2.499444 1.876752 2.71293 255 255 255 255 0.2502148 
16.53783 -0.869248 13.68023 3.121852 -0.1640885 1.051902 255 255 255 255 0.2502074 
13.58336 -9.484196 8.426889 2.564136 -1.790335 0.6479614 255 255 255 255 0.2502034 
16.43497 2.3074 -11.96143 3.102435 0.4355694 -0.9197398 255 255 255 255 0.2499536 
16.5595 0.5662192 -25.47591 3.125943 0.1068856 -1.958897 255 255 255 255 0.250112 
16.55638 0.6099096 12.69375 3.125353 0.115133 0.9760492 255 255 255 255 0.2501216 
16.55009 -0.6978499 -7.63415 3.124166 -0.1317336 -0.5870059 255 255 255 255 0.2502006 
12.01358 8.671173 -39 1.213596 0.8446711 -3.159019 255 255 255 255 0.1902727 
12.69502 10.67088 15.70152 2.396444 2.014345 1.207323 255 255 255 255 0.2501386 
11.10311 9.477737 39 0.9695399 0.840111 3.178281 255 255 255 255 0.1783213 
16.54047 0.8323287 23.42589 3.12235 0.1571192 1.801267 255 255 255 255 0.2501449 
14.68492 7.655859 -21.07012 2.772077 1.445199 -1.620127 255 255 255 255 0.2498293 
16.07032 -4.020598 30.35168 3.0336 -0.7589698 2.333806 255 255 255 255 0.2501125 
16.45986 -1.959391 27.62296 3.107134 -0.3698755 2.123988 255 255 255 255 0.2501978 
16.12326 -3.777231 -19.90104 3.043594 -0.7130294 -1.530234 255 255 255 255 0.2499115 
15.4136 -6.054802 -18.48755 2.909631 -1.142967 -1.421547 255 255 255 255 0.2499673 
