# .PCD v0.7 - Point Cloud Data file format
VERSION 0.7
FIELDS x y z
SIZE 4 4 4
TYPE F F F
COUNT 1 1 1
WIDTH 1405
HEIGHT 1
VIEWPOINT 0 0 0 1 0 0 0
POINTS 1405
DATA ascii
0.02022814 0.003697261 -0.005560887
0.02031817 0.003796754 -0.05691948
0.01319273 0.01124739 0
0.02058916 0.01993071 -0.06099041
0.01794747 -0.01002367 -0.01111581
0.02052853 0.001155321 -0.01051304
0.01865641 0.008724361 -0.0107848
0.02045066 0.05915587 -0.05845008
0.01168372 0.01690985 -0.02319274
0.01666842 0.01207263 -0.02822722
0.02046714 0.03342904 -0.05852687
0.01796128 0.04765823 -0.07067181
0.02056741 0.0006143733 -0.009353676
0.01606947 0.01282745 -0.0210335
0.02056792 0.0005621923 -0.04260632
0.02059702 -0.0002240202 -0.0251568
0.01933665 -0.007085894 -0.03738922
0.01825965 -0.007752253 -0.05001213
0.01501151 0.01602696 -0.07436243
0.01862335 0.003101177 -0.06357173
0.02057885 -0.0005873937 -0.02707068
0.02058685 0.0577573 -0.06097645
0.02055474 0.01449062 -0.06073278
0.02054981 0.03851617 -0.06199341
0.01432028 -0.01474077 -0.004651814
0.02054943 0.00117219 -0.04182545
0.01654116 0.03514207 -0.04833758
0.01772602 0.02165928 -0.05012119
0.01441658 0.01586924 -0.07495274
0.02054454 0.06054568 -0.05911785
0.01517887 0.01392499 -0.01353251
0.01872561 0.0584211 -0.06906849
0.02027768 0.01582529 -0.06358363
0.02058791 0.05357685 -0.060985
0.01500375 0.01410843 -0.02660159
0.01757634 0.01070213 -0.03784007
0.01791845 0.0103651 -0.04210846
0.01172569 -0.01691446 -0.02738449
0.01856966 0.04889301 -0.05179303
0.02004813 0.01017655 -0.05210328
0.01777634 0.01037943 -0.04005259
0.01854518 0.008966587 -0.029314
0.0184499 0.05964421 -0.06963696
0.01973511 0.005971314 -0.04139287
0.01461839 0.001846784 -0.06964266
0.02051174 -0.001382431 -0.01815149
0.01671572 0.01201297 -0.02907145
0.01965614 0.02377497 -0.0544602
0.02057401 0.02271778 -0.06151651
0.01974004 0.01338711 -0.05282918
0.02059825 -0.0001315357 -0.01621244
0.0199924 -0.00122658 -0.05325706
0.01682069 -0.01187732 -0.02039053
0.01525732 0.04200598 -0.04680836
0.02011217 -0.004377947 -0.03376899
0.01248377 0.01524267 0
0.01443914 -0.01329019 0
0.01762348 0.0545797 -0.0499674
0.01939821 -0.006866381 -0.01892143
0.02033512 0.02086906 -0.05747168
0.0204557 0.001959732 -0.00178458
0.01939682 -0.006883528 -0.02293143
0.01374703 0.03212095 -0.07593294
0.01458768 0.01452345 -0.01857266
0.01587785 0.01308279 -0.032808
0.01956193 -0.001309539 0
0.0197023 0.006004783 -0.009045849
0.02027068 -0.003513933 -0.001431243
0.01983373 0.03748999 -0.05509418
0.01659704 0.01216783 -0.03435891
0.01923289 0.007240979 -0.00503737
0.02027592 0.05468763 -0.05728513
0.02057514 0.0003870473 -0.002883818
0.01993673 0.007449485 -0.04823729
0.01358623 0.006455287 -0.07313718
0.01666867 0.01685797 -0.07242004
0.01842654 0.01307606 -0.048626
0.02058706 -0.0002772344 -0.04371544
0.01329977 0.005479543 -0.0729998
0.02057946 0.04142104 -0.06015582
0.02056172 -0.0006737807 -0.01445346
0.01333092 0.0309799 -0.07629469
0.02055521 0.001733194 -0.04580624
0.0198256 0.04119014 -0.06607133
0.01703045 0.01158828 -0.03639079
0.01208955 0.01662428 -0.01091286
0.01328569 0.05098585 -0.0762963
0.01334658 0.009553624 -0.0745396
0.01831648 0.009370422 -0.003937869
0.01938899 0.007962736 -0.04533798
0.01944469 -0.006711441 -0.04182386
0.01611728 0.0498736 -0.07342929
0.01277192 0.0606 -0.07438625
0.01587654 0.04939042 -0.04748898
0.01841647 0.03157956 -0.05144759
0.01559195 0.04488794 -0.04717418
0.02046103 0.02550163 -0.06291929
0.02054394 0.05815562 -0.06210909
0.01724876 0.01123388 -0.02314206
0.0188281 0.01277666 -0.04945708
0.01578396 0.01913473 -0.04724125
0.01451433 -0.01455806 -0.002142615
0.02058504 0.0005146396 -0.0455836
0.01343332 -0.01504285 -0.04617631
0.01909525 0.0606 -0.06587987
0.01855111 0.01079442 -0.06785236
0.01976792 -0.005743911 -0.005825856
0.02007319 0.02428438 -0.06522761
0.01200822 0.01671944 -0.03990464
0.02044669 0.00505392 -0.04963465
0.01561984 0.01091934 -0.07256784
0.01225033 -0.01224956 0
0.01732448 -0.0111286 -0.0227134
0.01903915 0.05608123 -0.06842516
0.02018685 0.05123503 -0.05668793
0.02057536 0.0004625928 -0.006976473
0.0148136 0.05501621 -0.0463535
0.01952789 0.02300176 -0.05408993
0.01962386 -0.006201763 -0.04083386
0.02054881 0.004121177 -0.05040064
0.0199333 0.005004272 -0.02008351
0.02036086 0.003123675 -0.03286136
0.01786753 0.01801411 -0.05003995
0.01510393 -0.0138821 0
0.01497488 -0.01263348 0
0.01708313 0.01150275 -0.006893945
0.01964984 -0.001345159 -0.05517717
0.01276797 0.00590616 -0.07364654
0.01175562 -0.01618764 -0.04710225
0.01997596 0.004806401 -0.009603643
0.02052151 0.04626617 -0.0589038
0.0143113 -0.01476478 -0.0194214
0.01464335 -0.005854763 -0.06299828
0.01273736 -0.01618331 -0.02445556
0.01509124 0.009321068 -0.0726758
0.02058698 0.05093657 -0.06026521
0.01775723 0.01037147 -0.01585635
0.01671809 -0.01201457 -0.01353642
0.0192696 0.04378462 -0.06787242
0.0188993 0.03490815 -0.05245139
0.01769932 -0.004592243 -0.05820292
0.01550983 0.03175328 -0.04706209
0.01491217 0.01419978 -0.02858061
0.017276 0.01120931 -0.0408105
0.02007258 -0.004494812 -0.01963944
0.01994268 0.03835223 -0.05548372
0.02057184 0.01071689 -0.05897482
0.02008916 0.0189428 -0.06502371
0.01910518 0.03399567 -0.05290004
0.02034567 0.04113132 -0.0577307
0.01926018 0.05788367 -0.05333369
0.0158228 0.0353658 -0.04741747
0.01797087 -0.010009 -0.03371027
0.01594355 0.01615681 -0.04615474
0.01703923 0.01157402 -0.03518227
0.01328731 0.04241309 -0.07630978
0.01383992 0.01520033 -0.009574924
0.01748194 0.01085109 -0.01689064
0.02058484 0.01537601 -0.06058099
0.01710556 -0.004029619 0
0.01981116 0.009169963 -0.06351956
0.0172396 0.05227052 -0.04939865
0.01777337 0.04561633 -0.05019539
0.02058441 0.005768826 -0.05520256
0.01996435 0.004957467 -0.03978185
0.02021186 0.03993256 -0.0644736
0.01933671 -0.00699474 -0.01056791
0.0192594 0.03534807 -0.05331477
0.01872279 0.001618685 -0.06208549
0.01598751 0.06034522 -0.04762825
0.01953489 0.006496344 -0.04067751
0.01806183 0.009819443 -0.006861622
0.01747523 -0.01087895 -0.02784762
0.01441453 -0.01437545 -0.0445462
0.01531131 0.05747815 -0.074306
0.01856328 0.02024436 -0.06950983
0.01906623 0.007758723 -0.03172536
0.01608009 0.02533241 -0.07347297
0.02057067 0.0411422 -0.06155565
0.02033906 -0.00322681 -0.01064722
0.01459383 -0.01449031 -0.007812157
0.02029533 0.00682719 -0.05023561
0.01427051 0.01482937 -0.02413266
0.01701649 -0.01160989 -0.008670242
0.01277089 -0.01501891 -0.0489163
0.01952437 0.00651243 -0.02302066
0.01983608 0.03325414 -0.05508128
0.0174549 0.01086599 -0.005143766
0.02058863 0.03152319 -0.06074717
0.0188616 0.00540571 -0.0644577
0.01976643 -0.005287699 -0.04455457
0.02013961 0.0119936 -0.06325435
0.01316234 0.01581715 -0.003513675
0.0175668 0.01829023 -0.07125419
0.01999243 0.04356294 -0.06551412
0.01415293 0.04605046 -0.07556287
0.01567288 0.02257442 -0.07393479
0.01974294 0.005862588 -0.03957758
0.02035575 -0.003142119 -0.01467949
0.01309819 -0.01589292 -0.0262633
0.01720455 0.009044745 -0.06972436
0.01393272 0.02526645 -0.04543192
0.01756319 -0.01070485 -0.01810651
0.01902949 0.01476592 -0.06779518
0.01555602 -0.01347858 -0.03706125
0.018628 0.04785355 -0.06930615
0.0175364 0.02198344 -0.07140514
0.01318578 0.01769711 -0.04383254
0.01990228 0.02681539 -0.05533099
0.01881843 0.03830199 -0.05228982
0.01571464 -0.009312799 -0.05585603
0.01572774 -0.01322783 -0.001024714
0.01939494 -0.006927934 -0.03460592
0.01649038 0.01229205 -0.01772486
0.01792608 -0.003728975 0
0.02055504 0.001125167 -0.03204709
0.01742532 0.02378372 -0.04964996
0.02055854 0.06013466 -0.06171214
0.01957096 -0.00641244 -0.03976614
0.0205818 0.05375492 -0.06011359
0.02049315 0.05129744 -0.06255166
0.01348966 -0.015525 -0.01844618
0.02055799 0.01894628 -0.05977013
0.01688415 0.04902316 -0.04886928
0.01826201 -0.009479554 -0.01641942
0.01911357 -0.007619251 -0.03403228
0.02026368 0.004122858 -0.0438938
0.01539855 0.0136812 -0.03556123
0.01890705 0.03584607 -0.06873927
0.011684 0.04004377 -0.04363616
0.01600885 -0.01291678 -0.01915949
0.01899222 0.007928107 -0.02622588
0.01752216 0.03184936 -0.07141753
0.01879946 0.0551048 -0.06892611
0.01473038 0.01437971 -0.01242814
0.01276305 0.0606 -0.04715089
0.01940033 0.04617705 -0.06744151
0.01455107 0.02131278 -0.04605461
0.01875504 -0.008444575 -0.001072719
0.01986848 0.02115048 -0.06596219
0.01726662 0.05717867 -0.07174287
0.01434708 0.05443836 -0.04584967
0.01981343 0.005544352 -0.03423113
0.02058353 0.0004122341 -0.03143691
0.01746706 -0.01086919 -0.01713493
0.01914897 -0.00745966 -0.006609886
0.01938919 0.02524126 -0.06753968
0.01241723 0.01643419 -0.03899154
0.01507907 0.01403331 -0.007857981
0.01893633 -0.008041456 -0.03153277
0.01577811 0.02758926 -0.04736398
0.02055419 0.02709495 -0.05941161
0.01418014 -0.01490079 -0.034252
0.01479799 0.03667231 -0.04630884
0.01725096 0.0606 -0.05785802
0.01656493 0.0606 -0.07064568
0.01649782 0.01227698 -0.01182851
0.01222317 0.04946113 -0.04407028
0.02056607 0.0006812451 -0.01191517
0.01350412 0.01879194 -0.04474002
0.02056849 0.006404508 -0.05440745
0.02058613 0.006937854 -0.05579948
0.01455392 0.0159389 -0.04386761
0.01544174 0.01358976 -0.003885601
0.02057167 0.0007090645 -0.03696515
0.01444701 0.01464514 -0.01370337
0.01859599 -0.008852177 -0.003372386
0.01269049 -0.01621745 -0.03045107
0.01996411 0.01906422 -0.05555519
0.01961343 0.01893697 -0.05424273
0.01645961 -0.009655478 -0.05300739
0.01645719 -0.007001864 -0.05797797
0.01993421 0.04960315 -0.06569723
0.02041696 0.02902162 -0.05816966
0.020315 0.02943805 -0.06390279
0.01953136 0.006474843 -0.003418794
0.02029064 0.0560225 -0.05738444
0.01991003 0.03483285 -0.06580182
0.01984919 0.03422733 -0.05513033
0.01988337 0.04479987 -0.06587379
0.01866191 0.05026612 -0.05198714
0.01750932 0.02682676 -0.04978159
0.01173673 -0.01636796 -0.04622467
0.02044057 0.00245717 -0.0378809
0.0205697 0.02685582 -0.06160146
0.02056588 0.05633917 -0.06154942
0.01925783 0.008977201 -0.04658743
0.01767439 -0.01047541 -0.00158987
0.01941975 0.006799688 -0.029264
0.01178826 -0.01687453 -0.03328208
0.02010621 0.008675652 -0.05099557
0.01564049 -0.01126685 -0.0516916
0.01629231 0.05918967 -0.0480263
0.01975676 0.005778129 -0.0204216
0.01817145 0.04684377 -0.07025753
0.01968308 -0.006077099 -0.01727496
0.01548149 -0.01356585 -0.02875574
0.01880655 -0.008342033 -0.009524481
0.01802093 0.01393423 -0.0482648
0.02010706 0.01322029 -0.05443901
0.01626886 0.0449025 -0.07321236
0.01349726 -0.01514181 -0.04530218
0.01233434 0.04835019 -0.07705952
0.01582376 0.03923433 -0.07376368
0.01700423 0.01162792 -0.0112768
0.0185596 -0.008938745 -0.008954847
0.01790322 0.0606 -0.06044229
0.01377091 0.05250077 -0.04530622
0.01697867 0.01166486 -0.01732694
0.01859094 -0.008799618 -0.04154268
0.01945949 0.01228988 -0.05115847
0.01257997 0.008060092 -0.07465789
0.01576083 -0.01323874 -0.03128109
0.01895226 0.0056109 0
0.0203203 0.04910184 -0.05757247
0.02018745 0.04143343 -0.06460871
0.02031739 0.05799393 -0.05756445
0.01884836 -0.003552318 -0.05573923
0.02016557 -0.004046388 -0.01302778
0.0158938 0.0458972 -0.07368424
0.01811811 0.05469953 -0.05086623
0.01516255 -0.008286514 0
0.02041825 0.06038324 -0.06296513
0.01939549 0.01016526 -0.06546438
0.01357541 0.01252156 0
0.017801 -0.01028521 -0.01463017
0.0197748 0.05980312 -0.05501138
0.01709716 0.01515951 -0.04734042
0.01564704 0.0606 -0.07093541
0.02052687 -0.001368503 -0.03963974
0.01682521 -0.006182834 -0.05829349
0.02011936 0.004262649 -0.02921172
0.01557524 -0.01345607 -0.02504914
0.01723651 0.01125378 -0.01203465
0.0156003 0.04464809 -0.0740171
0.0205343 0.001535164 -0.03433104
0.01794028 0.04089144 -0.07071136
0.01213896 -0.01661532 -0.01711886
0.01692311 0.01529474 -0.07184199
0.01742621 0.0606 -0.06908426
0.01952683 0.0006745564 0
0.01284558 0.0003577312 -0.07057424
0.01768639 0.02510549 -0.05005908
0.02057716 0.05527216 -0.0599897
0.01744714 0.02238954 -0.04968414
0.02059306 0.04371145 -0.06067135
0.01292432 0.05593634 -0.07657594
0.02029727 0.01198512 -0.05486992
0.01737242 0.02392878 -0.07164859
0.01634986 0.01247941 -0.02969353
0.01367751 0.01030526 0
0.01481173 0.04097258 -0.04632627
0.01203466 -0.008060391 -0.06381736
0.02030113 0.01267679 -0.06258648
0.01707166 0.01151864 -0.001044137
0.01513285 -0.01397411 -0.02783461
0.01278417 0.04310507 -0.07670982
0.0202999 -0.00342549 -0.01978769
0.01484287 0.0142689 -0.03345911
0.01944634 -0.006765368 -0.02529533
0.01569029 -0.01330053 -0.01228814
0.01731406 -0.01115512 -0.02863445
0.01450796 -0.01457319 -0.01082404
0.01631489 -0.01058917 -0.05120122
0.01860476 0.04905865 -0.06935042
0.01589882 -0.01306028 -0.02157697
0.01957986 -0.006344812 -0.001616869
0.01770175 0.01145593 -0.04430427
0.01793186 0.02485056 -0.07072723
0.01805941 -0.009846622 -0.02233004
0.01968977 0.001354518 -0.0582838
0.01774439 -0.01038062 -0.01344781
0.01741609 0.01170455 -0.07030202
0.02011608 0.03776283 -0.05617238
0.02032238 0.02855327 -0.05745841
0.02056679 0.02784217 -0.05991888
0.01229399 0.01650602 -0.02387374
0.01807078 -0.005961601 -0.05482067
0.01183246 0.0521732 -0.04375176
0.01514411 0.03737421 -0.04667804
0.01251096 -0.0163482 -0.0332159
0.01919131 0.0606 -0.05636907
0.01757471 0.0009118512 -0.06435626
0.01958584 0.04015526 -0.05430346
0.02026082 0.005383125 -0.04738042
0.0124101 0.01643968 -0.03612403
0.01732563 -0.008515912 -0.05253833
0.01513496 0.01397372 -0.03987147
0.01863751 -0.008296086 -0.04500807
0.02058873 0.008162138 -0.05690122
0.01953407 0.006485812 -0.02534286
0.01287762 -0.01598404 -0.04213754
0.0204063 0.05534483 -0.05815098
0.01866055 -0.00869838 -0.02854167
0.01607024 0.0310128 -0.04771363
0.02037975 -0.00299401 -0.007124395
0.01911862 0.0076265 -0.03581139
0.02007788 0.02344199 -0.06520778
0.01303423 -0.01594275 -0.01523254
0.01497424 -0.01414477 -0.02545757
0.02021288 0.003856144 -0.02505978
0.01745235 -0.01093396 -0.03474416
0.01408343 0.03136961 -0.07563071
0.01623153 0.01438812 -0.04498041
0.02048576 0.002064998 -0.03340882
0.01409188 0.05384746 -0.07562246
0.01694413 0.01427024 -0.07161771
0.01560679 -0.01341912 -0.02588581
0.01979428 0.0232501 -0.06620481
0.01864624 0.06057697 -0.06922616
0.01665453 0.05076992 -0.04853679
0.02003618 0.004656806 -0.03861785
0.01244189 0.01640181 -0.0197732
0.02036383 -0.003101153 -0.02680074
0.01496011 0.05170186 -0.04650545
0.01501184 0.01598421 -0.04461299
0.01786129 0.01737343 -0.07061795
0.01225252 0.03939379 -0.04407454
0.01572128 -0.01325929 -0.01124354
0.01328345 0.001171458 -0.07067276
0.01862711 0.04482266 -0.05190471
0.01456331 0.03572649 -0.04606721
0.01918256 0.007404736 -0.01522022
0.01654506 0.01223151 -0.03073454
0.01280084 0.05785217 -0.07667113
0.01619063 -0.01271532 -0.03074653
0.01954808 0.006443661 -0.006692932
0.01925408 -0.004962876 -0.05108673
0.02033348 0.04125438 -0.06370336
0.01814898 0.009730991 -0.02985604
0.01835686 0.03055432 -0.06992645
0.01723596 0.05141653 -0.0493912
0.0174581 0.05433114 -0.07146342
0.02003209 0.0572377 -0.05583304
0.01768263 -0.01003074 -0.04544476
0.01669037 -0.001825849 -0.06368357
0.01319546 0.01681448 -0.04298011
0.01592024 0.03831009 -0.07365426
0.01571659 0.0484943 -0.04731499
0.0174777 -0.01082557 -0.0058446
0.01668461 0.04071482 -0.04855611
0.01975167 0.005814028 -0.03339238
0.01432677 -0.01175192 -0.05423622
0.01957187 -0.006409201 -0.01459241
0.01868307 0.05890446 -0.05204721
0.0161994 0.01265347 -0.01340656
0.0144531 0.03316488 -0.07526984
0.01533693 0.01325756 0
0.02056748 0.03247763 -0.0616452
0.01795276 0.01009109 -0.03878316
0.01931657 -0.001797422 -0.05632579
0.01705983 0.04018231 -0.04910514
0.02055068 0.05714746 -0.05928177
0.01322194 -0.01576695 -0.01223025
0.01259494 -0.01587309 -0.04535709
0.01812745 0.03732584 -0.05086069
0.01767945 0.02869606 -0.05004821
0.01184167 -0.01683563 -0.03483625
0.01825776 0.009522291 -0.02295481
0.0129744 0.0159937 -0.02092496
0.0174699 -0.01088059 -0.0244451
0.01581894 -0.01317069 -0.03882082
0.0145474 -0.01454042 -0.01443499
0.01648335 0.005342935 -0.0691474
0.01347831 0.01759752 -0.07601852
0.01755034 0.0606 -0.06504986
0.02059209 0.05279618 -0.06043799
0.01953354 0.01647417 -0.06675436
0.01652877 -0.01223808 -0.007461913
0.01739424 0.0339747 -0.04960124
0.01987439 0.01981528 -0.06591414
0.01809004 0.009816875 -0.02389459
0.01465903 0.002843785 -0.07022485
0.01764837 0.0606 -0.05199209
0.01725946 0.0606 -0.06121187
0.01962135 0.03408436 -0.06676044
0.01968423 0.006073524 -0.01521648
0.01948321 0.05362032 -0.05403607
0.01833829 -0.00934469 -0.02923144
0.0156873 0.05114336 -0.04728817
0.01873548 0.002581851 -0.06285846
0.01225499 0.05712223 -0.04409789
0.01519946 0.06060001 -0.04780291
0.02041667 0.00808958 -0.05303754
0.01931313 0.02776209 -0.05346988
0.01988304 0.005214721 -0.01078807
0.02027136 -0.0001589482 -0.05224842
0.01572474 0.01580363 -0.07351758
0.01858297 -0.0088832 -0.03695305
0.01775247 0.01961647 -0.05013699
0.01742778 0.01092845 -0.01083796
0.02056213 0.02987964 -0.05968214
0.01569381 0.01331692 -0.03372379
0.01222694 0.01656553 -0.03397357
0.01849791 0.03570728 -0.06961649
0.01654363 0.0473641 -0.04836573
0.0200432 -0.004577127 -0.01215955
0.01781812 0.04645488 -0.07093659
0.01345691 0.03297632 -0.07618744
0.01904648 0.0606 -0.06304095
0.0126162 -0.01612947 -0.04294075
0.01559418 -0.01335995 -0.04176695
0.01351651 -0.01237036 0
0.0199591 0.01176063 -0.06407626
0.01456522 0.01454585 -0.03560053
0.02053419 0.004248757 -0.05451854
0.01661345 0.01214201 -0.02732703
0.02016004 -0.003476412 -0.04551595
0.01773953 -0.01037766 -0.008351364
0.0116227 -0.0128396 0
0.01777657 0.01031047 -0.005736573
0.01569441 0.01330339 -0.0249112
0.0176593 0.03917203 -0.07120074
0.01210667 -0.006081997 -0.06593533
0.01705089 -0.0115579 -0.007675347
0.01781234 0.01027047 -0.01381993
0.02019699 -0.003947587 -0.0206802
0.02046515 0.01495884 -0.06201622
0.01726413 0.03227866 -0.04939735
0.01389286 0.02709727 -0.04540036
0.01900449 0.009132937 -0.04535571
0.01828181 0.009472239 -0.01930707
0.01283069 0.01338096 0
0.01242974 -0.006962721 -0.0646432
0.01615364 0.04037014 -0.0478201
0.02055478 0.02138123 -0.06189546
0.01534299 -0.01181498 0
0.01534783 0.0308984 -0.04688596
0.01792795 0.01011937 -0.03189741
0.016962 0.01893598 -0.04876433
0.01552587 -0.01351389 -0.01593905
0.01938677 0.006890247 -0.02107408
0.01490162 -0.01422118 -0.02882263
0.0156401 -0.009853017 -0.05501605
0.0189024 -0.006233103 -0.05020004
0.01512536 0.01024402 -0.07295747
0.01769921 -0.005885439 -0.05626447
0.01961345 0.05633553 -0.06672049
0.01832774 -0.009343386 -0.001415303
0.01895796 -0.00796022 -0.0106993
0.01979202 -0.005609735 -0.001219323
0.01358506 0.01849364 -0.07598489
0.01413989 0.0149238 -0.01048687
0.01977525 -0.004287831 -0.04836481
0.01184234 -0.01169838 -0.05889827
0.01968394 0.006074306 -0.01922305
0.01673388 0.004303874 -0.06819375
0.0132114 -0.01579648 -0.03591821
0.0152931 0.01379822 -0.02565861
0.01908109 -0.007696614 -0.03074432
0.01865973 0.01143623 -0.0476337
0.01833266 0.01567951 -0.06953646
0.01478213 0.03451604 -0.0462925
0.0203963 0.002841366 -0.01610909
0.0177273 0.04122583 -0.05012319
0.01961503 0.03211768 -0.06678462
0.01906685 0.01568172 -0.06787843
0.02028556 0.05219934 -0.0639207
0.01414582 -0.01490525 -0.007104564
0.01894866 0.04314476 -0.05256929
0.01482304 0.01428868 -0.03476539
0.02059863 -0.0001032871 -0.01226485
0.01820094 0.01735409 -0.05049957
0.014518 0.009665584 -0.07343388
0.02053957 0.00399209 -0.04953765
0.01806297 0.0256516 -0.07048029
0.02032893 0.00426185 -0.04602248
0.01962638 0.0114046 -0.05105213
0.01939415 -0.004063608 -0.05222306
0.01839861 0.009413611 -0.04213693
0.01546513 0.04304764 -0.07416759
0.01569732 0.01327976 -0.01113154
0.02038421 -0.002969844 -0.01382901
0.01698907 -0.01164734 -0.02925748
0.01613498 -0.01277164 -0.02486039
0.01502908 -0.01408709 -0.02352421
0.01771828 0.01269807 -0.0700225
0.01925665 0.03226027 -0.05330683
0.01961194 0.008334608 -0.06382486
0.01973854 -0.005877316 -0.03192587
0.02056263 0.000935201 -0.03491317
0.01958819 0.05645327 -0.05439015
0.01145572 0.01705304 -0.002248147
0.01797648 0.02962937 -0.07064319
0.01475798 0.05944854 -0.04630152
0.01715415 0.0124356 -0.04430053
0.01325198 0.0202871 -0.07635551
0.0169864 0.04192331 -0.07216139
0.01343222 -0.01559347 -0.03691865
0.01945941 0.05981128 -0.05398893
0.01576891 -0.01284885 -0.04495584
0.01870325 -0.008596663 -0.03231821
0.01492154 0.01418367 -0.00291477
0.01837554 0.009294562 -0.02838995
0.01972942 0.04407413 -0.05478795
0.01963716 0.04819616 -0.05450885
0.01732425 0.04477563 -0.07167013
0.01225097 0.03616137 -0.07713376
0.01962709 0.03299855 -0.06674318
0.01347828 0.0004837257 -0.07002836
0.01805857 -0.006920369 -0.05302014
0.016653 0.04338716 -0.07264967
0.01376296 0.03860355 -0.04529818
0.01712912 0.002955493 -0.0666824
0.02034379 0.00322435 -0.01927508
0.02040366 -0.002448709 0
0.0196863 -0.005921383 -0.04166131
0.0201032 0.03262566 -0.05611058
0.01283571 0.04999053 -0.04456012
0.01874193 0.008498033 -0.006790326
0.01464455 0.05978267 -0.07502022
0.01207483 -0.01664022 -0.006002676
0.02011806 -0.004348057 -0.03033512
0.01158151 0.0169741 -0.01977677
0.02054718 0.00175752 -0.04473293
0.01702329 0.02773076 -0.04902083
0.02041505 -0.002721523 -0.0329184
0.0197308 0.005910851 -0.03850308
0.01709308 0.01703626 -0.04840656
0.01323738 -0.01575593 -0.01609895
0.01377142 0.04115246 -0.04530524
0.02040944 0.05193045 -0.06310128
0.0165723 0.02426716 -0.04837915
0.01820026 0.04590871 -0.0702008
0.01347372 -0.01553119 -0.009283476
0.01983127 0.0008773086 -0.0570462
0.02047543 0.01724454 -0.06236259
0.01395935 0.0247331 -0.07574667
0.0151625 -0.01393938 -0.002368203
0.01563512 0.01485501 -0.07346149
0.01730454 -0.01115805 -0.02043638
0.01605513 -0.01195683 -0.04780105
0.01294007 0.04013036 -0.07659062
0.01754092 0.05525676 -0.07134149
0.01330738 -0.01570377 -0.03100558
0.01732863 -0.01113282 -0.0336389
0.01888522 0.05960911 -0.05246832
0.02045057 0.04064516 -0.05842609
0.01495474 0.02990972 -0.04647022
0.01857303 -0.00877675 -0.04253685
0.01260024 0.002809426 -0.07226575
0.01802857 -0.009905865 -0.03834904
0.02056407 0.02881973 -0.05978492
0.02053243 0.0009329215 -0.001627884
0.01683892 0.01254443 -0.04336784
0.01667707 0.04921507 -0.0726115
0.01983655 -0.005437935 -0.004972577
0.02058817 0.03046209 -0.06075029
0.01263326 0.05502185 -0.04439929
0.02055577 0.01418503 -0.05867719
0.01722743 0.0602509 -0.07179882
0.01497718 -0.01407569 -0.04156493
0.01956009 0.03457497 -0.05419292
0.01708525 -0.0102226 -0.04877122
0.02058704 0.03898492 -0.06052209
0.01353196 0.03367069 -0.04511336
0.01982432 0.005505572 -0.03539074
0.0186056 0.03947148 -0.05185006
0.01607496 0.04901283 -0.07347878
0.01905496 -0.002709899 -0.05613256
0.02057688 0.003603456 -0.05289233
0.01432062 -0.005435808 -0.06394154
0.02054885 0.01606936 -0.05896163
0.01597338 0.01295943 -0.03039866
0.02055328 0.007429194 -0.0545959
0.01789215 -0.01007727 -0.04201089
0.01276645 0.02750831 -0.0767457
0.01933005 0.003657902 0
0.01621353 -0.009412873 -0.05443892
0.01209354 0.01274736 -0.07639032
0.02038935 0.05268917 -0.05803517
0.02020789 0.003787293 -0.006818323
0.01568955 0.0293857 -0.04725799
0.02030799 0.01374549 -0.06290595
0.02026756 0.03804081 -0.05715014
0.01920627 0.00171781 0
0.01739523 -0.0109983 -0.0192362
0.01163102 0.01693913 -0.01665294
0.01927836 -0.007033096 -0.0430957
0.0203196 0.04217929 -0.06378693
0.02032649 0.02531988 -0.06383918
0.0205918 0.008763396 -0.05748182
0.01213397 -0.01342786 -0.05499689
0.01960494 -0.006310813 -0.02141037
0.01882141 0.006547616 -0.06524749
0.01365241 0.05231484 -0.07600156
0.0154723 -0.01356102 -0.006659818
0.01381648 0.03041977 -0.075872
0.02039585 0.002845192 -0.03398734
0.01772113 -0.006091417 0
0.01831829 0.05710065 -0.05128639
0.02053443 0.0004604717 -0.0485072
0.01401808 -0.001279801 -0.0681353
0.01318469 -0.01579199 -0.002330837
0.01769423 -0.01048931 -0.0232292
0.01635329 -0.01245029 -0.004033892
0.01470265 0.0542743 -0.07496806
0.01874192 0.008506434 -0.009193072
0.01996616 0.04132331 -0.05557249
0.02055468 0.04729222 -0.06189755
0.01686517 0.005251817 0
0.02056216 0.0007602437 -0.01330779
0.01747597 0.05334092 -0.0714377
0.01327484 -0.01573598 -0.03360193
0.01246047 0.0606 -0.07273247
0.01872287 0.008710518 -0.06658495
0.01570795 0.01327856 -0.01950035
0.0205775 0.003425815 -0.05131787
0.01926068 0.007166825 -0.004081421
0.02014233 0.01117913 -0.06292278
0.01867795 0.01070625 -0.0467391
0.0192595 0.02001462 -0.06788232
0.01834899 0.05385431 -0.06986566
0.01196865 -0.01674315 -0.02657283
0.01665138 -0.01210856 -0.03152328
0.0190773 0.007693494 -0.02111409
0.01460114 0.01451002 -0.03184665
0.02053652 0.03580033 -0.06219579
0.01970409 -0.006002089 -0.03360993
0.0197683 -0.005460567 -0.0433961
0.01417176 0.05691137 -0.04566517
0.01380614 0.009117609 -0.07393787
0.01873233 0.01198592 -0.0678147
0.0204234 -0.002610025 -0.03182335
0.01326058 -0.003156988 -0.06748477
0.01464447 -0.01444538 -0.009744506
0.01873805 0.008540016 -0.01598927
0.0198061 0.01525441 -0.06560425
0.02056903 -0.0006057909 -0.01707827
0.02058598 -0.0006001372 -0.03663398
0.01986884 -0.00537712 -0.01797081
0.01984672 0.05803765 -0.05523596
0.01859235 -0.008860838 -0.02034129
0.01225979 0.0418685 -0.04408551
0.01582866 0.004551783 -0.06966393
0.02059259 -1.450966e-05 -0.04470338
0.02052899 0.03248485 -0.05893603
0.01859077 -0.008864621 -0.01104699
0.01512669 0.02013363 -0.07453677
0.01631424 0.0389435 -0.07314874
0.0183381 0.00936695 -0.0368189
0.01656848 0.01218661 -0.01060664
0.01345862 0.03763635 -0.04505536
0.01547684 -0.006172667 -0.06119453
0.01711863 0.06060001 -0.05952269
0.01675465 -0.01196751 -0.01928979
0.01780142 -0.01031611 -0.03907402
0.01758574 0.04028748 -0.04990135
0.02005457 0.03177029 -0.05590666
0.01517236 -0.01005263 -0.05578156
0.01403377 -0.0003294444 -0.06881872
0.01959807 0.006331285 -0.06273433
0.01428689 -0.01480655 -0.03939695
0.01915148 0.007536267 -0.03974506
0.0128286 -0.008034492 -0.0629438
0.02037506 -0.003034096 -0.03404547
0.01195384 0.03043575 -0.04382826
0.01996328 0.04363902 -0.05556158
0.01967523 -0.006100573 -0.01562109
0.01986908 0.01087582 -0.06406203
0.01471117 0.05242988 -0.07496237
0.0184489 -0.005033645 -0.05507801
0.01729212 -0.01076006 -0.04502845
0.02057562 0.0006102411 -0.02769154
0.01275398 0.01617494 -0.02208756
0.01565624 0.0606 -0.04869147
0.01953969 0.006442177 -0.0001436329
0.02058237 0.0004411467 -0.01557715
0.0135359 0.01548484 -0.01080616
0.02013629 0.05498106 -0.0563503
0.0205748 0.03536559 -0.06009102
0.01617357 -0.001965672 -0.06455496
0.02057212 0.009284672 -0.05815277
0.0204966 0.005384408 -0.05636855
0.01606473 0.02193244 -0.07349038
0.01667435 0.01448949 -0.04593961
0.01321923 0.02394748 -0.07639587
0.02053636 0.01507578 -0.05821008
0.02010076 0.02737628 -0.06508851
0.01254018 -0.01545156 -0.04785944
0.0134859 0.02957693 -0.07616202
0.01823405 0.02070082 -0.07015808
0.02038314 0.01110741 -0.0550752
0.01934999 0.04007354 -0.06762279
0.01662108 -0.003470337 -0.06216541
0.01716371 0.0543271 -0.0492924
0.01810039 0.009746969 -0.004770188
0.01605168 -0.01285664 -0.01634521
0.01859512 -0.00885426 -0.01191099
0.01424773 -0.0146248 -0.04370745
0.01304293 0.01593488 -0.01790479
0.01952018 0.03741145 -0.05407729
0.02054177 0.001410807 -0.05028099
0.01220796 0.04600047 -0.04405077
0.01245618 -0.01638809 -0.02018404
0.01995957 0.02227838 -0.05554755
0.01701515 0.05386572 -0.07211333
0.01658314 0.03838713 -0.04840154
0.01643401 0.0606 -0.07279937
0.01955735 -0.0008225702 -0.05640142
0.01431242 0.03576668 -0.07540717
0.01870008 -0.008575388 -0.04072391
0.02055184 0.03493471 -0.05931299
0.01342812 0.01560796 -0.04009921
0.01547939 -4.780725e-05 -0.06717255
0.02053788 0.007241892 -0.05362035
0.0150891 0.05875185 -0.04665713
0.01625278 0.007569337 0
0.02025134 -0.003671885 -0.03625639
0.01248257 -0.0004174958 -0.07038335
0.01394583 -0.01510003 -0.01578372
0.01961354 0.006267596 -0.03100149
0.0186807 -0.007102152 -0.0493058
0.01855564 0.01914189 -0.069486
0.02059279 -0.0001132963 -0.04069072
0.01384604 0.02057378 -0.04535722
0.02037586 0.01083302 -0.06142143
0.01950452 0.006566931 -0.03608389
0.02052868 0.001475133 -0.02729262
0.0142229 -0.01333636 -0.05028253
0.01842745 0.01757607 -0.06961293
0.01419666 0.01807653 -0.04510114
0.01477772 0.01431196 -0.0002885151
0.01888849 0.003877928 -0.06336474
0.01880951 0.046111 -0.05228587
0.01870777 0.008610612 -0.03898556
0.01373302 0.01049082 -0.07445067
0.01930753 -0.007044568 -0.003340912
0.01562364 0.0606 -0.04979598
0.01171974 0.02011479 -0.04365512
0.0115702 0.01697597 -0.004764013
0.01904211 0.007831531 -0.0349808
0.01800905 0.03192589 -0.07058185
0.01570976 0.04750542 -0.04730585
0.01766332 0.01650525 -0.04916853
0.01515294 0.01395377 -0.01942528
0.01353011 0.0550717 -0.04511451
0.02017432 0.01933286 -0.05645074
0.01927037 -0.00717304 -0.01330016
0.01680985 0.04530239 -0.04875113
0.01901607 0.03955724 -0.05270256
0.01668074 0.03521933 -0.07261302
0.0129112 0.03904994 -0.04461898
0.01938614 0.01361119 -0.06664244
0.02017495 0.04072908 -0.05648713
0.01803914 0.04061817 -0.05068334
0.01732898 0.01999277 -0.04948682
0.01781501 -0.0004503479 -0.06260667
0.01827143 0.01217598 -0.04726997
0.01816358 0.03971501 -0.0702908
0.01235921 -0.015116 -0.04973488
0.02039418 0.02164628 -0.057921
0.01574037 0.008689599 -0.07166944
0.01948811 0.02600788 -0.06721565
0.01891949 0.008139785 -0.03377905
0.02057885 -0.0005626817 -0.04247328
0.0201244 0.04065456 -0.06495763
0.0138504 0.0468728 -0.04536893
0.01218787 0.02150655 -0.04399487
0.01922342 -0.00734855 -0.02977116
0.01864208 0.04265705 -0.05193176
0.01410133 0.01496793 -0.01474776
0.01651684 0.0122402 -0.002907183
0.01681108 0.02012188 -0.04868296
0.017587 0.009673981 -0.06931812
0.02057453 0.0006375195 -0.03864147
0.01828159 0.009476219 -0.02623611
0.02058095 0.03448846 -0.06036487
0.01913263 0.01561883 -0.05201786
0.01199562 0.01672323 -0.03683108
0.02031755 -0.003335967 -0.01721243
0.01997913 0.0504738 -0.06554684
0.01950648 0.0105278 -0.04978761
0.02024386 0.004604373 -0.0450791
0.01852328 0.04633224 -0.06952864
0.02053759 0.01693176 -0.05870987
0.01898655 0.007958316 -0.03074536
0.01965359 0.03548793 -0.0666512
0.01520127 -0.01389399 -0.02270554
0.01819074 0.01330895 -0.06930377
0.01714723 0.02147776 -0.07197471
0.01871607 0.05110447 -0.05210119
0.01275021 0.01617785 -0.02957535
0.01751991 -0.01076024 -0.009330635
0.01691064 -0.006334513 0
0.02047288 -0.001705708 -0.0008382845
0.01995667 0.01260737 -0.06438107
0.01213357 0.06032035 -0.04400145
0.01831402 -0.002591434 -0.05899697
0.01521101 -0.01388258 -0.03120947
0.01210758 0.01661657 -0.01505516
0.01572132 0.03253468 -0.04729602
0.01748726 0.05091541 -0.0714242
0.01357469 -0.01475768 -0.04698202
0.01996697 0.008318904 -0.06248573
0.01312542 0.05437366 -0.07641827
0.0195704 0.02436476 -0.06694543
0.0192968 0.007081133 -0.005896845
0.01193512 0.02303609 -0.07737154
0.01564241 0.01100664 0
0.02019228 0.02821806 -0.05653816
0.01762584 0.01056688 -0.004021313
0.02047417 -0.001753446 -0.006595154
0.02039427 0.00285891 -0.01752079
0.01776992 0.01035816 -0.01904534
0.02057188 0.0383498 -0.05990664
0.01963942 -0.006207671 -0.03279037
0.01822894 -0.009538832 -0.01450223
0.01761196 -0.01060358 -0.01057225
0.01720807 -0.01129448 -0.006691284
0.02025274 0.05820762 -0.06408318
0.01677465 -0.01008053 -0.05067442
0.01957238 0.02847222 -0.05421839
0.02043565 0.02268343 -0.05824174
0.02055014 0.002185445 -0.0465258
0.01500596 -0.007476643 -0.0603333
0.01265609 0.01623933 -0.006064301
0.01758754 0.007661079 -0.06848293
0.01459455 0.05881207 -0.07507595
0.01347086 0.05356864 -0.07614418
0.01526824 0.0138192 -0.01209156
0.02054127 -0.001038227 -0.02257017
0.02059917 0.05870563 -0.06063886
0.01726386 0.02695128 -0.07179632
0.01950516 -0.002689494 0
0.01476755 -0.01188537 -0.05290882
0.02058051 -0.0006930811 -0.03884397
0.01760538 0.04563039 -0.07126797
0.01492836 0.04809059 -0.07473653
0.01920431 -0.00735736 -0.01801778
0.01288551 0.03639686 -0.07664056
0.01472718 0.01735651 -0.045324
0.01777933 0.01037262 -0.03563408
0.01803334 0.006252396 -0.06688802
0.01387428 -0.01109679 -0.05656287
0.01961374 -0.006284505 -0.03888226
0.01771584 0.04809005 -0.05010522
0.01855125 -0.008955307 -0.007072833
0.0199077 0.002701221 0
0.01667088 0.0606 -0.06470066
0.0166259 -0.01127911 -0.0473532
0.01430008 -0.01477925 -0.02324043
0.01499302 0.02983631 -0.07470148
0.01671408 -0.002407544 -0.06305416
0.02059477 0.05993177 -0.06074574
0.01803514 0.05723451 -0.07050617
0.01274175 0.01906554 -0.07670688
0.01991595 0.005074302 -0.01435277
0.0166549 0.0440582 -0.04852078
0.01246236 0.05477958 -0.07694634
0.02058512 0.04441696 -0.06114045
0.01972992 0.005889805 -0.06194086
0.01983251 0.008679541 -0.04926187
0.02054403 0.04737619 -0.05910413
0.01781365 0.03676129 -0.05025851
0.01464235 0.02773678 -0.04614859
0.02059446 0.0001387573 -0.03227102
0.01614558 0.03724759 -0.07339352
0.01656472 0.01221235 -0.03915273
0.02031905 0.01356785 -0.05584675
0.02011676 0.004194229 -0.01410645
0.01893909 0.0217924 -0.05250964
0.01418918 -0.01437079 -0.04597756
0.01532472 -0.01374943 -0.009192842
0.01962251 0.05099989 -0.05447497
0.01837684 0.05341537 -0.05140108
0.01790926 -0.01007187 -0.0030581
0.01462846 0.03065178 -0.07509283
0.02008507 -0.002643387 -0.04944492
0.02053268 0.002778314 -0.05270351
0.01995651 0.01297146 -0.05361102
0.02056164 0.0009418599 -0.04351161
0.0204141 -0.001846586 -0.04639595
0.01432589 -0.01475346 -0.02150824
0.0119326 -0.01075755 -0.06026965
0.01184651 0.04486142 -0.04375185
0.01524875 0.006819609 -0.07150552
0.01979743 -0.005620719 -0.006807017
0.01692851 0.01173712 -0.02218841
0.01673012 -0.01199751 -0.01267461
0.01766072 -0.008745172 -0.05044601
0.01964699 0.05269292 -0.06662256
0.02056739 0.0005893965 -0.008040421
0.01277138 0.01616155 -0.03466224
0.01983542 -0.005526454 -0.02445674
0.01847623 0.009726231 -0.04388937
0.01618722 -0.01271463 -0.02857387
0.01995974 0.002101573 -0.05776558
0.01469731 0.02215501 -0.04620518
0.0166686 -0.01208504 -0.0397048
0.01967914 0.006087487 -0.0119957
0.01460008 0.0132928 -0.07433343
0.01923595 -0.001303473 -0.0573165
0.01455733 -0.01454571 -0.02809881
0.02015075 0.01519721 -0.05547688
0.01684535 0.02520574 -0.07239607
0.01701389 0.04812761 -0.07211802
0.01967191 0.05192004 -0.05463956
0.01390728 -0.005119227 -0.06481413
0.02054753 0.05709488 -0.06203329
0.0165554 0.01951543 -0.07277867
0.02026486 0.0553897 -0.06402867
0.01880943 -0.008256351 0
0.02033509 0.03393745 -0.05761069
0.0145687 0.02565572 -0.04607275
0.02034019 0.003245537 -0.03122961
0.01967918 -0.00534954 0
0.01962257 0.02967162 -0.06676367
0.01482522 0.06060001 -0.07478013
0.01316956 -0.01583434 -0.03499844
0.01765995 0.01052044 -0.008673825
0.01978473 0.0606 -0.05873687
0.01860235 -0.008837035 -0.01017023
0.01471018 -0.01224237 -0.05208806
0.02042488 -0.002584999 -0.03082013
0.01992987 0.005078729 -0.0363022
0.02057639 -0.000583339 -0.02379561
0.01985307 0.005351498 -0.01596647
0.01676405 0.0119406 -0.01364174
0.01433067 -0.01474835 -0.0404885
0.01638293 0.04021004 -0.07304738
0.0122512 0.05424338 -0.04409451
0.01860764 0.008832391 -0.01978718
0.01791784 0.01061402 -0.04309398
0.01160221 0.01696817 -0.02604673
0.01234722 0.04863639 -0.0441704
0.02008434 0.04678731 -0.06517937
0.02028272 0.003475847 -0.008525612
0.01184998 -0.01679978 -0.009697118
0.0204821 0.001918487 -0.01799754
0.0125088 -0.01634977 -0.03534129
0.01670707 0.009593055 -0.07066605
0.01549345 -0.01355184 -0.03986561
0.01791439 0.009588961 0
0.01783055 0.03075098 -0.05028499
0.01409069 0.01496088 -0.006120656
0.01280615 0.01898156 -0.04419373
0.01302835 0.05719394 -0.04471463
0.01948987 0.006572032 -0.0009762168
0.01484463 0.02190013 -0.0748741
0.01976218 -0.005757772 -0.00400449
0.01205242 0.007335344 -0.07481924
0.01623245 -0.01267494 -0.0360203
0.02027987 -0.003527146 -0.01639895
0.01974405 0.04330009 -0.06633574
0.0204713 -0.001952272 -0.02275021
0.01512029 0.05304377 -0.07452028
0.01691199 0.008108159 -0.06977824
0.01431384 0.0147966 -0.0388657
0.01446097 0.03208027 -0.07526215
0.02056309 0.008802496 -0.05617818
0.02009691 0.004359272 -0.03004258
0.02028671 0.009648986 -0.06137192
0.0119625 0.05191742 -0.0773499
0.01748254 0.05793699 -0.0714258
0.01711629 0.01144892 -0.01956503
0.02015994 0.003994803 -0.004341981
0.01357906 -0.01545378 -0.03197973
0.01943424 0.01412871 -0.0522371
0.01918184 0.007793917 -0.04298937
0.02028518 0.003569949 -0.02853392
0.01955182 0.006437083 -0.02193423
0.02037253 0.02753371 -0.0635704
0.01384941 0.01521882 -0.02348186
0.0177905 0.005339282 -0.06690095
0.02047837 0.04431685 -0.05861519
0.01376377 0.01529366 -0.02112964
0.01540164 0.01419178 -0.04263128
0.02016289 0.04439554 -0.05643619
0.0205814 0.03651711 -0.06034074
0.01776867 0.01038992 -0.034727
0.01781042 0.04488585 -0.07094941
0.01608147 -0.01056 -0.05218684
0.01409637 0.05077456 -0.07561807
0.01668573 0.05472306 -0.07259609
0.01994684 -0.00501764 -0.01511025
0.01970984 0.05417917 -0.05477349
0.01856168 -0.008933919 -0.002462158
0.01585471 -0.003243958 -0.06380856
0.02053068 0.009724051 -0.05903131
0.01309191 0.02154564 -0.04473487
0.01873988 0.03845754 -0.06910493
0.01388822 0.0256511 -0.07580907
0.01660444 0.0121573 -0.03277712
0.01978244 0.04501092 -0.05496438
0.01723213 -0.004932468 -0.05901278
0.01862434 -0.0008795032 -0.06003413
0.01983739 0.01401829 -0.05361317
0.02049738 0.01811779 -0.05850586
0.02040627 -0.00265554 -0.006247668
0.01774491 0.03694777 -0.07105836
0.02033164 0.04658147 -0.06366657
0.01888523 0.05201136 -0.05245414
0.01781755 -0.009583831 -0.04649751
0.01847302 0.05185269 -0.05159789
0.02055422 0.04031775 -0.06190652
0.01865203 0.008734066 -0.02294039
0.02053629 0.01391074 -0.05780675
0.02051245 0.05270153 -0.06241077
0.01852614 0.04050256 -0.06954201
0.01499825 0.01411391 -0.02981076
0.01696478 0.02875683 -0.07221803
0.01267945 -0.01622549 -0.005365257
0.01970691 0.005976744 -0.001576908
0.01989561 -0.004241776 0
0.02040194 0.002792408 -0.009241573
0.01698716 0.03887883 -0.04899533
0.0178893 0.007027922 -0.06759181
0.018932 -0.008051754 -0.02531581
0.01455754 -0.01453746 -0.02051006
0.01682353 0.01187881 -0.0335906
0.01932233 0.007067176 -0.0261115
0.01565228 0.01238566 0
0.01954561 0.007280096 -0.0447808
0.02051801 -0.001369516 -0.04209548
0.01280242 0.04516623 -0.04453299
0.01965109 0.05382069 -0.0666059
0.01483485 0.03325569 -0.04634678
0.01867025 0.03747056 -0.06925279
0.01945355 0.0184465 -0.06725029
0.02056503 0.0008751113 -0.03612438
0.01814231 0.04948575 -0.0703093
0.02057636 0.01345164 -0.05923933
0.01392036 -0.01514147 -0.03528312
0.01930466 0.02418188 -0.06778425
0.015706 0.01326075 -0.005518384
0.0205419 -0.001051975 -0.02454415
0.01834163 0.05152963 -0.06988864
0.01660678 0.0606 -0.06971889
0.01748187 0.03474482 -0.07146836
0.01548049 -0.01105639 -0.05277283
0.0185387 0.008979103 -0.03127841
0.01965654 -0.006156488 -0.01966041
0.01864993 0.008716273 -0.002153573
0.01893563 0.05566829 -0.05256564
0.01889884 0.02390636 -0.068758
0.02001941 -0.004848575 -0.03962603
0.01530478 0.01933406 -0.07430488
0.02005707 0.02057617 -0.06529498
0.01959447 0.006881571 -0.04400215
0.0197395 0.005870712 -0.03659124
0.01551898 0.04941506 -0.07409747
0.01576234 0.01324366 -0.04023266
0.01798994 0.0199787 -0.07059138
0.02053902 0.0207958 -0.05901698
0.02054869 0.02596342 -0.06201542
0.01793711 0.04272062 -0.07071732
0.0205539 -0.0001035927 -0.0462588
0.01719611 0.03660065 -0.04929619
0.0205967 0.05589797 -0.06072981
0.01997111 0.05354952 -0.06556835
0.01683394 0.01186435 -0.03188474
0.01447272 0.01306805 0
0.01502646 0.03244898 -0.07466048
0.01293401 0.03013939 -0.07661266
0.02017113 0.02656285 -0.064699
0.02005318 -0.004622671 -0.02655043
0.02056668 0.001190602 -0.04917359
0.0198131 0.005509917 -5.765676e-05
0.02047576 0.002151798 -0.03986864
0.01856791 -0.008919064 -0.01848499
0.0172063 0.009045531 0
0.01573943 0.01325121 -0.02786274
0.01495056 -0.01336423 -0.04729312
0.01987854 0.00732997 -0.06226407
0.01882931 -0.007719858 -0.04561071
0.0123959 0.02583747 -0.07702465
0.01940573 0.0338202 -0.05373724
0.01791521 0.05978164 -0.05045439
0.01833025 0.04307063 -0.06994028
0.01395609 0.02893358 -0.07574953
0.01963605 -0.006217761 -0.00765022
0.01165753 -0.01691933 -0.002807996
0.02045134 0.001984177 -2.248049e-05
0.01614104 0.01674855 -0.04683423
0.01551811 0.04022278 -0.04708622
0.01259334 0.03077514 -0.04433992
0.01718387 0.04300457 -0.04929404
0.01835034 0.02833982 -0.06993905
0.01812844 0.01650966 -0.05003503
0.01995111 -0.00504762 -0.0229574
0.01353112 0.03380693 -0.07612234
0.02002064 0.00102119 -0.05622334
0.01664671 0.0396446 -0.04849788
0.01675223 -0.01197081 -0.02282676
0.01689155 0.01179074 -0.037208
0.01762173 0.03340437 -0.07126322
0.01823441 0.039876 -0.05108395
0.01867185 0.008690176 -0.03010305
0.01730758 0.01113841 -0.0339677
0.01320581 -0.01495301 -0.04778006
0.02054111 -0.0009989675 -0.01891217
0.01628879 0.0125361 -0.009766838
0.01183534 -0.01675197 -0.04228941
0.01646707 0.01488205 -0.07242421
0.0160602 0.02087372 -0.07349553
0.02056384 0.05164219 -0.06164567
0.01588326 -0.01304137 -0.004768465
0.01906974 0.01303833 -0.06727211
0.01426402 -0.01481965 -0.02981963
0.01454682 -0.01034202 -0.05666317
0.01909561 0.007602623 -0.008434968
0.02055892 -0.0006208349 -0.006440494
0.02054832 0.04227542 -0.05921884
0.0165254 0.01222793 -0.001849394
0.02055759 0.05312184 -0.05946655
0.02059369 -0.0001071096 -0.002026799
0.01920601 0.02874362 -0.05316061
0.01749765 -0.01084684 -0.03086131
0.01645537 -0.01222639 -0.0428459
0.01977066 0.04313625 -0.0549171
0.01271722 -0.01340146 -0.05397459
0.01644129 -0.01234256 -0.005177808
0.01974527 0.02908117 -0.05476664
0.01877412 0.008463654 -0.02056328
0.0117522 0.04784071 -0.04368471
0.01475982 0.01820774 -0.04579387
0.01920462 0.005725576 -0.06369946
0.02001461 0.03871607 -0.06544857
0.01673749 0.03933778 -0.07252776
0.01505514 0.0606 -0.07153934
0.02057573 0.01767597 -0.06029695
0.01932636 0.0103312 -0.04883112
0.01914088 0.02603041 -0.06820609
0.02028815 -0.002295116 -0.04724942
0.01807874 0.009796764 -0.009296988
0.01985093 0.005376441 -0.03081214
0.02058075 0.0004817749 -0.03345564
0.01943628 0.0433871 -0.05383428
0.0192589 -0.0002359149 -0.05848728
0.02012519 0.004281332 -0.03666489
0.01835649 0.05610748 -0.05136385
0.01661528 0.02094205 -0.04843655
0.02036862 0.007809848 -0.05980976
0.01571387 0.01328188 -0.02690781
0.01391472 0.01512021 -0.004111972
0.01852828 0.0505751 -0.06950423
0.01672586 -0.01200683 -0.0324608
0.01508284 -0.005063677 -0.06318699
0.01538235 0.05968878 -0.07422523
0.01945548 0.01331959 -0.05184362
0.02058645 0.03436848 -0.06119374
0.01392063 -0.01514303 -0.03744833
0.01579791 0.00651812 -0.07068974
0.0191196 0.05469843 -0.05294583
0.01747856 0.005962519 -0.06786685
0.01922435 0.05527524 -0.06798506
0.01500398 0.007472019 -0.07209517
0.01719947 0.01131389 -0.0242638
0.01660457 0.01214823 -0.02004517
0.01541652 -0.01364193 -0.02709925
0.01873215 0.02580753 -0.05208929
0.01670857 -0.008724609 -0.05423605
0.01934302 0.04144033 -0.05355619
0.01380206 0.02441122 -0.04532762
0.01903523 0.05007138 -0.06844701
0.02020583 0.05634629 -0.06441151
0.0201311 0.03872946 -0.05624449
0.01406683 0.01528691 -0.04163762
0.01669839 0.03420469 -0.07258764
0.01619385 0.005768447 0
0.01958945 0.006323565 -0.00248033
0.01465519 -0.001324456 -0.06736446
0.01430834 0.01480208 -0.03016034
0.01967544 0.01068836 -0.05061029
0.01680979 -0.0118922 -0.03725069
0.01670266 0.06060001 -0.06731322
0.01651512 0.04832751 -0.07284949
0.01867225 0.008745887 -0.0415308
0.01895251 0.008016726 -0.0226204
0.01341647 0.01560433 -0.0152257
0.01676512 0.06059883 -0.04872326
0.01347466 -0.01546395 -0.04248314
0.01186968 -0.002196696 -0.06963577
0.017938 0.01153812 -0.04527554
0.0190676 0.03891057 -0.06837319
0.01507919 0.0103096 0
0.02000296 0.004684874 -0.006555724
0.01280934 -0.01136421 0
0.01962632 0.01919882 -0.06671378
0.02033387 0.02392141 -0.05749483
0.01772051 0.007267379 0
0.02022804 -0.003790084 -0.03842973
0.01855805 0.02749631 -0.0695188
0.02016172 0.02406841 -0.05639147
0.01962123 0.047577 -0.0667212
0.01995103 0.006750946 -0.06161652
0.01896954 0.02497846 -0.0525787
0.01931596 0.04977935 -0.06770436
0.02054704 0.03420071 -0.0620479
0.02051907 -5.018365e-05 -0.04775562
0.01962889 -0.006215283 -0.000257678
0.01813265 -0.00444914 -0.05708035
0.01546303 -0.01356501 -0.003319209
0.01196406 -0.01672848 -0.01352531
0.01610849 -0.01145328 0
0.01809336 0.0335094 -0.07042304
0.01786368 0.05075944 -0.05034165
0.01573169 0.0412694 -0.04731829
0.01712843 0.0466657 -0.07195074
0.01923646 -0.002891529 -0.05506364
0.01390029 0.02344071 -0.04540583
0.01471506 0.01437175 -0.001126075
0.02025037 0.009942462 -0.05302473
0.020198 0.02199162 -0.05656564
0.01772677 -0.01042755 -0.02080914
0.01771738 -0.01040874 -0.005084805
0.01914683 0.04557259 -0.05300234
0.01359747 0.01673282 -0.07581047
0.01941789 0.006804794 -0.03856715
0.02055632 0.03327374 -0.05943251
0.01978854 0.00563992 -0.0214089
0.0182928 0.03384399 -0.0511962
0.01278389 -0.009346123 -0.06123319
0.013021 0.04707828 -0.04470753
0.01996295 0.02796806 -0.05556034
0.01608677 -0.0010232 -0.06549681
0.0142473 -0.01144329 -0.05512695
0.01623476 0.007928129 -0.07075087
0.02018096 0.06057071 -0.05666254
0.01958012 0.0455162 -0.0668606
0.02016182 0.05184893 -0.06474487
0.01818673 0.01423162 -0.06953044
0.02054087 -0.0004938825 -0.04543058
0.01987501 0.04717836 -0.06589757
0.02039932 0.0007456844 -0.05241342
0.01981109 0.009571201 -0.05018557
0.0196014 -0.006321395 -0.02050142
0.02053794 -0.001155366 -0.02902895
0.02035867 0.003717262 -0.04511891
0.02044766 0.002395663 -0.02408266
0.01920012 0.03857225 -0.05314363
0.01522335 0.0242708 -0.0744446
0.01956999 0.02288229 -0.06694923
0.01838303 0.009253139 -0.04047328
0.01627849 0.003679025 -0.06856627
0.01876499 0.00684266 0
0.01385932 0.05046739 -0.04537648
0.02058568 0.05457045 -0.06103603
0.01372013 0.04764479 -0.0759556
0.01529372 0.03158487 -0.07436479
0.01896088 0.05971293 -0.06857565
0.0191993 -0.007396929 -0.02591419
0.01926621 -0.007249732 -0.0327782
0.02041796 0.002478958 -0.002597859
0.01762923 0.01094029 -0.0696805
0.01981073 0.04626919 -0.05506223
0.01329047 0.003181869 -0.07185394
0.01975903 0.005765525 -0.01790928
0.01657826 0.01222727 -0.04069965
0.02048576 -0.001637389 -0.01002108
0.01412281 -0.01492279 -0.003516552
0.02047032 0.004512574 -0.05596077
0.01255495 -0.003583692 -0.06783552
0.02018456 0.02113528 -0.06462471
0.01823845 -0.0003263139 -0.06165038
0.01977495 0.01303911 -0.06515517
0.0137667 0.03644277 -0.0453009
0.02017837 0.004081952 -0.03987123
0.01249852 -0.01634663 -0.003209548
0.01278182 0.05889909 -0.04451824
0.02012408 0.02897284 -0.0649594
0.01725946 -0.01119315 -0.001175854
0.01667913 -0.01207066 -0.03542233
0.01490769 0.04995469 -0.07475527
0.01445002 0.009712257 0
0.01982367 0.0606 -0.05558684
0.0158825 -0.01034428 -0.05325689
0.01935374 -0.007047123 -0.03923596
0.02054246 0.0008534827 -0.004463491
0.01657169 0.01218916 -0.01870263
0.02040586 -0.001562577 0
0.02010157 0.05191449 -0.05610273
0.01241943 0.05856262 -0.07697406
0.01608503 0.0606 -0.05429422
0.01525967 0.05489285 -0.07436656
0.01829393 0.009402198 -0.001259646
0.01909927 -0.007643792 -0.02355032
0.01592147 0.02864713 -0.07365286
0.02058572 0.02892438 -0.06068144
0.01705442 -0.0115525 -0.01560369
0.01835358 0.00933703 -0.03299467
0.01872931 0.008521191 -0.004207773
0.01313648 0.03547141 -0.07644201
0.02053483 0.02180746 -0.0589629
0.01414544 -0.004108916 -0.06551374
0.01876493 0.0348866 -0.06906335
0.01857097 0.02477573 -0.06950096
0.02019451 0.02500912 -0.05654886
0.0161923 0.05500203 -0.07331967
0.01776155 -0.01038646 -0.03176498
0.01898638 0.01124976 -0.06691978
0.01856296 0.04202382 -0.06946051
0.01540385 0.03426829 -0.04695239
0.01999991 -0.004845966 -0.02492122
0.01598762 0.05032397 -0.04761475
0.01862653 0.0366228 -0.0518882
0.01956944 0.0606 -0.05744571
0.01274406 0.02672989 -0.04445682
0.02025976 0.03891726 -0.05710117
0.01929136 -0.007142246 -0.0199856
0.01344379 -0.0155755 -0.02819605
0.02010901 0.04526349 -0.06504285
0.01971593 0.005950456 -0.01417651
0.02058354 0.000411978 -0.01872477
