ply
format ascii 1.0
comment VCGLIB generated
element vertex 575
property float x
property float y
property float z
property float nx
property float ny
property float nz
property uchar red
property uchar green
property uchar blue
property uchar alpha
property float quality
element face 0
property list uchar int vertex_indices
property uchar red
property uchar green
property uchar blue
property uchar alpha
end_header
12.75965 16.17058 -14.55186 2.638662 3.365067 1.899661 255 255 255 255 0.2332285 
10.69051 -3.651211 -69.46233 3.247421 -3.395901 -4.127265 255 255 255 255 0.2506103 
12.16587 27.98536 -77.19782 3.409476 0.4754029 -4.559187 255 255 255 255 0.2493418 
17.38981 10.986 -7.816868 3.180069 1.973008 2.416638 255 255 255 255 0.2472061 
15.73262 36.63649 -73.86703 3.793378 1.153106 -3.277997 255 255 255 255 0.2497065 
20.57527 11.26055 -58.22791 6.266807 0.01970366 0.01715525 255 255 255 255 0.2500557 
19.8413 25.92914 -55.10052 5.631084 0.4133303 1.612888 255 255 255 255 0.2473631 
20.11458 4.190242 -1.218066 3.152235 0.6606416 2.904323 255 255 255 255 0.250142 
19.97138 -4.386022 -45.66673 6.078793 -1.498322 -0.33986 255 255 255 255 0.249798 
20.49713 16.02724 -61.85764 6.241559 -0.1054517 -0.527675 255 255 255 255 0.2498519 
6.281749 19.58703 -19.49564 0.9415128 2.986712 1.535719 255 255 255 255 0.2018527 
12.13062 30.3884 -77.22437 3.289536 0.661112 -4.413041 255 255 255 255 0.2493783 
19.88036 57.68886 -65.85117 3.241755 2.774753 -0.8682293 255 255 255 255 0.2496899 
12.20571 16.54246 -4.183722 1.955106 2.65137 2.686862 255 255 255 255 0.2417199 
15.01501 33.33278 -74.67115 3.853448 0.8982293 -3.59831 255 255 255 255 0.2497679 
9.794643 -18.11713 -35.05519 2.739828 -5.207392 0.2775293 255 255 255 255 0.2501968 
14.14252 44.00662 -75.57303 3.065369 1.716345 -3.205988 255 255 255 255 0.2498692 
19.14913 40.51802 -53.008 4.387373 1.490278 1.718443 255 255 255 255 0.2466163 
10.97114 -10.69001 -61.57094 3.332762 -4.359995 -3.006598 255 255 255 255 0.2499929 
20.46031 51.11259 -58.50391 3.851838 2.308366 0.4500332 255 255 255 255 0.2499984 
17.71804 -9.076049 -49.18732 5.388589 -3.04828 -0.9438053 255 255 255 255 0.2495687 
9.821609 60.6 -74.86229 0.1341513 3.283258 -0.1968198 255 255 255 255 0.1403316 
18.80042 -8.365194 -34.6566 5.379874 -2.312503 0.3594548 255 255 255 255 0.2500624 
15.40537 9.260118 0 0.7672974 0.3694857 3.222434 255 255 255 255 0.1659974 
19.06941 31.17463 -52.81219 5.020136 0.8140286 2.111806 255 255 255 255 0.244735 
16.82039 11.86552 -8.90275 3.107395 2.239916 2.345141 255 255 255 255 0.2436468 
18.20841 23.01607 -70.20635 5.39784 0.1261882 -2.808868 255 255 255 255 0.2500932 
19.16045 60.60001 -61.56139 1.878253 3.137614 -0.07495636 255 255 255 255 0.204154 
9.119411 18.44695 -30.42844 1.404654 2.803446 0.7166131 255 255 255 255 0.1918535 
20.49879 -1.441132 -8.03091 3.748194 -0.2617409 2.393093 255 255 255 255 0.2500928 
10.60349 35.54551 -42.96053 1.607376 1.118988 2.690416 255 255 255 255 0.2108701 
14.07453 -8.130365 -60.98581 4.277308 -3.682882 -2.695995 255 255 255 255 0.2496217 
12.89125 16.06508 -10.41552 2.490762 3.06738 2.197118 255 255 255 255 0.2377901 
18.58059 0.5503889 -61.61037 5.652293 -1.842413 -1.985839 255 255 255 255 0.2493889 
9.359603 42.53388 -42.26526 1.428745 1.642507 2.789612 255 255 255 255 0.2152579 
20.24211 7.013257 -60.10114 6.162342 -0.6282342 -0.9316069 255 255 255 255 0.2495305 
10.09302 17.94651 -37.22975 1.492704 2.761466 0.2073984 255 255 255 255 0.1870224 
18.05373 48.84636 -50.72403 3.579656 2.130372 1.902854 255 255 255 255 0.2460239 
16.6039 -12.16881 -18.3716 3.653411 -2.751481 1.58648 255 255 255 255 0.2503818 
20.08409 12.01173 -53.64183 6.120282 0.728294 1.140144 255 255 255 255 0.2492733 
13.83191 57.85794 -45.35553 2.241025 2.794995 2.485076 255 255 255 255 0.2424944 
18.79755 31.78721 -52.23429 4.911585 0.8728454 2.236868 255 255 255 255 0.2440898 
20.31274 14.58224 -56.21181 6.189167 0.3563794 0.9308838 255 255 255 255 0.2496023 
20.31744 59.75912 -57.56702 3.155174 2.949087 0.497911 255 255 255 255 0.249969 
18.87028 40.88592 -68.82311 4.267146 1.493927 -1.920659 255 255 255 255 0.2502575 
20.00702 4.743153 -32.83649 5.557565 1.319815 0.5611091 255 255 255 255 0.2494156 
20.46758 41.57852 -62.81066 4.591264 1.581073 -0.5887317 255 255 255 255 0.2494461 
16.55177 -7.834025 -56.39849 5.032482 -3.226408 -1.860878 255 255 255 255 0.2498202 
13.38053 45.96703 -76.22931 2.751295 1.866672 -3.276238 255 255 255 255 0.2497168 
8.974106 41.34501 -79.14189 2.006494 1.500308 -4.190094 255 255 255 255 0.2500655 
12.73991 -1.25614 -69.52695 3.870923 -2.922602 -3.951712 255 255 255 255 0.2500592 
17.55422 10.70636 -9.700522 3.334149 2.003186 2.277189 255 255 255 255 0.2468739 
11.59973 35.15023 -43.57652 2.797798 0.9780195 4.168551 255 255 255 255 0.2141602 
19.95304 52.37221 -65.63022 3.651896 2.371843 -0.9598479 255 255 255 255 0.2495772 
20.54813 48.24052 -62.02653 4.094764 2.088888 -0.3062459 255 255 255 255 0.2495818 
20.52742 1.374845 -21.18405 4.783744 0.3253261 1.407252 255 255 255 255 0.2500798 
13.46742 15.57051 -29.86152 3.630273 4.102933 0.7799324 255 255 255 255 0.2217091 
20.41679 -2.466004 -1.888573 3.253465 -0.3847304 2.853764 255 255 255 255 0.2501425 
15.91299 12.99579 -1.796792 2.530252 2.065301 2.864406 255 255 255 255 0.2476632 
15.92502 13.01143 -22.99167 3.829698 3.116195 1.317579 255 255 255 255 0.2343767 
12.99246 41.92522 -44.68414 2.916554 1.638677 3.551284 255 255 255 255 0.2287574 
17.09317 35.83357 -72.01929 4.197022 1.099533 -2.852028 255 255 255 255 0.2490873 
20.5312 28.23006 -58.94529 5.649765 0.5892105 0.5932856 255 255 255 255 0.2495489 
13.68168 14.48937 -75.4221 4.157655 -0.7909905 -4.60729 255 255 255 255 0.2500257 
9.432361 -18.26076 -2.10423 1.505993 -2.926292 2.832752 255 255 255 255 0.2501155 
20.51315 -1.521742 -36.8628 6.012537 -0.4506386 0.2279181 255 255 255 255 0.2501038 
17.19528 58.72442 -71.84674 2.735398 2.850966 -1.796129 255 255 255 255 0.249651 
10.06883 56.72132 -42.68657 1.530544 2.704547 2.725466 255 255 255 255 0.235217 
10.11709 57.60818 -42.71589 1.538117 2.770927 2.720701 255 255 255 255 0.2363354 
19.50883 14.55679 -66.47488 5.936713 -0.445717 -1.952688 255 255 255 255 0.2496337 
20.42506 -0.5589167 0 3.007521 -0.08536626 3.007318 255 255 255 255 0.2456564 
14.07326 13.86617 -74.93654 4.276917 -0.8593797 -4.482918 255 255 255 255 0.2502501 
9.507645 -18.2307 -6.748197 1.675418 -3.250552 2.472765 255 255 255 255 0.2501222 
18.11488 9.76393 -20.24952 4.142207 2.267146 1.496095 255 255 255 255 0.2447712 
19.258 -7.234529 -22.13562 4.548575 -1.73747 1.31506 255 255 255 255 0.2501046 
17.42881 59.675 -49.69443 2.710623 2.927298 1.699749 255 255 255 255 0.2470571 
18.05261 39.06654 -50.70903 4.267766 1.4119 2.250505 255 255 255 255 0.2446689 
20.56194 19.89841 -59.95995 6.266712 0.01431878 0.2160359 255 255 255 255 0.2499795 
19.97057 -4.874291 -8.768492 3.709312 -0.8952358 2.333151 255 255 255 255 0.2500881 
8.768136 26.30068 -41.96061 1.331521 0.4273049 2.841483 255 255 255 255 0.1843589 
20.43531 60.21703 -58.34961 3.136961 2.992625 0.3902124 255 255 255 255 0.2501828 
18.99113 7.875615 -10.37872 3.64907 1.494324 2.228863 255 255 255 255 0.2491159 
6.788424 19.43527 -22.74222 1.016354 2.964911 1.292668 255 255 255 255 0.1963594 
10.51129 60.6 -75.69944 0.6693322 3.188791 -0.9820095 255 255 255 255 0.1763434 
12.76689 16.06176 -76.43689 3.877899 -0.6078709 -4.872865 255 255 255 255 0.2496928 
7.905711 20.61176 -41.6038 1.181522 0.001931523 2.907736 255 255 255 255 0.1696716 
13.18036 40.47168 -44.8338 3.018194 1.533141 3.616641 255 255 255 255 0.2278275 
9.586515 18.19131 -5.234997 1.463167 2.765089 2.602867 255 255 255 255 0.2363314 
7.092991 30.27858 -79.92825 1.940739 0.6415501 -5.159196 255 255 255 255 0.2503091 
11.99828 22.77014 -43.8599 3.559965 0.1531533 4.887609 255 255 255 255 0.2067241 
18.90575 27.74157 -68.74224 5.228616 0.4915893 -2.303783 255 255 255 255 0.2503019 
17.66493 -8.240067 -51.77118 5.372355 -2.97988 -1.217302 255 255 255 255 0.2498344 
13.53869 -15.46159 -0.5053616 2.086535 -2.380256 2.95646 255 255 255 255 0.2505719 
18.49282 -2.94671 -58.02184 5.62543 -2.195472 -1.680654 255 255 255 255 0.2496544 
11.94276 16.72037 -0.6571651 1.831635 2.564405 2.946303 255 255 255 255 0.2462787 
11.70679 60.6 -46.93673 0.562471 3.224304 0.6066348 255 255 255 255 0.1707166 
14.90646 -13.76493 -45.4463 4.530735 -4.270295 -0.6770051 255 255 255 255 0.2495552 
19.90295 21.25153 -55.33353 6.007376 0.05764782 1.63307 255 255 255 255 0.2474965 
20.51112 -1.453462 -23.71511 4.981565 -0.3466147 1.216702 255 255 255 255 0.2501203 
20.34308 44.1796 -57.7174 4.375919 1.776872 0.6153308 255 255 255 255 0.2496241 
12.11459 43.09995 -43.96758 2.707871 1.725535 3.601122 255 255 255 255 0.2279624 
12.67694 16.23426 -30.56188 3.399231 4.367352 0.6914015 255 255 255 255 0.2179026 
20.44658 -2.358746 -37.68134 6.064788 -0.6095574 0.1634693 255 255 255 255 0.2501051 
16.67074 57.79115 -48.5779 2.716842 2.788643 1.954378 255 255 255 255 0.2461132 
15.57099 -13.45354 -13.77633 3.213802 -2.721923 1.938706 255 255 255 255 0.2506517 
17.16867 -0.1973388 -64.21986 5.220785 -2.248993 -2.623726 255 255 255 255 0.249596 
20.34824 34.07185 -63.67142 5.157176 1.001309 -0.7853292 255 255 255 255 0.2495171 
19.58898 41.10738 -54.31827 4.442492 1.546772 1.412698 255 255 255 255 0.2477981 
9.929895 27.59127 -42.56992 1.512344 0.5235993 2.747916 255 255 255 255 0.1983677 
20.08358 -4.4344 -17.66782 4.408581 -0.9845846 1.660539 255 255 255 255 0.2500884 
19.03422 -7.787221 -16.97998 4.13728 -1.673141 1.706444 255 255 255 255 0.2501425 
20.55089 0.9352604 -14.5963 4.270531 0.2221362 1.901163 255 255 255 255 0.2500513 
14.62157 -9.833317 -57.47813 4.443918 -3.827587 -2.198279 255 255 255 255 0.2501878 
7.740617 25.79421 -79.68147 2.180624 0.2939406 -5.44457 255 255 255 255 0.2503814 
19.949 9.764889 -51.18071 6.079474 1.064946 1.086559 255 255 255 255 0.2495366 
16.73439 56.42405 -72.52388 2.813287 2.674754 -2.003313 255 255 255 255 0.2496324 
8.765815 46.36471 -41.96108 1.312198 1.929716 2.846683 255 255 255 255 0.214608 
10.70512 17.56643 -6.453009 1.781737 2.879694 2.519742 255 255 255 255 0.2386182 
17.04669 47.1433 -49.10304 3.461811 2.003173 2.352187 255 255 255 255 0.2428786 
7.013998 11.06193 -78.7714 2.129928 -1.404241 -5.7099 255 255 255 255 0.249794 
17.72547 16.54288 -70.77094 5.389622 -0.4181303 -3.160368 255 255 255 255 0.2496786 
11.95028 16.74001 -27.88847 2.831406 3.994852 0.9620591 255 255 255 255 0.215607 
16.47195 -11.2611 -48.26665 5.008115 -3.635685 -0.945492 255 255 255 255 0.2495587 
16.49998 24.58221 -72.88917 4.825671 0.2373073 -3.501631 255 255 255 255 0.2488068 
20.32968 -3.274395 -37.53947 5.99194 -1.06138 0.1579019 255 255 255 255 0.2500246 
11.12054 26.58717 -77.92097 3.053386 0.3638363 -4.935886 255 255 255 255 0.2499201 
18.94688 10.27599 -66.67814 5.764481 -0.881366 -2.280303 255 255 255 255 0.2501081 
7.573294 33.02619 -41.48264 1.123167 0.9312286 2.925938 255 255 255 255 0.1912173 
12.56188 60.6 -44.91788 1.702052 3.035005 2.11719 255 255 255 255 0.2306741 
12.91909 -15.76445 -44.1719 3.927895 -4.840878 -0.5608578 255 255 255 255 0.249941 
14.59856 -14.51118 -31.60727 3.926809 -4.01386 0.563162 255 255 255 255 0.2503633 
20.55126 26.01969 -59.31286 5.848657 0.414106 0.2623505 255 255 255 255 0.2501687 
20.56835 25.31269 -60.03753 5.905832 0.3588105 0.1247404 255 255 255 255 0.2500857 
12.27545 6.646816 -74.36863 3.729589 -1.887615 -4.652878 255 255 255 255 0.2496213 
14.8003 60.6 -69.26708 0.08561593 3.297797 -0.03358409 255 255 255 255 0.1394857 
12.31158 60.60001 -48.03844 0.322451 3.259568 0.347769 255 255 255 255 0.1566247 
20.14538 5.199675 -59.40884 6.132467 -0.7951507 -1.002807 255 255 255 255 0.2494891 
16.82754 -7.884204 -55.46396 5.116656 -3.164449 -1.72331 255 255 255 255 0.2499031 
20.55625 6.908486 -56.69961 6.260154 -0.1973581 -0.2435991 255 255 255 255 0.2499684 
7.198379 4.540699 -76.47978 2.185932 -2.360627 -5.363902 255 255 255 255 0.2498489 
18.80198 -8.361493 -19.51564 4.282361 -1.847792 1.512242 255 255 255 255 0.2501416 
11.73887 16.86669 -18.77232 2.237248 3.182128 1.61382 255 255 255 255 0.222795 
18.66399 8.69239 -5.574038 3.247128 1.481337 2.584224 255 255 255 255 0.2494715 
7.722502 20.66004 -79.68936 2.342541 -0.1049071 -5.814171 255 255 255 255 0.2504967 
19.33239 -7.022379 -15.47086 4.07221 -1.513394 1.821159 255 255 255 255 0.2500987 
19.90793 49.7758 -55.39433 3.840427 2.190504 1.04493 255 255 255 255 0.2487052 
12.61293 -8.750574 -62.25388 3.832284 -3.938645 -2.988398 255 255 255 255 0.2496195 
17.26352 57.56537 -49.44678 2.821703 2.771767 1.832142 255 255 255 255 0.2463081 
12.54285 24.92813 -76.91402 3.630346 0.2407985 -4.692494 255 255 255 255 0.2492791 
7.622207 -19.13224 -3.032598 1.256471 -3.126873 2.760398 255 255 255 255 0.2501369 
8.908029 34.14234 -42.02602 1.377786 1.014166 2.818821 255 255 255 255 0.1982361 
16.11882 53.10115 -47.77359 2.922299 2.404664 2.304254 255 255 255 255 0.243797 
10.71528 1.695031 -73.14283 3.254959 -2.646179 -4.640299 255 255 255 255 0.2502132 
11.38633 20.06823 -77.74716 3.365603 -0.1548634 -5.292561 255 255 255 255 0.2498836 
19.07679 -7.305659 -44.64777 5.804271 -2.317797 -0.3903483 255 255 255 255 0.249609 
5.690905 15.36248 -80.02156 1.726028 -0.7827713 -5.961816 255 255 255 255 0.2498308 
7.425832 19.21099 -2.929385 1.127328 2.92291 2.776655 255 255 255 255 0.2355645 
11.28728 -17.20533 -22.6433 2.71788 -4.086807 1.244854 255 255 255 255 0.2501998 
20.52495 -1.314595 -27.77464 5.302413 -0.3470293 0.9122226 255 255 255 255 0.2501191 
9.343427 -18.31449 -10.27594 1.770457 -3.51308 2.199271 255 255 255 255 0.2501296 
20.59664 -0.2526205 -20.43398 4.737201 -0.1314071 1.461452 255 255 255 255 0.2500447 
14.93497 14.17703 -21.67618 3.466633 3.372426 1.357368 255 255 255 255 0.2319418 
10.26835 17.85639 -10.41903 1.549079 2.725035 2.214494 255 255 255 255 0.2303507 
13.04785 -4.110196 -66.89963 3.964641 -3.279224 -3.571083 255 255 255 255 0.2501599 
20.58449 49.38075 -60.1949 4.018429 2.206466 0.0829604 255 255 255 255 0.25011 
20.58178 4.793148 -53.40309 6.268603 -0.03576438 -0.03511945 255 255 255 255 0.2500451 
14.39351 52.17507 -45.89566 2.674408 2.379776 2.687662 255 255 255 255 0.2411892 
20.09309 4.45493 -40.61872 6.131119 1.333781 0.04744631 255 255 255 255 0.2493975 
13.49273 -14.7651 0 1.775093 -1.944636 3.04436 255 255 255 255 0.2333929 
9.585233 -18.2024 -13.54603 1.918464 -3.727589 1.945813 255 255 255 255 0.2501323 
20.10365 49.35596 -56.11273 3.923972 2.154697 0.857511 255 255 255 255 0.249346 
18.73995 22.93984 -52.10161 5.527949 0.2223011 2.564241 255 255 255 255 0.2428007 
20.02919 4.568655 -5.290661 3.450679 0.7948262 2.602784 255 255 255 255 0.2499846 
19.44048 34.69532 -67.34538 4.898973 1.031624 -1.642676 255 255 255 255 0.2496399 
11.74154 25.2071 -43.67712 3.298009 0.2439224 4.777209 255 255 255 255 0.2054376 
10.40398 19.69344 -78.31198 3.200097 -0.1963777 -5.383954 255 255 255 255 0.2498785 
17.69306 -10.50438 -29.07724 4.667638 -2.745928 0.7740958 255 255 255 255 0.2501773 
17.22701 28.48534 -49.33917 4.708944 0.6236348 3.132636 255 255 255 255 0.2377137 
12.41619 -16.41722 -14.91379 2.556473 -3.459267 1.842249 255 255 255 255 0.2503495 
13.96195 15.07079 -1.259756 2.191056 2.364369 2.903089 255 255 255 255 0.2469256 
14.47512 28.23657 -75.24834 4.032423 0.5039922 -3.991397 255 255 255 255 0.249742 
17.02734 19.72389 -72.11459 5.198123 -0.1389717 -3.50392 255 255 255 255 0.2489948 
15.55594 3.123483 -69.21679 4.728746 -2.101713 -3.517763 255 255 255 255 0.2498691 
20.31018 3.422515 -37.80656 6.015145 1.041868 0.1713651 255 255 255 255 0.2495281 
9.294569 -15.59422 0 0.4379944 -0.878504 3.209198 255 255 255 255 0.1706679 
6.687829 -19.45477 -39.94029 2.071034 -5.907572 -0.1058275 255 255 255 255 0.2501904 
15.64053 -10.29063 -54.0709 4.754535 -3.700983 -1.688645 255 255 255 255 0.2500883 
12.25584 16.54355 -32.08994 3.232082 4.496646 0.6669168 255 255 255 255 0.2135951 
6.886276 -19.38575 -10.22396 1.283306 -3.71595 2.201164 255 255 255 255 0.2501597 
15.9555 33.45401 -47.5763 4.077221 0.9051032 3.327702 255 255 255 255 0.2349046 
19.54884 26.02209 -54.15042 5.563107 0.4177351 1.811068 255 255 255 255 0.2466899 
12.23222 60.6 -73.57401 0.4721405 3.238064 -0.5088282 255 255 255 255 0.1617908 
14.60755 14.50362 -25.21646 3.593929 3.637911 1.125952 255 255 255 255 0.2278262 
20.2358 17.00177 -64.03033 6.160378 -0.1677759 -1.121583 255 255 255 255 0.2492368 
7.005192 19.3642 -32.50043 1.051746 2.955355 0.5617811 255 255 255 255 0.1793882 
15.28981 -13.7903 -16.85076 3.337609 -2.951572 1.69987 255 255 255 255 0.2506151 
15.9539 46.72045 -47.57439 3.245748 1.958903 2.700387 255 255 255 255 0.2402439 
20.09757 11.13911 -53.12109 6.124356 0.7901447 1.07736 255 255 255 255 0.2494293 
20.33605 -3.145259 -41.25005 6.189582 -1.004527 -0.07050645 255 255 255 255 0.2500673 
13.52966 15.51708 -36.39219 3.976758 4.482162 0.2846126 255 255 255 255 0.2158963 
7.724208 0.7724891 -74.37565 2.345704 -2.899601 -5.027146 255 255 255 255 0.2496673 
19.73579 5.874416 -24.64516 4.886014 1.357962 1.169813 255 255 255 255 0.2493805 
19.88713 -5.308806 -19.88096 4.548297 -1.156647 1.49348 255 255 255 255 0.2500503 
20.13876 54.93013 -64.86951 3.503561 2.569115 -0.7175586 255 255 255 255 0.2495891 
20.45992 55.89791 -62.72989 3.476462 2.668241 -0.4218056 255 255 255 255 0.2494278 
10.19374 -15.57272 -53.01948 3.096357 -5.110245 -1.842526 255 255 255 255 0.2498412 
20.14713 -4.2006 -27.27701 5.1564 -1.110802 0.9342759 255 255 255 255 0.2500742 
20.31502 5.529646 -48.5232 6.189847 0.8639412 0.4865683 255 255 255 255 0.2499968 
20.40644 35.65305 -63.27081 5.04293 1.126066 -0.7146863 255 255 255 255 0.2494857 
8.221263 18.85994 -12.93322 1.261851 2.865318 2.027165 255 255 255 255 0.2200525 
11.7545 58.57312 -43.69894 1.890725 2.847259 2.692437 255 255 255 255 0.2405257 
8.666003 18.66764 -28.02827 1.342776 2.832602 0.8965164 255 255 255 255 0.1944314 
7.699985 16.31569 0 0.4144557 0.7559351 3.220903 255 255 255 255 0.1660729 
17.30096 -9.604114 -49.76889 5.261164 -3.233653 -1.048796 255 255 255 255 0.2496518 
12.51016 51.41216 -76.91403 2.352216 2.286664 -3.045867 255 255 255 255 0.2497438 
20.44842 12.83542 -61.58144 6.226238 -0.2420661 -0.6815175 255 255 255 255 0.2497549 
20.15469 4.128276 -31.00887 5.443152 1.177066 0.6947817 255 255 255 255 0.2494751 
20.55719 2.266106 -47.49446 6.261815 0.2161484 0.08235885 255 255 255 255 0.2500817 
15.95892 -8.658639 0 0.840657 -0.4582952 3.21158 255 255 255 255 0.1710334 
16.3992 32.4381 -73.02734 4.302275 0.8381528 -3.171034 255 255 255 255 0.2490044 
16.29167 -12.28579 -44.39859 4.953414 -3.800731 -0.5138388 255 255 255 255 0.2495674 
17.64326 44.06133 -71.21759 3.758255 1.730628 -2.346741 255 255 255 255 0.2493058 
13.38167 19.67297 -44.88251 4.081935 0.9074187 4.668196 255 255 255 255 0.2188965 
8.714299 -18.63573 -28.32623 2.265841 -4.849268 0.7995128 255 255 255 255 0.2501659 
6.845306 5.232769 -76.90907 2.078678 -2.265796 -5.443805 255 255 255 255 0.2500576 
9.583535 -18.23072 -34.1671 2.619694 -5.192025 0.3472773 255 255 255 255 0.2501655 
12.55544 -2.222682 -68.98383 3.814788 -3.067162 -3.896585 255 255 255 255 0.2503217 
7.495435 -0.2415743 -73.86154 2.276177 -3.056339 -4.965682 255 255 255 255 0.24962 
16.03505 47.10666 -73.52406 3.234361 1.957932 -2.668031 255 255 255 255 0.2497358 
20.34235 33.10309 -57.65598 5.238812 0.9472482 0.7398397 255 255 255 255 0.2494129 
19.72018 -5.943822 -25.34966 4.914183 -1.457904 1.068753 255 255 255 255 0.2500962 
15.40089 60.26014 -46.99586 2.36152 2.970547 2.087518 255 255 255 255 0.2459687 
6.813772 60.6 -44.15092 0.2048529 3.237854 0.6636199 255 255 255 255 0.1605919 
20.46189 -1.887269 -43.61155 6.230475 -0.6635092 -0.1080086 255 255 255 255 0.2500755 
11.06269 -17.34423 -14.24173 2.3122 -3.562477 1.894563 255 255 255 255 0.2501827 
20.4701 1.947299 -11.15485 3.988186 0.3577847 2.158826 255 255 255 255 0.2502342 
15.48245 -13.54584 -5.589018 2.697553 -2.334524 2.566745 255 255 255 255 0.2507492 
20.38868 -2.919936 -12.86366 4.10952 -0.5322007 2.028314 255 255 255 255 0.2501513 
10.3005 -17.83981 -7.096848 1.849634 -3.193939 2.445191 255 255 255 255 0.2501372 
19.47147 18.20239 -53.7398 5.93495 0.3617054 1.98317 255 255 255 255 0.246713 
12.6412 -11.95752 -57.17345 3.84089 -4.365808 -2.30565 255 255 255 255 0.2502938 
11.7091 15.63141 0 1.354556 1.726204 3.088164 255 255 255 255 0.2138198 
20.44475 27.52037 -58.36117 5.691826 0.5302912 0.6811648 255 255 255 255 0.2493979 
10.82707 -8.296349 -64.78562 3.288949 -4.035995 -3.464634 255 255 255 255 0.2495357 
8.720728 30.93555 -41.93845 1.307318 0.7744952 2.851821 255 255 255 255 0.1905525 
20.46496 10.1648 -55.19874 6.234737 0.369843 0.5351033 255 255 255 255 0.2500145 
19.46176 -5.703868 -47.28408 5.922255 -1.973958 -0.5496035 255 255 255 255 0.249431 
14.19342 17.75553 -75.37245 4.315675 -0.3778778 -4.516483 255 255 255 255 0.2496939 
18.17344 60.60001 -68.40227 2.274012 3.064158 -0.8920142 255 255 255 255 0.2250211 
7.780294 55.69727 -41.58176 1.176131 2.628311 2.89653 255 255 255 255 0.2293388 
17.91368 48.65905 -70.76146 3.554104 2.082272 -1.984379 255 255 255 255 0.2497475 
18.18808 47.90831 -50.9991 3.670143 2.060512 1.885567 255 255 255 255 0.2459654 
19.96054 35.78955 -65.63272 4.906476 1.118108 -1.324418 255 255 255 255 0.2494163 
20.48099 1.87061 -14.73011 4.27033 0.3656598 1.890864 255 255 255 255 0.2501994 
17.34713 60.6 -54.30148 1.16244 3.182771 0.4564885 255 255 255 255 0.182547 
14.4938 -14.6102 -33.32492 4.003674 -4.127059 0.4309842 255 255 255 255 0.2503197 
8.497173 54.88449 -41.86246 1.283683 2.567475 2.854629 255 255 255 255 0.2284912 
15.97635 12.94094 -18.76878 3.578949 2.896588 1.625766 255 255 255 255 0.2370242 
8.721197 -0.1735948 -73.24873 2.648702 -2.998834 -4.803421 255 255 255 255 0.2501155 
15.76855 34.76744 -73.82629 3.911174 1.009648 -3.366985 255 255 255 255 0.2496915 
18.48269 18.45835 -51.36134 5.634872 0.5272071 2.692227 255 255 255 255 0.2441483 
7.072802 -10.51207 -65.01569 2.147796 -4.579239 -3.682375 255 255 255 255 0.2499602 
19.84685 25.06306 -66.02748 5.696003 0.3057887 -1.63208 255 255 255 255 0.2493557 
12.07802 46.80346 -77.26395 2.508907 1.930622 -3.384909 255 255 255 255 0.2496192 
5.669287 43.79291 -80.39222 1.157518 1.68936 -4.297368 255 255 255 255 0.2499485 
5.972933 33.34719 -40.88927 0.8801435 0.9545466 3.011537 255 255 255 255 0.1817472 
13.69054 -10.42554 0 0.08877739 -0.06051463 3.296273 255 255 255 255 0.1380963 
10.07878 -4.893059 -68.86887 3.061396 -3.608414 -4.088273 255 255 255 255 0.2503471 
19.80598 -0.5028626 -55.44702 6.027989 -1.369339 -1.0109 255 255 255 255 0.2495743 
5.462387 60.6 -79.38638 0.6558533 3.085015 -2.128803 255 255 255 255 0.2153084 
9.419796 15.08716 -78.51288 2.861485 -0.790133 -5.512893 255 255 255 255 0.2496995 
20.46624 -1.969899 -16.40985 4.401158 -0.3863092 1.764615 255 255 255 255 0.2501382 
19.33924 32.21887 -67.68094 5.069286 0.843893 -1.752584 255 255 255 255 0.2496668 
19.19074 -7.402039 -20.99686 4.455017 -1.73017 1.4015 255 255 255 255 0.2501157 
20.07042 25.5098 -65.23935 5.753207 0.3404852 -1.273005 255 255 255 255 0.2491888 
14.82554 40.38198 -74.86197 3.418818 1.440511 -3.250299 255 255 255 255 0.2498371 
17.17041 -6.509001 -56.85518 5.221315 -2.932246 -1.827233 255 255 255 255 0.2501831 
8.176847 60.6 -78.49858 1.010243 3.075672 -2.096932 255 255 255 255 0.2185913 
15.99887 -12.89282 -3.202581 2.629719 -2.117996 2.749956 255 255 255 255 0.2506589 
20.45868 1.99778 -5.838151 3.569345 0.3363702 2.557326 255 255 255 255 0.2502757 
7.904679 19.01591 -25.05898 1.215934 2.890423 1.119146 255 255 255 255 0.1975951 
16.95651 5.191992 -68.30623 5.156022 -1.691611 -3.118222 255 255 255 255 0.2497643 
18.91573 8.116379 -24.32681 4.659831 1.930113 1.198847 255 255 255 255 0.2482869 
20.22892 28.1223 -64.3792 5.595631 0.5443162 -0.9999571 255 255 255 255 0.2493703 
20.48654 10.988 -55.91151 6.241198 0.3163407 0.5111205 255 255 255 255 0.2500367 
20.5955 0.1126321 -37.91925 6.114508 0.1196963 0.1271246 255 255 255 255 0.2500645 
10.86869 49.24171 -43.1361 1.650991 2.144293 2.659189 255 255 255 255 0.2274712 
13.42923 -2.11611 -68.17529 4.080763 -2.978625 -3.696304 255 255 255 255 0.2501521 
9.568424 46.70752 -78.81096 1.994994 1.919619 -3.718758 255 255 255 255 0.2498017 
20.52994 59.25979 -62.23443 3.225502 2.929211 -0.3191019 255 255 255 255 0.2493877 
16.27682 -12.56456 -12.07107 3.216665 -2.50284 2.069715 255 255 255 255 0.2505135 
19.9287 40.29803 -65.73089 4.559851 1.458635 -1.243362 255 255 255 255 0.249471 
11.15244 22.67738 -77.90394 3.2176 0.06150183 -5.196344 255 255 255 255 0.2499269 
19.08277 53.58339 -52.86728 3.401946 2.478539 1.411367 255 255 255 255 0.2474792 
9.980926 32.09344 -42.59718 1.512999 0.8607394 2.746313 255 255 255 255 0.2055816 
18.57192 17.55592 -51.34346 5.661981 0.7114404 2.59152 255 255 255 255 0.2443657 
14.49741 11.2578 0 0.9004117 0.6968923 3.193455 255 255 255 255 0.1766094 
8.589283 -18.69209 -38.30971 2.518378 -5.592139 0.02436201 255 255 255 255 0.2501843 
18.16231 -9.635378 -3.864095 3.024928 -1.618045 2.700419 255 255 255 255 0.2502648 
16.8541 59.58745 -48.85128 2.62875 2.921059 1.832124 255 255 255 255 0.2467701 
15.67613 56.24615 -73.91515 2.635215 2.659893 -2.257301 255 255 255 255 0.2498337 
6.511846 -14.14444 -60.04595 1.977384 -5.139082 -2.965034 255 255 255 255 0.250328 
20.50074 8.059084 -53.86886 6.245447 0.3824177 0.4213231 255 255 255 255 0.2500824 
20.48738 -1.604819 -9.050358 3.826509 -0.2919709 2.316624 255 255 255 255 0.2501041 
18.01159 -2.500943 -59.93856 5.478323 -2.287768 -1.983876 255 255 255 255 0.2497538 
15.19029 13.91232 -31.82915 4.129917 3.83285 0.5919936 255 255 255 255 0.2261864 
12.84181 28.80183 -76.68849 3.509582 0.5418911 -4.400922 255 255 255 255 0.2493225 
20.47657 -1.365913 -45.27796 6.23509 -0.5988175 -0.1461985 255 255 255 255 0.250026 
13.24936 15.75769 -19.21475 3.03325 3.512624 1.570226 255 255 255 255 0.2308195 
9.443632 18.26628 -9.484982 1.4451 2.775566 2.284688 255 255 255 255 0.2285769 
16.82058 52.02216 -72.39963 3.108909 2.337727 -2.184817 255 255 255 255 0.2495028 
14.50288 -14.56771 -1.221378 2.271446 -2.285602 2.901384 255 255 255 255 0.250752 
18.12478 10.5555 -44.04985 5.526145 2.756762 1.102765 255 255 255 255 0.2408233 
14.31746 47.2266 -75.39658 2.947427 1.967314 -2.965641 255 255 255 255 0.2499446 
17.73707 56.6571 -71.05562 2.951805 2.693048 -1.767847 255 255 255 255 0.249554 
17.01147 23.12967 -49.0014 5.015065 0.230313 3.434346 255 255 255 255 0.2355621 
18.82579 51.8925 -68.88206 3.479609 2.332195 -1.556884 255 255 255 255 0.2501193 
9.933995 18.02825 -33.86146 1.481585 2.765998 0.4595641 255 255 255 255 0.1913703 
18.00876 -9.938435 -23.99699 4.373976 -2.453434 1.162858 255 255 255 255 0.2501815 
18.13296 -9.715549 -29.9994 4.810991 -2.640825 0.7060335 255 255 255 255 0.2501802 
15.9287 -12.99157 -7.912962 2.908273 -2.364017 2.388594 255 255 255 255 0.2506293 
20.14602 4.109533 -21.51011 4.711536 1.015697 1.400314 255 255 255 255 0.2497839 
19.59164 59.30399 -66.78239 3.076851 2.89724 -0.9710655 255 255 255 255 0.2498851 
15.99521 -11.19721 -50.66403 4.86267 -3.739461 -1.256486 255 255 255 255 0.2498193 
19.51161 14.77192 -52.79412 5.947117 0.8266091 1.801694 255 255 255 255 0.2473322 
20.55271 41.04939 -59.33603 4.66562 1.554802 0.2503135 255 255 255 255 0.2502317 
15.24112 -13.71591 -42.64389 4.629325 -4.199833 -0.3370019 255 255 255 255 0.2498345 
20.35999 -3.120645 -2.470686 3.286856 -0.5135518 2.80867 255 255 255 255 0.2501652 
13.73817 20.98652 -75.9407 4.14604 -0.0636468 -4.668799 255 255 255 255 0.2494009 
18.8574 -8.199568 -5.721624 3.286574 -1.41183 2.561239 255 255 255 255 0.2501783 
9.417962 18.28567 -14.33547 1.445417 2.777433 1.921474 255 255 255 255 0.2200039 
20.25742 49.4552 -64.13259 3.947155 2.162671 -0.6790383 255 255 255 255 0.2495385 
19.37902 48.02812 -53.67116 3.890919 2.061176 1.349069 255 255 255 255 0.2480017 
16.10731 29.97601 -47.75822 4.367374 0.5654929 3.40325 255 255 255 255 0.2344166 
9.396446 43.45179 -42.28495 1.431945 1.711246 2.787605 255 255 255 255 0.2169808 
10.25928 36.1067 -78.42352 2.511527 1.098528 -4.384263 255 255 255 255 0.2499178 
10.36227 -17.80154 -6.208012 1.833385 -3.121535 2.51482 255 255 255 255 0.2501266 
18.665 -8.68779 -13.18144 3.797791 -1.715786 1.993079 255 255 255 255 0.2501658 
17.73806 10.43763 -27.98586 4.614806 2.668524 0.9229531 255 255 255 255 0.2426998 
14.06309 58.36813 -75.64957 2.267346 2.824375 -2.40819 255 255 255 255 0.2500483 
19.97706 36.90987 -65.57608 4.824876 1.203003 -1.289469 255 255 255 255 0.249421 
19.39765 39.19729 -53.71391 4.552635 1.399171 1.563074 255 255 255 255 0.2473868 
17.71484 27.37213 -71.10837 4.930835 0.4526617 -2.944887 255 255 255 255 0.2494512 
14.45532 -14.6502 -38.37574 4.263619 -4.428301 0.04160713 255 255 255 255 0.2502833 
20.35162 23.58551 -63.70014 5.971149 0.2064436 -0.9216282 255 255 255 255 0.2494613 
20.49034 13.22506 -57.09184 6.242335 0.2388417 0.5421665 255 255 255 255 0.2499969 
9.10853 18.43293 -13.12259 1.397211 2.80016 2.012477 255 255 255 255 0.2215102 
16.9071 23.69506 -72.31157 4.956971 0.171575 -3.434789 255 255 255 255 0.2488372 
20.52636 1.339561 -18.6075 4.581452 0.3058272 1.600387 255 255 255 255 0.2500905 
20.07642 -4.36568 -1.536527 3.171149 -0.6907142 2.879559 255 255 255 255 0.2501215 
18.69481 14.72 -50.46222 5.699311 1.282309 2.274718 255 255 255 255 0.2454645 
20.49221 22.01054 -62.62052 6.132297 0.08368105 -0.6412501 255 255 255 255 0.2498246 
17.39438 -10.33845 -46.47421 5.28968 -3.2876 -0.6883249 255 255 255 255 0.2495925 
12.74367 16.18288 -9.177464 2.358621 3.047668 2.320359 255 255 255 255 0.2380579 
19.30242 46.27812 -53.43898 4.006641 1.925488 1.438562 255 255 255 255 0.2477307 
16.8618 -11.82116 -27.77415 4.328568 -3.083853 0.8633496 255 255 255 255 0.2502595 
12.19792 16.57388 -26.64603 2.918912 4.053079 1.057852 255 255 255 255 0.2183146 
8.690653 18.63524 -13.86481 1.334185 2.830844 1.957134 255 255 255 255 0.2193631 
18.74672 16.56031 -51.41008 5.71508 0.8678956 2.427312 255 255 255 255 0.2451994 
20.26882 8.551224 -60.899 6.17059 -0.5395935 -0.9363596 255 255 255 255 0.2495236 
13.2919 25.04103 -44.90765 3.799023 0.414251 4.549656 255 255 255 255 0.2151294 
20.50011 46.5668 -62.54474 4.208511 1.962338 -0.496094 255 255 255 255 0.2494296 
20.41751 2.657218 -25.96598 5.135982 0.6170917 1.045918 255 255 255 255 0.250085 
13.75214 13.55048 0 1.449395 1.362888 3.10911 255 255 255 255 0.2063617 
16.04236 30.64032 -73.51576 4.210229 0.6933309 -3.520448 255 255 255 255 0.2496371 
20.58496 23.63698 -60.76237 6.038988 0.2291399 -0.01243009 255 255 255 255 0.250001 
19.31365 21.00859 -67.76038 5.874717 -0.01132239 -2.116497 255 255 255 255 0.2497438 
16.15003 -12.69946 -1.533976 2.550294 -2.006711 2.877999 255 255 255 255 0.2506417 
18.9546 -7.974099 -12.26547 3.780194 -1.565876 2.064393 255 255 255 255 0.2501584 
17.97796 26.53439 -50.54371 5.123297 0.489142 2.745759 255 255 255 255 0.2426156 
18.61584 8.814225 -11.85047 3.679959 1.72343 2.100191 255 255 255 255 0.248761 
6.493451 19.5276 -23.70083 0.9707783 2.97934 1.220817 255 255 255 255 0.1940601 
20.45243 24.02287 -58.38132 5.964802 0.2705368 0.7209638 255 255 255 255 0.2493651 
20.53043 38.89648 -58.95367 4.816489 1.393046 0.4981467 255 255 255 255 0.2498139 
20.41317 -2.758196 -34.92781 5.843027 -0.6626043 0.3692149 255 255 255 255 0.2501113 
6.74334 16.26108 0 0.1707621 0.4350831 3.260562 255 255 255 255 0.1513666 
17.01353 -11.61394 -11.75048 3.342602 -2.299097 2.093419 255 255 255 255 0.2503689 
20.58001 16.22194 -60.84136 6.267628 -0.0432153 -0.2188331 255 255 255 255 0.2500086 
20.50448 -1.507024 -20.61648 4.737259 -0.3383429 1.449112 255 255 255 255 0.2501182 
20.33098 31.91472 -63.8058 5.322351 0.8360651 -0.8267655 255 255 255 255 0.2495291 
20.58915 1.295754 -48.26921 6.270638 -0.12292 -0.05397454 255 255 255 255 0.2500272 
17.24448 31.19822 -49.36656 4.53231 0.8246538 3.012544 255 255 255 255 0.2383882 
20.43531 56.75147 -62.88531 3.406387 2.73112 -0.4332154 255 255 255 255 0.2494387 
7.913362 1.636221 -74.73512 2.403189 -2.766249 -5.068265 255 255 255 255 0.2496979 
8.290532 -18.82323 -11.54746 1.653628 -3.680449 2.100539 255 255 255 255 0.2501432 
16.00213 34.00895 -73.56137 4.002833 0.9519477 -3.354633 255 255 255 255 0.2496615 
20.25175 45.1076 -64.21013 4.284428 1.831952 -0.7367864 255 255 255 255 0.2495481 
7.606647 -16.5282 -54.12571 2.309974 -5.437322 -2.069181 255 255 255 255 0.2492136 
15.36988 37.35437 -74.27842 3.678257 1.207381 -3.321039 255 255 255 255 0.2497504 
20.03197 6.088304 -46.51689 6.104539 1.299284 0.5676242 255 255 255 255 0.249229 
16.60983 1.821364 -66.80562 5.0502 -2.119386 -3.030643 255 255 255 255 0.2497926 
12.75983 16.17044 -12.21227 2.520788 3.223787 2.080337 255 255 255 255 0.2353823 
20.48876 1.784144 -15.62421 4.341659 0.3573571 1.823872 255 255 255 255 0.25018 
11.10574 59.65271 -77.90945 1.725627 2.922137 -2.697407 255 255 255 255 0.249816 
11.87141 16.79729 -31.22318 2.953555 4.196666 0.7197098 255 255 255 255 0.2120014 
7.806768 19.05731 -21.90446 1.197571 2.897785 1.355415 255 255 255 255 0.2028958 
13.53266 15.49012 -11.96359 2.702507 3.041524 2.120533 255 255 255 255 0.2375209 
18.38842 12.06244 -68.60057 5.593516 -0.8045185 -2.705642 255 255 255 255 0.2503587 
16.33309 -12.54218 -33.15259 4.519786 -3.533163 0.4525284 255 255 255 255 0.2503001 
9.96946 -18.00297 -2.749734 1.609614 -2.932811 2.782796 255 255 255 255 0.2501107 
10.34962 33.70387 -42.81094 1.56819 0.9811974 2.713862 255 255 255 255 0.2083329 
9.20234 -18.37503 -4.728162 1.560282 -3.129458 2.62931 255 255 255 255 0.2501222 
16.65278 21.92434 -48.48663 5.011824 0.08956353 3.601478 255 255 255 255 0.2338413 
18.31333 2.266486 -63.71915 5.57056 -1.747488 -2.268365 255 255 255 255 0.2493893 
19.26357 7.152424 -2.061064 3.080963 1.146108 2.842736 255 255 255 255 0.2495651 
20.19971 46.24216 -64.54083 4.188195 1.914124 -0.770152 255 255 255 255 0.2495658 
16.02243 55.30536 -47.65683 2.742157 2.609704 2.25191 255 255 255 255 0.244137 
16.05095 27.74056 -73.50601 4.383543 0.4706497 -3.668944 255 255 255 255 0.2496189 
12.89307 16.06352 -27.99805 3.377883 4.128099 0.8390981 255 255 255 255 0.2216195 
9.25197 18.37194 -18.70844 1.423937 2.789606 1.594099 255 255 255 255 0.2119867 
8.227253 49.15256 -41.75194 1.234523 2.1384 2.876106 255 255 255 255 0.21884 
11.17487 60.6 -77.81483 1.682639 2.999697 -2.58748 255 255 255 255 0.248207 
17.46299 11.31434 -42.89589 5.32488 3.157463 0.9829963 255 255 255 255 0.2386916 
10.35231 17.80961 -25.93149 1.871224 3.149092 1.07025 255 255 255 255 0.2097525 
11.73245 16.86714 -9.381051 2.006744 2.868391 2.304416 255 255 255 255 0.2349145 
19.7779 9.998243 -64.0088 6.019364 -0.6916952 -1.586092 255 255 255 255 0.2494113 
18.39761 3.793277 -64.6567 5.596323 -1.587492 -2.32903 255 255 255 255 0.249349 
16.56169 12.39059 -41.67307 5.050638 3.643191 0.7283319 255 255 255 255 0.2319432 
8.519977 18.70568 -5.754368 1.301109 2.843409 2.564583 255 255 255 255 0.2332668 
19.63254 39.25107 -66.70924 4.586543 1.376978 -1.437626 255 255 255 255 0.249587 
17.47432 -2.924413 0 0.5480578 -0.09266029 3.251616 255 255 255 255 0.1556382 
12.59175 33.65536 -76.87721 3.231119 0.9161311 -4.133698 255 255 255 255 0.2494035 
10.88968 58.07898 -43.16271 1.656206 2.805908 2.652283 255 255 255 255 0.237973 
20.23376 -0.8130355 -51.47384 6.159762 -0.9979117 -0.5441265 255 255 255 255 0.2496249 
18.60914 -6.065476 -52.37831 5.661037 -2.436354 -1.133757 255 255 255 255 0.2498728 
20.33318 40.30142 -63.71414 4.670427 1.47334 -0.7230872 255 255 255 255 0.249515 
7.675518 -19.10498 -0.7331419 1.192238 -2.957542 2.938765 255 255 255 255 0.2501325 
12.90431 -16.05634 -7.640805 2.366215 -2.887074 2.406405 255 255 255 255 0.250404 
18.91235 41.33549 -52.49052 4.248716 1.576253 1.878436 255 255 255 255 0.2455667 
19.01779 7.829128 -16.52678 4.103715 1.663152 1.774757 255 255 255 255 0.2487386 
20.36454 28.58127 -63.61379 5.586635 0.5855137 -0.8375249 255 255 255 255 0.2495175 
8.195704 18.89287 -33.05349 1.270487 2.868275 0.520374 255 255 255 255 0.1843407 
13.26914 30.83913 -44.90033 3.513711 0.8342254 4.192087 255 255 255 255 0.2201288 
20.36945 3.330273 -56.06866 6.201673 -0.6718352 -0.6259959 255 255 255 255 0.2496578 
9.737482 60.6 -76.78557 0.8862976 3.145088 -1.363109 255 255 255 255 0.1924476 
20.21635 -3.8494 -18.93319 4.527018 -0.9125143 1.564753 255 255 255 255 0.2501049 
11.02373 17.35752 -27.82943 2.337076 3.538478 0.9469939 255 255 255 255 0.2108561 
15.7032 13.27453 -12.60433 3.160087 2.642259 2.075676 255 255 255 255 0.2408871 
19.85244 27.52961 -66.00484 5.510639 0.4923486 -1.573785 255 255 255 255 0.2493772 
20.43149 2.345777 -5.065007 3.504531 0.3852608 2.615177 255 255 255 255 0.250336 
19.45613 2.2978 -60.28204 5.920524 -1.376245 -1.526328 255 255 255 255 0.2500347 
7.373178 19.23123 -23.79028 1.117684 2.930588 1.214151 255 255 255 255 0.1973835 
18.14981 19.14554 -70.25172 5.53464 -0.1754183 -2.937804 255 255 255 255 0.2500379 
13.1423 60.6 -73.40398 0.7763033 3.194654 -0.8218998 255 255 255 255 0.1797684 
7.039376 60.6 -78.47047 0.7444863 3.115682 -1.767989 255 255 255 255 0.2028968 
8.909312 55.62412 -42.02663 1.353185 2.622785 2.826417 255 255 255 255 0.2303549 
8.23238 18.87389 -26.2511 1.275155 2.864452 1.029848 255 255 255 255 0.1966785 
13.65877 -15.36736 -16.71194 2.979911 -3.292319 1.70935 255 255 255 255 0.2503782 
19.7469 37.26032 -66.33881 4.755684 1.226896 -1.421148 255 255 255 255 0.2495086 
19.95563 -4.906057 -3.335044 3.290604 -0.8046163 2.743761 255 255 255 255 0.2500971 
20.26512 57.07746 -64.01141 3.35551 2.742314 -0.5797619 255 255 255 255 0.2495229 
11.42912 12.36487 -76.81999 3.472043 -1.137729 -5.087003 255 255 255 255 0.2502696 
20.51573 1.723281 -31.21987 5.56926 0.4334872 0.654916 255 255 255 255 0.2500721 
16.29035 -12.571 -22.31741 3.847922 -3.006252 1.283702 255 255 255 255 0.2504128 
20.56796 0.8017626 -22.93968 4.928406 0.2372642 1.273279 255 255 255 255 0.2500059 
20.15483 9.198803 -51.80533 6.141654 0.8838958 0.9045555 255 255 255 255 0.249889 
18.77613 8.435156 -13.74152 3.862789 1.675825 1.98084 255 255 255 255 0.2489551 
15.34486 23.34125 -74.30679 4.50248 0.131112 -4.053374 255 255 255 255 0.2496698 
17.93591 -10.05343 -15.47846 3.780082 -2.140298 1.813066 255 255 255 255 0.2502261 
19.65325 -6.166334 -8.834103 3.645501 -1.163675 2.324342 255 255 255 255 0.2500687 
14.13542 -12.28283 -53.46079 4.295853 -4.208402 -1.725182 255 255 255 255 0.2504819 
20.56425 24.39873 -59.88672 5.97716 0.2888499 0.1538981 255 255 255 255 0.2501011 
19.80978 40.56615 -55.03147 4.516814 1.506342 1.3165 255 255 255 255 0.2480113 
18.33872 9.365759 -32.15369 5.019218 2.614796 0.5680796 255 255 255 255 0.2440511 
19.38605 54.55394 -67.46298 3.401796 2.537157 -1.187489 255 255 255 255 0.2499435 
16.98556 10.17529 0 2.159115 1.217536 3.060091 255 255 255 255 0.2257932 
20.53531 60.6 -59.9518 3.096231 3.053266 0.1234164 255 255 255 255 0.2488931 
19.57748 49.02281 -66.85878 3.845543 2.117803 -1.227555 255 255 255 255 0.2497533 
11.00792 17.35901 -3.962941 1.768514 2.767867 2.702981 255 255 255 255 0.2418864 
19.98075 4.843134 -31.51005 5.450975 1.316028 0.6599813 255 255 255 255 0.2494587 
19.29565 31.37803 -67.8082 5.111672 0.7777475 -1.83012 255 255 255 255 0.2497781 
19.30505 19.3917 -53.43403 5.881219 0.1867161 2.159292 255 255 255 255 0.2456007 
20.53966 1.270573 -24.2608 5.026986 0.3262601 1.176664 255 255 255 255 0.2500438 
17.08604 -7.05748 -56.20791 5.195561 -3.012877 -1.767381 255 255 255 255 0.2500679 
13.7224 -15.30632 -14.81699 2.887233 -3.174746 1.85517 255 255 255 255 0.2504161 
19.28638 28.31239 -67.83283 5.327789 0.5432234 -1.940408 255 255 255 255 0.2498266 
10.69776 -17.59369 -20.79565 2.519762 -4.043315 1.386091 255 255 255 255 0.2501635 
12.53636 -16.31909 -2.177989 2.003309 -2.622995 2.827001 255 255 255 255 0.2503977 
20.36446 19.59958 -57.65047 6.205015 0.04695526 0.9050721 255 255 255 255 0.249323 
18.64834 -8.72747 -4.581852 3.171197 -1.459798 2.647644 255 255 255 255 0.2502097 
16.11519 -12.81299 -32.0898 4.421313 -3.522315 0.5339969 255 255 255 255 0.250358 
9.151356 24.69683 -79.05319 2.654368 0.2099126 -5.327256 255 255 255 255 0.2502525 
19.11776 58.92522 -68.2525 3.026293 2.867969 -1.220592 255 255 255 255 0.2501491 
20.21678 3.784969 -15.39261 4.253827 0.8546665 1.853637 255 255 255 255 0.2499828 
17.11127 43.92331 -71.97726 3.67281 1.717667 -2.48943 255 255 255 255 0.2492516 
17.82339 -8.558773 0 2.16437 -1.042411 3.068186 255 255 255 255 0.2233385 
20.36695 -3.085327 -24.36504 4.98165 -0.8272182 1.153637 255 255 255 255 0.2500763 
8.398062 60.6 -43.5783 0.7120407 3.137545 1.544985 255 255 255 255 0.1924153 
15.84228 10.24594 -72.09071 4.816043 -1.226933 -3.805923 255 255 255 255 0.2502751 
17.62641 39.23123 -49.96508 4.08695 1.413459 2.539073 255 255 255 255 0.2418809 
17.59084 35.95717 -71.31049 4.278559 1.111442 -2.717137 255 255 255 255 0.2491471 
7.836672 19.02923 -1.955609 1.19368 2.893601 2.849444 255 255 255 255 0.2385615 
10.02002 17.98404 -16.08042 1.515931 2.74336 1.790685 255 255 255 255 0.2199228 
20.39571 36.64698 -58.05705 4.972136 1.213192 0.6367438 255 255 255 255 0.2495264 
6.856954 36.57183 -80.01067 1.723032 1.129831 -4.712124 255 255 255 255 0.2502017 
7.660351 29.72121 -41.51434 1.138571 0.6838304 2.921144 255 255 255 255 0.1854761 
10.27986 -17.85116 -24.92236 2.551707 -4.406166 1.061754 255 255 255 255 0.2502213 
6.90082 -19.38 -9.187529 1.261596 -3.637259 2.281702 255 255 255 255 0.250165 
20.20829 26.46775 -56.61505 5.72473 0.4560227 1.029686 255 255 255 255 0.2492262 
19.65579 -6.15872 -10.95479 3.806328 -1.208707 2.16285 255 255 255 255 0.2500734 
14.63458 14.46645 -11.33296 2.836715 2.849198 2.167045 255 255 255 255 0.2388199 
20.47085 43.30501 -58.56399 4.463264 1.72074 0.5109019 255 255 255 255 0.2498216 
9.982481 24.28661 -78.59261 2.937727 0.183657 -5.212563 255 255 255 255 0.2499525 
6.612988 17.03796 -79.90358 2.00516 -0.5373572 -5.897915 255 255 255 255 0.2498968 
15.69693 57.66879 -47.31027 2.556168 2.781799 2.17826 255 255 255 255 0.2449851 
6.598735 1.891627 -75.41888 2.003781 -2.763572 -5.235728 255 255 255 255 0.2497233 
6.910281 25.38573 -41.21797 1.080094 0.35929 2.945679 255 255 255 255 0.1747546 
8.765292 -18.61244 -32.45103 2.397106 -5.144559 0.479468 255 255 255 255 0.2501723 
20.46808 5.962686 -51.23508 6.23567 0.5156811 0.3842212 255 255 255 255 0.250107 
17.88266 50.25142 -70.81989 3.436201 2.203433 -1.939767 255 255 255 255 0.2497154 
17.07313 -10.46926 -47.91725 5.191622 -3.387501 -0.8688545 255 255 255 255 0.2495683 
19.25602 7.249243 -27.08703 4.916039 1.871981 0.9935412 255 255 255 255 0.248088 
19.97507 14.68725 -54.52138 6.087353 0.56676 1.377076 255 255 255 255 0.2486411 
20.19738 -3.845996 -3.189361 3.316239 -0.6405993 2.754544 255 255 255 255 0.2501386 
20.55954 28.68318 -61.8017 5.633007 0.5976682 -0.3103228 255 255 255 255 0.2498961 
9.157385 44.16246 -79.05016 2.026446 1.72234 -3.931529 255 255 255 255 0.2498042 
17.43033 37.33492 -49.65781 4.167168 1.276525 2.688655 255 255 255 255 0.2405766 
20.56802 -0.4607842 -3.022656 3.365459 -0.08649612 2.768769 255 255 255 255 0.2500266 
19.32726 9.553247 -47.84446 5.891229 1.748595 1.230708 255 255 255 255 0.2478293 
18.59053 -8.865186 -23.98653 4.56746 -2.080683 1.16965 255 255 255 255 0.2501046 
12.26008 16.52416 -20.94035 2.665556 3.663284 1.470678 255 255 255 255 0.2240289 
6.469407 37.44049 -41.05415 1.012678 1.261663 2.967566 255 255 255 255 0.1952402 
20.4422 30.07439 -63.08485 5.482159 0.7051316 -0.7507365 255 255 255 255 0.2494766 
7.866713 -19.02043 -25.93263 1.975097 -4.77064 0.9834935 255 255 255 255 0.2501724 
19.94894 54.53234 -65.63819 3.488823 2.535441 -0.9111001 255 255 255 255 0.2496057 
17.11343 20.99 -49.16118 5.181605 0.06951451 3.487743 255 255 255 255 0.2355544 
20.46528 -1.841647 -3.893797 3.418269 -0.3006137 2.703383 255 255 255 255 0.2501093 
19.86671 -5.34416 -11.15869 3.876692 -1.008794 2.152625 255 255 255 255 0.2500653 
7.559047 29.36077 -79.74947 2.045142 0.5708057 -5.196381 255 255 255 255 0.2503186 
14.89367 -14.22954 -39.70854 4.489332 -4.351244 -0.06104252 255 255 255 255 0.250266 
20.57168 48.3138 -59.84322 4.098927 2.11771 0.1502986 255 255 255 255 0.2501697 
19.87806 5.245301 -19.10132 4.483696 1.158048 1.580296 255 255 255 255 0.249628 
20.4718 -1.863955 -13.58849 4.180471 -0.3553041 1.976234 255 255 255 255 0.2501271 
16.19319 35.42975 -73.32803 4.079041 1.067181 -3.080412 255 255 255 255 0.2491068 
14.86494 -14.23381 -3.149178 2.430464 -2.345149 2.753046 255 255 255 255 0.2507974 
17.09162 -11.49557 -14.21861 3.537696 -2.354537 1.906382 255 255 255 255 0.250349 
17.05233 30.9409 -72.08846 4.509487 0.7256699 -3.078036 255 255 255 255 0.2489904 
19.87936 52.57079 -55.31528 3.62625 2.398195 0.9913993 255 255 255 255 0.2488504 
19.1001 35.07353 -68.29909 4.746892 1.049685 -1.969585 255 255 255 255 0.2502539 
20.56258 45.00676 -61.73776 4.353207 1.848611 -0.2080632 255 255 255 255 0.2496097 
10.38933 17.78802 -32.3253 2.103577 3.445599 0.6036638 255 255 255 255 0.202267 
16.38394 12.85459 -42.54429 4.996521 3.598408 1.173778 255 255 255 255 0.233441 
19.81034 5.528649 -6.410875 3.503197 0.9612858 2.519751 255 255 255 255 0.2496912 
7.609511 60.6 -76.37058 0.175425 3.266781 -0.3641245 255 255 255 255 0.1452985 
20.21598 48.08184 -64.42017 4.04775 2.055038 -0.7323465 255 255 255 255 0.2495613 
20.04444 28.78317 -55.86837 5.47473 0.6113635 1.336327 255 255 255 255 0.2483885 
11.92696 -16.77351 -38.63243 3.557827 -5.035407 0.008370858 255 255 255 255 0.2502069 
15.61795 27.18267 -73.99708 4.329849 0.4267793 -3.793701 255 255 255 255 0.2496628 
19.37184 -6.910547 -12.13871 3.834389 -1.400487 2.074192 255 255 255 255 0.2500955 
14.21397 -13.98606 -47.88786 4.319778 -4.414956 -1.00691 255 255 255 255 0.2499251 
5.075677 53.74595 -80.51475 0.8827553 2.462146 -3.556202 255 255 255 255 0.2498407 
19.71647 -5.957266 -12.13013 3.917346 -1.161829 2.074792 255 255 255 255 0.2500714 
9.782837 -18.1236 -38.01919 2.852826 -5.410945 0.04753322 255 255 255 255 0.2502095 
18.89475 8.186065 -28.98222 4.997827 2.073939 0.8550554 255 255 255 255 0.2480094 
17.88514 8.22077 0 2.149762 0.9413612 3.073268 255 255 255 255 0.220934 
19.10544 -4.628372 0 2.251075 -0.5946453 3.075245 255 255 255 255 0.2207772 
15.07507 55.7229 -74.56393 2.573771 2.620131 -2.384198 255 255 255 255 0.2499051 
20.33685 3.266208 -40.02571 6.201143 0.980723 -0.0003022649 255 255 255 255 0.2496194 
16.32539 4.489306 -68.95041 4.963381 -1.85742 -3.338789 255 255 255 255 0.2501079 
19.1034 7.586112 -9.397554 3.594258 1.422126 2.301151 255 255 255 255 0.249153 
16.42376 0.8203205 -66.39582 4.993404 -2.263767 -3.023932 255 255 255 255 0.2499862 
7.240993 15.0254 -79.46789 2.197952 -0.8198434 -5.801168 255 255 255 255 0.2494525 
20.45322 4.46253 -48.71137 6.231224 0.5999559 0.3133567 255 255 255 255 0.2500606 
20.56737 0.7794632 -17.93345 4.53485 0.2166305 1.651071 255 255 255 255 0.2500055 
19.07684 -7.636734 -4.633906 3.240365 -1.294932 2.643923 255 255 255 255 0.2501461 
20.4928 54.34774 -62.52597 3.601954 2.553104 -0.4115302 255 255 255 255 0.2494138 
19.97384 -4.866946 -9.894028 3.796073 -0.9138912 2.248093 255 255 255 255 0.2500862 
20.0004 17.01519 -65.26524 6.08765 -0.2123556 -1.492335 255 255 255 255 0.2486968 
6.899936 -11.06616 -64.38131 2.09528 -4.66774 -3.594587 255 255 255 255 0.2501297 
9.882687 19.29094 -42.1906 3.015106 2.849984 4.697929 255 255 255 255 0.2106813 
12.19107 24.00507 -43.99715 3.631516 0.3279116 4.778978 255 255 255 255 0.2110353 
15.36416 16.26772 -45.35826 4.68601 2.629579 3.238555 255 255 255 255 0.2359914 
14.88745 -6.201535 -62.20687 4.524937 -3.333152 -2.762376 255 255 255 255 0.2496376 
12.71597 34.7734 -76.77856 3.198089 1.00269 -4.047684 255 255 255 255 0.2494301 
19.03883 36.97099 -68.43879 4.593785 1.194643 -1.945873 255 255 255 255 0.2502536 
