ply
format ascii 1.0
comment VCGLIB generated
element vertex 574
property float x
property float y
property float z
property float nx
property float ny
property float nz
property uchar red
property uchar green
property uchar blue
property uchar alpha
property float quality
element face 0
property list uchar int vertex_indices
property uchar red
property uchar green
property uchar blue
property uchar alpha
end_header
11.28711 61.98749 38.95969 -1.640945 1.563863 3.119501 255 255 255 255 0.2138778 
10.1372 17.70665 10.95677 -3.178176 -3.304857 -4.252512 255 255 255 255 0.2505783 
5.364462 29.31028 81.2 -0.347431 0.2370157 3.265041 255 255 255 255 0.1525598 
8.406344 4.255922 37.36214 -3.707175 -5.009923 -0.5272161 255 255 255 255 0.250277 
2.634921 10.63163 58.72603 -4.36059 -2.207247 1.288611 255 255 255 255 0.2499579 
12.17718 42.23043 1.815658 -2.491508 -0.03095268 -5.668785 255 255 255 255 0.2504728 
7.126944 73.10516 5.055747 -2.445251 2.371136 -2.861564 255 255 255 255 0.2503721 
10.74986 58.89347 38.66991 -1.981996 1.341346 3.495364 255 255 255 255 0.2119507 
0.5336386 32.05317 17.72347 -6.108062 -0.5120736 -1.310893 255 255 255 255 0.2501597 
11.35302 3.389284 81.2 -1.096447 -1.911365 3.088202 255 255 255 255 0.2165269 
1.478763 52.89347 28.26052 -4.973926 0.8928551 1.993933 255 255 255 255 0.2461236 
0.1593692 31.67066 20.22878 -6.223786 -0.3151744 -0.6838694 255 255 255 255 0.250009 
0.9053719 14.56364 65.53233 -4.176921 -1.268081 1.804051 255 255 255 255 0.2497714 
9.893814 28.00226 5.409345 -3.252192 -1.849288 -5.011081 255 255 255 255 0.2504218 
3.502339 32.07917 56.03161 -4.291019 2.779428 1.123585 255 255 255 255 0.2418818 
1.790967 33.15075 13.41945 -5.72226 -0.7128226 -2.441315 255 255 255 255 0.2502827 
0.02490475 22.24202 33.45579 -6.266758 0.0216324 0.01638587 255 255 255 255 0.250104 
0.93356 68.26373 14.64086 -3.967839 2.016989 -1.193513 255 255 255 255 0.250577 
9.817869 8.939254 20.93718 -3.275284 -4.512263 -2.831553 255 255 255 255 0.2498714 
10.14146 10.90824 17.7682 -3.176881 -4.261133 -3.294455 255 255 255 255 0.2503608 
0.03774055 28.91731 25.41866 -6.263215 0.1030546 0.139087 255 255 255 255 0.2502221 
0.6484411 29.89664 30.47271 -6.080249 1.098373 1.048614 255 255 255 255 0.2484274 
9.75334 25.78794 6.401202 -3.294911 -2.154132 -4.859672 255 255 255 255 0.2501147 
1.882445 29.14378 79.10066 -3.000566 1.359415 2.840883 255 255 255 255 0.2480531 
0.03250834 50.56281 21.09787 -5.53754 0.6897063 0.08432341 255 255 255 255 0.2499846 
4.358182 47.40482 33.26217 -4.586374 0.4533625 3.534254 255 255 255 255 0.235043 
1.270746 34.63069 14.29815 -5.881596 -0.5160245 -2.106525 255 255 255 255 0.2500405 
0.2035092 23.43966 62.26321 -4.58242 0.5940914 1.559034 255 255 255 255 0.2495482 
12.62843 65.88272 1.637058 -1.651824 1.806403 -4.003716 255 255 255 255 0.250376 
0.2035487 23.44 47.12029 -5.764858 0.7404424 0.4052795 255 255 255 255 0.2493937 
2.18947 77.95982 29.72004 -3.028564 2.757002 1.50041 255 255 255 255 0.2492323 
3.567672 70.26401 32.1118 -3.303372 2.192351 2.232162 255 255 255 255 0.2448856 
0.4909615 22.08618 25.15462 -6.121243 -1.028697 -0.8553194 255 255 255 255 0.2502999 
4.871565 11.68817 24.61903 -4.781336 -3.521789 -1.976037 255 255 255 255 0.2502498 
1.639737 25.69599 17.21282 -5.76858 -1.325922 -2.041247 255 255 255 255 0.2503251 
3.96506 51.78629 8.51808 -4.413156 0.7486882 -3.182236 255 255 255 255 0.2503939 
3.473044 77.03753 9.25398 -2.851282 2.675367 -1.941325 255 255 255 255 0.2502232 
5.855402 34.96692 51.01035 -3.89771 3.887869 0.7477894 255 255 255 255 0.225572 
11.83605 81.2 37.28074 -0.7173724 3.1501 1.399962 255 255 255 255 0.1907517 
1.729552 28.85028 41.9668 -5.720098 2.435834 0.08822632 255 255 255 255 0.2445592 
2.584428 43.77051 10.63045 -5.335481 0.1333251 -2.902864 255 255 255 255 0.2498537 
4.707197 66.63219 7.514636 -3.270253 1.87648 -2.754218 255 255 255 255 0.2507094 
9.719081 50.78584 38.07961 -2.419652 0.6964562 3.845241 255 255 255 255 0.2046058 
9.487299 76.1293 3.292989 -1.894117 2.602755 -2.974818 255 255 255 255 0.2499347 
2.869612 66.36666 10.1175 -3.673368 1.860451 -2.230312 255 255 255 255 0.2500053 
0.175867 23.13302 71.49066 -3.867082 0.4471146 2.265939 255 255 255 255 0.2497263 
1.703543 81.2 25.2339 -2.072741 3.094788 0.4720968 255 255 255 255 0.2128984 
10.22748 68.40585 38.35272 -1.855405 2.046298 3.128232 255 255 255 255 0.2257909 
0.6283785 15.62947 56.17875 -4.955123 -1.195432 1.104958 255 255 255 255 0.2499264 
5.358607 11.96726 23.07368 -4.632848 -3.576656 -2.212765 255 255 255 255 0.2504312 
5.840809 34.95237 65.08711 -3.112372 3.106311 1.807715 255 255 255 255 0.2343972 
12.71094 40.08086 40.06182 -2.156556 3.41502 3.469537 255 255 255 255 0.2013672 
1.205719 64.58579 13.74239 -4.200001 1.737504 -1.424428 255 255 255 255 0.2506699 
10.80696 5.39321 81.2 -0.4733111 -0.7575276 3.218067 255 255 255 255 0.1697004 
3.383236 31.88583 68.10402 -3.504096 2.243256 2.026594 255 255 255 255 0.2449917 
12.25968 13.34639 13.3655 -2.532948 -4.044029 -4.038087 255 255 255 255 0.2502762 
9.085155 33.50665 4.342276 -3.498125 -1.061616 -5.081784 255 255 255 255 0.2505169 
9.570156 58.78155 37.9851 -2.212473 1.312667 3.471744 255 255 255 255 0.2149633 
12.47749 30.91288 3.087659 -2.466752 -1.498708 -5.545887 255 255 255 255 0.2501577 
2.627158 12.19151 31.49667 -5.466478 -2.893768 -0.9627261 255 255 255 255 0.2505067 
0.1734768 17.97588 41.18971 -6.242906 -0.6742355 -0.01202118 255 255 255 255 0.2501543 
0.007666253 32.96519 21.75029 -6.271517 -0.06664495 -0.1571322 255 255 255 255 0.250238 
1.208128 32.91854 30.25325 -5.910817 1.245166 1.670052 255 255 255 255 0.2469051 
8.995632 37.58538 42.61549 -3.164756 4.586397 0.1857621 255 255 255 255 0.20524 
2.699884 76.62124 10.413 -3.043686 2.645237 -1.71108 255 255 255 255 0.2498764 
8.186314 37.93804 4.355428 -3.768431 -0.4531242 -4.972878 255 255 255 255 0.2501075 
0.003901228 20.307 47.30477 -5.795825 -0.1312945 0.4499266 255 255 255 255 0.2501013 
0.1451535 27.07986 29.47608 -6.231709 0.5109447 0.4382771 255 255 255 255 0.2497777 
4.354085 7.978248 61.05865 -3.707705 -2.906991 1.450116 255 255 255 255 0.2499701 
0.3027535 72.8354 17.3572 -3.737206 2.365523 -0.59213 255 255 255 255 0.250136 
11.90196 39.24064 61.15642 -1.34076 2.830233 1.494309 255 255 255 255 0.2059152 
11.62633 39.0791 81.03079 -1.365504 2.810014 2.982306 255 255 255 255 0.2433848 
0.5804895 25.2813 50.24435 -5.414412 1.279831 0.7049223 255 255 255 255 0.2483303 
0.755584 15.19867 39.61041 -6.043826 -1.658725 -0.1254614 255 255 255 255 0.2502056 
3.827204 8.65727 45.81745 -4.791782 -3.46304 0.2791696 255 255 255 255 0.2502119 
2.069264 74.47044 11.7118 -3.294506 2.482254 -1.581792 255 255 255 255 0.2501509 
1.605227 23.00983 19.28332 -5.77915 -1.542226 -1.850992 255 255 255 255 0.2504051 
8.595573 3.882902 46.09301 -3.410058 -4.800379 0.2809498 255 255 255 255 0.250291 
10.60268 38.5957 59.10571 -1.506861 2.749558 1.343347 255 255 255 255 0.2122525 
0.4380848 71.95561 24.69696 -3.787412 2.307569 0.7214506 255 255 255 255 0.2490837 
0.9324312 14.47651 44.38563 -5.759114 -1.781809 0.1941005 255 255 255 255 0.2500407 
0.05482961 71.08318 22.02436 -3.920602 2.237202 0.233075 255 255 255 255 0.2498792 
7.251893 42.65474 4.917117 -3.95103 0.02056861 -4.725189 255 255 255 255 0.2502548 
1.108405 20.2285 23.87916 -5.931419 -1.560122 -1.282182 255 255 255 255 0.2504865 
0.3639674 24.32575 62.3773 -4.520622 0.9017531 1.599753 255 255 255 255 0.2488752 
1.368235 48.19055 27.96502 -5.376198 0.5311303 1.980641 255 255 255 255 0.2461803 
1.976985 29.39834 57.05613 -4.555628 2.135659 1.190459 255 255 255 255 0.2450427 
3.359396 34.30579 10.11837 -5.242741 -0.7423369 -3.344952 255 255 255 255 0.249879 
8.680756 68.6777 37.38445 -2.431044 2.087076 3.320115 255 255 255 255 0.2345748 
6.894526 77.46776 5.24861 -2.267093 2.7079 -2.564115 255 255 255 255 0.2504806 
8.759512 79.36536 3.764602 -1.889917 2.853303 -2.673596 255 255 255 255 0.2498066 
3.612638 32.2523 57.47464 -4.13567 2.807679 1.239425 255 255 255 255 0.2404348 
9.746529 38.06277 77.94561 -1.646922 2.658617 2.751115 255 255 255 255 0.2400327 
1.400041 73.92529 28.05685 -3.461056 2.452271 1.320971 255 255 255 255 0.2494156 
0.3740939 16.79909 49.46521 -5.519221 -1.089903 0.597038 255 255 255 255 0.2500058 
0.02360119 21.12527 70.23415 -3.988891 0.1483281 2.172447 255 255 255 255 0.2499971 
0.467727 26.29756 34.55273 -6.134838 1.178694 0.5311953 255 255 255 255 0.2488975 
1.461392 28.11002 67.9006 -3.885176 1.523202 2.013816 255 255 255 255 0.247491 
0.3631569 24.41268 46.57085 -5.735833 1.179861 0.4251477 255 255 255 255 0.2483003 
8.147589 4.209163 56.68003 -3.014754 -4.060237 1.099477 255 255 255 255 0.2502863 
5.883707 34.99516 53.43801 -3.754322 3.760809 0.9330457 255 255 255 255 0.2269399 
0.3132728 24.05574 73.32492 -3.688166 0.6702801 2.411688 255 255 255 255 0.2492978 
1.661857 44.27737 12.53163 -5.531371 0.1815271 -2.410159 255 255 255 255 0.2501539 
0.7555026 15.10641 43.83853 -5.857975 -1.583787 0.1627015 255 255 255 255 0.2500717 
10.71556 2.545509 40.84152 -2.985972 -5.513159 -0.1465334 255 255 255 255 0.2502126 
0.05151972 76.36303 20.2134 -3.505359 2.629678 -0.06192261 255 255 255 255 0.249956 
6.953568 5.219076 61.97723 -3.109994 -3.441268 1.515768 255 255 255 255 0.250301 
0.883186 26.53169 58.55766 -4.676948 1.504011 1.320782 255 255 255 255 0.2480968 
6.259426 37.23017 36.91572 -4.374163 3.05407 3.296428 255 255 255 255 0.2344809 
13.00826 2.938166 30.54087 -2.305441 -5.604564 -1.561159 255 255 255 255 0.2504178 
0.8305069 63.16894 14.96586 -4.368158 1.63181 -1.25737 255 255 255 255 0.2506334 
14.73723 0.9027591 74.44934 -1.04758 -3.502522 2.471206 255 255 255 255 0.250179 
14.26872 2.297702 31.27843 -1.922533 -5.763424 -1.468318 255 255 255 255 0.2503089 
2.402494 57.98988 30.1901 -4.404547 1.289625 2.270877 255 255 255 255 0.2459683 
0.8535265 70.5022 26.32848 -3.808955 2.197972 1.112814 255 255 255 255 0.2490367 
2.711306 10.44843 43.56277 -5.29619 -3.003353 0.1286377 255 255 255 255 0.2500902 
0.684043 78.96442 15.46888 -3.197635 2.825919 -0.8305063 255 255 255 255 0.250355 
1.22062 46.10461 27.53884 -5.566264 0.3774247 1.928796 255 255 255 255 0.2467337 
8.776492 21.4647 9.411048 -3.592055 -2.702596 -4.350025 255 255 255 255 0.2501867 
4.070171 8.349891 67.89491 -3.331331 -2.51491 1.974213 255 255 255 255 0.2499248 
9.379674 3.350442 40.65506 -3.441341 -5.240461 -0.1589819 255 255 255 255 0.2502665 
13.38805 53.41225 39.85754 -1.143144 0.9152887 2.9181 255 255 255 255 0.1842112 
0.4471745 65.18948 16.39967 -4.30657 1.786685 -0.8496614 255 255 255 255 0.2502549 
7.24867 62.51559 36.22739 -3.084754 1.634094 3.40338 255 255 255 255 0.2326631 
14.24046 1.036689 42.89655 -1.940091 -5.817574 0.02068711 255 255 255 255 0.2502173 
5.951279 39.53375 6.183477 -4.470209 -0.2498915 -4.387562 255 255 255 255 0.2506346 
12.16352 1.852409 73.66994 -1.539154 -3.384488 2.411989 255 255 255 255 0.2501186 
3.514193 52.10628 9.160476 -4.477211 0.7723199 -3.046139 255 255 255 255 0.2503063 
2.510556 13.44076 81.2 -2.054008 -0.7118495 3.090441 255 255 255 255 0.215613 
1.733605 81.2 15.11279 -2.216799 3.075713 -0.669319 255 255 255 255 0.2201659 
0.6687211 15.4207 50.44049 -5.388012 -1.331022 0.6710461 255 255 255 255 0.2499999 
1.304816 13.42265 47.9974 -5.363967 -2.047402 0.4745347 255 255 255 255 0.2499458 
0.314132 27.92234 30.4303 -6.181121 0.8209851 0.667179 255 255 255 255 0.2489267 
12.81011 39.66444 54.42618 -1.194519 2.900096 0.9906895 255 255 255 255 0.1890124 
5.391537 6.714437 70.73746 -2.94054 -2.643361 2.190901 255 255 255 255 0.2497225 
3.211741 29.3011 11.90232 -5.28781 -1.266301 -3.114368 255 255 255 255 0.2504502 
2.487699 74.37605 30.34429 -3.236087 2.493654 1.720505 255 255 255 255 0.2484744 
0.898441 26.59853 60.33134 -4.543194 1.466882 1.451841 255 255 255 255 0.248158 
0.6175084 25.36768 73.66116 -3.597827 0.9257817 2.436998 255 255 255 255 0.2489661 
3.404583 31.91562 75.98846 -2.969404 1.927222 2.611369 255 255 255 255 0.2467473 
12.00973 11.22471 15.83745 -2.608915 -4.337985 -3.667932 255 255 255 255 0.2506222 
0.951273 31.79793 30.24401 -5.988688 1.212824 1.418142 255 255 255 255 0.2478957 
0.411682 16.70819 39.47843 -6.147178 -1.208255 -0.1042153 255 255 255 255 0.2501876 
4.357835 45.16954 7.956229 -4.605819 0.2345759 -3.787174 255 255 255 255 0.2508077 
1.732396 28.80458 66.73914 -3.928987 1.662452 1.928643 255 255 255 255 0.2471732 
1.6773 81.2 27.3928 -2.570683 3.035145 0.89859 255 255 255 255 0.2357002 
0.06783564 28.39589 27.24823 -6.254856 0.3361552 0.3668328 255 255 255 255 0.2501727 
2.166564 29.78263 51.27551 -4.89536 2.475045 0.7623526 255 255 255 255 0.2432773 
2.519455 71.60873 10.7675 -3.42828 2.264099 -1.823854 255 255 255 255 0.2499281 
0.238416 17.48746 53.66636 -5.225462 -0.8795954 0.914139 255 255 255 255 0.2499388 
0.04008543 21.60321 42.41231 -6.171402 0.336389 0.0813178 255 255 255 255 0.2499797 
8.906905 37.52518 43.51332 -3.17319 4.573211 0.2523321 255 255 255 255 0.206359 
0.4387939 54.85695 24.81099 -5.105104 1.02578 1.003485 255 255 255 255 0.2491053 
0.2132202 78.04547 23.1719 -3.348843 2.758738 0.3982431 255 255 255 255 0.2495443 
7.318563 5.397103 35.11591 -4.035755 -4.719337 -0.8007742 255 255 255 255 0.2503308 
15.20395 0.7202249 42.68575 -1.709755 -5.915153 0.002945445 255 255 255 255 0.2501896 
7.705938 6.72335 28.84817 -3.917837 -4.595011 -1.644709 255 255 255 255 0.2504108 
5.551302 24.40672 10.92235 -4.5741 -2.075701 -3.735413 255 255 255 255 0.250689 
3.174958 32.69576 36.61658 -5.313338 2.917991 1.591367 255 255 255 255 0.2418258 
9.296835 80.00618 3.404953 -1.766625 2.902467 -2.696106 255 255 255 255 0.2498307 
0.9893575 72.34724 14.46726 -3.65104 2.325708 -1.129167 255 255 255 255 0.2505258 
5.707689 80.72037 6.44745 -2.292873 2.958291 -2.177615 255 255 255 255 0.2506385 
8.817198 37.42917 68.31308 -1.774581 2.57213 2.032186 255 255 255 255 0.2281629 
7.303887 54.31601 36.27142 -3.539201 1.037332 3.860448 255 255 255 255 0.2262858 
9.058866 4.694493 32.06498 -3.506126 -5.03052 -1.257776 255 255 255 255 0.2501561 
0.2858417 50.46475 17.29255 -5.477914 0.6798074 -0.8742592 255 255 255 255 0.2500988 
5.750858 59.71423 34.83675 -3.498042 1.42803 3.314539 255 255 255 255 0.2338001 
11.8705 1.971198 51.92568 -2.296926 -4.916748 0.725957 255 255 255 255 0.2501642 
2.427237 10.99135 54.32759 -4.710691 -2.288082 0.9547856 255 255 255 255 0.2499743 
0.1282683 18.56309 44.68491 -5.977886 -0.5422792 0.2523004 255 255 255 255 0.2501085 
13.99015 67.24181 40.08382 -1.02889 1.950426 2.957727 255 255 255 255 0.2113688 
7.145292 81.2 9.292758 -0.358967 3.261086 -0.2860255 255 255 255 255 0.1502275 
0.3753501 26.19236 22.0235 -6.15695 -0.7118031 -0.9054495 255 255 255 255 0.2501182 
10.9664 66.00947 2.431017 -2.070799 1.820005 -3.792646 255 255 255 255 0.2504338 
3.00195 16.75145 81.2 -0.8623377 -0.1298257 3.220222 255 255 255 255 0.1690807 
11.12918 46.07051 2.310296 -2.806735 0.275702 -5.18074 255 255 255 255 0.2504341 
7.982967 4.839012 35.28283 -3.833535 -4.880253 -0.7933859 255 255 255 255 0.2502751 
0.3334492 17.00531 64.96508 -4.329868 -0.8179129 1.768544 255 255 255 255 0.2498221 
1.203873 13.69096 51.27277 -5.139692 -1.912267 0.7233961 255 255 255 255 0.2499286 
9.052032 74.36455 37.65633 -2.003803 2.446642 2.980729 255 255 255 255 0.2374446 
13.64302 2.056196 33.25864 -2.112606 -5.767766 -1.168696 255 255 255 255 0.250146 
12.47298 24.58485 5.381497 -2.46812 -2.419118 -5.211656 255 255 255 255 0.2500112 
1.419866 63.05819 28.11409 -4.261783 1.640562 1.62368 255 255 255 255 0.2478624 
0.01432093 20.95841 72.18823 -3.837234 0.1094101 2.319074 255 255 255 255 0.2500122 
9.483064 13.10964 15.73948 -3.377099 -3.905218 -3.53737 255 255 255 255 0.2501752 
11.19809 11.66238 15.89308 -2.855585 -4.229426 -3.623317 255 255 255 255 0.2507933 
11.50231 2.169985 73.03623 -1.661242 -3.381084 2.362967 255 255 255 255 0.2501484 
8.842741 53.65314 37.51169 -3.006575 0.8110005 4.350783 255 255 255 255 0.2168596 
12.15417 46.65147 39.38058 -1.241984 0.4092457 2.881967 255 255 255 255 0.1857627 
8.089075 55.16479 4.261944 -3.171713 0.9858178 -4.089163 255 255 255 255 0.2499384 
8.049484 36.91713 69.91266 -2.349303 3.11741 2.174104 255 255 255 255 0.233024 
0.3786778 63.07845 16.77876 -4.483595 1.629999 -0.7997663 255 255 255 255 0.2501719 
4.826881 25.84784 11.09645 -4.794959 -1.831383 -3.580737 255 255 255 255 0.2504855 
4.032673 77.10464 32.77696 -2.786643 2.694996 2.032251 255 255 255 255 0.2467901 
4.320584 69.43307 8.010867 -3.173719 2.092813 -2.522921 255 255 255 255 0.2506582 
0.05157799 76.40936 21.08915 -3.501649 2.63257 0.07162513 255 255 255 255 0.2499093 
12.77077 39.64781 43.20177 -1.20211 2.899053 0.1499662 255 255 255 255 0.1654944 
9.758569 34.0987 81.2 -0.1257186 0.2175424 3.281841 255 255 255 255 0.148966 
3.470635 9.184136 80.42052 -2.662299 -1.75913 2.935095 255 255 255 255 0.2498016 
6.976681 37.44672 37.64188 -4.155592 3.395045 3.2438 255 255 255 255 0.2318968 
7.305065 36.31697 66.04051 -2.826079 3.270596 1.886007 255 255 255 255 0.2333652 
5.152995 6.993769 53.43675 -4.020137 -3.472986 0.8612779 255 255 255 255 0.2500154 
2.379895 30.17402 63.77167 -3.957048 2.143948 1.712975 255 255 255 255 0.2446243 
13.4158 1.309889 53.37764 -1.852001 -4.978305 0.8355319 255 255 255 255 0.250199 
0.09015071 19.1938 63.17359 -4.534706 -0.3093391 1.643383 255 255 255 255 0.2499329 
1.796663 19.34906 22.23851 -5.720516 -1.92651 -1.665645 255 255 255 255 0.2503656 
7.773653 59.77136 4.517044 -2.999473 1.34189 -3.762951 255 255 255 255 0.2500637 
2.109249 22.27787 18.3648 -5.624798 -1.765469 -2.129391 255 255 255 255 0.2502585 
5.154787 15.39837 18.80776 -4.694987 -3.126062 -2.706844 255 255 255 255 0.2505204 
8.00923 68.32067 36.83392 -2.64209 2.056726 3.176235 255 255 255 255 0.2364905 
0.2618527 38.65086 17.59731 -6.192344 -0.1186083 -0.9617068 255 255 255 255 0.2500676 
6.9038 39.11827 5.316546 -4.162359 -0.3057647 -4.669069 255 255 255 255 0.2504022 
8.932549 70.81404 37.57563 -2.236834 2.174323 3.250428 255 255 255 255 0.2348182 
9.898886 24.21642 7.032255 -3.25065 -2.37957 -4.784062 255 255 255 255 0.2499834 
0.6950003 71.14388 25.81144 -3.784841 2.245607 1.019275 255 255 255 255 0.2488309 
0.3348665 52.67028 24.13164 -5.304284 0.8746479 0.8580265 255 255 255 255 0.2493722 
11.13013 2.345346 70.13276 -1.8166 -3.560015 2.137949 255 255 255 255 0.2501664 
9.918388 6.052346 26.34449 -3.244716 -4.924379 -2.079415 255 255 255 255 0.2503825 
6.642376 5.522337 76.17815 -2.39397 -2.580183 2.608921 255 255 255 255 0.2500015 
10.73498 38.9057 40.10159 -2.664335 4.164628 1.993328 255 255 255 255 0.2034586 
0.6016695 33.65617 27.35075 -6.094377 0.6877626 1.287667 255 255 255 255 0.2482589 
0.2175473 23.56148 42.71923 -6.105364 0.813069 0.06598569 255 255 255 255 0.2492871 
3.064411 17.49265 20.64962 -5.332814 -2.485762 -2.153591 255 255 255 255 0.2494819 
3.306311 31.74051 77.78949 -2.861817 1.829468 2.744013 255 255 255 255 0.2471212 
5.652847 6.430405 66.67993 -3.056967 -2.985359 1.878046 255 255 255 255 0.2498343 
2.904003 34.76001 33.42604 -5.395758 2.031937 2.461766 255 255 255 255 0.2429964 
0.5775201 55.84159 25.41464 -4.972857 1.079294 1.24473 255 255 255 255 0.2484777 
5.866718 62.24005 34.95708 -3.334568 1.612085 3.197823 255 255 255 255 0.2354279 
6.156229 35.26699 48.68053 -3.950721 4.09202 0.5962114 255 255 255 255 0.2226199 
15.17753 0.7682932 75.56215 -0.9549743 -3.439413 2.55774 255 255 255 255 0.2502084 
2.330409 48.34418 30.05466 -5.096985 0.5805709 2.585314 255 255 255 255 0.2444969 
0.05636778 21.83489 56.03397 -5.096916 0.3456599 1.106629 255 255 255 255 0.2499479 
6.041285 56.13276 6.041265 -3.657308 1.067769 -3.554946 255 255 255 255 0.2506135 
8.152626 37.03555 40.68721 -3.78897 4.960811 0.6107896 255 255 255 255 0.2153988 
8.162344 12.26863 18.15899 -3.778947 -3.900594 -3.106337 255 255 255 255 0.2502888 
10.35385 71.81789 2.790463 -1.936724 2.269495 -3.342031 255 255 255 255 0.2502364 
8.369593 49.19315 4.050763 -3.394171 0.5225921 -4.510623 255 255 255 255 0.2498818 
10.83297 67.58134 38.70365 -1.7808 1.985394 3.209488 255 255 255 255 0.2233432 
13.06075 47.08319 1.438309 -2.124702 0.3474672 -5.408603 255 255 255 255 0.2503816 
0.7473148 31.65284 29.39732 -6.050381 1.029654 1.279508 255 255 255 255 0.2483095 
11.71813 39.1624 54.06185 -1.374956 2.816707 0.9629252 255 255 255 255 0.1926093 
0.2310209 17.52498 42.43779 -6.095519 -1.03627 0.06533881 255 255 255 255 0.2500668 
11.55286 27.09512 4.756529 -2.747762 -2.02898 -5.241948 255 255 255 255 0.2502225 
3.249887 31.66936 61.72462 -3.957556 2.463894 1.556259 255 255 255 255 0.2437393 
0.4694295 24.7283 66.72852 -4.154619 0.945628 1.925675 255 255 255 255 0.2489138 
0.05015964 29.7867 25.35624 -6.259787 0.176588 0.2612553 255 255 255 255 0.2502235 
6.663183 13.5951 18.53898 -4.235363 -3.559734 -2.919733 255 255 255 255 0.2505268 
12.75962 44.31875 1.561983 -2.2737 0.132435 -5.582356 255 255 255 255 0.2504261 
4.166886 14.08392 22.41867 -4.996261 -3.104567 -2.147709 255 255 255 255 0.2502967 
7.293316 80.41402 4.93566 -2.062065 2.935026 -2.430754 255 255 255 255 0.2503501 
4.461714 7.943645 81.2 -2.434456 -1.908699 2.997839 255 255 255 255 0.2486145 
1.792031 28.98867 44.55798 -5.512302 2.402068 0.2749856 255 255 255 255 0.2445055 
0.1501178 18.48972 71.69991 -3.856132 -0.3710412 2.282875 255 255 255 255 0.2497966 
11.70048 14.76997 12.32836 -2.702899 -3.809078 -4.160528 255 255 255 255 0.2505063 
11.88871 66.77699 1.9413 -1.76964 1.875092 -3.879698 255 255 255 255 0.250479 
8.387367 18.47257 11.82956 -3.710469 -3.082713 -3.980929 255 255 255 255 0.2499946 
2.210947 11.36598 69.39281 -3.651797 -1.768224 2.09794 255 255 255 255 0.2495457 
7.039249 44.29942 5.10366 -3.938621 0.1467364 -4.565741 255 255 255 255 0.2504373 
10.36937 63.27386 2.777094 -2.278924 1.608948 -3.920912 255 255 255 255 0.2503507 
2.482153 10.89624 74.79459 -3.219391 -1.67318 2.50792 255 255 255 255 0.2495321 
4.628391 77.37244 7.604305 -2.650081 2.699739 -2.18025 255 255 255 255 0.2506683 
10.75194 61.06508 2.551235 -2.299899 1.437555 -4.109766 255 255 255 255 0.2504172 
1.826889 68.48338 28.98028 -3.751792 2.060708 1.720095 255 255 255 255 0.2479905 
10.10266 2.89263 80.13997 -1.64326 -2.761952 2.913986 255 255 255 255 0.2502059 
4.336024 7.962327 42.93905 -4.826606 -3.793447 0.06044669 255 255 255 255 0.2502019 
0.301574 74.6326 23.75809 -3.604138 2.50425 0.494183 255 255 255 255 0.2493813 
11.5643 2.121285 40.91298 -2.690876 -5.658593 -0.1377975 255 255 255 255 0.250223 
7.185349 5.012825 70.80051 -2.602009 -2.964845 2.195094 255 255 255 255 0.2502675 
3.811824 8.678276 56.18856 -4.129317 -2.987438 1.075256 255 255 255 255 0.2500944 
5.48782 6.620361 40.81601 -4.655768 -4.206219 -0.1212269 255 255 255 255 0.2502588 
3.346916 31.82154 73.85651 -3.123287 1.997017 2.454494 255 255 255 255 0.2463472 
11.9964 73.2904 1.896568 -1.53592 2.381145 -3.422487 255 255 255 255 0.2504608 
4.353903 33.19214 59.87268 -3.799409 2.942169 1.43609 255 255 255 255 0.2377686 
7.756349 78.54193 36.63225 -2.103428 2.800593 2.584275 255 255 255 255 0.2445984 
0.1750043 46.91928 17.96652 -5.771753 0.4141764 -0.8045734 255 255 255 255 0.2500051 
0.04773893 22.90427 34.09356 -6.260454 0.2675281 0.1056102 255 255 255 255 0.2499826 
3.264069 51.03855 9.51416 -4.592756 0.6901803 -3.027191 255 255 255 255 0.250273 
1.52917 12.87895 43.32527 -5.662345 -2.290176 0.1198609 255 255 255 255 0.2500424 
2.634103 10.63305 76.98101 -3.037993 -1.645757 2.673874 255 255 255 255 0.2495435 
1.053845 81.20001 20.21881 -2.235147 3.084299 -0.1188953 255 255 255 255 0.2173423 
0.04261656 33.59597 21.0036 -6.26051 -0.1106499 -0.288729 255 255 255 255 0.2501859 
2.179495 36.18404 30.91873 -5.615982 1.218016 2.503244 255 255 255 255 0.2429996 
4.115097 32.60641 9.445583 -5.012068 -0.9827483 -3.619912 255 255 255 255 0.2498987 
9.214695 3.591739 37.90013 -3.461963 -5.199204 -0.4709085 255 255 255 255 0.2502021 
0.05091537 19.56573 49.72343 -5.596747 -0.3240903 0.6345683 255 255 255 255 0.250049 
12.56102 1.66938 79.96588 -1.264541 -2.96651 2.899985 255 255 255 255 0.2500978 
6.372667 5.776702 80.05296 -2.225637 -2.32012 2.907097 255 255 255 255 0.2498496 
1.759125 56.70433 12.30983 -4.60616 1.1293 -2.083709 255 255 255 255 0.2501938 
4.328609 39.92969 8.023948 -4.990083 -0.1793355 -3.793213 255 255 255 255 0.2505964 
1.197879 59.94117 13.75287 -4.548906 1.385351 -1.535041 255 255 255 255 0.2507232 
0.4599032 42.82144 16.32922 -6.034255 0.09386495 -1.190605 255 255 255 255 0.250362 
6.52722 35.59082 68.28609 -2.825762 3.029307 2.050436 255 255 255 255 0.235698 
5.406088 7.099085 36.16644 -4.618174 -4.179594 -0.6170766 255 255 255 255 0.2506363 
4.563411 22.78303 13.22243 -4.875287 -2.161989 -3.283272 255 255 255 255 0.2505894 
0.05126665 72.94456 21.87647 -3.774351 2.37334 0.1983476 255 255 255 255 0.2498789 
1.708324 12.47075 70.45851 -3.658759 -1.546222 2.179014 255 255 255 255 0.2494775 
7.215016 7.426546 28.07139 -4.067292 -4.4364 -1.724413 255 255 255 255 0.2503554 
9.088835 38.49236 38.9067 -3.511703 3.936818 3.381416 255 255 255 255 0.2208495 
3.200743 31.58958 53.4357 -4.522955 2.790216 0.9408141 255 255 255 255 0.2418648 
4.073105 8.359241 73.59457 -2.980934 -2.233926 2.411312 255 255 255 255 0.2498518 
13.69934 2.216404 32.31176 -2.095495 -5.74672 -1.310232 255 255 255 255 0.2501492 
11.50568 39.03376 72.22369 -1.391558 2.801127 2.322735 255 255 255 255 0.2268405 
1.427498 60.77205 28.13462 -4.42767 1.470525 1.693567 255 255 255 255 0.2475124 
0.1540399 18.252 46.35085 -5.842722 -0.5870609 0.3765423 255 255 255 255 0.2500861 
2.752206 48.28598 10.31445 -4.979722 0.4749271 -2.817712 255 255 255 255 0.2498215 
14.18575 6.784723 20.56788 -1.947736 -5.095174 -3.053506 255 255 255 255 0.2502269 
2.551435 37.8881 31.05528 -5.502993 0.9341536 2.867929 255 255 255 255 0.2440864 
7.076055 78.38797 5.105431 -2.194372 2.778807 -2.529384 255 255 255 255 0.2504189 
0.8843157 75.44503 26.40433 -3.431973 2.566075 1.012521 255 255 255 255 0.2492592 
7.679808 36.64024 78.42798 -2.110945 2.60125 2.79108 255 255 255 255 0.2421773 
1.319874 13.40037 52.7375 -5.014805 -1.914413 0.8343754 255 255 255 255 0.2498694 
0.05288939 62.6368 21.94382 -4.585605 1.605728 0.234391 255 255 255 255 0.2499105 
0.2230284 17.76777 38.97571 -6.205291 -0.8951086 -0.09408843 255 255 255 255 0.2501398 
0.1280829 19.20382 35.81072 -6.233627 -0.6176943 -0.1440357 255 255 255 255 0.2501779 
0.2601886 59.85187 23.48352 -4.773857 1.401741 0.4842656 255 255 255 255 0.2495122 
0.2898838 19.93113 30.3195 -6.183347 -0.9039875 -0.4583142 255 255 255 255 0.2503791 
0.07011037 54.86307 22.22243 -5.195271 1.029477 0.3042326 255 255 255 255 0.2499039 
0.1541069 49.95993 18.13562 -5.538712 0.6427318 -0.7412806 255 255 255 255 0.2500001 
12.60758 74.85424 39.53568 -1.225856 2.52023 2.877546 255 255 255 255 0.2268231 
5.496508 6.839528 37.54778 -4.58795 -4.233061 -0.4528328 255 255 255 255 0.2505305 
0.0233076 33.83936 22.0219 -6.2672 -0.0008289218 0.008895814 255 255 255 255 0.2502329 
9.008389 73.14066 37.62864 -2.092398 2.332794 3.106968 255 255 255 255 0.2365284 
1.420361 20.568 22.18807 -5.835771 -1.675415 -1.542327 255 255 255 255 0.2504676 
11.07811 2.382946 79.54031 -1.504483 -2.888171 2.867226 255 255 255 255 0.2501639 
0.7671637 26.02336 57.83832 -4.74781 1.446306 1.267686 255 255 255 255 0.2481686 
2.559267 17.39189 22.16379 -5.487232 -2.354283 -1.882107 255 255 255 255 0.2499645 
12.37312 67.60457 39.4491 -1.265695 1.977593 2.864653 255 255 255 255 0.2136962 
5.234838 6.897931 64.28323 -3.359057 -2.933999 1.695605 255 255 255 255 0.2498311 
1.961497 38.30795 29.67416 -5.682207 0.6367242 2.568318 255 255 255 255 0.245689 
12.34034 48.83443 39.45159 -1.229598 0.5726405 2.885983 255 255 255 255 0.1871749 
0.2818685 19.08583 32.25567 -6.185822 -0.9283962 -0.3739185 255 255 255 255 0.2503224 
1.591463 34.77984 13.47199 -5.783366 -0.5422142 -2.338416 255 255 255 255 0.2501474 
0.341675 16.96357 57.20842 -4.927841 -0.9407532 1.182241 255 255 255 255 0.2499124 
4.613468 33.51197 67.10496 -3.309528 2.642373 1.964713 255 255 255 255 0.2407086 
0.3401819 37.31709 24.74981 -6.173322 0.2536569 1.088148 255 255 255 255 0.2493352 
1.42283 28.04723 57.73725 -4.635585 1.805303 1.263955 255 255 255 255 0.2466976 
12.92128 2.774935 81.2 -0.8196065 -1.9172 3.099407 255 255 255 255 0.2122892 
0.4238261 16.54677 51.28266 -5.367255 -1.117722 0.7345916 255 255 255 255 0.2499917 
1.688709 13.28719 34.57988 -5.753581 -2.403955 -0.5679673 255 255 255 255 0.2501886 
12.03431 1.896605 58.86414 -2.055653 -4.428875 1.264149 255 255 255 255 0.2501374 
0.3858798 53.43919 24.50439 -5.234743 0.9315237 0.9170703 255 255 255 255 0.2493445 
2.189217 11.40362 71.44515 -3.506373 -1.69943 2.253675 255 255 255 255 0.2494904 
0.4216554 35.76435 25.61505 -6.148756 0.4034011 1.167595 255 255 255 255 0.248719 
12.71158 73.7343 1.616566 -1.414101 2.4158 -3.432763 255 255 255 255 0.250324 
6.178441 35.28915 45.98041 -4.096352 4.2468 0.3944546 255 255 255 255 0.2208301 
0.03660222 42.60967 21.2678 -6.163265 0.09959348 0.1366575 255 255 255 255 0.2500043 
12.57888 22.72782 6.260323 -2.435936 -2.692777 -5.09037 255 255 255 255 0.2499847 
5.337012 6.778286 60.83672 -3.53928 -3.140975 1.429103 255 255 255 255 0.2498909 
0.4355049 36.60015 25.40326 -6.144572 0.3434139 1.204749 255 255 255 255 0.2486536 
5.459527 34.5676 49.4468 -4.103626 3.855476 0.6110501 255 255 255 255 0.2268312 
8.308283 38.51704 38.1436 -3.749706 3.31915 3.781462 255 255 255 255 0.2207271 
0.6287905 26.37514 20.31853 -6.078742 -0.8905472 -1.251218 255 255 255 255 0.2501364 
7.426828 70.40083 36.36946 -2.612756 2.208019 2.991727 255 255 255 255 0.238597 
4.971375 64.28215 33.98846 -3.353222 1.761921 2.941056 255 255 255 255 0.2367944 
13.97742 78.26395 40.07083 -1.012513 2.775434 2.959996 255 255 255 255 0.2331586 
14.6039 40.25578 75.5693 -0.9075311 2.991704 2.573671 255 255 255 255 0.2288822 
11.62118 39.09201 70.41393 -1.37552 2.809614 2.187306 255 255 255 255 0.2234062 
10.76135 2.528375 74.20612 -1.734102 -3.243767 2.453771 255 255 255 255 0.2501807 
2.00163 81.2 15.95748 -1.808404 3.121166 -0.4481119 255 255 255 255 0.2031107 
2.377517 57.68186 11.02015 -4.433578 1.20323 -2.265712 255 255 255 255 0.2499227 
0.511487 62.63451 16.04374 -4.491312 1.590549 -0.962624 255 255 255 255 0.250351 
12.33876 81.2 36.08071 -0.1778388 3.266821 0.3615234 255 255 255 255 0.1531183 
8.891547 3.719872 81.03893 -1.788011 -2.577531 2.983178 255 255 255 255 0.2502452 
11.62431 39.09837 67.06509 -1.377955 2.809837 1.936545 255 255 255 255 0.2171032 
1.60383 27.85643 16.04592 -5.779578 -1.134928 -2.123765 255 255 255 255 0.2503202 
0.03609926 40.64485 21.26769 -6.272597 -0.001574425 0.1130172 255 255 255 255 0.2500654 
11.61014 81.2 4.961993 -0.3886058 3.2178 -0.8062987 255 255 255 255 0.1662716 
15.52393 0.6644834 78.06537 -0.8445511 -3.267248 2.752309 255 255 255 255 0.2502327 
0.1439422 26.30175 23.88855 -6.228639 -0.456475 -0.5230458 255 255 255 255 0.2502332 
8.445721 14.96145 14.87122 -3.692715 -3.564831 -3.572346 255 255 255 255 0.2497456 
0.1252068 36.3403 19.1128 -6.234532 -0.1372866 -0.6080721 255 255 255 255 0.2500707 
2.329535 62.69825 30.03207 -4.083573 1.635594 2.082067 255 255 255 255 0.2467529 
2.386173 66.32127 11.02676 -3.823 1.861561 -1.96483 255 255 255 255 0.2499608 
8.010236 29.83516 6.138643 -3.82524 -1.528339 -4.708236 255 255 255 255 0.250312 
8.746969 46.87343 37.44351 -3.345196 0.3080843 4.762973 255 255 255 255 0.2104708 
4.210088 46.95514 8.165905 -4.591458 0.3749532 -3.575451 255 255 255 255 0.250633 
8.100772 67.30198 4.269147 -2.580926 1.922804 -3.337986 255 255 255 255 0.2499838 
0.5383976 25.66111 21.34159 -6.106592 -0.8752448 -1.111602 255 255 255 255 0.2500851 
11.13897 75.77013 2.33921 -1.658419 2.5751 -3.143551 255 255 255 255 0.2504085 
11.16153 78.09391 2.327385 -1.561292 2.754756 -2.988451 255 255 255 255 0.250385 
12.41328 77.6801 39.45737 -1.250619 2.731748 2.86676 255 255 255 255 0.2324659 
14.12705 16.1827 9.827786 -1.965566 -3.70158 -4.641858 255 255 255 255 0.2501713 
6.681153 81.2 30.51519 -0.02611507 3.303938 0.01506882 255 255 255 255 0.1421726 
6.995301 29.0485 7.299386 -4.134208 -1.587487 -4.419228 255 255 255 255 0.2500381 
0.1209085 18.89659 73.21648 -3.741485 -0.3012844 2.396638 255 255 255 255 0.2498436 
0.1960768 77.85619 18.11111 -3.363109 2.743889 -0.4180963 255 255 255 255 0.2500815 
11.59978 77.52148 39.12673 -1.40609 2.720979 2.872043 255 255 255 255 0.2346631 
4.563172 63.01999 7.677975 -3.513492 1.601053 -2.908874 255 255 255 255 0.2507593 
0.3777224 58.0543 24.39431 -4.878095 1.27461 0.8392036 255 255 255 255 0.2492868 
0.8231837 26.2688 47.13256 -5.532734 1.768526 0.4765515 255 255 255 255 0.2476689 
3.250293 31.66239 70.83651 -3.343545 2.091942 2.232285 255 255 255 255 0.245784 
0.4515615 65.15331 24.87008 -4.312802 1.801879 0.8382184 255 255 255 255 0.2491682 
5.284945 77.44029 6.896836 -2.546108 2.705618 -2.284539 255 255 255 255 0.250649 
0.6340898 46.21812 25.62847 -5.692188 0.3579136 1.484379 255 255 255 255 0.2482789 
3.452103 9.190561 52.28454 -4.510593 -2.976644 0.7797318 255 255 255 255 0.2501076 
11.2691 38.93825 53.08143 -1.430081 2.789929 0.890674 255 255 255 255 0.1950236 
0.5914855 25.25367 65.56911 -4.201462 1.124044 1.839047 255 255 255 255 0.2486485 
7.219878 81.2 8.21389 -0.7514938 3.20428 -0.7019836 255 255 255 255 0.1712926 
0.8416238 45.52795 14.88622 -5.693076 0.2963001 -1.677646 255 255 255 255 0.2508792 
10.57334 59.74157 38.56661 -1.990559 1.404151 3.451166 255 255 255 255 0.2134742 
0.5274842 16.16285 38.80841 -6.111893 -1.385295 -0.1437561 255 255 255 255 0.2502451 
13.84069 43.77222 40.04237 -1.082608 0.1937273 2.945506 255 255 255 255 0.1661828 
9.554058 54.94906 3.243522 -2.738132 0.9652936 -4.412309 255 255 255 255 0.2502263 
0.451357 46.43857 16.37652 -5.756172 0.367897 -1.127832 255 255 255 255 0.250336 
1.55661 35.23034 29.92282 -5.805166 1.109506 2.102934 255 255 255 255 0.2454793 
2.685668 69.68066 30.76189 -3.537199 2.148631 1.948201 255 255 255 255 0.247609 
10.33666 38.45897 42.1472 -1.511659 2.752145 0.07862671 255 255 255 255 0.1951711 
14.21902 40.18241 41.64914 -0.9458754 2.99312 0.03372262 255 255 255 255 0.1558044 
0.9021165 26.61463 49.39556 -5.353084 1.76055 0.6437353 255 255 255 255 0.2476947 
0.05539808 77.5424 19.10399 -3.411794 2.71675 -0.2392203 255 255 255 255 0.2500126 
8.457072 4.014503 80.10004 -1.895711 -2.593596 2.910463 255 255 255 255 0.2502612 
6.089991 29.85436 81.20001 -0.1218552 0.08312898 3.292244 255 255 255 255 0.1440091 
0.2700968 69.07527 23.54926 -4.04634 2.08971 0.4744852 255 255 255 255 0.2494619 
7.079474 34.82699 5.676249 -4.108576 -0.8349573 -4.644829 255 255 255 255 0.2498481 
9.753232 36.99512 81.2 -1.219619 2.025274 3.070524 255 255 255 255 0.2188788 
3.685544 17.31139 19.46328 -5.143186 -2.639352 -2.399106 255 255 255 255 0.2497385 
10.12103 38.31811 64.74805 -1.572675 2.709968 1.765906 255 255 255 255 0.2236832 
12.3077 39.41212 77.65874 -1.26455 2.86009 2.730318 255 255 255 255 0.2368709 
2.01116 27.55333 15.11521 -5.65482 -1.253035 -2.392846 255 255 255 255 0.2505861 
5.251291 34.33652 54.56403 -3.955438 3.417595 1.047217 255 255 255 255 0.2323828 
9.332314 44.44719 3.366129 -3.195225 0.1533687 -5.102776 255 255 255 255 0.2502985 
11.78397 2.010615 47.90385 -2.434569 -5.200494 0.4139802 255 255 255 255 0.2501802 
6.544147 5.585436 48.10048 -3.913584 -4.18619 0.4471461 255 255 255 255 0.2503179 
1.369517 76.40208 27.96872 -3.284804 2.637632 1.233096 255 255 255 255 0.2499159 
0.1142525 19.16117 36.82028 -6.237978 -0.5714273 -0.1069959 255 255 255 255 0.2501654 
0.05487906 79.03443 21.03562 -3.294781 2.831003 0.06545046 255 255 255 255 0.2499052 
0.0621916 25.5995 25.94393 -6.254353 -0.2779531 -0.2643635 255 255 255 255 0.2502721 
2.055189 28.47922 81.2 -2.535373 1.100101 3.031601 255 255 255 255 0.2354287 
0.2118222 23.5118 64.24993 -4.425412 0.5927863 1.708042 255 255 255 255 0.2495318 
3.061395 22.82754 15.77254 -5.333735 -1.925903 -2.664196 255 255 255 255 0.2500633 
3.589753 8.981581 54.40529 -4.309603 -2.980849 0.9373823 255 255 255 255 0.2501336 
0.6761496 48.155 25.78746 -5.533651 0.511668 1.486243 255 255 255 255 0.2482788 
0.0501874 75.30355 21.22962 -3.588784 2.548897 0.09220399 255 255 255 255 0.2499048 
7.085176 41.88998 36.11502 -4.024676 0.1488037 4.747135 255 255 255 255 0.2143382 
2.032049 29.5203 47.58543 -5.204105 2.511184 0.4721344 255 255 255 255 0.2433 
10.8769 65.78829 38.73195 -1.812992 1.852494 3.273879 255 255 255 255 0.2208559 
0.05270992 77.3095 21.50665 -3.430684 2.700309 0.1359563 255 255 255 255 0.2498848 
6.285809 78.84787 35.37894 -2.31195 2.822648 2.374116 255 255 255 255 0.2461484 
4.283659 33.54972 8.944557 -4.960615 -0.8830312 -3.721977 255 255 255 255 0.2498342 
0.2852296 55.44421 17.31359 -5.092094 1.055887 -0.8036476 255 255 255 255 0.2500896 
5.547866 66.53857 34.60572 -3.135054 1.925853 2.914458 255 255 255 255 0.2382244 
2.048254 68.04158 11.73414 -3.752868 1.992742 -1.797961 255 255 255 255 0.2501258 
1.298195 27.72353 42.17055 -5.809707 2.166871 0.1131986 255 255 255 255 0.2462141 
1.735398 31.73081 33.27575 -5.750893 1.916439 1.61159 255 255 255 255 0.2472154 
1.003121 25.31608 19.55831 -5.963758 -1.136363 -1.538638 255 255 255 255 0.2503576 
7.237128 37.01758 38.54451 -4.076204 4.008619 2.567657 255 255 255 255 0.2313149 
3.730311 52.86384 32.39329 -4.412769 0.9145511 3.041439 255 255 255 255 0.2388 
11.23446 38.92044 44.90266 -1.422735 2.796033 0.2803047 255 255 255 255 0.1854118 
10.54933 2.629159 73.21655 -1.800002 -3.298515 2.377094 255 255 255 255 0.2501906 
5.658018 6.421287 49.45852 -4.054424 -3.900555 0.5521526 255 255 255 255 0.2501273 
11.31717 69.44424 2.228603 -1.874743 2.085289 -3.593804 255 255 255 255 0.2504585 
2.731156 10.46495 73.05431 -3.307841 -1.791912 2.375926 255 255 255 255 0.2496716 
0.1010279 22.55038 43.25157 -6.090048 0.5572473 0.1396396 255 255 255 255 0.2498058 
4.488337 33.3403 81.2 -2.448986 1.936567 2.995112 255 255 255 255 0.2468915 
4.505022 33.37435 69.19923 -3.195486 2.520679 2.117773 255 255 255 255 0.2417125 
9.513916 79.01949 3.279113 -1.773533 2.8262 -2.781787 255 255 255 255 0.2499051 
3.50366 66.67712 32.02677 -3.546924 1.92889 2.377182 255 255 255 255 0.2437211 
2.614439 30.54076 78.30447 -2.932254 1.626338 2.782472 255 255 255 255 0.2473905 
4.789182 7.419794 54.16893 -4.061484 -3.333706 0.9216088 255 255 255 255 0.2499993 
0.2135795 66.05724 23.17429 -4.292443 1.864553 0.4242361 255 255 255 255 0.2495835 
14.58164 0.9241571 51.96651 -1.593431 -5.186081 0.724118 255 255 255 255 0.250158 
11.05196 4.866567 27.48864 -2.900002 -5.191433 -1.959056 255 255 255 255 0.2503116 
0.1677057 62.584 22.86993 -4.572772 1.60545 0.3856387 255 255 255 255 0.2496856 
13.88272 9.293917 17.04208 -2.039791 -4.711874 -3.565554 255 255 255 255 0.2504315 
8.810358 46.96408 3.718944 -3.408132 0.3480009 -4.721187 255 255 255 255 0.2497888 
2.442894 12.06251 33.05392 -5.522805 -2.841389 -0.7875327 255 255 255 255 0.2504068 
12.74449 74.85265 1.60538 -1.377028 2.502605 -3.3527 255 255 255 255 0.2503127 
1.258359 27.61415 50.90958 -5.170053 1.912792 0.7586227 255 255 255 255 0.246703 
12.08759 2.949277 81.2 -1.008273 -2.031859 3.081078 255 255 255 255 0.2190462 
4.904157 33.91349 44.94249 -4.614666 3.809013 0.3491904 255 255 255 255 0.2284599 
8.627687 37.33153 49.18539 -3.054308 4.31835 0.6671705 255 255 255 255 0.2124264 
13.55888 75.53732 39.90854 -1.080495 2.57135 2.934342 255 255 255 255 0.2278927 
0.4911233 16.24962 59.20914 -4.743761 -1.047737 1.33383 255 255 255 255 0.2498963 
2.368138 18.14663 21.81537 -5.545658 -2.227344 -1.869086 255 255 255 255 0.2500976 
2.368115 37.46997 11.31159 -5.546244 -0.3702084 -2.88421 255 255 255 255 0.2501094 
2.581298 30.51804 65.54317 -3.805781 2.126461 1.843206 255 255 255 255 0.2449192 
2.710865 16.19503 23.32001 -5.44089 -2.521257 -1.796182 255 255 255 255 0.250103 
0.4804216 28.31172 19.89307 -6.124498 -0.6860512 -1.12863 255 255 255 255 0.2501253 
3.407092 9.266853 68.06061 -3.509769 -2.239796 1.991941 255 255 255 255 0.2499196 
2.095969 30.8268 35.99062 -5.641357 2.435532 1.234043 255 255 255 255 0.2463585 
1.525071 49.28333 12.84352 -5.203526 0.5624885 -2.179636 255 255 255 255 0.2502409 
1.343871 52.17265 13.28683 -5.072006 0.7893776 -1.893255 255 255 255 255 0.250581 
1.91641 24.86946 81.2 -1.824156 0.4792487 3.118141 255 255 255 255 0.2058871 
2.34754 38.8955 30.35101 -5.564932 0.5959637 2.826143 255 255 255 255 0.244505 
5.030435 81.2 13.43066 -0.04863258 3.301334 -0.02810764 255 255 255 255 0.1373793 
1.136705 42.41679 27.29656 -5.859766 0.1032239 1.965703 255 255 255 255 0.2467164 
2.428997 24.66212 15.89157 -5.527053 -1.611163 -2.460774 255 255 255 255 0.2503542 
0.0325344 58.86702 21.09896 -4.883872 1.309126 0.06679262 255 255 255 255 0.2499569 
7.985947 4.326885 46.6071 -3.52312 -4.670688 0.3205951 255 255 255 255 0.2502837 
11.24456 41.59908 38.93697 -1.694296 0.03799629 3.146505 255 255 255 255 0.1847426 
3.015831 70.23828 31.30112 -3.389821 2.189542 2.108741 255 255 255 255 0.2454354 
7.272696 40.00024 36.42306 -4.065365 1.149012 4.629632 255 255 255 255 0.2212757 
2.988788 9.961006 48.0046 -4.943844 -2.915092 0.4642563 255 255 255 255 0.2500596 
1.405085 27.96033 69.68658 -3.762918 1.449118 2.145468 255 255 255 255 0.2476825 
8.502079 78.5854 3.968554 -1.967343 2.793259 -2.690452 255 255 255 255 0.2498969 
0.1518615 22.73661 75.45658 -3.559901 0.3617276 2.563685 255 255 255 255 0.2497664 
7.091885 30.06244 6.850195 -4.104794 -1.457741 -4.493238 255 255 255 255 0.2500704 
15.87778 0.5512462 74.69788 -0.8684924 -3.537301 2.490671 255 255 255 255 0.2502537 
13.0484 6.079434 22.61445 -2.293243 -5.146965 -2.723591 255 255 255 255 0.2503054 
0.06015465 22.07589 46.10379 -5.874686 0.444671 0.3614036 255 255 255 255 0.2499474 
3.687316 32.34744 71.16895 -3.19665 2.270257 2.261671 255 255 255 255 0.2432508 
12.72716 62.42516 1.592964 -1.735864 1.538085 -4.26325 255 255 255 255 0.2503735 
9.732821 38.05343 59.63136 -1.624543 2.674894 1.384006 255 255 255 255 0.2173725 
1.981861 11.80059 50.83598 -5.03315 -2.267277 0.6897357 255 255 255 255 0.2498949 
0.5122102 50.91474 25.16341 -5.366579 0.6972584 1.271886 255 255 255 255 0.2484764 
0.06340758 19.57768 65.57076 -4.350542 -0.2384088 1.823195 255 255 255 255 0.2499724 
6.240716 5.86875 51.42307 -3.791679 -3.942618 0.7040023 255 255 255 255 0.2502775 
2.881652 31.06549 55.5287 -4.441526 2.605066 1.105852 255 255 255 255 0.2429 
5.510137 6.576865 45.50796 -4.400533 -3.988751 0.2470437 255 255 255 255 0.2501569 
0.4969444 44.21922 16.12422 -5.918706 0.1979788 -1.213854 255 255 255 255 0.2504058 
0.9590362 26.79159 78.92284 -3.154233 1.005821 2.826018 255 255 255 255 0.2488003 
13.04375 81.2 4.8836 -0.1041503 3.271827 -0.3378189 255 255 255 255 0.1434144 
0.6334575 42.38336 15.56608 -5.966849 0.06017129 -1.629908 255 255 255 255 0.2509094 
7.773152 81.2 7.136119 -0.9291859 3.171389 -1.001388 255 255 255 255 0.1848996 
0.07861698 22.26081 49.30705 -5.620781 0.4528507 0.6016927 255 255 255 255 0.2499126 
14.74163 40.31984 60.11297 -0.875736 3.007587 1.416136 255 255 255 255 0.1952418 
0.4290452 24.54197 77.76052 -3.322537 0.6917589 2.74002 255 255 255 255 0.2493044 
15.89648 0.5464246 71.54108 -0.9129667 -3.781906 2.244529 255 255 255 255 0.2502577 
13.42972 1.305437 57.46502 -1.731631 -4.681157 1.15276 255 255 255 255 0.2501781 
7.728958 78.95473 4.585733 -2.067105 2.822183 -2.573732 255 255 255 255 0.2501824 
0.03462667 36.50159 21.6414 -6.264074 0.02879383 0.134646 255 255 255 255 0.250213 
7.556569 49.6678 36.49033 -3.560459 0.7115607 4.334028 255 255 255 255 0.2201847 
0.4875171 59.05381 25.04488 -4.759057 1.324889 1.049487 255 255 255 255 0.2487985 
11.65497 2.10187 77.08556 -1.500282 -3.104715 2.676844 255 255 255 255 0.2501395 
1.632026 28.50819 78.39253 -3.090582 1.282813 2.788168 255 255 255 255 0.2482021 
7.085112 70.27312 5.084228 -2.590279 2.152626 -3.031245 255 255 255 255 0.2503723 
1.314154 21.36438 21.73712 -5.8683 -1.571041 -1.539577 255 255 255 255 0.2504878 
0.1493222 41.10092 18.18518 -6.227726 -0.03866267 -0.7701102 255 255 255 255 0.2500294 
9.003789 37.55638 65.15108 -1.742146 2.594417 1.796128 255 255 255 255 0.2242406 
4.794835 16.96138 17.70608 -4.804729 -2.881356 -2.790252 255 255 255 255 0.2503366 
13.44269 1.300584 42.31485 -2.161246 -5.788357 -0.02317272 255 255 255 255 0.250253 
10.24881 2.791589 44.06414 -3.063896 -5.218529 0.1142455 255 255 255 255 0.250199 
5.02649 26.502 10.49947 -4.734102 -1.767797 -3.691775 255 255 255 255 0.2504808 
13.11833 70.19832 39.73951 -1.156155 2.171729 2.90666 255 255 255 255 0.2174697 
0.1540609 18.48036 75.53722 -3.554233 -0.352153 2.570692 255 255 255 255 0.2497765 
7.867915 67.43837 36.72122 -2.713259 1.992487 3.207656 255 255 255 255 0.2359309 
5.57374 9.21 81.2 -1.276621 -0.9466264 3.148129 255 255 255 255 0.1953865 
0.08769447 19.12473 53.05619 -5.329094 -0.3789329 0.8839162 255 255 255 255 0.2499974 
2.524917 34.50708 11.52598 -5.497732 -0.6594301 -2.921676 255 255 255 255 0.2500949 
10.90726 2.439983 60.61753 -2.174175 -4.21938 1.400368 255 255 255 255 0.2501811 
0.5058484 39.36143 25.14362 -6.125005 0.1366265 1.327398 255 255 255 255 0.2484891 
2.840202 14.46415 25.53951 -5.401352 -2.734201 -1.599435 255 255 255 255 0.2505502 
0.8553671 27.20673 18.86627 -6.009144 -0.9436357 -1.490259 255 255 255 255 0.2503175 
1.512598 12.91843 51.96655 -5.039326 -2.016873 0.7755993 255 255 255 255 0.2498456 
6.491842 76.70687 5.594717 -2.404377 2.650431 -2.522405 255 255 255 255 0.2506129 
1.534649 30.54126 34.06581 -5.811825 1.957748 1.318413 255 255 255 255 0.2478848 
12.89791 1.504587 62.80953 -1.716358 -4.238796 1.56854 255 255 255 255 0.2501571 
4.283693 75.56663 8.064978 -2.815854 2.562562 -2.197238 255 255 255 255 0.2506076 
0.3128304 22.57383 26.03528 -6.17626 -0.8160879 -0.6620039 255 255 255 255 0.2503741 
1.912508 29.21488 80.67632 -2.88056 1.325038 2.957181 255 255 255 255 0.2481562 
3.56519 33.50785 36.45584 -5.194634 2.987567 1.84954 255 255 255 255 0.2400022 
13.84181 24.54735 4.820329 -2.052217 -2.458556 -5.369209 255 255 255 255 0.2500914 
6.612699 6.56311 32.69214 -4.250741 -4.457623 -1.092777 255 255 255 255 0.2500927 
13.32187 65.28281 1.363978 -1.563241 1.76004 -4.089254 255 255 255 255 0.2502483 
5.699371 7.276785 33.40418 -4.528957 -4.216718 -0.9686102 255 255 255 255 0.2502379 
2.981107 27.92828 12.924 -5.358279 -1.381699 -2.935674 255 255 255 255 0.2507463 
0.03841708 45.60249 21.34313 -5.927549 0.3241984 0.1459202 255 255 255 255 0.2499913 
0.7605639 25.99445 60.89811 -4.522049 1.360448 1.493794 255 255 255 255 0.2483032 
7.849569 36.77768 47.98159 -3.595954 4.468464 0.3599367 255 255 255 255 0.2156513 
0.05831685 19.4382 44.86264 -5.976459 -0.3810415 0.2686791 255 255 255 255 0.2501068 
0.09098917 19.31985 75.34689 -3.578748 -0.2257915 2.556444 255 255 255 255 0.2498897 
4.397602 81.2 31.99248 -2.074748 3.05887 1.373746 255 255 255 255 0.2276433 
7.328779 36.33892 45.84332 -3.857197 4.472113 0.2490212 255 255 255 255 0.2164432 
0.5469643 25.20442 40.96713 -6.106474 1.441627 0.04965727 255 255 255 255 0.2478891 
7.857746 23.95144 8.767043 -3.87164 -2.309192 -4.338232 255 255 255 255 0.250575 
11.35735 2.20767 48.94884 -2.502689 -5.080928 0.4957477 255 255 255 255 0.250167 
7.342848 11.30701 20.51967 -4.028358 -3.943996 -2.727081 255 255 255 255 0.250732 
0.4737161 24.73769 68.63516 -3.992055 0.964372 2.065675 255 255 255 255 0.2488811 
3.241151 81.2 28.90974 -1.852428 3.107902 0.7497566 255 255 255 255 0.2102429 
0.6317503 28.28235 19.06565 -6.077832 -0.7776614 -1.328407 255 255 255 255 0.2502194 
10.66387 31.85539 3.74784 -3.018018 -1.327135 -5.315588 255 255 255 255 0.2502697 
1.436199 15.43718 30.037 -5.830921 -2.100414 -0.9057288 255 255 255 255 0.2506034 
0.4573044 26.73503 33.55742 -6.137987 1.128842 0.6029563 255 255 255 255 0.2489474 
0.9572125 20.15378 24.76546 -5.97786 -1.472876 -1.147559 255 255 255 255 0.2504301 
