# .PCD v0.7 - Point Cloud Data file format
VERSION 0.7
FIELDS x y z normal_x normal_y normal_z rgb
SIZE 4 4 4 4 4 4 4
TYPE F F F F F F F
COUNT 1 1 1 1 1 1 1
WIDTH 543
HEIGHT 1
VIEWPOINT 0 0 0 1 0 0 0
POINTS 543
DATA ascii
-0.01454755278 0.0006783807833 -0.1736654167 -0.05209236111 -0.1594432222 0.9174569444 3.559298099e-43
0.01214176667 -0.02446493333 -0.180664 -0.3625057778 -0.1976623333 0.6637873333 1.147663442e-41
-0.03982109143 0.01063823229 -0.174561 -0.02848514286 -0.08099045714 0.9574692286 3.559298099e-43
-0.007438657333 0.01493073333 -0.1793216667 0.1802358667 0.6294013333 0.6556414 1.04004372e-41
0.02288055 -0.0120697 -0.173584 0 0 1 3.559298099e-43
0.0166626 0.00431824 -0.179688 0.377992 0.747566 0.546139 1.075916961e-41
-0.01454035 0.003145853333 -0.173584 0 0 1 3.559298099e-43
-0.0196024641 0.003195444359 -0.1737343077 -0.09413151282 -0.1874338205 0.9011168462 3.559298099e-43
0.0274386087 -0.01452206087 -0.1739238261 0.2997203043 0.1752743478 0.822640913 3.559298099e-43
-0.009581464483 0.01780857931 -0.1808998276 0.2236556207 0.2083035517 0.8448079655 1.183536683e-41
-0.007297624286 -0.01194567143 -0.1782575143 -0.2056381714 -0.3305474 0.8100828857 9.324239982e-42
-0.002229372333 0.007982635667 -0.1759846667 0.1220995667 0.2932720667 0.849848 4.301986285e-42
-0.02218961875 0.02044105938 -0.1785202812 0.245522125 0.4699418437 0.7400030625 9.324239982e-42
0.0252097 0.0004326613857 -0.1810129286 0.3226854286 0.662661 0.5807835714 1.183536683e-41
-0.03708903333 -7.915493333e-05 -0.1809896667 0 0 0 1.183536683e-41
-0.01213075 0.0193176 -0.180664 0.335042 0.335042 0.1596685 5.917683415e-42
0.007934685455 -0.01948686364 -0.1783299394 -0.1659173333 -0.4012475455 0.7746481818 9.324239982e-42
-0.004642486 0.01516875 -0.180664 0.1733574 0.2249671 0.8642727 1.147663442e-41
-0.017310345 0.0201668 -0.17963305 0.069303 0.17588475 0.9058264 1.075916961e-41
0.02050443333 0.00329664 -0.180664 0.1050721667 0.2192678889 0.8827037778 1.147663442e-41
-0.01982321333 -0.001992224667 -0.1757892667 -0.1521416 -0.2644724 0.8486057333 3.943253879e-42
-0.0220276 -0.003493305 -0.176636 -0.168355 -0.4132548 0.7848987 6.454380727e-42
-0.01957871667 0.01060572778 -0.1745067222 -0.01603180556 0.1468974167 0.9240043889 3.559298099e-43
-0.03203633667 0.01533508667 -0.1737468333 0.07461143333 0.1049928 0.9319628667 3.559298099e-43
-0.0380249 0.00426865 -0.177612 -0.3301965 -0.653485 0.6632155 8.248042761e-42
-0.0286153 0.00405884 -0.174561 -0.3269093333 -0.464392 0.67079 3.559298099e-43
0.005321775357 0.003301349286 -0.175659 0.1235547143 0.2470446786 0.8618023214 3.584521472e-42
0.02019944583 -0.002201478333 -0.176513875 0.1673665 0.3980005417 0.7927163333 6.09564832e-42
-0.03202233462 0.003363169615 -0.1759596154 -0.06308557692 -0.3460410385 0.8181722308 4.301986285e-42
0.0177074619 -0.02652487619 -0.179688 -0.05812247619 -0.0584717619 0.9048194762 1.075916961e-41
0.02785080513 -0.006936488974 -0.1759846667 0.1543415897 0.2406213077 0.860553 4.660718692e-42
0.01273511562 -0.004574655938 -0.1744694063 0.0655135 0.1375753437 0.9282083437 3.559298099e-43
-0.01706145556 0.00067941405 -0.1741539167 -0.14016425 -0.2151330556 0.8699638889 3.559298099e-43
0.0004302267846 0.005886078077 -0.175659 0.1386758462 0.2297962308 0.8615102692 3.584521472e-42
0.002827354348 -0.01414493043 -0.176636 -0.1273173913 -0.3178972174 0.8429643043 6.454380727e-42
-0.02473502759 -0.001596138966 -0.1766023103 -0.1366570345 -0.2307724483 0.8735503793 6.454380727e-42
-0.03737325882 0.007574193529 -0.175659 -0.1449682353 -0.2652865882 0.8364388235 3.584521472e-42
-0.02481841667 0.008080801667 -0.173584 0 0 1 3.559298099e-43
0.005229104722 0.0006826017833 -0.1744524444 0.09526425 0.1906084444 0.8945279167 3.559298099e-43
-0.001829148571 -0.008738928571 -0.174561 -0.1996824286 -0.5107488571 0.7208672857 3.559298099e-43
-0.03880531429 0.02306257143 -0.175659 0 0.09792185714 0.9611595714 3.584521472e-42
-0.007405128947 0.007616143158 -0.174561 0.1281520526 0.2231754211 0.8582951579 3.559298099e-43
0.002687009286 0.01022366286 -0.17925625 0.2225586429 0.5100456429 0.7259226786 1.04004372e-41
-0.03962706667 0.01548385 -0.173584 0 0 1 3.559298099e-43
-0.0120697 0.003145853333 -0.173584 0 0 1 3.559298099e-43
0.015339 -0.001655732065 -0.1757220323 0.1207657097 0.2665889032 0.8562787742 3.943253879e-42
-0.02509764 -0.002797696 -0.177612 -0.2058494 -0.5621756 0.7066114 8.248042761e-42
0.007675383611 -0.009611349444 -0.1737196944 -0.009517277778 -0.2319263056 0.89450275 3.559298099e-43
0.005451375909 0.01081881364 -0.180664 0.07230959091 0.1780601364 0.9139017273 1.147663442e-41
-0.001839501429 0.00659888 -0.175659 0.2013435714 0.5150182857 0.7141567143 3.584521472e-42
0.02302375385 -0.001654146731 -0.1779501923 0.2196621154 0.4985185385 0.7374639231 8.606775168e-42
-0.02917062727 0.01881966364 -0.175659 0.236819 0.3016602727 0.7740730909 3.584521472e-42
-0.01246090909 0.009837070909 -0.174561 0.1854326364 0.3850990909 0.7690512727 7.146622168e-43
-0.02729035 0.008080801667 -0.173584 0 0 1 3.559298099e-43
-0.006962271176 0.008750017059 -0.175659 0.1382655294 0.2390854118 0.8568393529 3.225789065e-42
0.01761409286 -0.02268438571 -0.177612 -0.209941 -0.3782825 0.7883697143 8.248042761e-42
0.01278769444 0.0006900564722 -0.1761475 0.1301522222 0.2605719444 0.8611743056 5.019451099e-42
0.002777208286 -0.009620234857 -0.1744214286 -0.1166159714 -0.163445 0.8958118286 3.559298099e-43
-0.01968239048 0.008082073095 -0.1736072619 -0.004049571429 0.1095871667 0.9476391429 3.559298099e-43
0.005201975 -0.00713539 -0.173584 0 0 1 3.559298099e-43
-0.01700918857 0.01804504286 -0.1782924 0.1786826857 0.4656404286 0.7574943143 9.324239982e-42
0.00468 0.002268473333 -0.174561 0.2354073333 0.4708146667 0.72877 3.559298099e-43
-0.03452257647 0.02763366471 -0.1788691176 0.1595977059 0.2269413529 0.7817341176 1.00417048e-41
-0.002200286667 0.0006785595333 -0.173584 0 0 1 3.559298099e-43
-0.02980735152 0.003103834545 -0.1758958485 -0.1312455455 -0.3503192424 0.8152454545 4.301986285e-42
-0.04226686111 0.01306955556 -0.1742896111 -0.07504086111 -0.2376753611 0.8762463611 3.559298099e-43
-0.02728597857 -0.002010463036 -0.177612 -0.1304473929 -0.140928 0.9171470714 8.248042761e-42
0.02623745 0.00292492 -0.185669 0.308193 0.3001535 0.2548035 1.255283164e-41
0.013041975 -0.0240287625 -0.179688 -0.2066220625 -0.1548509375 0.86938525 1.075916961e-41
-0.02948251667 0.02339745417 -0.177734125 0.212445375 0.323211875 0.8009365 8.248042761e-42
-0.0120697 0.0006785595333 -0.173584 0 0 1 3.559298099e-43
0.0002077866346 0.007812498846 -0.1764856923 0.1918956154 0.389429 0.7872403077 5.736915913e-42
-0.03901675 0.0091629 -0.174561 -0.3473735 -0.698299 0.607573 3.559298099e-43
-0.0325419 0.01963803333 -0.174561 0.1831141667 0.494371 0.7165146667 3.559298099e-43
-0.04421996667 0.009999588889 -0.175659 -0.09628522222 -0.3481228889 0.8059022222 3.584521472e-42
0.0198555 -0.026350025 -0.178741625 -0.248019375 -0.44847925 0.4619105 9.682972388e-42
-0.03460399355 0.0257090871 -0.1778326129 0.1626279355 0.3073925161 0.8189509677 8.606775168e-42
-0.02460550909 0.01510341818 -0.174561 0.0301255 0.2137478182 0.8946038182 3.559298099e-43
-0.022427875 0.017852775 -0.17639175 0.2230869583 0.447063375 0.7615873333 5.736915913e-42
0.01071168182 -0.01864902727 -0.176636 -0.1478823636 -0.3073745455 0.8269254545 6.454380727e-42
0.00424576 0.00675583 -0.176636 0.37969 0.759379 0.528373 6.454380727e-42
0.01779174167 -0.001813173389 -0.1761475 0.13017375 0.26051525 0.8612268889 5.019451099e-42
-0.03011880667 0.02220868667 -0.176636 0.1748466667 0.3076135333 0.8245091333 6.454380727e-42
0.006037902 0.006206512 -0.177612 0.193806 0.4192368 0.7490192 8.248042761e-42
-0.01962016552 0.01285603448 -0.174561 0.04617672414 0.1502885862 0.9155018621 3.559298099e-43
0.01288929 -0.012129405 -0.17382825 -0.11750515 -0.14396115 0.89662455 3.559298099e-43
-0.03713906216 0.02054945676 -0.174561 0.0277047027 0.07504097297 0.9613421351 3.461207207e-43
-0.002206988333 0.003157192778 -0.1741267778 0.1240660833 0.2230763889 0.8645800278 3.559298099e-43
-0.03385272857 0.006443567143 -0.174561 -0.2700607143 -0.3692288571 0.7559142857 3.559298099e-43
-0.0271968875 0.0007924440125 -0.1763612188 -0.1797430312 -0.3100685938 0.8338607812 5.736915913e-42
-0.02976226667 0.01054890833 -0.173584 0 0 1 3.559298099e-43
-0.0237198 0.00171661 -0.174561 -0.3506725 -0.697214 0.6060965 3.584521472e-42
-0.01214093333 0.008127848333 -0.174561 0 0 1 3.559298099e-43
-0.0435181 0.015073775 -0.173584 0 0 1 3.559298099e-43
-0.01968943333 0.02045595 -0.1793583 0.09658696667 0.303255 0.838426 1.04004372e-41
-0.0102081 0.0193176 -0.180664 0 0 0 1.147663442e-41
-0.009543745 0.01366676667 -0.177612 0.2216035833 0.504481 0.7397621667 8.248042761e-42
0.01276151429 0.005298477143 -0.17933475 0.2056451786 0.2927934643 0.8119009643 1.04004372e-41
0.007776514 0.002982202667 -0.1760498 0.1340437 0.2680861333 0.8570392333 4.660718692e-42
0.01228028 0.002237322 -0.176636 0.2510682 0.5355458 0.7011742 6.454380727e-42
-0.04240833636 0.009856481818 -0.175659 -0.08832381818 -0.4393023636 0.7627075455 3.584521472e-42
-0.03472051667 0.02000425556 -0.174561 0.1101565556 0.2340628333 0.8524855556 3.559298099e-43
-0.01701180286 0.008051410286 -0.173584 0 0.08032865714 0.9648094571 3.559298099e-43
-0.0105438 -0.00534439 -0.175659 -0.195566 -0.785586 0.5496805 3.584521472e-42
-0.01700591667 0.005613326667 -0.173584 0 0 1 3.559298099e-43
-0.007276205172 0.01046753793 -0.1761980345 0.1490575172 0.3480826897 0.8213337586 5.019451099e-42
-0.02252348 0.01483 -0.174561 0.1722985 0.3610802 0.7738883 3.559298099e-43
-0.0333557 0.0271454 -0.178589 0 0.810679 0.585491 9.682972388e-42
-0.007202271613 0.01307457742 -0.1780571613 0.2456244194 0.4240549355 0.7554220968 8.965507575e-42
-0.02737753929 0.02036010714 -0.1765662143 0.1656237143 0.3091177857 0.8287814643 6.09564832e-42
-0.002118566957 0.01075348609 -0.1779943043 0.1948353043 0.5359708696 0.7292271304 8.965507575e-42
0.0051861568 -0.017259512 -0.17784648 -0.20840632 -0.45770516 0.75322812 8.606775168e-42
-0.03125 -0.0033226 -0.178589 0 0 1 9.682972388e-42
-0.004667283333 -0.001994678857 -0.173584 -0.006914380952 -0.03192742857 0.9859835476 3.559298099e-43
0.0241547 0.00178528 -0.181641 0.691594 0.55352 0.464019 1.255283164e-41
0.01769474643 0.002718344643 -0.17925625 0.2082521071 0.4365925357 0.754756 1.04004372e-41
0.01034327857 -0.00713539 -0.173584 -0.001417738095 0.02249066667 0.9907731905 3.559298099e-43
0.02937315 -0.000363827 -0.180664 0 0 0 1.147663442e-41
-0.01717446667 -0.004238763939 -0.1762215152 -0.1613632121 -0.3156834545 0.8293721818 5.378183506e-42
-0.03441873333 0.02118431111 -0.175659 0.1104466111 0.2336541111 0.8528693333 2.867056658e-42
-0.007969664 0.01194764 -0.176636 0.2536778 0.3869516 0.7642104 6.454380727e-42
0.02041628077 -0.004017755 -0.1756965769 0.1443964231 0.2653682308 0.8434651538 3.584521472e-42
-0.004001615 0.014183 -0.180664 0.451182 0.605366 0.6342565 1.147663442e-41
-0.01220449091 -0.006736060303 -0.1763695455 -0.1668442424 -0.321168303 0.824263303 5.736915913e-42
-0.01212421429 -0.002005011 -0.174328381 -0.09961183333 -0.2072578095 0.8864499048 3.559298099e-43
-0.004667283333 0.0006785595333 -0.173584 0 0 1 3.559298099e-43
0.002597642609 0.002759934348 -0.174561 0.088254 0.1841483478 0.889953913 3.559298099e-43
-0.034613048 0.000602794208 -0.17824216 -0.2305006 -0.3814382 0.7768592 8.965507575e-42
-0.009564897241 -0.004473061379 -0.174561 -0.04818375862 -0.1507137931 0.9190362759 3.559298099e-43
0.02247621429 -0.002746851429 -0.176636 0.1903007143 0.4901587143 0.7480188571 6.454380727e-42
-0.0223465 0.005613326667 -0.173584 -0.008055555556 -0.01611111111 0.9933680278 3.559298099e-43
-0.0075235375 0.01727803333 -0.1813153333 0 0.3414621667 0.78018875 1.219409924e-41
-0.0281219 -0.00014728315 -0.177612 -0.5604805 -0.4226535 0.6871055 8.248042761e-42
-0.01942091538 0.01830057308 -0.1779126154 0.1682056154 0.4472139231 0.7726176154 8.606775168e-42
-0.002200816389 -0.004668237222 -0.1736111389 -0.03527591667 -0.05396683333 0.9670747222 3.559298099e-43
-0.00624847 0.0114212 -0.177612 0.381477 0.76122 0.524423 8.248042761e-42
-0.0296630875 -0.0034279825 -0.178589 0 0 1 9.682972388e-42
-0.0207367 -0.000353575 -0.175659 -0.392791 -0.780164 0.486888 3.584521472e-42
-0.0155373 -0.00284958 -0.175659 -0.195974 -0.7869395 0.5476325 3.584521472e-42
0.00926971 0.00424576 -0.176636 0.380565 0.759405 0.527707 6.454380727e-42
-0.01210698286 0.01560232286 -0.1782086571 0.2347474571 0.4773255429 0.7409925143 8.965507575e-42
-0.02974201724 0.02537483793 -0.1786774138 0.171915931 0.2183523103 0.8474033448 9.682972388e-42
-0.04427269091 0.01119235455 -0.174561 -0.03691218182 -0.2134110909 0.8909802727 3.559298099e-43
0.01768808529 -0.0170387 -0.174561 -0.03832276471 -0.1628456176 0.9234506471 3.559298099e-43
0.027476 0.002191223333 -0.185669 0.2277941667 0.3540091667 0.5945886667 1.034158267e-41
0.02317471111 -0.005991614444 -0.175659 0.2012077778 0.4005568889 0.7612465556 3.584521472e-42
0.01548385 -0.009602863333 -0.173584 0 0 1 3.559298099e-43
0.0007134351444 -0.01356086667 -0.176636 -0.1875486667 -0.3766446667 0.7972802222 6.454380727e-42
0.01728565 -0.0002162459667 -0.176636 0.2225676667 0.444592 0.7647946667 6.454380727e-42
0.026947 -0.00820923 -0.174561 0.759664 0.385083 0.524044 3.559298099e-43
0.01546216286 -0.007167705714 -0.1736677429 0.02647545714 0.1773749714 0.9082662857 3.559298099e-43
-0.03645833333 0.000841599 -0.1793216667 -0.1983643333 -0.6985215 0.5116705 1.04004372e-41
-0.009602863333 0.003145853333 -0.173584 0 0 1 3.559298099e-43
-0.013977025 0.0116062 -0.175659 0.33324275 0.5102805 0.66194625 3.584521472e-42
0.02779744333 -0.001971657867 -0.1791018667 0.1660501333 0.4575107 0.7574818667 1.00417048e-41
-0.006556371429 -0.006378715714 -0.174561 -0.242932 -0.3984995714 0.7429104286 3.559298099e-43
0.0303707 -0.002238412 -0.1795048333 0.073815125 0.3132074167 0.7912885417 1.075916961e-41
-0.03205966875 0.008059740313 -0.1742556875 -0.1333076563 -0.2230185625 0.864483375 3.559298099e-43
-0.04406184091 0.008012944091 -0.1762807273 -0.07215613636 -0.3227917273 0.8351761364 5.378183506e-42
-0.004694303333 0.005645753333 -0.174561 0.008684916667 0.08276825 0.9603661389 3.559298099e-43
-0.03954725 0.01769844615 -0.173584 0 0 0.8461538462 3.559298099e-43
0.01597846667 0.00118526 -0.177612 0.2229943333 0.4436551667 0.765332 8.248042761e-42
-0.009755813714 -0.006842148 -0.1758823143 -0.1150696286 -0.2952866571 0.8475356857 4.301986285e-42
-0.024460925 0.02074761071 -0.1779260357 0.2088236071 0.4019291429 0.7789830714 8.606775168e-42
-0.01481355714 -0.007509503571 -0.177612 -0.1798515 -0.2731655714 0.835467 8.248042761e-42
0.00082009878 0.008811948 -0.177612 0.2520006 0.5337956 0.7016822 8.248042761e-42
-0.02981844545 0.01292211818 -0.173584 0 0 1 3.559298099e-43
0.005202883333 -0.001994781048 -0.1736072619 0.03245902381 0.0649122381 0.9644517381 3.559298099e-43
-0.02714400303 0.005613386667 -0.1742057273 -0.1392742424 -0.2628311515 0.8538090303 3.559298099e-43
2.495803636e-05 0.01221116364 -0.179688 0.2210164545 0.4058074545 0.7762766364 1.075916961e-41
-0.014579775 0.008105172778 -0.1740725 0.2233088611 0.1262467778 0.8501626944 3.559298099e-43
-0.02231739259 0.0226609963 -0.179688 0.04938044444 0.06303659259 0.9603134444 1.075916961e-41
0.007687524524 -0.001997880095 -0.1739794524 0.1507242143 0.1874724286 0.870608619 3.559298099e-43
-0.01725821 0.01550801333 -0.1762452 0.1564622 0.3616442 0.8118731667 5.378183506e-42
0.01801993636 0.0006190219 -0.1777896364 0.2284655455 0.457032 0.7565968636 8.606775168e-42
0.02520695556 -0.004596639259 -0.1764912593 0.1730472222 0.3757064444 0.8020208889 6.09564832e-42
-0.009559637692 -0.008591284615 -0.176636 -0.1446450769 -0.3467293077 0.8352825385 6.454380727e-42
-0.0272922625 0.00258386 -0.175659 -0.0874154375 -0.2742794375 0.8515925 3.584521472e-42
-0.02465460588 -0.004362889706 -0.1778993529 -0.06433797059 -0.3048692941 0.8528344412 8.965507575e-42
0.01518791667 0.0003069243583 -0.1765545833 0.16730075 0.3342448333 0.82243025 6.09564832e-42
0.0004687947792 -0.01672872917 -0.178726375 -0.1813337083 -0.2241647917 0.837086875 9.308825699e-42
-0.004551080769 -0.006874668462 -0.174561 -0.07730603846 -0.1611594231 0.9055042692 3.559298099e-43
-0.03471532069 0.02297026207 -0.1760632759 0.09366041379 0.2832695172 0.8595243448 5.019451099e-42
-0.017476425 -0.002572378333 -0.175659 -0.1413035 -0.34942075 0.8143325833 3.584521472e-42
-0.01955522286 0.00071197868 -0.174561 -0.04532317143 -0.07311208571 0.9579724286 3.559298099e-43
0.02537806176 -0.001812794353 -0.1786248824 0.1667282059 0.5849409118 0.7032558824 9.682972388e-42
0.0117111 -0.0157471 -0.175659 -0.620011 -0.620011 0.480804 3.584521472e-42
-0.01725299231 -0.007135097692 -0.1782977692 -0.1877267692 -0.5015768846 0.7309323846 9.324239982e-42
-0.0171689303 0.01067770818 -0.174561 0.009464272727 0.1299133939 0.9388658788 3.559298099e-43
0.002735322222 -0.007137933333 -0.1736382778 -0.05407016667 -0.09159666667 0.9466275 3.559298099e-43
0.008035340833 0.0014489495 -0.175659 0.15048875 0.3673955 0.787463 2.867056658e-42
0.01993782941 -0.005314996471 -0.174561 0.1601403529 0.2847096471 0.8280863529 3.559298099e-43
0.02696995 0.00181484 -0.184692 0.416826 0.7590375 0.4928835 6.276415822e-42
0.0133286 0.00691223 -0.180664 0.891623 0 0.452778 1.147663442e-41
0.021759 0.0017662 -0.179688 0.374452 0.74974 0.545596 1.075916961e-41
-0.0283966 0.0218201 -0.176636 0.381898 0.756977 0.530225 6.454380727e-42
0.01026275053 -0.01208839211 -0.1744324474 -0.06637810526 -0.1463678158 0.9182829474 3.559298099e-43
0.0006752094 0.01277924286 -0.180664 0.1919558571 0.5519594286 0.6715191429 1.147663442e-41
-0.01970775333 0.01546324 -0.1757567 0.06711066667 0.2071433333 0.8966868667 3.943253879e-42
-0.0247641 0.0006251337412 -0.1758314118 -0.1448937059 -0.2044069706 0.8728911176 3.943253879e-42
0.01775461667 -0.01964163333 -0.1757892667 -0.1419496667 -0.2896497 0.8440675 3.943253879e-42
-0.02195294839 0.01323229677 -0.174561 0.02048580645 0.02023596774 0.9822822258 3.559298099e-43
-0.005254745 0.014852525 -0.179688 0.387228 0.672292 0.5318895 1.075916961e-41
-0.02973345278 -0.001839042389 -0.1783718889 -0.1902328611 -0.1346013333 0.8864778056 9.324239982e-42
0.007537842 0.004636382667 -0.176636 0.1332760667 0.2666124667 0.8591400667 6.454380727e-42
-0.01513235714 0.01982118571 -0.179688 0.1468637143 0.1468637143 0.9104865714 1.075916961e-41
0.008045741429 0.005800337143 -0.1777980952 0.2214058571 0.4779311905 0.7517115238 8.606775168e-42
0.01953125 0.00455666 -0.180664 0 0 1 1.147663442e-41
-0.03705658649 0.01797816216 -0.1738744595 0.05262281081 0.1955531351 0.8919185946 3.559298099e-43
0.01989813478 -0.02483533913 -0.1779943043 -0.2508967391 -0.2962039565 0.7467124783 8.965507575e-42
0.0135422 0.00648117 -0.180664 0.305599 0.754927 0.468367 1.147663442e-41
-0.0144882 0.0201721 -0.180664 0.672298 0.672298 0.309887 1.147663442e-41
-0.004600365833 0.01117643333 -0.177612 0.1661728333 0.51662025 0.7440213333 8.248042761e-42
-0.009602863333 0.0006785595333 -0.173584 0 0 1 3.559298099e-43
0.01758229091 -0.004788312727 -0.174561 0.04276057576 0.1345916364 0.925837 3.559298099e-43
-0.027072148 0.01534912 -0.174561 0.06432168 0.15610092 0.90970676 3.559298099e-43
-0.002211518333 -0.007169722222 -0.1743710278 -0.09566297222 -0.1830986111 0.8949907222 3.559298099e-43
-0.04163303846 0.01736569231 -0.173584 0 0 1 3.559298099e-43
-0.03931276 0.0202835 -0.174561 0 0 1 3.559298099e-43
0.02030131667 -0.02205709 -0.1762126333 -0.1893568 -0.2773483333 0.8273043667 5.378183506e-42
-0.01454458889 0.005615445556 -0.1736382778 0.04220005556 0.08353805556 0.9528729722 3.559298099e-43
-0.02212938788 0.003102332424 -0.1743241515 -0.1077480303 -0.2278098788 0.8714347576 3.559298099e-43
0.01690675 -0.0182343 -0.175659 -0.200194 -0.76766 0.568297 3.584521472e-42
-0.007144607778 0.003150780833 -0.1738011111 0.07407566667 0.2152122222 0.8846111389 3.559298099e-43
0.012544625 -0.0024495825 -0.174561 0.08013842857 0.1450216429 0.910685 3.559298099e-43
-0.002306247586 0.005424633448 -0.174561 0.06228155172 0.1516918276 0.9125170345 3.559298099e-43
-0.04487302 0.006878666 -0.177612 -0.2573848 -0.5500834 0.6839572 8.248042761e-42
-0.02183691579 0.001194024358 -0.174561 -0.1255447368 -0.2199976842 0.8649517368 3.559298099e-43
0.002838596571 -0.01701529714 -0.1783098571 -0.1192854286 -0.2047748286 0.8844464857 9.324239982e-42
-0.03712462667 0.02315928667 -0.1757241333 0.09994506667 0.2218763 0.8799147667 3.943253879e-42
0.01483700714 0.004713875 -0.179688 0.1712067857 0.3689548571 0.8053147143 1.075916961e-41
-0.01225739333 0.01301089667 -0.1763429 0.1699773667 0.2838869333 0.8296998333 5.736915913e-42
-0.01903535 -0.0009031293333 -0.174561 -0.2332358333 -0.465001 0.7375585 3.559298099e-43
0.009574894286 -0.0001152922 -0.174561 0.2450385714 0.4024271429 0.735742 7.146622168e-43
-0.0365397 0.0269928 -0.177612 0 0 1 8.248042761e-42
0.01795196667 -0.0120697 -0.173584 0 0 1 3.559298099e-43
-0.03666685 0.02623294 -0.177612 0.0968345 0.2693708 0.8672595 8.248042761e-42
-0.03222232222 0.0256017 -0.1781547778 0.06332927778 0.2432674167 0.8876523056 8.965507575e-42
-0.02723872353 0.02503968235 -0.1796233529 0.1617872941 0.2183472941 0.7383242353 1.075916961e-41
-0.03663417857 0.02489580714 -0.176636 0.1448941429 0.346264 0.8028957857 6.454380727e-42
-0.02711485 0.0259552 -0.180664 0.3317195 0.344005 0.147047 1.147663442e-41
0.0294342 -0.0115204 -0.174561 0 0 0 3.559298099e-43
0.02042135 -0.01453908333 -0.173584 0.0007389722222 -0.1063976111 0.9548845278 3.559298099e-43
-0.03499144 0.02440796 -0.176636 0.258431 0.5330942 0.6965318 6.454380727e-42
-0.02541945556 0.02470228889 -0.179688 0 0 0.8888888889 1.075916961e-41
-0.03718678049 0.01058180463 -0.1745371707 -0.04211890244 -0.1423579024 0.9244546098 3.559298099e-43
-0.032421872 0.022893676 -0.17640152 0.1591436 0.46390772 0.76460236 5.736915913e-42
-0.03173392857 0.02392581429 -0.177612 0.1911737143 0.4839975714 0.7541667143 8.248042761e-42
-0.02723508182 0.02298759697 -0.1782707273 0.1986202424 0.4288481515 0.7636093636 9.324239982e-42
-0.02475229667 0.02297517 -0.1791018667 0.1725769 0.2906997667 0.8147341 1.00417048e-41
0.01024327737 -0.004722796579 -0.1740725 0.1362561579 0.2110266579 0.8425069737 3.559298099e-43
-0.02477730833 0.01056226667 -0.1737739722 -0.004438166667 0.2567778056 0.8770233611 3.559298099e-43
-0.0369263 -0.000795841 -0.181641 0 0 0 1.255283164e-41
-0.0379842 0.0219879 -0.174561 0.1324996667 0.727238 0.6293996667 3.559298099e-43
-0.02018738 0.02205809 -0.179688 0 0 1 1.075916961e-41
-0.03633115 0.021698 -0.175659 0.2006825 0.772064 0.560608 3.584521472e-42
-0.03206279667 0.02083335333 -0.175659 0.06809156667 0.1649154667 0.9056469 3.225789065e-42
-0.0297343 0.02048034 -0.1759521 0.1609085 0.2616506 0.8436625667 4.301986285e-42
-0.02644784286 0.0212773 -0.177612 0.2372025714 0.387098 0.7596045714 7.889310354e-42
0.01301898571 -0.001126221429 -0.175659 0.1661335 0.301774 0.8040307857 3.584521472e-42
0.02035186098 -0.007149298537 -0.1745133415 0.03320460976 0.1429699512 0.9266099756 3.559298099e-43
0.01240536667 0.00687408 -0.179688 0.2697943333 0 0.862427 1.075916961e-41
-0.02515758182 0.01957149091 -0.176636 0.1779992727 0.3641186364 0.797656 6.454380727e-42
-0.03463565588 0.01809648529 -0.1742449118 0.07682164706 0.1580690294 0.9030015588 3.461207207e-43
-0.03186544 0.01822052 -0.174561 0.01062773333 0.04629463333 0.9786070667 3.559298099e-43
-0.029739364 0.017763052 -0.174561 0.12007876 0.16449004 0.87901104 3.559298099e-43
-0.02720735758 0.01812652121 -0.175659 0.07977051515 0.1108452121 0.9294520606 3.584521472e-42
-0.02473652 0.017984 -0.1759846667 0.0900078 0.2754574667 0.8626080667 4.660718692e-42
-0.0215844 0.01876152222 -0.177612 0.2211028889 0.4449044444 0.7645402222 8.248042761e-42
-0.01457701944 0.01809904167 -0.1791758056 0.1712460278 0.3410513333 0.8131434722 1.04004372e-41
-0.0123624625 0.01788965833 -0.1796422083 0.2239175833 0.2450010417 0.8264072917 1.075916961e-41
-0.03697250909 0.005499405758 -0.1762511212 -0.1460475758 -0.2216913939 0.8699320606 5.378183506e-42
-0.00477611875 -0.0139818125 -0.17860425 -0.1966566875 -0.4668953125 0.704826125 9.682972388e-42
-0.0177212 0.012367225 -0.174561 0.2863405 0.373646375 0.756216375 3.559298099e-43
0.01539079697 0.002754789394 -0.1783743333 0.2409587879 0.4910927273 0.7310827576 9.324239982e-42
-0.01124572857 0.01834105714 -0.180664 0.3652304286 0.1617772857 0.77908 1.147663442e-41
-0.02008945833 0.01707711667 -0.176636 0.1914635833 0.5022986667 0.7516340833 6.454380727e-42
-0.0280609 0.0170135 -0.174561 0.829448 0.410919 0.378367 3.559298099e-43
0.002935713636 0.008313958636 -0.1777896364 0.1982154091 0.4640340455 0.7585379091 8.248042761e-42
-0.0420281 0.01543560588 -0.173584 0 0 1 3.559298099e-43
-0.02698607353 0.01291229412 -0.1742736471 0.1414625 0.09366297059 0.9016072353 3.559298099e-43
-0.03715515 0.01548385 -0.173584 0 0 1 3.559298099e-43
-0.03471244286 0.01545453143 -0.173584 0 0 1 3.461207207e-43
-0.029714775 0.01560763333 -0.17431675 0.1127367222 0.1432998611 0.8945446944 3.559298099e-43
-0.02688768889 0.01650998889 -0.175659 0.1354896667 0.3908136667 0.7512703333 3.584521472e-42
-0.02459932857 0.01639881429 -0.175659 0.04775885714 0.3356795714 0.8344585 3.584521472e-42
-0.02201783846 0.01594717692 -0.175659 0.1130522692 0.2081653462 0.8743058462 3.584521472e-42
-0.0181351 0.0167999 -0.176636 0.192595 0.738379 0.61109 6.454380727e-42
-0.0105743 0.0170746 -0.179688 0.369719 0.752883 0.544496 1.075916961e-41
-0.0254173 0.0022459 -0.175659 -0.27175675 -0.54476825 0.6744475 3.584521472e-42
-0.0159302 0.0164642 -0.177612 0.603309 0.603309 0.521572 8.248042761e-42
-0.01445008 0.01608985333 -0.1777422667 0.2209260667 0.4447210667 0.7652828667 8.606775168e-42
-0.009771412414 0.01532587586 -0.1789468966 0.2508850345 0.5637192069 0.6960224483 9.682972388e-42
0.005220625185 0.005282366296 -0.1765636296 0.1564312593 0.3189097407 0.8301076296 6.09564832e-42
-0.01491186316 0.01492874211 -0.176636 0.1876644211 0.344343 0.8120456842 6.09564832e-42
-0.00293159 0.0146103 -0.180664 0 0 0 1.147663442e-41
-0.008918763333 0.0163269 -0.180664 0.2192576667 0.6768083333 0.6724693333 1.147663442e-41
-0.006996155 0.0161133 -0.180664 0.05695816667 0.353341 0.8376759167 1.147663442e-41
-0.01301385 0.0143948 -0.176636 0.262074 0.523283 0.70522675 6.454380727e-42
-0.01696206667 -0.001420300167 -0.174561 -0.074164 -0.1818345417 0.896945875 3.559298099e-43
-0.04415022143 0.01276068571 -0.1744912143 0 -0.1086790714 0.9460516429 3.559298099e-43
-0.004686727222 -0.004686250556 -0.1742353333 -0.1707280556 -0.1834563333 0.8649261667 3.559298099e-43
-0.03970251944 0.01303989722 -0.1739096667 -0.08854461111 -0.2324713056 0.8724892778 3.559298099e-43
-0.03715515 0.01301575 -0.173584 -0.01873125 -0.1034872222 0.9473538611 3.559298099e-43
-0.03468323333 0.01301575 -0.173584 0 0 1 3.559298099e-43
-0.0322113 0.01301575 -0.173584 0 0 1 3.559298099e-43
-0.02460975294 0.01314070882 -0.174561 0 0 1 3.559298099e-43
-0.0195487 0.01414704286 -0.175659 0.1909985714 0.6201857143 0.6527812857 1.432127031e-42
-0.01702119286 0.01337538571 -0.175659 0.09615053571 0.1623933571 0.8982138571 3.584521472e-42
-0.01476265313 0.01304194375 -0.1757200625 0.0937849375 0.235512875 0.8786103125 3.943253879e-42
0.01301575 -0.00713539 -0.173584 0.008196 0.016392 0.9930964167 3.559298099e-43
-0.0120694 0.011011036 -0.175659 0.10831852 0.22285992 0.86995716 3.584521472e-42
-0.004859979412 0.01293227059 -0.1789589118 0.2343698824 0.4735712941 0.7334587353 1.00417048e-41
0.002747969091 0.01224102727 -0.180664 0.05327763636 0.05327763636 0.9599579091 1.147663442e-41
-0.002930956667 0.0139694 -0.180664 0.06254783333 0.3430053333 0.8409895 1.147663442e-41
-0.009909322917 0.01244036667 -0.176636 0.1113634167 0.253164125 0.8686025833 6.454380727e-42
-0.002363250476 0.01250348571 -0.1793216667 0.1125829524 0.5302413333 0.7220769524 1.04004372e-41
-0.00961776119 -0.00199908481 -0.173839881 -0.07637128571 -0.1963880714 0.8937614524 3.559298099e-43
-0.02725962703 0.01058032162 -0.1736368108 0.03546716216 0.07403827027 0.9561963243 3.559298099e-43
-0.04226304583 0.0110054325 -0.174561 -0.04037779167 -0.2010173333 0.89149075 3.559298099e-43
-0.03458133548 0.01059944581 -0.1738991613 -0.1712931613 -0.1929993871 0.8664855161 3.559298099e-43
-0.0322113 0.01054890833 -0.173584 -0.008027833333 -0.01605563889 0.9934206944 3.559298099e-43
-0.0221766 0.01055555854 -0.1740844146 0.1940463415 0.1977414878 0.8062909512 3.559298099e-43
-0.01471351562 0.01049234437 -0.174561 0.0650986875 0.1592670937 0.90558875 3.559298099e-43
-0.009717297667 0.01046829 -0.1757567 0.09049893333 0.280787 0.8565694667 3.943253879e-42
0.0002757901806 0.01042684667 -0.1785380833 0.22391675 0.4707575 0.7454265556 9.324239982e-42
0.0033261775 0.011405 -0.180664 0.202262875 0.4208965 0.765243 1.147663442e-41
-0.004766274 0.010033786 -0.1765383 0.1672102 0.4822065 0.75692025 6.09564832e-42
0.007156371429 0.009902947143 -0.180664 0.05346271429 0.3475315714 0.8008548571 1.147663442e-41
-0.00251746 0.009545638333 -0.176636 0.1425159167 0.3469798333 0.81632 6.454380727e-42
0.005131113636 0.009655345455 -0.179688 0.2164299091 0.4988973636 0.7366091818 1.075916961e-41
0.00273466 -0.004667283333 -0.173584 0 0 1 3.559298099e-43
-0.042084505 0.00799436575 -0.176074225 -0.07251895 -0.243518275 0.8793953 5.019451099e-42
-0.03976799412 0.007970697647 -0.1757739412 -0.1077757647 -0.2635464412 0.8619711765 3.943253879e-42
-0.03692626667 0.008689517619 -0.174561 -0.09470838095 -0.2388962857 0.8628756667 7.146622168e-43
-0.0344696 0.008127848333 -0.174561 -0.06003616667 -0.07905833333 0.9530134444 3.559298099e-43
-0.02970662059 0.008130355294 -0.1736127353 -0.06991294118 -0.08103320588 0.9442715294 3.559298099e-43
-0.0223465 0.008080801667 -0.173584 0.008253027778 0.01650608333 0.9929837778 3.559298099e-43
-0.009713842727 0.008033752727 -0.174561 0.03074663636 0.132653697 0.9327173939 3.559298099e-43
-0.009089153333 0.00921631 -0.175659 0.1314343333 0.785018 0.5712466667 3.584521472e-42
-0.004720686875 0.008174180625 -0.175659 0.0762974375 0.226285625 0.8775383438 3.584521472e-42
0.005377959143 0.007913863143 -0.1784145143 0.2541290857 0.4749847143 0.7387055714 9.324239982e-42
0.007821400606 0.007861165455 -0.1792550606 0.1340480606 0.3799593636 0.8045390606 1.04004372e-41
0.01027213056 0.007367239444 -0.1796269444 0.07623616667 0.1535471111 0.8038117778 1.075916961e-41
0.0002670984 -0.004667283333 -0.173584 0 0 1 3.559298099e-43
0.002572605 0.007085529286 -0.176636 0.1361855714 0.3255670714 0.8424544286 6.454380727e-42
-0.005521775 0.00709534 -0.174561 0.353123 0.706771 0.5922995 3.559298099e-43
-0.0196056375 -0.0050382625 -0.177612 -0.064378625 -0.269349375 0.866048125 8.248042761e-42
-0.0474243 0.00733948 -0.180664 0 0 0 1.147663442e-41
-0.03942518846 0.00578807 -0.1765608462 -0.04609542308 -0.3141449615 0.8445441154 6.09564832e-42
-0.03483072 0.005431111667 -0.1757567 -0.1585163333 -0.2402145667 0.8512396333 3.584521472e-42
-0.03190663667 0.005825044 -0.174561 -0.03368873333 -0.1478515667 0.9090628 3.559298099e-43
-0.02948269286 0.005715508571 -0.1744563214 -0.0552095 -0.30819525 0.8240535 3.559298099e-43
-0.02477084706 0.005664039412 -0.1736702059 -0.05927467647 -0.1868107647 0.9042974118 3.559298099e-43
-0.01967948571 0.005613326667 -0.173584 0 0 1 3.559298099e-43
-0.0120856 0.005621802778 -0.1738011111 -0.008531527778 0.2477228889 0.8782943333 3.559298099e-43
-0.009621936944 0.005626677778 -0.1739368056 0.1398444722 0.2350690556 0.8492983611 3.559298099e-43
-0.007176715 0.005645753333 -0.174561 0.03860811111 0.01924025 0.9781503333 3.559298099e-43
-0.044069925 0.005780536667 -0.1776934167 -0.02314691667 -0.04713558333 0.8980395833 8.248042761e-42
-0.04260907143 0.005592616429 -0.177612 -0.131745 -0.3198201429 0.7914260714 8.248042761e-42
-0.0413988 0.006013658889 -0.176636 -0.1857383333 -0.2729662222 0.8407083333 6.454380727e-42
0.002772331 0.005482101333 -0.1759846667 0.1418006 0.2438819 0.8580038333 4.660718692e-42
0.01041480618 0.005359537059 -0.1783411471 0.2138590588 0.4009887941 0.7785425294 9.324239982e-42
-0.0180206 -0.00540543 -0.177612 -0.576899 -0.580396 0.574742 8.248042761e-42
0.01546968571 0.005535125 -0.180664 0.1589815714 0.2861396429 0.8280311429 1.147663442e-41
0.01515726944 -0.004693349444 -0.1745338611 0.01493775 0.08586191667 0.9559104722 3.559298099e-43
-0.0003058514444 0.004933253333 -0.174561 0.2158741111 0.2942102222 0.7952568889 3.559298099e-43
0.01766205 0.0048244025 -0.180664 0.053934375 0.070806 0.9598603125 1.147663442e-41
6.223177143e-05 -0.01042445929 -0.175659 -0.1214002857 -0.2991051429 0.8411603571 3.584521472e-42
-0.03259023333 0.00477727 -0.175659 -0.2147601667 -0.467297 0.7239511667 3.584521472e-42
-0.03952637 0.004522708 -0.177612 -0.03744 -0.4961516 0.7141607 8.248042761e-42
-0.03450574211 0.003492957368 -0.1764303158 -0.1741357368 -0.3963478421 0.7854985263 5.736915913e-42
-0.02689001053 0.003718428947 -0.174561 -0.07360078947 -0.2316211579 0.8743180526 3.559298099e-43
-0.02445795 0.003280224062 -0.174561 -0.07115125 -0.1478829063 0.9180594063 3.559298099e-43
-0.01700591667 0.003145853333 -0.173584 0 0 1 3.559298099e-43
-0.00467629 0.003153165 -0.1739096667 0 0.2521966944 0.8846295 3.559298099e-43
0.000268668 0.003163975 -0.174561 0.0385625 0.07708858333 0.9566589444 3.559298099e-43
0.003038407692 0.003903023846 -0.175659 0.1559743077 0.3253444615 0.8059386154 3.584521472e-42
-0.03929647222 0.003172238889 -0.177612 0 0 1 8.248042761e-42
-0.03721478636 0.002951231818 -0.177612 -0.08143690909 -0.1496046364 0.9117170455 8.248042761e-42
-0.03625488 0.003660966 -0.176636 -0.245734 -0.376066 0.7829342 6.454380727e-42
0.01016839375 0.0028157225 -0.1765545833 0.1639995833 0.3031529167 0.8332308333 6.454380727e-42
0.01093166667 0.00371043 -0.177612 0.2222226667 0.4438665 0.7656158333 8.248042761e-42
0.013027036 0.003165894 -0.17788556 0.2182486 0.511276 0.73089284 8.606775168e-42
0.01837768 0.00382843 -0.180664 0.2056446 0.5610214 0.707764 1.147663442e-41
0.005201975 -0.004667283333 -0.173584 0 0 1 3.559298099e-43
0.0200376625 0.00219154 -0.179688 0.1614378125 0.3332453125 0.8197144375 1.075916961e-41
0.0226812125 0.002367019375 -0.1808471875 0.2282236875 0.3767588125 0.765843875 1.147663442e-41
0.02534485556 0.0023418 -0.184014 0.3503465556 0.3465888889 0.4703508889 1.107866566e-41
-0.0347519 0.00211441625 -0.177612 -0.0814665 -0.23465775 0.8908161875 8.248042761e-42
-0.03266602 0.001830294 -0.177612 -0.2288008 -0.514297 0.737329 8.248042761e-42
-0.031311 0.00173664 -0.176636 -0.37469 -0.74938 0.545928 8.248042761e-42
-0.029574075 0.0014575325 -0.176636 -0.1648456667 -0.3610676667 0.8253536667 6.813113134e-42
-0.007136025 0.0006785595333 -0.173584 0 0 1 3.559298099e-43
0.0002678964722 0.0006800423111 -0.1737468333 0.09477263889 0.1895211111 0.8959638611 3.559298099e-43
0.002744065 0.0006825122833 -0.1741539167 0.05687622222 0.2408675278 0.8786659722 3.559298099e-43
0.01040885966 0.0008807185517 -0.1757263793 0.1498137241 0.278624 0.8430029655 3.584521472e-42
-0.0386658 0.00133991 -0.179688 0 0 0 1.075916961e-41
-0.03218892667 0.00048350134 -0.1779702333 -0.0528939 -0.3332792667 0.8436907333 8.606775168e-42
-0.02980041905 0.0002232619619 -0.1776585238 -0.1560842857 -0.3126443333 0.8388598571 8.248042761e-42
0.007575193333 0.0003032685333 -0.174561 0.07187054167 0.1767462083 0.9040400417 3.559298099e-43
0.02027554815 0.0005351611593 -0.1785754074 0.2254662222 0.5085084815 0.7289580741 9.682972388e-42
0.02259495652 0.0003044810696 -0.1793535217 0.2748647391 0.4492236522 0.7400466957 1.04004372e-41
0.02352903333 0.001062392333 -0.180664 0.4033438333 0.578923 0.671052 1.147663442e-41
0.02559406667 0.001074472667 -0.182617 0.313502 0.8078606667 0.4050493333 1.255283164e-41
0.02744546667 0.001007716 -0.1835123333 0.4409718333 0.4324128333 0.2507961667 1.255283164e-41
-0.0265045 -0.0009829985 -0.176636 -0.3502515 -0.3523495 0.78825125 6.454380727e-42
-0.02245105294 0.0001113765 -0.175659 -0.135106 -0.2356077059 0.8637574118 3.584521472e-42
0.02464295 -0.0002553165 -0.179688 0.2582465 0.5158415 0.71637925 1.075916961e-41
0.02716573333 -0.000363827 -0.180664 0 0.6116453333 0.265206 1.147663442e-41
0.025962 -0.003536647778 -0.177612 0.1896467778 0.3802462222 0.7916284444 8.248042761e-42
-0.033783 -0.000782967 -0.178589 0 0 1 9.682972388e-42
-0.03197096667 -0.00161147175 -0.178589 0 0 1 9.682972388e-42
-0.02227231667 -0.0018175175 -0.1762560556 -0.1054594722 -0.2211096944 0.8805533056 5.378183506e-42
-0.01454402 -0.001781750914 -0.1745330857 -0.05488834286 -0.2122412571 0.8889510286 3.559298099e-43
-0.007138205 -0.001995496476 -0.1736305238 -0.02524288095 -0.1404374524 0.9299446429 3.559298099e-43
-0.002200286667 -0.001994678857 -0.173584 0 0 1 3.559298099e-43
0.0002670984 -0.001994678857 -0.173584 0 0 1 3.559298099e-43
0.00273466 -0.001994678857 -0.173584 0 0 1 3.559298099e-43
0.0101941569 -0.002005918905 -0.1745377381 0.0625762381 0.0548505 0.9558347143 3.559298099e-43
0.02074815 -0.001058975833 -0.177612 0.22204725 0.4434880833 0.7660523333 8.248042761e-42
0.02830506667 -0.00079155 -0.180664 0.095515 0.8995883333 0.4032233333 1.147663442e-41
0.02796572381 -0.004007701429 -0.1777980952 0.189099619 0.4160064286 0.7837435714 8.248042761e-42
0.03277152857 -0.002519471429 -0.179688 0.01538892857 0.1705622143 0.9227317857 1.075916961e-41
0.01491614545 -0.003021415455 -0.174561 0.1646428182 0.4017812727 0.7666492727 3.559298099e-43
-0.004730606 -0.009524798 -0.1759846667 -0.09846053333 -0.2949009 0.8558709333 4.660718692e-42
-0.02680054 -0.003515243 -0.1777097 -0.1102123 -0.1086852 0.9236685 8.248042761e-42
-0.01974486316 -0.003744222632 -0.1765331579 -0.09984310526 -0.4064077368 0.7983124737 6.09564832e-42
-0.01475024286 -0.004339817143 -0.1758264857 -0.09608411429 -0.3005412571 0.8477447429 4.301986285e-42
0.01794942222 -0.00340398 -0.175659 0.1567195556 0.4918622222 0.7299816667 3.584521472e-42
0.02279408889 -0.004314262222 -0.1760932222 0.1235738889 0.25734375 0.8619073611 4.660718692e-42
0.0302621 -0.004334586857 -0.1780865429 0.1062935143 0.3592017143 0.8152866286 8.965507575e-42
0.03257751667 -0.003914197222 -0.1789010556 0.242332265 0.3210201111 0.7421955 9.304621803e-42
-0.02209618571 -0.004645029048 -0.177612 -0.06259166667 -0.1962445238 0.9034392857 8.248042761e-42
-0.01250659474 -0.004775398421 -0.175659 -0.1523287895 -0.2408497895 0.8536642105 3.584521472e-42
-0.01163345455 -0.004036122727 -0.174561 -0.2094260909 -0.3086086364 0.7924746364 7.146622168e-43
-0.007176715 -0.004694303333 -0.174561 -0.01659788889 -0.1180536944 0.9463385 3.559298099e-43
0.00766945 -0.004667283333 -0.173584 0.01612897222 0.008083194444 0.9933438333 3.559298099e-43
0.02759246 -0.005166628 -0.176636 0.1708956 0.4193321 0.7761179 6.454380727e-42
0.0309906 -0.00582886 -0.177612 0.190066 0.688981 0.6577065 8.248042761e-42
0.01260147 -0.02034149 -0.177612 -0.1972211 -0.4657127 0.7659281 8.248042761e-42
0.01263894615 -0.01735982692 -0.175659 -0.1372623462 -0.2545303077 0.854526 3.584521472e-42
-0.02490233333 -0.006018323333 -0.1791385 -0.1343141667 -0.385426 0.4108218333 1.04004372e-41
-0.0210342 -0.006055835 -0.1781005 0 -0.865798 0.493491 8.965507575e-42
-0.01956961714 -0.006885202286 -0.1784912857 0.01332394286 -0.4379175429 0.7662730571 9.324239982e-42
-0.01646425 -0.00579453 -0.176636 -0.251555 -0.246981 0.854571 6.454380727e-42
-0.0146048 -0.006259494444 -0.176636 -0.1097946111 -0.1983686111 0.9034563889 6.454380727e-42
0.025338736 -0.0064440892 -0.175659 0.08306228 0.2622694 0.85879456 3.584521472e-42
0.03009319063 -0.007051348125 -0.17639175 0.1302096875 0.2735832188 0.8164663437 5.736915913e-42
-0.007318708148 -0.007349367037 -0.175659 -0.1095462593 -0.2529172963 0.8626434815 3.584521472e-42
0.0002675255611 -0.007155735556 -0.1740182222 -0.07471655556 -0.2328075833 0.8823221389 3.559298099e-43
0.00766945 -0.00713539 -0.173584 0 0 1 3.559298099e-43
0.01779748438 -0.007154462187 -0.1740725 0.15404425 0.2459065937 0.8435094687 3.559298099e-43
0.02290803333 -0.007356006 -0.174561 0.070719 0.1410035333 0.9188874 3.559298099e-43
-0.005094909 -0.00800743 -0.175659 -0.1698952 -0.3576619 0.7817781 3.584521472e-42
0.02537841333 -0.007879638 -0.174561 0.09421493333 0.2969718 0.8354267333 3.559298099e-43
-0.01298013333 -0.00792694 -0.177612 -0.2184846667 -0.6850856667 0.6640466667 7.530577947e-42
-0.01887511667 -0.008871715 -0.179688 0 0 1 1.075916961e-41
-0.01721427692 -0.009189606923 -0.1794766538 -0.1561090769 -0.1305587308 0.8577933077 1.04004372e-41
-0.01436942143 -0.00894601 -0.1780307143 -0.1623769286 -0.2046058571 0.8680155 8.965507575e-42
-0.01223149706 -0.009454166765 -0.1780430294 -0.06626541176 -0.3031746176 0.8600885 8.965507575e-42
-0.0112305 -0.00830078 -0.176636 -0.37339 -0.750205 0.545686 6.454380727e-42
-0.007190409615 -0.009295832308 -0.1765232692 -0.187041 -0.3566675 0.8029978846 6.09564832e-42
-0.009865177143 -0.009804510476 -0.1777980952 -0.1912451905 -0.4884555714 0.7505299048 8.606775168e-42
-0.002258446923 -0.0098425 -0.1756965769 -0.1423521538 -0.2918245 0.8349676538 3.943253879e-42
0.0004002805455 -0.009205212273 -0.174561 -0.08123272727 -0.1981643636 0.88763 3.559298099e-43
0.005212254444 -0.009624486111 -0.1739368056 -0.093117 -0.22857625 0.8811288056 3.559298099e-43
0.01034455 -0.009604318095 -0.1736072619 -0.02308588095 -0.08115121429 0.9614390476 3.559298099e-43
0.01301575 -0.009602863333 -0.173584 0 0 1 3.559298099e-43
0.01795196667 -0.009602863333 -0.173584 0 0 1 3.559298099e-43
0.02042516389 -0.009604135 -0.1736111389 0.03796269444 0.09734280556 0.9481283889 3.559298099e-43
0.02293396944 -0.009621301111 -0.1739639444 0.09459375 0.232304 0.8759089167 3.559298099e-43
0.02548217222 -0.009647794444 -0.1744253056 0.08654552778 0.1250259722 0.9212327222 3.559298099e-43
0.02756652 -0.009966666 -0.174561 0.1504885 0.13624215 0.89073935 3.377129299e-43
0.02835081 -0.009088898 -0.175659 0.2575577 0.21932 0.8080662 3.584521472e-42
0.02948971818 -0.009315488182 -0.175659 0.05455836364 0.05555027273 0.9560165455 3.584521472e-42
-0.00786082 -0.01031243333 -0.177612 -0.2666886667 -0.5318208333 0.7359456667 8.248042761e-42
-0.0134811 -0.0109406 -0.178589 0 0 1 0
-0.01170539167 -0.01188342083 -0.1793216667 -0.05753970833 -0.24651375 0.7851292917 1.075916961e-41
-0.009657086774 -0.01206995161 -0.1791916774 -0.1239140645 -0.2815616129 0.8483556774 1.04004372e-41
-0.004469871667 -0.01109443333 -0.176636 -0.1642551667 -0.3294425 0.829468 6.813113134e-42
-0.002178089286 -0.01181139286 -0.1765662143 -0.1263915714 -0.3151575714 0.8323172857 6.09564832e-42
0.00172615 -0.0107498 -0.175659 -0.392025 -0.782251 0.484149 3.584521472e-42
-0.004899813043 -0.01233409565 -0.177781913 -0.1785282174 -0.3812106087 0.7959090435 8.606775168e-42
0.0002702020367 -0.01203815667 -0.1761475 -0.1423101667 -0.2837945333 0.8536958667 5.019451099e-42
0.002736909643 -0.012272975 -0.1756938929 -0.1287440714 -0.2893807143 0.8454057143 3.584521472e-42
0.003287888 -0.0111908 -0.174561 -0.2180286 -0.5903792 0.6657988 3.559298099e-43
0.005438894091 -0.01172709091 -0.174561 -0.1055497727 -0.1829601364 0.892578 3.559298099e-43
0.007712681667 -0.01214093333 -0.174561 -0.02749236111 -0.07647305556 0.9611801111 3.559298099e-43
0.01548385 -0.0120697 -0.173584 0 0 1 3.559298099e-43
0.02042135 -0.0120697 -0.173584 0 0 1 3.559298099e-43
0.025373675 -0.01207924167 -0.1737196944 0.1610561389 0.08521844444 0.9094217222 3.559298099e-43
0.02776835862 -0.01208814138 -0.1745273103 0.06545448276 0.04282672414 0.9614912759 3.559298099e-43
0.004935672857 -0.01286480714 -0.175659 -0.1720173571 -0.299425 0.8138441429 3.584521472e-42
-0.00296669 -0.01280976 -0.177612 -0.2492 -0.3804432 0.7750838 8.248042761e-42
-0.009510035 -0.0135498 -0.179688 0 0 1 1.075916961e-41
-0.00715065 -0.01351545 -0.1791385 0 0 1 1.04004372e-41
-0.0019776156 -0.014295348 -0.1780028 -0.0830814 -0.3269442 0.83155016 8.965507575e-42
0.0001246858185 -0.01474875185 -0.1778652963 -0.2027618519 -0.3903763704 0.7881851852 8.606775168e-42
0.005275472 -0.01453780667 -0.1761149333 -0.1654845 -0.2798513 0.8335335667 5.019451099e-42
0.00775199 -0.01467291379 -0.1756926897 -0.09321496552 -0.3166538276 0.8404955517 3.584521472e-42
0.0083313 -0.013588 -0.174561 -0.1308263333 -0.7752393333 0.5851003333 3.559298099e-43
0.01052975769 -0.01393833077 -0.174561 -0.1731240769 -0.3098359231 0.8097184615 3.559298099e-43
0.01274425556 -0.01456345 -0.1745338611 -0.06995866667 -0.0889595 0.9373071389 3.559298099e-43
0.0153104675 -0.01457251 -0.173950375 -0.135198875 -0.2059569 0.87000735 3.559298099e-43
0.01791794324 -0.01457172973 -0.1736368108 -0.03632464865 -0.1517080811 0.9268178378 3.559298099e-43
0.02288055 -0.01453908333 -0.173584 0 0 1 3.559298099e-43
0.02535248333 -0.01453908333 -0.173584 0 0 1 3.559298099e-43
0.01006416304 -0.01509461304 -0.175659 -0.1136315217 -0.2072202609 0.872051913 3.584521472e-42
0.002503682 -0.0152931 -0.177612 -0.1979226 -0.4668023 0.7646332 8.248042761e-42
0.02706906667 -0.01625061667 -0.173584 0 0 1 2.970752744e-43
-0.00189566875 -0.0161781375 -0.178726375 0 0 0.875 9.682972388e-42
0.005752945 -0.01613006 -0.176636 -0.1623971 -0.3389864 0.8090899 6.454380727e-42
0.00785525625 -0.01661999167 -0.176636 -0.105722375 -0.3033724167 0.8561317917 6.454380727e-42
0.010287725 -0.01705118667 -0.1762452 -0.1964613 -0.2528836 0.8295605 5.378183506e-42
0.0132465125 -0.016325 -0.174561 -0.21324125 -0.349924875 0.772634125 7.146622168e-43
0.01526672 -0.01674318 -0.174561 -0.05568256 -0.17280776 0.90869308 3.559298099e-43
0.02032432857 -0.01709785476 -0.1745377381 -0.02583540476 -0.1428758571 0.9248671905 3.559298099e-43
0.02294540278 -0.01705170556 -0.1740453611 -0.1686822778 -0.22405425 0.8506849722 3.559298099e-43
0.0252623625 -0.01689004375 -0.173584 -0.01664759375 -0.01664759375 0.989299375 3.559298099e-43
0.007551957 -0.01781308 -0.177612 -0.1977769 -0.4667123 0.7647631 8.248042761e-42
0.003509045 -0.018966675 -0.179001125 -0.167909 -0.309772875 0.8103845 1.00417048e-41
0.00529395037 -0.0193504 -0.1790367407 -0.08389825926 -0.3595013704 0.8073339259 1.00417048e-41
0.0102093628 -0.019862068 -0.17788556 -0.23200364 -0.4468688 0.75171788 8.606775168e-42
0.01287736818 -0.01919831818 -0.1765915909 -0.1630744545 -0.3912899091 0.8056069545 6.454380727e-42
0.01529541333 -0.01955412667 -0.1762126333 -0.1102061333 -0.3162452333 0.8444684333 5.378183506e-42
0.0184708 -0.0185547 -0.174561 -0.194524 -0.774142 0.564012 3.559298099e-43
0.0205593 -0.0188637 -0.174561 -0.0875556875 -0.3186205625 0.8337649375 3.559298099e-43
0.02300705789 -0.01907511053 -0.174561 -0.04980289474 -0.1459353684 0.9191843158 3.559298099e-43
0.0201184 -0.02012038696 -0.175659 -0.06068186957 -0.1878943913 0.9004198696 3.584521472e-42
0.02246857143 -0.02034978571 -0.175659 -0.0688595 -0.2575449286 0.8606452143 3.584521472e-42
0.007955378182 -0.02128740909 -0.179688 -0.08287445455 -0.2687175455 0.8375104545 1.075916961e-41
0.01072603471 -0.02176262353 -0.1792354706 -0.1869158824 -0.6326237059 0.6563061176 1.04004372e-41
0.0130054875 -0.0219955375 -0.1783905312 -0.219944625 -0.4153222812 0.7615817187 9.324239982e-42
0.01536755806 -0.02223649355 -0.1780217097 -0.1630064194 -0.4022698065 0.7977009355 8.965507575e-42
0.01587526 -0.0209412 -0.176636 -0.2068442 -0.5562622 0.7122548 6.454380727e-42
0.017988575 -0.0215462 -0.176636 -0.1732417 -0.2865441 0.83811485 6.454380727e-42
0.02263845333 -0.02208302 -0.175659 -0.0403179 -0.03020676667 0.9751900333 3.201966991e-42
0.010652525 -0.022933975 -0.180664 -0.319047 -0.48208475 0.6993105 1.147663442e-41
0.010778026 -0.02397919 -0.1809571 -0.2577067 -0.2577067 0.7086888 9.25277376e-42
0.01524378125 -0.02454567187 -0.1794475937 -0.1042516875 -0.2506471875 0.8666979375 1.075916961e-41
0.0178193129 -0.02452628065 -0.1786480645 -0.229375129 -0.3788466774 0.7774446452 9.682972388e-42
0.02080533333 -0.02374904167 -0.176636 -0.19874975 -0.25178275 0.8380786667 6.454380727e-42
