# .PCD v0.7 - Point Cloud Data file format
VERSION 0.7
FIELDS x y z normal_x normal_y normal_z
SIZE 4 4 4 4 4 4
TYPE F F F F F F
COUNT 1 1 1 1 1 1
WIDTH 583
HEIGHT 1
VIEWPOINT 0 0 0 1 0 0 0
POINTS 583
DATA ascii
0.01621907 -0.00333680925 0.01089163325 0.9831941176 -0.182117655 0.01274703177
0.016528474 0.00093500129 0.035923899 0.974574367 0.06899826868 0.2131760823
0.01514107273 -0.006702474818 -0.01915298636 0.9097283036 -0.4150771771 0.0102640519
0.015543236 0.0056999952 -0.021525384 0.9262928476 0.3764664496 0.01595533735
0.0094978488 -0.013566763 0.033541949 -0.6404458469 0.7680032722 -0.0003017370807
0.01516033333 -0.006635220917 0.01609125667 0.9097991312 -0.4150255734 0.004394795837
0.009875591846 0.01328182923 0.0009855580862 -0.6196694963 -0.7848600046 0.002118603335
0.01549998182 0.005823204909 0.02841129727 0.927870639 0.3729022356 -1.825755748e-06
0.0082498155 0.01436059 0.016106515 0.5761319339 0.817356688 0.0001982721507
0.01078466 -0.012594745 -0.01423282 0.7148063662 -0.6992800481 0.007698905483
0.01646793833 -0.001698433942 -0.0337217525 0.9976185786 -0.06897109046 0.000400306527
0.009829103167 0.013323405 0.006002668167 -0.6218358983 -0.7831434115 0.002551994874
0.01325878 0.0012699946 0.039 -0.5510593611 -0.06921072144 -0.831590919
0.01402693375 -0.008819849625 -0.0315862775 0.8526775199 -0.5223740015 0.008151665757
0.0164565325 -0.001814927967 0.02597714667 0.9967499113 -0.07973888341 -0.01145970498
0.01320467 -0.009990064 0.02857116 0.8009929833 -0.5986476623 -0.005587233109
0.009435493571 -0.01360941714 0.02098332286 -0.6512177396 0.7588853604 0.002909538079
0.01646241417 -0.001722597825 0.0184927775 0.997256144 -0.07386084897 -0.004975768814
0.01005089817 -0.01188303333 0.03870030917 0.6349562288 -0.6264730547 0.4520642646
0.01250903786 0.01082265886 0.003462475714 0.7501670254 0.6611328223 0.01236225436
0.009425598625 -0.0136200575 0.00107556315 0.6528863361 -0.7574543372 -0.001535979856
0.01247292 0.0108684636 -0.03152994 0.7485544438 0.6630616272 -0.003939952133
0.01410412556 -0.008695926222 0.03102776222 0.8626490758 -0.5057431545 0.007773910977
0.010845835 -0.0125592825 -0.0164040325 0.7172271982 -0.6968351212 0.002441326586
0.01124461 0.012171525 -0.011508295 -0.671134666 -0.7409963624 0.02241987982
0.0155010625 0.005820094833 -0.009062039417 0.9277427669 0.3732144228 0.002086421346
0.01518626692 -0.006578603615 -0.03138060615 0.9096616643 -0.4151646676 -0.01240787571
0.0107687625 -0.0126080675 0.02336973 0.6946434945 -0.7193272025 0.006228273242
0.008460207 -0.01240712 0.039 0.6543396698 -0.584766269 0.4794663775
0.0098373456 0.01330919467 -0.03387418667 0.6379941843 0.770017776 -0.006003786793
0.008321482667 0.01432145667 0.03631447333 -0.6010980775 -0.7630018555 -0.2377167846
0.01325111333 -0.001795310667 0.039 -0.6364899874 0.1551992211 -0.7555088998
0.01413873429 -0.008647288714 0.008698245286 0.8627107685 -0.5056821847 -0.003957026902
0.01647851545 -0.001629017445 -0.01398394 0.9969593672 -0.07789573408 -0.002067567431
0.01646861222 -0.001723872433 0.02085728222 0.9972773889 -0.07281364873 0.01166113819
0.01200265071 -0.01140216857 -0.02400533643 0.7287000892 -0.6848328995 0.0002823206946
0.01068982667 -0.01268083667 -0.003970848 0.6981411719 -0.7159150437 0.008034568922
0.01585958 -0.0048070514 0.015658372 0.948683349 -0.3162153698 0.002782651276
0.01621171857 -0.003370613143 -0.02898302429 0.9838345002 -0.1788226321 -0.009599083832
0.01405550833 -0.008767554833 0.03811139333 0.8047804658 -0.4456095721 0.3921230816
0.01492554286 0.005756538429 0.03865757357 0.6950254878 0.2062389908 0.6887706803
0.0083617155 0.01429949 0.0062268345 0.5754246412 0.8178533257 -0.00155562362
0.01646589182 -0.001713697327 -0.02424417182 0.9965848761 -0.08185232271 0.01089871706
0.008287472667 0.01434003 -0.003954919 -0.5804690408 -0.8142796873 -0.002069659966
0.01325084714 -0.009928379857 0.001027753971 0.8001341627 -0.5998102263 0.003607520122
0.010812785 -0.0125817825 -0.03630917 0.7291657776 -0.6603829333 -0.1794760437
0.01510297455 -0.006765002182 0.02841946364 0.9089359491 -0.416722502 0.01333404563
0.01495504 -0.004381788231 0.03882280231 0.7350590513 -0.189873999 0.6508733022
0.01652820222 0.0009265543211 -0.03147055222 0.999241487 0.03403797562 0.01891737124
0.01603178667 0.004197745667 0.001014780743 0.9680016796 0.2507910544 -0.008751871373
0.01068553833 -0.012680145 -0.02124005667 0.6987687137 -0.7153255487 -0.005625301784
0.01399920143 -0.008857157 0.02616897714 0.8552740714 -0.5179376521 -0.01571150143
0.01629104556 0.002985185 0.006248497333 0.9885240344 0.1504420778 -0.0136899431
0.01521841583 -0.00650291725 0.02347303167 0.9135888857 -0.4065620789 -0.007913530203
0.014414335 0.008133125583 0.013594145 0.8796160246 0.4756437399 -0.006219478651
0.0098478536 0.013300182 -0.02404720933 -0.6296206404 -0.7769002831 -0.001949163949
0.008125568333 0.01442843333 0.02636271667 0.5670668911 0.8236629426 -0.003807629335
0.01646695182 -0.001724606909 -0.004039856455 0.9970692526 -0.07650247245 0.000526525379
0.0140800825 -0.008730226 0.01354997125 0.8601179986 -0.5100632198 0.005704412311
0.01054448333 -0.01278963667 0.01122916333 0.6997398852 -0.7143974169 -0.0006509840519
0.007675594333 0.01467414 0.02102941667 0.569228336 0.8221726679 0.003347472313
0.016544806 0.0007455202505 0.011132596 0.9995157916 0.02653762939 -0.01624612327
0.010792605 -0.01259035 -0.0011896859 0.7074963163 -0.7067124 -0.00255853096
0.01408862857 -0.008714284571 0.006129827143 0.8538078679 -0.5205248895 -0.00812182667
0.011229635 0.0121865 0.01825065 -0.6417190217 -0.7668971662 -0.008089109026
0.01647457556 -0.0016443708 0.03348640333 0.9970513378 -0.07664546754 0.003755277253
0.015457895 0.005929666333 -0.0190010175 0.9256110756 0.3784107712 0.007030294584
0.01550150333 0.005819124583 -0.01640279917 0.937093966 0.3489080782 -0.01086516902
0.01263600714 0.01067891136 0.0009304991486 0.7508724973 0.6604356535 0.003903900963
0.01192137545 -0.01148334091 -0.004025481545 0.724744346 -0.6890177228 -0.000458805958
0.009795119818 0.01334766 -0.008965261 -0.620015155 -0.7845897264 0.0004108223577
0.015904435 -0.004637452667 -0.008936436333 0.9540457279 -0.2995959059 0.006248383378
0.01134057 0.01207556 -0.004270583 -0.674622811 -0.7380710021 -0.01163007932
0.01202395 -0.011385465 0.0033443393 0.7283584893 -0.6851459493 0.008302967455
0.01125825 0.01215788 -0.03654691 -0.6507636754 -0.6559951098 0.3823310799
0.01550478182 0.005807435636 0.02594350727 0.928249261 0.3717908016 0.01117628155
0.0078244535 0.014592855 0.01334705 0.5722866898 0.8200476346 -0.003133955332
0.014417843 0.0081234509 0.01858558 0.8788283467 0.4766193254 0.02224310492
0.0162650375 0.00310248525 0.0110197025 0.9883352666 0.1522806036 -0.002004640689
0.01654491889 0.0007701378411 0.02844669 0.9991408077 0.03388644994 0.02386115848
0.01430588077 0.008330268077 -0.02891273692 0.8567438169 0.5156033021 -0.0119694168
0.01236466875 0.0109850775 0.03361422062 0.7499069761 0.6615375149 0.002764707196
0.011239745 0.012176385 0.02337308 0.6614587192 0.7499639234 0.005145517982
0.01549469333 0.00583738475 0.00591222825 0.9356238954 0.3529498184 0.005861063525
0.01515249889 -0.006656262778 0.008587606333 0.9110530903 -0.4120693359 -0.01345841975
0.015505051 0.0058067235 0.030980446 0.9348571776 0.3550228416 -0.0009161967218
0.0097487615 0.01069124992 -0.039 0.4247997528 0.4739355404 -0.7713172328
0.0107652025 -0.012612975 -0.0088077495 0.6983128149 -0.7157856194 -0.003187416562
0.01653250667 0.0009206859256 -0.008991362778 0.9995262198 0.03051448344 0.004025189293
0.01405903143 -0.008766576571 0.03325196571 0.8538711694 -0.5204832288 0.001111107221
0.016316813 0.0028678285 0.028467829 0.9877817391 0.1558421797 -0.000671543349
0.01511768273 -0.006747364455 -0.02399484 0.9097969052 -0.4150536577 0.0002292580534
0.01429650636 0.008340473636 -0.03420577 0.8634312638 0.5044571555 -0.003070979013
0.01647833818 -0.001610514527 0.01115061355 0.9972828067 -0.07320092028 -0.008284246012
0.01403556143 -0.008819172 -0.001463741943 0.8379625319 -0.5456311263 0.01026982018
0.01066645667 -0.01269833 0.03558967667 -0.6771745465 0.7182503667 -0.1598469402
0.01588905875 -0.0046919885 -0.0240785925 0.9544985448 -0.2982125435 0.001344174021
0.014851348 -0.0064460208 -0.038693272 0.7244909517 -0.3908318809 -0.5677704658
0.0077950065 0.014608935 0.008305992 0.5737722742 0.8190135474 -0.001478698838
0.016307436 0.0029306054 -0.014138682 0.9875238722 0.1568076827 0.01442055524
0.01652990636 0.0008569316364 0.03348734909 0.9996934599 0.02200825189 -0.0113412132
0.01356241 0.009512183 -0.005662937 0.8263174053 0.5629862062 -0.01568685244
0.01515756917 -0.006631669667 -0.02148667917 0.91056023 -0.4132543552 -0.01004517074
0.009873345286 0.01328376714 0.03344446643 -0.6149485841 -0.7885671531 -0.000289910274
0.01238924286 0.01058881036 0.03848287143 0.6654239304 0.5349415094 0.5206232557
0.01408242 -0.008591814333 -0.03839878333 0.766404051 -0.4499388637 -0.4584537594
0.01589188667 -0.004687047111 -0.01393147556 0.9524311779 -0.3044752996 -0.01302471734
0.01630608444 0.002929266778 -0.003911645889 0.9879926382 0.154239197 -0.00898982182
0.009508823286 -0.01356492286 -0.02884731143 -0.6592338475 0.7519347328 -0.002211776158
0.012078061 -0.011323471 -0.036547862 0.7432822532 -0.6216157645 -0.2472353804
0.01329853333 -0.009864677333 -0.01940585 0.8021855721 -0.5970367635 0.006738772539
0.011929984 -0.01147561 0.018297907 0.7253891414 -0.6882224888 0.01266489119
0.009574006111 -0.01351533111 -0.0139938 -0.6614835606 0.749952036 -0.003382708021
0.009466049375 -0.01358926375 0.003241847125 -0.6510836522 0.7590056538 0.0007038096675
0.016194935 -0.0034477785 -0.0092789725 0.9813890607 -0.1920299755 1.116250608e-05
0.01403743625 -0.008797034375 0.0181983575 0.8534076826 -0.5209718678 0.01684162101
0.010716604 -0.01264948 0.015731008 -0.6962454644 0.7177936291 -0.00381566657
0.009357962375 -0.013666895 0.02605218625 -0.6474024892 0.7621002976 -0.008552974852
0.009729130833 -0.01340000333 -0.03670081 0.707386735 -0.6611503868 -0.2499683443
0.01490656083 -0.001780048833 0.039 -0.6998868911 0.1307157417 -0.7021906682
0.01203633818 -0.01135926545 -0.01392116636 0.7287763482 -0.6847353913 -0.004741109602
0.0158566 -0.00481041 0.00092306626 0.9545087861 -0.2979917153 0.01067309144
0.012547594 0.01078161967 0.0085240788 0.7493781134 0.6620383731 -0.01173182817
0.01413269667 -0.008637229778 -0.008947161778 0.8683362385 -0.4959208413 -0.00739568271
0.009810515615 0.01332896769 -0.03658341923 -0.5867151397 -0.7585792675 0.2834128434
0.01646622778 -0.001730851978 -0.01635554111 0.9968270878 -0.07889181196 -0.01057539513
0.01202114833 -0.0113838025 -0.01894210083 0.7296697427 -0.6837749012 -0.005826758823
0.01593174667 -0.00455903 -0.01894468333 0.9532661267 -0.3021284027 0.001456008425
0.009803335583 0.01305227917 -0.03867813333 0.5456801343 0.6202122184 -0.5635334907
0.01202017091 -0.01138245182 0.03325190727 0.7260657871 -0.6875418149 0.01071099996
0.013258455 -0.009918215333 0.008433784 0.800764072 -0.5988085371 0.01432608786
0.00838318575 0.014287765 -0.01633937 0.5757785591 0.817601044 -0.002753850009
0.0165411025 0.0007123256967 -0.01145653333 0.9997673139 0.02156926719 -0.0002911100374
0.01605699 0.004081890667 -0.01884382667 0.9676060946 0.2523828082 -0.006431465121
0.01439268333 0.00817858275 -0.02153960083 0.8820598512 0.4710790516 -0.007412558661
0.01552490636 0.005756383273 -0.03412569182 0.9473927956 0.3191554801 -0.02422128058
0.009766239 -0.01329805333 -0.03851921667 0.7468089288 -0.6217298975 -0.2360685458
0.01588276667 -0.004735084333 0.023490305 0.9540171346 -0.299750858 -0.0008543968957
0.01653773818 0.0007932024773 -0.01670069455 0.9997138719 0.0210649784 0.01133318449
0.01545329833 0.00594535625 -0.03179129083 0.9354501029 0.3532741581 0.01142253335
0.01512663538 -0.006712838 0.01095416862 0.912165876 -0.4097605782 0.007048627403
0.0154753375 0.0058818475 0.003326087417 0.9364985879 0.3504624622 0.01210196166
0.0107259075 -0.0126342675 0.001394411225 0.6918094157 -0.7220680634 -0.004176634469
0.01404856111 -0.008778828667 0.003537033111 0.8539457598 -0.5203614701 0.0007613915106
0.01653341818 0.00086184493 -0.03403285818 0.9987977597 0.04790320341 0.01040760808
0.01604984 0.00411475 0.003891648667 0.9680712795 0.2504409526 -0.01083176532
0.01070143 -0.01265863 -0.0190691025 -0.7022809739 0.7118904922 0.003655245884
0.01408411 -0.008728551625 0.02359694375 0.8524663108 -0.5226043846 -0.01363254124
0.01591311429 -0.004620569 0.01106082857 0.9495832757 -0.3129202811 -0.01930026596
0.015480136 0.005868147 -0.02635959667 0.935836289 0.3523472326 -0.00786560847
0.01256745643 0.01075082493 -0.02894157143 0.7492897555 0.6618936502 -0.02148623102
0.01627735 0.003068914833 0.02353201 0.9883760069 0.1519965135 -0.003151014142
0.01437370923 0.008207325615 0.001170360254 0.8582921597 0.5129919787 -0.01318325968
0.016538597 0.000804639098 -0.0040133238 0.9987093056 0.05074283258 -0.002210841927
0.01629697286 0.002963535143 0.03611002143 0.9280191734 0.1581662528 0.3372889715
0.013321592 -0.009833874 -0.00137327084 0.8006846582 -0.5989855926 0.01096986819
0.01120075 0.01221539 0.01120458 -0.6456845435 -0.7636042465 -0.0001578505059
0.01245139267 0.01089113073 0.01593625 0.7487237853 0.6628809643 -0.001233077409
0.014075254 -0.0087370989 -0.021367958 0.8534850784 -0.5209543431 -0.01303047813
0.01002951662 0.01316844462 -0.02154619769 -0.6268386205 -0.779074822 -0.01075943585
0.008064695143 0.01357777714 0.03884941857 -0.5520759022 -0.6620978005 -0.506792562
0.011972738 -0.011432755 -0.029097723 0.7263428073 -0.6873325674 -0.0002610144385
0.016530272 0.0008068818115 0.0033994193 0.9995840554 0.02836670939 0.005200571224
0.01654718556 0.0006456746733 -0.02155869333 0.9998658299 0.01628802266 0.001738554353
0.01550953538 0.005789935692 0.01098246631 0.928005901 0.3725630945 0.001337283126
0.01131514 0.012100995 0.0081913855 0.6734836882 0.7391728136 -0.006578245277
0.008364519333 0.01429796 0.01369794333 0.5752601316 0.8179701665 -0.0007666229664
0.016190745 -0.0034670235 0.02872564 0.9830041548 -0.1830326682 -0.01420823955
0.01645708455 -0.001829844155 -0.01911013727 0.9970084706 -0.07724797804 0.002619070076
0.008174059333 0.01440196 0.03044505667 0.5731807364 0.8194115801 0.005339085738
0.01434560308 0.008252700538 -0.01405157538 0.8699741175 0.4928212317 -0.01650056225
0.0098472394 -0.013311586 -0.016360126 -0.683816041 0.7295937748 -0.009409877847
0.01654744182 0.0006403208027 0.02604865909 0.9998064915 0.01966072157 -0.000660011965
0.00788657 0.01455894 -0.01282253 0.5670605237 0.8236749454 0.00139527444
0.01620782 -0.00338852875 0.0011971022 0.980734283 -0.195345814 -0.0005283720859
0.01185854727 -0.01155747636 0.02099471091 0.7254085952 -0.6883178704 -0.0009377242858
0.009901856231 0.01326118462 0.02358995 -0.6184848073 -0.7857181543 0.01111418139
0.01068743 -0.0126707475 -0.034286825 -0.6922153944 0.7207393729 0.03704867218
0.01552497455 0.005749203182 0.008504633091 0.9390056147 0.3439005538 0.0009298683022
0.01505643538 -0.006863038769 -0.006490671923 0.9092065963 -0.4163428234 0.001420768577
0.01588838333 -0.0047143675 -0.03169933167 0.948577761 -0.3164891234 0.005904754201
0.01127387 0.01214226 0.02648801 -0.6409599666 -0.767571268 0.002160976138
0.01224325273 0.01076784618 -0.03869961273 0.6242372239 0.4903681256 -0.6081669094
0.01037505833 0.00842143 -0.039 0.4572638426 0.3432691273 -0.8204121431
0.008200488 0.014387525 -0.034111575 0.5594394232 0.8265742895 -0.06166421753
0.01632826375 0.002821614375 -0.01637759 0.9877415473 0.1560391104 0.004293227646
0.010791362 -0.012592662 0.013615392 0.6961650005 -0.7178331556 -0.008357792074
0.009852292154 0.01330553077 0.01350031385 -0.6201780733 -0.7844379392 0.006023035658
0.01131799 0.01209814 0.01345630333 -0.6423761448 -0.7659709499 0.02532572782
0.01551898364 0.005772261455 -0.004010390636 0.9270658098 0.3745788927 -0.01548022538
0.015938505 -0.004534633 -0.03669343167 0.9134123382 -0.268580788 -0.3058467928
0.009566809444 -0.0135211 -0.01924363222 -0.6573643052 0.7535725735 0.0007393982226
0.01627488556 0.003063661222 -0.006714144 0.9878110904 0.1552096734 0.01179860098
0.01424606615 0.008434588462 0.02361627385 0.8606514639 0.5090821997 -0.0106944634
0.0162011675 -0.00341910875 -0.0164757975 0.9805205133 -0.1964144939 0.0009325032313
0.009529174714 -0.01354968714 -0.02408530429 0.6555774781 -0.755126497 -0.001464176791
0.01592597286 -0.004552208857 0.02860400857 0.9534383355 -0.3013694494 -0.01148021178
0.01508481636 -0.006818560455 -0.01653014 0.9108265934 -0.4125219719 0.01485057146
0.01625654714 0.003164545 -0.03396375857 0.9876582133 0.1566186317 -0.001363063943
0.01632807667 0.002788328556 -0.02397875889 0.9881298616 0.1535265667 -0.005382374513
0.01588481625 -0.004701164375 -0.01646908875 0.9529075769 -0.3032212221 0.004903092349
0.00999384825 0.0131893825 -0.03144973417 -0.6395129347 -0.7687482626 0.007022469288
0.01652836182 0.0009617703127 0.02106436182 0.9983560037 0.05663105525 -0.008843838181
0.013216516 -0.0099742458 0.015923514 0.8000877583 -0.5998665216 0.004442438893
0.0162831375 0.003038459 0.01819713125 0.9881021932 0.1534823687 0.009859933709
0.007689534 0.01466653 0.011684305 0.5702277822 0.8214859053 0.001088024995
0.01511080929 -0.0067439925 -0.011441685 0.9095942783 -0.4153023812 -0.01273503241
0.01335315 -0.0016094615 -0.039 -0.600359715 0.07866831322 0.7958514365
0.008363367333 0.01429859 -0.006599347 0.5799913969 0.8146045347 0.005425084959
0.009754511462 0.01299591385 0.03853964846 0.5627909186 0.6064142893 0.5617188725
0.01415050857 -0.008625104286 -0.02417844286 0.8686307053 -0.4952537841 0.01429640709
0.01511265545 -0.006736658182 -0.02654542182 0.9104744482 -0.4134949873 0.007627236515
0.01506374 0.005637576077 -0.03872358308 0.8386154784 0.3058551779 -0.4507512501
0.01271781778 0.005859533111 0.039 -0.5978313367 -0.219832412 -0.7708900074
0.01554168 0.005704362538 0.02354911923 0.9391594337 0.3434242704 0.006271244419
0.01617606 -0.003534525 -0.02425613 0.9829802438 -0.183278265 0.01260626227
0.016540561 0.000831056432 -0.023965873 0.999836603 0.01805255114 -0.0009341343035
0.01433992 0.0082662708 -0.019056406 0.8612389944 0.5079225157 0.01679620917
0.015139186 -0.0066986695 -0.028872311 0.9095923115 -0.4153476279 -0.0113214286
0.0125652875 0.01078311317 -0.009097145583 0.7422235261 0.6701097652 0.007559091922
0.01547546083 0.005886091 -0.00645762325 0.9278634387 0.3729187236 0.001031814536
0.00760790875 0.0147111 0.035997315 -0.5595005645 -0.8025635798 -0.2070043929
0.01426876333 0.008401171778 0.02103716667 0.8623584538 0.506219893 -0.00890601191
0.01654015556 0.0008229528567 0.01599889111 0.9996868325 0.02239192825 0.01117311586
0.01397664 -0.008895045429 -0.004327224143 0.8552041257 -0.5181562399 0.01183276783
0.01626798667 -0.003111968 -0.03694748333 0.9347505925 -0.1762824317 -0.3084896012
0.01268703556 -0.009298622778 0.03879226778 0.692755495 -0.5160302505 0.5037882539
0.010601412 -0.01274045 -0.006503215 0.6980201908 -0.7160534076 0.005943964322
0.0164576325 -0.001835438062 -0.02644418 0.9968931229 -0.07876598856 -0.0001433189796
0.01592229571 -0.004590582429 -0.01127562429 0.9480561729 -0.3179685427 -0.009246556749
0.01631669 0.0028532442 -0.036569512 0.9112312088 0.1951117982 -0.3627520784
0.01125425333 0.01216188 0.005890654333 -0.6607463556 -0.750584358 -0.006113517609
0.01256204571 0.010751656 0.02074319429 0.7501793534 0.661123852 0.01209090568
0.01603606 0.004178092667 -0.01423233 0.9676059452 0.2521011453 0.01355534442
0.014326327 0.0082873419 -0.026475158 0.8620573469 0.5059630665 -0.02930027332
0.016482426 -0.00158628034 -0.00138989555 0.9975428635 -0.06974562487 0.006616899365
0.01415234778 -0.008604827222 -0.03610485 0.8365411538 -0.5072845787 -0.2070295977
0.008289881 0.01433871333 0.008310267 0.5763067813 0.8172334378 4.357913279e-05
0.01007899914 -0.009525600286 -0.039 0.5302004916 -0.4464320563 -0.7208230419
0.01434614538 0.008251557615 0.008415008462 0.8664157852 0.4990812887 0.01554201935
0.01595140571 -0.004488193429 -0.003816893714 0.9530320715 -0.3026193241 -0.01230509192
0.01653521 0.0008719945323 -0.001555759615 0.9988630024 0.04764568375 0.001609728853
0.01628699125 0.003024592875 0.02099395375 0.9884519714 0.1515223487 -0.001917821808
0.01512637267 -0.006701541533 -0.004021987133 0.9102619872 -0.4138813552 0.01119547116
0.012089779 -0.011311158 0.023370315 0.7250604158 -0.6886851469 -0.0004021955893
0.013137548 -0.0100797308 0.01855082 0.8012949531 -0.5981229128 0.01324308832
0.009524740857 -0.01354876857 -0.01144969286 -0.6570179858 0.753872297 0.001981455525
0.01424956 0.00842118925 0.00589367375 0.8591814724 0.5113367931 0.01849003768
0.01648495 -0.00155737266 -0.028988603 0.9967554462 -0.08045138959 -0.002480819836
0.00820737125 0.01438377 0.001140245825 0.5768771674 0.8168309062 -6.708389105e-05
0.009997913417 0.01319213 0.01106534333 -0.622303821 -0.7827505444 0.0062880556
0.01208404222 -0.01132447333 0.01601849556 0.7250475526 -0.6886463036 -0.008503824619
0.01628904 0.002966877167 0.03838248167 0.8492530436 0.2292146488 0.4756363239
0.013189102 -0.0100108608 -0.033927664 0.7904341087 -0.6125229522 -0.005436250901
0.013112956 -0.010112578 0.026223404 0.7951278155 -0.6064358724 -0.002699948031
0.01354145 0.009540177 0.02583579 0.8351801957 0.549938999 0.006413899971
0.01510196769 -0.006774196385 0.02117274923 0.9102478132 -0.4138394544 -0.01363174866
0.010625056 -0.012725028 -0.023767352 -0.6969120441 0.7171561088 0.0008475642658
0.01550606 0.0058028337 0.018341592 0.9288638248 0.3701877123 0.01315494743
0.01606826 0.004030075667 0.02069649667 0.9598870439 0.280295519 0.007161351862
0.01426680091 0.008395680909 -0.01678011636 0.8574947835 0.5135013669 0.03192244477
0.01002727667 0.01316734133 -0.01387280533 -0.6240641545 -0.7813046998 0.01033911013
0.01405535 -0.0087707688 0.028353844 0.8554190159 -0.5179253024 0.003418821228
0.009454659125 -0.0135254425 0.03830743875 0.6553904068 -0.6810314649 0.32658775
0.01601394333 0.004279770667 -0.02888742333 0.9615819674 0.2740702211 0.01567270877
0.01633074429 0.002805021857 0.01593805571 0.9886755217 0.1500382146 0.003040874321
0.01653249 0.0009336297909 0.02355352909 0.9974412484 0.07022807303 -0.01337810735
0.009568855625 -0.0135199825 -0.00897580025 0.6817512519 -0.7315826117 0.001453586844
0.013308956 -0.0098507548 0.01357211 0.8001545038 -0.5995865827 -0.01577022247
0.010758626 -0.012617206 0.030856318 0.6844272037 -0.7290807366 -0.0008260866688
0.014026825 -0.008819084167 -0.006842362167 0.8510775079 -0.5248501055 0.01412240498
0.00767622975 0.01467379 0.02844176 0.5708703394 0.8210377193 -0.002029529446
0.015482091 0.005871173 -0.023847687 0.9297102743 0.3682915575 -0.0003667120437
0.016538281 0.00073395759 0.01365161 0.9995938748 0.02243681114 -0.01756915025
0.0163128 0.002889173143 -0.01888543143 0.9887449561 0.1494492694 -0.006951811708
0.0078006845 0.014605835 0.003545621 0.5737586102 0.8190239754 -0.0008859765384
0.016498393 0.00070532928 0.038235212 0.8227475614 0.1009161061 0.5593767869
0.007828962 0.01459039 -0.009058006 0.580289862 0.8144100162 3.982815404e-05
0.01308132 -0.01015484 -0.004020333333 0.7852831879 -0.6190570942 0.009931206688
0.01630098 0.002960274333 -0.008934373167 0.9881970666 0.1531814115 0.001418691142
0.01213022615 -0.01126722846 -0.03156301308 0.7271670262 -0.6864585466 0.001667270305
0.01517142636 -0.006620177909 -0.03643489455 0.8716270296 -0.4106098744 -0.2677047857
0.01245235667 -0.006910642917 0.039 0.6700351887 -0.343217343 0.6582208607
0.014306505 0.008323777643 0.03328295 0.8729614866 0.4874941025 0.01696298592
0.01481182308 0.0008582603185 0.039 -0.6989600643 -0.06653580682 -0.7120588564
0.0084117665 0.014272155 0.004199958 0.5762772728 0.8172462745 -0.00360995566
0.01248675 0.01086146975 -0.02629377833 0.748505484 0.6629719041 -0.01441508926
0.01647815 -0.0016294235 -0.031433075 0.9968202678 -0.079680335 -0.0006307457991
0.009339464429 -0.01368455143 0.01864400143 -0.650193517 0.7597683339 -0.0006850308315
0.011256965 0.012159165 -0.02661483 0.6810294317 0.7322476574 0.003504499389
0.0155424225 0.005707172333 0.0360827825 0.9019584559 0.3254256806 0.2838469134
0.01632706857 0.002822451857 -0.03154983571 0.9879930315 0.1544347993 -0.004434228905
0.01251819667 0.0108106256 0.02334341733 0.7471350073 0.6645711129 0.01159813482
0.01253729 0.01079724831 -0.01905147923 0.7499544707 0.6613806949 0.01199451019
0.0096881425 0.01341800667 0.03089901083 -0.6130061784 -0.7900606782 -0.005248800885
0.0140555625 -0.00877573175 0.0356759525 0.8505169693 -0.5078756579 0.1366865061
0.01074550167 -0.012624505 -0.01126685333 0.6965583858 -0.7174693149 -0.006648108232
0.01438116182 0.008189360455 0.02607820273 0.8720384062 0.4892123282 -0.01484304823
0.01628988375 0.002986829875 -0.02658632125 0.9883443074 0.15173196 0.01236698196
0.012431817 -0.0093363583 -0.038916437 0.6015402408 -0.3703526135 -0.7078052559
0.016460075 -0.001771818042 0.03607214 0.9612528498 -0.09354592301 0.2593108541
0.009813524917 0.01332398667 0.01585325583 -0.6166609806 -0.7872060284 -0.005991986931
0.01127934 0.0121368 -0.0008187132 -0.6657737289 -0.7460408393 0.01297720802
0.01282797222 0.005943412222 -0.039 0.5917204803 0.2744658169 -0.7579811268
0.0096129408 -0.013484081 0.023514581 -0.6494924055 0.7603680584 -0.0001762735027
0.01240850667 0.01093726725 -0.01398605167 0.7456684753 0.6662163945 -0.01158622437
0.0131807 -0.01002208467 0.02092958 0.8029630042 -0.5960280381 -0.0009958190377
0.01513855909 -0.006692985364 0.03081436818 0.9100807677 -0.4142131581 0.01343338849
0.01240301867 0.010947503 -0.02399608933 0.7493268822 0.66220023 -0.0002810248412
0.01064029 -0.012711836 0.018530066 -0.6949668862 0.7190410778 -0.0009774922546
0.01399540429 -0.008868980143 -0.01399177143 0.8382795497 -0.5452302613 -0.003370284759
0.01434450273 0.008253953 -0.004057076091 0.8663080777 0.4994798187 0.00549774768
0.01645571583 -0.001825045225 0.000920310475 0.9968573288 -0.07864021715 0.009548939189
0.01127938 0.01213675 -0.018880435 0.6775709978 0.7354570948 0.0006361611167
0.01259974 0.01071696154 0.005824238615 0.7495977489 0.6617694388 0.0128228191
0.009475153364 -0.01358330273 0.01353560455 -0.6537038504 0.7567486001 -0.001682912719
0.007755454 0.01463054 -0.003265697 0.5759252217 0.8175023754 7.276853714e-05
0.01623723 -0.0032533515 0.0311085 0.9834461742 -0.180814337 -0.01182362111
0.01186191667 -0.01154773111 -0.009206883 0.7279413507 -0.6855610407 0.01036577912
0.014364406 0.0082253155 0.0035115818 0.8757844184 0.4826836561 -0.004259185136
0.01647224667 -0.001645542417 -0.006583128583 0.9973646004 -0.07195193931 0.009315166062
0.01407468571 -0.008739238857 0.02067941286 0.8537126205 -0.5205772804 0.01319305701
0.01253435583 0.010804493 -0.02151097 0.7477073539 0.6639654851 0.009140437718
0.012642291 0.010676834 0.036021601 0.7442406995 0.6296188674 0.2229032595
0.01589341375 -0.004691608 0.0059555415 0.9536087746 -0.3009922398 0.005828951358
0.00827662925 0.01434595 -0.036424595 -0.5611484625 -0.7843617914 0.2643652461
0.01007226479 0.01313775143 0.02835858214 -0.6150346767 -0.7884982977 -0.001667648126
0.016201635 -0.00341697125 -0.02656898 0.9836589853 -0.1800286328 -0.002166118549
0.01592062778 -0.004583494333 0.01839303 0.9536588416 -0.3006759186 0.01134926118
0.0094565194 -0.01359837 0.0108656748 -0.6536216448 0.7568193497 -0.001793696302
0.01629607444 0.002966007222 -0.01162198444 0.9882326264 0.1529501525 -0.001589627683
0.0165363925 0.000778099025 0.03098582583 0.9997475167 0.0223646772 0.0021734752
0.01432268077 0.008288668846 0.02859825615 0.8725831147 0.4884568564 0.002933843345
0.0096139715 -0.01348620875 0.005995838625 0.6744748029 -0.7382924545 0.002827005906
0.016290258 0.002976723 -0.038583634 0.8263820339 0.2382059612 -0.5102456801
0.01006930092 0.01313718308 -0.001597521992 -0.6216438179 -0.783285884 -0.004710374528
0.01589630143 -0.004692855857 -0.006434866571 0.9485290872 -0.3166165882 -0.006819584831
0.01410616714 -0.008689818857 0.01601957571 0.8605934718 -0.5092664265 -0.005155882742
0.01075362 -0.012617938 0.008450907 0.6975668761 -0.7164913712 0.006369322685
0.01634142 0.002748077 -0.02137355 0.9877217358 0.1557000118 -0.01277806837
0.01336831 -0.009771469 -0.02386339667 0.7999652541 -0.5999393882 -0.01132795955
0.01208945556 -0.01131238111 0.02847619111 0.7128711186 -0.7012935932 -0.001436771138
0.01242383429 0.01092140736 -0.006446458 0.7459926648 0.6658962082 -0.008785448304
0.0094713855 -0.013590775 0.03089626667 -0.6409237705 0.7676029666 0.001551165303
0.01501427182 -0.001599407445 -0.039 0.6005270401 -0.07681846289 -0.7959058976
0.01359589 0.009467462 0.01953455 0.8260797922 0.5634888614 -0.008513521527
0.01238569733 0.010959792 -0.03398025333 0.749669102 0.6617919298 0.005261100185
0.01133122 0.01208491 0.02162641 -0.6778472805 -0.7350557319 0.01470154083
0.01511754231 -0.006743352462 0.001084563583 0.9112874687 -0.411727139 0.005992698132
0.009825356364 0.01332109909 -0.004032615818 -0.6219649908 -0.782986505 -0.009575134513
0.010729654 -0.012643878 -0.026334924 0.6976825616 -0.716359771 0.008229320517
0.0099316787 0.013245728 -0.026631355 -0.636265558 -0.7714209692 -0.008707922821
0.0165385 0.0007782437571 0.006079423364 0.99945159 0.03236592089 0.006997605378
0.016192805 -0.0034575555 -0.01907259 0.9833459199 -0.1817242335 0.002665489359
0.01601348333 0.004281877 -0.0361151 0.922057603 0.3167279292 -0.2224706622
0.0077849445 0.01461443 0.005832027 0.5748458447 0.8182616879 0.0002549098547
0.007858204 0.01457443 -0.01849017 0.5829589396 0.8125012633 -0.0007561686108
0.01075571667 -0.01261262333 -0.02917261833 0.6974564541 -0.7166270722 -0.0003661984559
0.01409927111 0.008141211444 -0.03867756556 0.7281433717 0.3495914291 -0.5895702358
0.014287646 0.0083564853 -0.031689405 0.8723084908 0.4887017961 0.01576234251
0.01642946 -0.001725062275 0.0382418575 0.824907549 -0.1324956746 0.5495201833
0.01654245455 0.0007348668618 -0.02641691 0.9996784683 0.0223394208 -0.01199626248
0.0119552 -0.01145374167 -0.0214193075 0.7287332119 -0.6846726108 -0.0130889997
0.01319504 -0.01000292725 -0.0263756175 0.7870279281 -0.6168408956 -0.009713393454
0.01617875333 -0.003522157333 0.03558369667 0.9563761677 -0.1842571312 0.2267023059
0.01193763455 -0.01147029909 0.006050729364 0.7296136112 -0.6838469125 -0.004168764012
0.01215451455 -0.01124317727 -0.02660347 0.7283389024 -0.6851240747 0.01128917138
0.01062800667 -0.01272054 0.03321165 0.6845066297 -0.7290017766 0.002661518183
0.01646539125 -0.001758110925 0.01339367875 0.9968643023 -0.07775903465 0.01466613071
0.009822223417 0.01332112667 -0.006500692833 -0.6232155702 -0.7820469012 -0.002235479179
0.01247651583 -0.00677086025 -0.039 0.5838063439 -0.3049287983 -0.7524550358
0.01600951333 0.004300133 -0.001741193333 0.9620792515 0.2723328983 -0.01543717322
0.01519417636 -0.006570087273 0.01866215727 0.9091957893 -0.416239148 -0.01039174595
0.008342561 0.014309948 0.020979854 0.5731334858 0.8194602791 0.0016906748
0.01360088 0.009460793 -0.01980232 0.8255308728 0.5642474735 0.01111605397
0.01645639909 -0.001756428445 -0.008981869 0.9970753293 -0.07588190525 -0.009095280964
0.01207203 -0.011332177 -0.011613139 0.7277159487 -0.6858720454 0.003005896293
0.008326731 0.01036767 -0.039 0.4247997528 0.4739355404 -0.7713172328
0.009625642286 -0.01347747286 -0.02634587571 -0.6819083334 0.7314128837 -0.006018176778
0.015997115 0.0043571225 -0.007027056 0.9593007999 0.2822015228 0.01021155952
0.015177324 -0.0066169969 -0.034107081 0.9118004368 -0.410563945 -0.007563760114
0.01603725333 0.004172619333 0.03097867333 0.9668553585 0.2553185106 -0.001781551856
0.01271153667 0.01059428767 -0.03662020833 0.6719515256 0.6365278811 -0.3785675685
0.01325834167 -0.009918365833 -0.03644946833 0.764482725 -0.5765702122 -0.2883278576
0.009392410889 -0.01364386 -0.001431640322 -0.652169438 0.7580722767 -0.001203136029
0.01116347 0.01225267 0.03241504 -0.6248359826 -0.7807530123 -0.00217453479
0.01548427769 0.005865308154 0.01607670385 0.9366109522 0.3502838176 -0.007821208547
0.01651508 0.0008360172278 -0.03863324833 0.7969334048 0.1043134841 -0.594992307
0.01591920571 -0.004606549286 0.008601160143 0.9553121355 -0.2955641057 0.00453687374
0.009625226286 -0.01347778571 -0.003891183714 -0.6767566953 0.7361796819 -0.006312794945
0.01653539818 0.0008420144218 -0.01390009455 0.9997061785 0.02186658386 -0.01045988803
0.01605594667 0.004086674333 -0.01653605 0.9659204207 0.2587067605 0.008279668121
0.0077521265 0.01463235 0.02533237 0.5706881648 0.8211620486 -0.00281220015
0.009619545167 0.013469995 -0.01129089167 -0.6221391184 -0.782843705 0.009932314366
0.01590540143 -0.00465354 0.02588475429 0.953452734 -0.3012583205 0.01308848447
0.0154767725 0.005875882667 -0.01142421667 0.9283119118 0.3717997631 -0.001389459002
0.008329978667 0.01431682 -0.03180076667 0.5802022492 0.8144588321 -0.004707523236
0.009693390429 -0.01342675857 -0.03401729857 -0.6828027825 0.7305896369 0.004375237285
0.01620372 -0.003407380333 0.03334718667 0.9815505415 -0.1912012373 -0.0007883006632
0.01189507444 -0.01151837 0.01102028111 0.7287533899 -0.6847544562 0.005461813967
0.01645868214 -0.001722089157 0.015897985 0.9965931516 -0.08244485176 -0.002221859574
0.0151532025 -0.006677414167 0.0062017105 0.9108895364 -0.4124221193 -0.0137203503
0.01204028455 -0.01136370818 0.01358740182 0.7260148773 -0.6876342267 -0.007846535331
0.01415256 -0.008616983333 0.001115765167 0.8608612522 -0.5087066123 -0.01163988721
0.01239615615 0.01095448392 -0.001617418892 0.7511941238 0.6600577066 0.005586811362
0.011974475 -0.011129091 0.038501087 0.6546508006 -0.5716451848 0.4946252237
0.008246683 0.014362305 -0.011782645 0.5773753752 0.8164635572 0.004993587612
0.01646132083 -0.001790312283 -0.01145631333 0.9971115003 -0.07595100159 0.0003181696667
0.014325143 0.0082926694 -0.036526994 0.8131443437 0.5077387669 -0.2846008096
0.016300135 0.002951994125 0.033443855 0.9883803127 0.1519893412 0.001896725863
0.012009954 -0.011396217 0.001041600554 0.7252308109 -0.6885027279 -0.002065090983
0.014260626 0.0083997913 0.03079986 0.8489645103 0.5281920083 0.0165064404
0.01647477917 -0.00164846195 0.02352267667 0.9972325325 -0.07360542131 -0.01046508675
0.009924058 0.01323370286 0.003465153857 -0.6208113643 -0.7839574365 -0.001996932922
0.01631797714 0.002843335714 0.02600232714 0.9887784065 0.1493859752 0.00104553937
0.016531575 0.0009562676311 -0.0064328554 0.999525036 0.0294910358 -0.00894322038
0.01594139125 -0.004532312 -0.03387124375 0.9490619471 -0.3149477072 -0.009453163938
0.014773066 0.0033094846 -0.039 0.6727354995 0.1393360508 -0.7266446262
0.0143353475 0.008281263583 -0.001592540375 0.8584252552 0.5123846844 0.0238330946
0.016531133 0.000895838796 0.0086254859 0.9988368618 0.04797185127 -0.004860545045
0.01631655857 0.002878828571 -0.02913110714 0.9871866392 0.1593052693 0.009185340939
0.01133381 0.01208232 -0.03792352 -0.6442329903 -0.6474645955 0.4071282989
0.009476985111 -0.01358449889 0.02835100556 0.6415697541 -0.7670536944 0.004108593648
0.009880504385 0.01327710077 -0.01902040385 -0.6283964239 -0.7778825033 -0.00409212275
0.0162433475 -0.00322521275 -0.0137894575 0.9824238707 -0.1861554254 -0.01376574942
0.008316623333 0.01432411333 -0.001456515267 0.578745111 0.8155075071 -0.001265879811
0.013154548 -0.0100570162 0.003716402 0.8004254713 -0.5993869322 -0.007373630941
0.01404153333 -0.008801393167 0.01118255333 0.8538913114 -0.5202823579 -0.01326259192
0.01076111833 -0.012612545 0.0036862145 -0.6944066664 0.71957991 -0.002033408689
0.01229483077 0.01107639692 -0.01158375462 0.746480078 0.6654071056 0.0009364881521
0.01588186778 -0.004717668556 -0.001463909311 0.948629815 -0.3162223002 0.010243585
0.01603157 0.00419873975 -0.02360667 0.9611303466 0.2758344845 -0.01199141582
0.01432314 0.0082894295 0.03606158167 0.8109047288 0.4961450578 0.3102798777
0.01645775286 -0.001765557129 -0.03839899286 0.8658533795 -0.1073351913 -0.488648219
0.00827444025 0.014347145 0.0111078625 0.5793660251 0.8150674472 0.0002560397461
0.01405601333 -0.0087731205 -0.029071855 0.8542483277 -0.51986223 -0.001748296528
0.01239354538 0.01096352131 0.02847841538 0.7486867821 0.662877954 -0.007805156798
0.013144345 -0.01007065275 0.006050365 0.7877561472 -0.6159095166 -0.009783660493
0.008302983667 0.01433156 -0.01922354333 -0.5826442417 -0.8127268404 -0.0008778311577
0.01593347429 -0.004551459571 0.02116412571 0.9543037107 -0.2985396385 -0.01336083948
0.015186933 -0.0065980186 -0.008966909 0.9090134413 -0.4165912983 -0.0120935401
0.01620647 -0.003394736 0.003313067 0.9812382014 -0.192747933 0.00445269114
0.01424765857 0.0084325695 0.01602095714 0.8593971179 0.5112553608 0.007385780578
0.01317612833 -0.0100281935 0.01084877283 0.8000327347 -0.5998080725 0.01333789762
0.01646705182 -0.0017100067 -0.02157857818 0.9966596245 -0.08096790824 0.01066727374
0.01005642831 0.01314997077 0.02089109385 -0.6189341182 -0.7854426671 0.0006116457461
0.0129583225 -0.004397787 -0.039 0.478841263 -0.1816729864 -0.8588981144
0.01331859 0.000771622575 -0.039 0.5853158024 0.01501637504 -0.8106663431
0.01212626556 -0.01127106556 -0.001620285622 0.7249203318 -0.6888298723 -0.00197979029
0.008405847667 0.01427539333 0.02848256667 0.5752029036 0.8180107461 0.0001973763836
0.01001392278 0.01083737433 0.039 0.5494373292 0.5638650931 0.6165831477
0.009901248571 0.01326343571 0.008496887 -0.6215406667 -0.7833818984 2.989894691e-05
0.016038565 0.00416658375 0.0261012325 0.9683471328 0.2494879149 -0.007720800124
0.01654118364 0.0008055107259 -0.03634877545 0.9638407111 0.03130024405 -0.2646344241
0.01604858 0.004120549333 0.02861113333 0.967678236 0.2520255304 -0.00905337206
0.01645331417 -0.00183747595 0.03083016417 0.9936869449 -0.1118116715 0.009187255755
0.00977594275 0.01335913 0.03607308583 -0.6146108696 -0.7657873093 -0.1892703774
0.01319472333 -0.010003352 -0.02902674167 0.8024941999 -0.5965934879 0.008903332437
0.009523698429 -0.01355378571 -0.006276612429 -0.6538464239 0.7566180453 -0.003739973518
0.01197544111 -0.01142970111 0.03097252333 0.7151917004 -0.698785193 -0.01414516384
0.01545965273 0.005925594364 -0.001512284855 0.9278382436 0.3729746591 0.002469272375
0.01125994 0.01215619 0.037984285 0.6562494072 0.6626272374 0.3609180791
0.01551386182 0.005785989818 0.0009734206836 0.9280027748 0.3725660357 -0.00232357149
0.00824202375 0.014364845 0.033505555 -0.5743818335 -0.8185861413 0.00149619119
0.01509290917 -0.006803216667 0.0135849325 0.9102064424 -0.41409172 0.007230464785
0.009508133571 -0.01356544 -0.02166970143 -0.6547839235 0.7558136772 -0.001923230778
0.01590214 -0.004666560375 0.03098558375 0.9544588402 -0.2982549209 -0.007233570255
0.01505367636 -0.006870386364 0.003513122727 0.9099886859 -0.4146253856 0.002526099362
0.01590451143 -0.004664501 -0.02659107429 0.9486220811 -0.3163816862 -0.004333104852
0.010774358 -0.012599858 0.02837129 0.6816360295 -0.7316899585 -0.00145870234
0.01653514364 0.0008791595727 0.01842520636 0.9992926138 0.03209162021 0.01960611721
0.0076063415 0.014711955 0.023688985 0.5619221618 0.8271900248 -0.0003833249187
0.01550005308 0.005819683615 -0.02914192077 0.9366364592 0.3502358424 0.006855509032
0.01587066286 -0.004777796143 0.01361105143 0.9488904599 -0.3155825375 -0.003815386423
0.01131718 0.01209896 0.002273353 -0.6471604317 -0.7623284088 0.006226775562
0.016473555 -0.00167921423 0.0085803884 0.9971069027 -0.07601114882 -0.0003603874212
0.01264409167 0.0106704425 0.0134993475 0.7487939234 0.6628017891 0.001203573569
0.01546626 0.005912229 -0.01398568818 0.928773437 0.3706269641 -0.003944130499
0.01201165818 -0.01139190091 -0.006618649091 0.7283475995 -0.6851474311 0.009097908144
0.016532589 0.00078713929 -0.028870746 0.9997034271 0.02201775783 -0.01040558852
0.01402863625 -0.008810278375 -0.02638644375 0.8539303637 -0.5203729908 -0.003858026082
0.0131702275 -0.010036073 0.0306859825 0.8010872162 -0.5983375427 0.01585739383
0.01520385 0.0035150887 0.038808977 0.7174585952 0.1439824403 0.6815586703
0.012935585 0.0038013675 -0.039 0.5991185673 0.1859621416 -0.7787650635
0.01631014333 0.0029074845 0.000959369805 0.9886271153 0.1503784637 0.001656684913
0.014295356 0.008350513 -0.011721645 0.8565031496 0.5161397651 -0.001448293066
0.01246619615 0.01087123377 0.01845839923 0.7476730355 0.6640627315 -0.00239178825
0.01406095286 -0.008763992429 -0.01902060571 0.8554320866 -0.5178864248 0.005440230759
0.0106593625 -0.0126941625 0.02072515 -0.6916650276 0.7222174498 -0.001202010387
0.01402736375 -0.008820740875 -0.0164441675 0.8374070031 -0.546579725 -0.000339632126
0.01586874167 -0.004758406833 -0.029114155 0.9543504161 -0.2984946701 0.0107803138
0.0130272 0.0034019222 0.039 0.6481917077 0.2369311598 0.7236788898
0.01321453667 -0.009976881 -0.03146818333 0.8014450879 -0.5979490061 0.01194810111
0.01257393 0.010737731 -0.003905392 0.7476166336 0.6640536677 -0.01010423032
0.01405930571 -0.008761947 -0.03389366143 0.8637380773 -0.5039400742 0.0009672223027
0.016247255 0.003207250875 0.03110622125 0.980114585 0.1983240731 -0.006554567761
0.013174358 -0.0100305608 -0.016258524 0.7886519564 -0.6145661762 -0.01834412017
0.01646370727 -0.001748663491 -0.03627004818 0.9614831578 -0.02426165104 -0.2737909962
0.01495110364 0.0009982215891 -0.039 0.6691580217 0.05168072687 -0.7413208782
0.01588793111 -0.004691483111 0.03608712222 0.9265375983 -0.2214070851 0.3041496041
0.01435063 0.008259055091 0.01105723273 0.8800238625 0.4747587995 -0.01273120829
0.012410472 0.01093714653 0.02608656933 0.7506782631 0.6606525062 -0.004517904854
0.01129038 0.012125755 0.0008482303 0.6735974146 0.7390965639 -0.001671034692
0.01653201909 0.0009127831982 -0.01904746 0.9991438638 0.03856733313 0.01496997942
0.01292010833 -0.004133756333 0.039 0.7003362072 -0.2095435582 0.6823640481
0.016178615 -0.0035227765 0.015899095 0.9816369189 -0.1905442644 -0.009046697414
0.008394076333 0.01340923333 -0.03876534333 -0.2997907468 -0.7726688069 0.5595609198
0.01203410818 -0.01137473182 0.02588265273 0.7250604158 -0.6886109957 0.01011385319
0.015458032 0.0059356768 -0.036417474 0.8755979288 0.3859174595 -0.2905098648
0.013171738 -0.0100340566 0.033555018 0.7991341648 -0.6011516688 0.001121534585
0.009904055692 0.01326372231 -0.01649469077 -0.6265394335 -0.779380589 -0.003773018762
0.0105358805 0.008861678667 0.039 0.5637687238 0.4135378108 0.7149484633
0.01592277286 -0.004580991429 -0.02184896429 0.9482548607 -0.3174684352 0.005148970021
0.016467867 -0.00173029475 0.0037006067 0.9969926529 -0.07639855461 -0.01299657579
0.0161903175 -0.00344328925 0.038217895 0.8770779491 -0.173046777 0.4480949499
0.01221018889 0.008249461222 0.039 -0.5052351145 -0.3689422643 -0.7801404263
0.009522768714 -0.01354867 0.008426243286 -0.6561829125 0.7545843208 -0.005146667886
0.01135994 0.01205619 -0.02828934 -0.6877324146 -0.725810752 0.01492910249
0.01606850667 0.004028942 -0.0210707 0.9678398474 0.2510700475 -0.01580699491
0.01063476 -0.01271752143 -0.03157850429 0.6989098118 -0.7151561243 0.008763152466
0.01621021 -0.0033775498 -0.0043399428 0.9810313174 -0.1936437977 0.008923782698
0.016258795 -0.0031541855 0.008312758 0.9834182432 -0.1808472973 0.01352087143
0.013251865 -0.00992701825 -0.0061324095 0.799920896 -0.5998811788 -0.01640522791
0.01603282 0.004192977 0.015797565 0.9611102746 0.2760402665 -0.00829525654
0.01316986667 -0.01003655967 -0.01353032667 0.8008597124 -0.598744924 -0.01132418029
0.011896801 -0.011518042 -0.034158489 0.721747045 -0.6913147593 -0.03413365969
0.007654757 0.01468552 0.01606873667 0.5711006521 0.82087961 0.000843231552
0.01603652333 0.004175969667 -0.02635167 0.9676063625 0.2522841392 0.009520521327
0.01629389125 0.002974853125 0.003592571125 0.9885002379 0.1511945606 0.00273579613
0.01212457818 0.008317057182 -0.039 0.4705283166 0.3234867832 -0.8209503057
0.01590704625 -0.004640225 0.03318734875 0.9477871779 -0.3188568523 0.005456482845
0.01602717 0.00421897025 -0.0341440125 0.9634597737 0.2674444327 -0.01478986133
0.01425894 0.0084209454 -0.0065600518 0.8582712375 0.513123332 -0.008656155743
0.015088898 -0.0068012999 0.03595544 0.8905876683 -0.3871615296 0.2386620099
0.016212225 -0.00336828025 0.02054677 0.9824794488 -0.1862183056 0.007541568759
0.015068535 -0.004084561667 -0.0388619775 0.7865751616 -0.1962815514 -0.5854682465
0.01627794143 0.003053787143 0.01343387571 0.9885048004 0.1511894762 4.278767024e-05
0.013151764 -0.0100607414 -0.0088236176 0.7855796091 -0.6187408418 -0.004944534983
0.0095195472 -0.013556894 -0.03147769 -0.6584248642 0.7526413049 -0.002786452619
0.0106839875 -0.0126787125 0.0064837205 -0.6919685132 0.721921301 0.003035113181
0.011216645 0.012199485 -0.016633845 -0.673045187 -0.7395979494 -0.002247101311
0.01318102 -0.0100216578 -0.011282292 0.8016339724 -0.5978130915 0.001575377407
0.016026025 0.00422423 0.012848565 0.9624038778 0.2713311224 0.0125776786
0.01125903 0.0121571 -0.007288256 -0.6679712613 -0.743997217 -0.01680878328
0.0162021775 -0.003414462 0.0135405525 0.9833066339 -0.1815287282 -0.01246533089
0.00829807725 0.0143342375 -0.0264880825 -0.5922378457 -0.8057625748 -0.001003593349
0.009441182571 -0.01360538714 0.01631781 -0.6504168708 0.7595764998 0.001197928974
0.016022065 0.004242433 -0.0114918925 0.9667241889 0.2554399284 -0.01395656066
0.0162030975 -0.00341023525 -0.0342133275 0.9787724007 -0.2030707617 -0.02769211656
0.01357027 0.009501683 0.0111375 0.8327353157 0.5536665336 -0.002294262172
0.0161949325 -0.0034477755 -0.006833283 0.9821049364 -0.1879810442 0.01153346763
0.01619337 -0.003454947667 -0.02160522333 0.9810401582 -0.1938035096 0.0006385495016
0.008138715667 0.01442125333 -0.02424647 0.5898231386 0.8075305507 -0.001753534167
0.016055255 0.0040898715 0.023134945 0.9658520369 0.2586242519 0.01559932897
0.01593534667 -0.004534820111 0.003553260222 0.9523222591 -0.3050906231 0.001423569698
0.01127019 0.01214594 -0.03370991 -0.6832326837 -0.7301751731 -0.006108720171
0.01256244187 0.010752955 -0.01642814563 0.7475360202 0.6642203285 -0.001119701556
0.009821639214 0.01332293214 0.01835255571 -0.6193801147 -0.7850643889 -0.00649452315
0.007781185 0.01461648 0.01863478 0.574347336 0.8186106864 -0.001296802117
0.01505927 -0.006878054 -0.001592729445 0.9106182348 -0.4131936221 0.006742485119
0.01605479 0.004091993 0.033676215 0.9665938797 0.2561389473 -0.009439885565
0.016211515 -0.00337156 0.018444475 0.9819954734 -0.1888554407 0.004302654809
0.00824776875 0.0143617125 -0.0286624325 -0.5866318869 -0.8098523941 -0.00145910346
0.016041635 0.0041524775 0.0080616125 0.9677387893 0.2518975649 0.005408557494
0.013231446 -0.0099542978 0.023703234 0.8016143862 -0.5976383956 -0.01557959938
0.01617928 -0.003519733 -0.01158718 0.9803964762 -0.1967752237 -0.01011240569
0.01312143 -0.0101012624 -0.021554296 0.8005425377 -0.5991535996 0.01210823747
0.01602286 0.0042387935 0.01883788 0.9674684477 0.2526993753 -0.01215847292
0.008193707667 0.01099341 0.039 -0.5302091421 -0.5852328083 -0.6134988393
0.016203002 -0.0034106892 -0.0012097014 0.981207629 -0.1928216469 -0.007169470091
0.008395955667 0.01428079333 -0.01371307667 0.5741963148 0.818717422 -0.0006123346873
0.01648196444 -0.001560828933 0.02849874 0.9968159991 -0.07973534955 -0.0003714723913
0.0151432975 -0.00668943425 0.03349601167 0.9105810063 -0.4133144945 -0.003655088108
0.008276672667 0.01434592667 0.02354633667 0.5740738058 0.8188029852 -0.0009679280563
0.01606718667 0.004035005667 -0.03132782333 0.966671387 0.2559990731 -0.00330212723
0.01629810125 0.002935044625 0.008796612125 0.9883320857 0.1519300836 -0.01081379117
0.01617033 -0.00356088325 0.025786165 0.9766404548 -0.2146435989 0.01007707777
0.01623090833 0.003282401333 -0.001198208133 0.9876915821 0.1561058751 -0.009812973699
0.0135905 0.009474661 -0.01128951 0.8331121172 0.5530650075 -0.006580095131
0.007836194 0.01458644 -0.0008686314 0.5722585085 0.8200669523 0.003223844756
0.01072652 -0.007933868 -0.039 0.5345838876 -0.3312852067 -0.7774768028
0.007536497 0.01475009 0.03844733 -0.5962217339 -0.7442708709 -0.3009659694
0.01125691 0.01215922 0.02956624 -0.6621175234 -0.7493751797 -0.006101252032
