# .PCD v0.7 - Point Cloud Data file format
VERSION 0.7
FIELDS x y z normal_x normal_y normal_z
SIZE 4 4 4 4 4 4
TYPE F F F F F F
COUNT 1 1 1 1 1 1
WIDTH 594
HEIGHT 1
VIEWPOINT 0 0 0 1 0 0 0
POINTS 594
DATA ascii
0.01812143 -0.00971611725 -0.02062825625 0.8695780506 -0.4937950799 -0.0006580299221
0.01917160857 0.02791188857 -0.05314960429 0.9273315205 0.004659185516 0.374211896
0.01468196857 -0.01439578286 -0.02058975143 0.7148841659 -0.6992248225 0.005027615528
0.01399160333 0.01504688 -0.003095866 -0.6596612736 -0.6770769085 -0.3262113795
0.01578727 0.0306114375 -0.0738050575 0.7728698545 -0.003380368696 -0.6345555619
0.008400228 -0.01538326 -0.05592773 0.4567265274 -0.8096808038 -0.3685347679
0.019963476 0.02591821 -0.06557998 0.9714177577 -0.008362575235 -0.2372290186
0.016526945 0.01224941 -0.023351895 0.8035726153 0.5951798821 0.005653298395
0.01031265914 0.007892264143 -0.07620761571 -0.4861921616 0.2938635907 0.8229589127
0.020575658 0.00051883658 -0.032881048 0.9996897287 0.02393609733 0.006892714739
0.016770912 0.035675384 -0.048678104 0.8085918477 -0.004248585858 0.5883546323
0.01796996571 0.03819832286 -0.07062047 0.8586472603 -0.009587887405 -0.5124772725
0.0067381885 -0.008933182 -0.067019985 0.4047599499 -0.6731328585 -0.6189196537
0.0059897785 0.0087061285 -0.07847332 0.3790013417 -0.269150215 -0.8853903912
0.005690905 0.01536248 -0.08002156 0.3513038113 -0.1188642787 -0.9286855848
0.02001081286 0.02312500857 -0.05580374857 0.9766147148 0.001841868298 0.2149890844
0.006802099 0.01942257333 -0.01822695667 0.4095194575 0.9123007481 0.001076542029
0.019044226 0.0077895434 -0.03058434 0.9348911832 0.3549251897 -0.002566160688
0.018204055 0.015805565 -0.049866945 0.8859115767 0.1816258007 0.4268169945
0.019361435 -0.006942076 -0.02804816333 0.9392056828 -0.3433347058 -0.003736997922
0.01691321 0.023000585 -0.0723044375 0.8256914534 0.001991143455 -0.5641184797
0.007647652625 -0.01470568125 -0.0580765175 0.4210297487 -0.8036530971 -0.4205658691
0.014804004 -0.014282904 -0.037858136 0.7134016667 -0.7007064487 -0.008278568976
0.01274774833 0.005317116 -0.07338369167 -0.6147051795 0.3292034098 0.7167723888
0.015869995 0.0427787025 -0.0737105375 0.7735213385 0.009397393238 -0.6337005822
0.007765525667 -0.01905363 -0.02261383667 -0.4349839297 0.9004381961 -0.0001892049823
0.019667585 -0.004833917833 -0.04781820333 0.9495908506 -0.3000840156 -0.09070170872
0.01490529571 -0.01416516857 -0.03087790286 0.7198032001 -0.6940483031 0.0134278142
0.01996871 0.02048284333 -0.06550981 0.9692807549 -0.007773056987 -0.2458340857
0.01963159429 0.005682007571 -0.0005930516371 0.7235167265 0.2161887255 0.6555806445
0.01964318714 0.06032891286 -0.05564347143 0.7930513074 0.5524526834 0.2566430526
0.020435286 -0.0022256774 -0.005674159 0.9899738983 -0.1412360285 -0.002016168518
0.0116409825 0.055602995 -0.04362613 0.572136933 -0.001393905414 0.8201569283
0.018121316 -0.0097225516 -0.018037108 0.869548486 -0.4937503507 -0.009799066064
0.0075769218 0.048072804 -0.079713514 -0.4144942771 0.002466921739 0.9100485748
0.01498921 -0.01184422571 0 -0.6087990677 0.3954538055 -0.6877354018
0.01596397 0.01861874 -0.047339765 0.7925302949 0.1494311529 0.5912411202
0.016752985 0.04794965 -0.0486742425 0.8066804649 -0.002546811372 0.5909823527
0.01797985714 0.01809463429 -0.07045735714 0.8587681522 -0.04627850534 -0.510270086
0.009871107571 0.06060000143 -0.04555660429 0.2855261712 0.8409605501 0.4596304589
0.02056287286 0.01800997571 -0.06040982143 0.9995107636 -0.001419667006 0.03124448585
0.01981690286 0.005445773714 -0.02297218429 0.9581141608 0.2862703725 -0.008156515023
0.005464566333 0.0430393 -0.08043740667 0.3756776014 0.005768049086 -0.9267324692
0.01753381143 0.010736436 -0.01081151029 0.8492131691 0.528025302 0.005125811646
0.01729237 -0.00445558225 0 0.7054930947 -0.1550359426 0.691551408
0.01764177286 0.01061545986 -0.04061995429 0.8585812951 0.5069776344 0.07623541144
0.01977503714 0.005643675571 -0.03328843286 0.9577292025 0.2875564303 0.008128595241
0.01921234857 0.04322593714 -0.0679404 0.9301072799 6.688570342e-06 -0.3672879632
0.020374994 0.0029227774 -0.03848582 0.9891694521 0.1458746749 0.01625958852
0.019934335 0.04053056625 -0.05554226625 0.9711385138 0.01924572552 0.2377384886
0.02038935833 0.04789159167 -0.05803736333 0.9952995613 0.01057492024 0.09626502142
0.02056065714 0.0007540360143 -0.04292819429 0.998763589 0.0497115362 -0.0002374932759
0.00812116425 0.018909725 -0.0179232925 -0.4493453117 -0.8933569455 0.001469280888
0.008709219333 -0.01861660333 -0.007798594667 -0.4832558739 0.8754739272 -0.003027064671
0.01544238167 0.0053808895 -0.070589665 0.7432436259 -0.2951396951 -0.6004010933
0.01460895 0.0208106075 -0.04611718 0.7236858805 0.1032274903 0.6823656143
0.014482362 0.022808324 -0.045996632 0.7029048264 0.04255932732 0.7100095131
0.01668008333 0.03039638667 -0.04852671333 0.7967887004 0.01003242534 0.6041747408
0.01679384 -0.01189132667 -0.02290514333 0.7953928055 -0.6059630155 -0.01261383603
0.006843288 0.01941885 -0.025701205 0.4047691046 0.9144177264 0.001481065716
0.019250382 0.050673576 -0.067860428 0.9298341747 -0.0006432378909 -0.3679782518
0.0075446704 -0.011799016 -0.06297623 0.4231918691 -0.7377986472 -0.5258914318
0.01940058333 -0.006813556667 -0.04072967 0.9389751327 -0.3436911089 -0.01421695673
0.01171383 0.042838798 -0.043679826 0.5645430759 0.008679367274 0.8253579733
0.0156100525 0.0134135325 -0.038229495 0.7549487352 0.65460833 0.03924718471
0.01786886167 0.03822239667 -0.05040122667 0.86084996 0.000646566543 0.5088584561
0.0078564454 -0.018863418 -0.00065516664 -0.5176981941 0.5421949248 -0.6618256896
0.01677071 -0.01146784 -0.04520103 0.8100235818 -0.5783896876 -0.09657725502
0.020568506 0.000606136636 -0.040517442 0.9999176929 -0.01021700833 0.007760165414
0.005972933 0.03334719 -0.04088927 -0.3761347955 0.003368284795 -0.9265588326
0.015804055 0.01385756 -0.043010725 0.7813157421 0.5642955152 0.2666763631
0.01927262833 -0.007205262833 -0.030754945 0.9385968602 -0.3449260684 0.007870285134
0.0146400475 -0.01443473625 -0.0232823075 0.7184733302 -0.6954951985 0.009083097369
0.007646428143 -0.004410059143 -0.07078169571 0.4156047803 -0.5760037876 -0.7039121417
0.007614966 -0.01911759 -0.02033553 -0.4340709007 0.9008786651 0.0002898771049
0.01656130667 0.01218455 -0.002982861333 0.8025766175 0.5289218536 0.2758848416
0.015465765 0.01357073 -0.01299177 0.7548042116 0.655889276 -0.008936431051
0.01591117 -0.01306269 -0.038387035 0.7834453288 -0.6212439703 -0.01641177107
0.0197553225 0.0130866675 -0.05282667375 0.9561806187 0.1447229342 0.2545071644
0.02058166 0.000174056225 -0.0255890325 0.9997717496 -0.01977868969 0.008077884135
0.01946528167 0.01563215833 -0.05300518833 0.9451913208 0.1051493612 0.3091229187
0.01461865167 0.020312765 -0.07506212167 0.7087533261 -0.01979928091 -0.705178496
0.01997252833 0.02045105833 -0.05564523667 0.9782200682 0.01415087558 0.2070875442
0.019943182 0.03330256 -0.055497078 0.9635010068 -0.003222702291 0.2676853078
0.01432509143 0.05047685286 -0.04585317429 0.7037430549 -0.003362421719 0.7104466249
0.01932840429 -0.007040216286 -0.02305234714 0.9398685164 -0.3414900534 0.005631637242
0.01253183857 -0.01475408 -0.05047455 0.6145905993 -0.7554329996 -0.2271549653
0.00711707475 -0.0161258825 -0.0555484675 0.4256678143 -0.8327472361 -0.3540324175
0.01166842 0.01691214667 -0.01285043 -0.549610848 -0.8354159842 0.002837101551
0.0140689225 0.0150231075 -0.0308936825 -0.6918848142 -0.7219872761 -0.005456834545
0.01872464 -0.008531297 -0.04020191 0.9138595208 -0.4056015181 -0.01865970722
0.0075268146 0.04050363 -0.041470278 -0.3858051223 -0.001905066389 -0.9225783318
0.007825832 -0.018901944 -0.042941606 0.3974077776 -0.9146621457 -0.07389328527
0.016759772 -0.011857098 -0.00090843534 0.7135403884 -0.5444444062 0.440953969
0.0156385725 0.0606000025 -0.0528829025 0.4463230933 0.8444029206 0.2962758919
0.01547504 0.01356379667 -0.03542007 0.7581149499 0.6521208846 -0.0002730787416
0.01320892 0.05056105 -0.07635825 -0.631563647 -0.006316070472 0.7752983084
0.019126018 0.033002126 -0.068201128 0.9156666051 -0.006589984573 -0.4018846108
0.01924499167 0.025367235 -0.067872005 0.9302983547 0.01143788551 -0.3666253484
0.01002625517 0.040565955 -0.07854879 -0.4809150946 0.003180304331 0.8767614028
0.01922167429 0.03805197286 -0.05328920143 0.9419173178 0.007555954679 0.3357598458
0.01480563833 -0.014243105 -0.01314340167 0.7173881993 -0.6966728917 -0.001026394427
0.009956958875 0.01774435625 -0.0005391293625 -0.4612702894 -0.732153691 -0.5011793021
0.0144339 -0.004062179833 -0.06515731167 0.7102575009 -0.4933933767 -0.502092878
0.0098097175 0.02315757833 -0.07868253 -0.4734519062 -0.009610701609 0.8807672376
0.01997198 0.0004428579 -0.0556613225 0.9644077738 -0.2076508212 -0.1637033362
0.012189475 -0.01656618 -0.0204378475 0.5791359384 -0.8152174956 -0.00469037881
0.013112686 -0.014937438 -0.048026404 0.6313479866 -0.7557845645 -0.1737510053
0.009922568875 0.02046425 -0.04250810375 0.5572674126 0.2171564655 0.8014337779
0.00694263075 0.0155000825 -0.0796206375 0.3776855305 -0.1177724047 -0.9184134694
0.0057493375 0.034784905 -0.04083072 -0.3833749273 -0.00108424293 -0.9235921663
0.02047355 -0.001965129988 -0.03307820125 0.9951648371 -0.09821843973 -0.0002917193127
0.007246336429 0.03552398429 -0.04135765429 -0.3903345602 8.819865122e-05 -0.9206730817
0.018236154 -0.0095186034 -0.025715692 0.8757182591 -0.4825329235 0.01671850792
0.0177085175 0.002976239625 -0.06554377375 0.8542967019 -0.2974425053 -0.4262688133
0.006588103 0.01332451 -0.07939391 0.375255435 -0.169713612 -0.9112522419
0.0186014 0.02490568 -0.05181924 0.9072720358 0.00214977814 0.4205387395
0.016461774 0.012324768 -0.015634158 0.7971214707 0.6038184701 0.0007848986912
0.01164854 0.01517161 -0.07714765333 -0.5715088128 0.1261350305 0.8108437772
0.01929785167 0.008302886333 -0.045452985 0.943625099 0.3106688784 0.1142651326
0.020583874 0.047966544 -0.060568042 0.9993903312 0.006748386906 -0.0342552943
0.019201282 0.040601268 -0.053212146 0.9286279849 -0.001887104194 0.3710074183
0.01859632 0.040018485 -0.051831805 0.9092479078 -0.002220990368 0.4162490953
0.01654870167 0.05796743 -0.04839933833 0.7332985337 0.2947888938 0.6126767243
0.020549705 0.0006311911167 -0.01547446667 0.9980666299 0.06137762228 0.009787224591
0.019178128 0.02545352 -0.053159634 0.9293448195 0.0006217036411 0.3692124321
0.0132392 -0.01522410333 -0.04605381667 0.6355380152 -0.7611699709 -0.1292737663
0.009747296857 0.05807081286 -0.07868477714 -0.4663008904 -0.3165956166 0.8260331078
0.02037038 0.052925564 -0.057909586 0.9909840808 0.0002319760727 0.1339794678
0.0205570525 0.0005545473 -0.007568084 0.9996995509 0.02336593367 -0.007405478049
0.01465422 0.03306326857 -0.07504256286 -0.7060216848 -0.01082896437 0.7081074171
0.020571614 0.032816772 -0.060489102 0.9998824811 0.01231453198 0.009131059378
0.019000705 -0.00153249585 -0.0578903325 0.9206862058 -0.2967313472 -0.2535496363
0.0086358725 0.024999835 -0.041898765 0.4447179326 0.009670158977 0.8956184726
0.007316636 -0.0192279075 -0.0278012775 -0.4329032782 0.9014386286 0.001774992329
0.007658369667 -0.01871691667 -0.04522844333 0.3881153031 -0.9141161376 -0.1172953474
0.011726614 0.028035384 -0.043678502 0.5545737709 0.01014516745 0.8320727181
0.009014742 0.008553766 -0.07717939 -0.4444927005 0.2715565441 0.8536294761
0.01648361 0.01247752 -0.07188256 0.7949788716 -0.1557545129 -0.5863012241
0.008636396 0.03611717 -0.04190209 0.4374398982 -0.005201369811 0.8992326068
0.01579625333 0.02049567333 -0.07378484 0.7731313347 -0.013983476 -0.6340917928
0.020309002 0.0052124014 -0.04793687 0.9885989968 0.1235579669 0.08605493842
0.0118176625 0.01799832 -0.07733308 -0.5774979645 0.07159792366 0.8132464807
0.01841946 -0.004532376 -0.05594077 0.8842164857 -0.3924754889 -0.2532275598
0.009718743444 0.06021018444 -0.04282537 -0.4090664459 -0.5693104035 -0.7131271326
0.01586920667 0.03551044667 -0.04747552333 0.7642374633 0.008790543786 0.6448750468
0.01736365889 0.06028562 -0.05054973222 0.6815348507 0.6057371398 0.4106004929
0.01776756143 0.04559219714 -0.05026257857 0.8598515653 0.01194574053 0.5104043348
0.01191505 0.0016546775 -0.072205065 -0.5582170101 0.412776421 0.719728696
0.017014725 -0.01155116667 -0.005735218 0.8201339707 -0.5721713733 0.0004354606759
0.01002877317 -0.01640435667 -0.05074093167 0.4869602967 -0.8424915959 -0.2303857206
0.0076695285 0.002927626333 -0.07550119667 0.4033553326 -0.4110001848 -0.8175471386
0.01338885 0.02053999 -0.07623075 -0.6423432819 0.02597459765 0.7659767806
0.02046073667 0.04813399667 -0.06270004167 0.9966125562 -0.007536961396 -0.08189387698
0.013465735 -0.01554887 -0.02058331 0.651641826 -0.758461003 0.009991868571
0.01929697 -0.007141778 -0.038185185 0.9381255004 -0.3462916804 0.001617895379
0.006485624667 0.01952870333 -0.02276444333 0.4060107448 0.9138682756 -0.0002235392222
0.010059483 -0.014666065 -0.05548500833 0.5022445123 -0.7925778145 -0.3457901934
0.01914408714 0.01043244186 -0.04820147 0.9322446193 0.2802226582 0.2289000472
0.01803231429 0.03304151571 -0.07050641 0.8753021368 0.0008434059577 -0.4835757004
0.0143652 0.01472092 -0.0155427575 -0.6910268332 -0.7228098742 -0.005272727822
0.01738202 0.060600006 -0.068117718 0.5850872419 0.7695521025 -0.2558563676
0.016857934 0.042882936 -0.072349348 0.7989504321 0.01074050928 -0.6013009634
0.01995589143 0.02800896286 -0.05556380571 0.9696336538 0.007365722717 0.2444510658
0.01046388617 -0.017728145 -0.02296998167 0.5210926679 -0.8534318198 0.01079631845
0.018076095 0.01315362333 -0.04778640833 0.8753980321 0.3291757408 0.3540079338
0.02035075 0.0032781915 -0.04289464333 0.9865190398 0.1632388702 0.01154362778
0.014792896 0.058221328 -0.074863306 -0.6313694798 -0.4490051641 0.6322712571
0.0167965125 0.0280572725 -0.07246018 0.8008700687 0.002793450806 -0.5988316372
0.014223986 0.014702306 -0.00055199435 -0.4955854271 -0.5263408416 -0.6909127318
0.01000564257 0.01796144714 -0.01546747857 -0.483499096 -0.8753407118 -0.00269490005
0.016428635 0.012361355 -0.010186739 0.806133934 0.5916334222 -0.01086159551
0.016615114 0.0030057572 -0.067570298 0.812598469 -0.3176322404 -0.488665006
0.0140809 0.0012565937 -0.06985742 0.6837096508 -0.3999518534 -0.6103930114
0.01989111556 0.0004963612544 -0.0003837601444 0.7515835892 0.01203208054 0.6595281173
0.0078727915 0.019008875 -0.00293115025 -0.4056279231 -0.8881154194 -0.2161411339
0.01875157667 0.01005599567 -0.04590397333 0.9114763563 0.3553140714 0.2072746065
0.011599845 0.01695493 -0.002646579 -0.5383543919 -0.7543154068 -0.3757430183
0.01579612 -0.01264623667 -0.04588226333 0.7707050034 -0.6275625561 -0.1103586695
0.011747266 0.052634596 -0.07748681 -0.5675022009 -0.01525369931 0.8232305732
0.01276280667 0.016140315 -0.015560595 -0.6281430334 -0.7780978562 -0.0002360638509
0.01659315 0.02561216333 -0.04841553667 0.8087227966 -0.01312402653 0.5880435343
0.01917463 0.05992620333 -0.05318021 0.8787575288 0.3828775054 0.2849386275
0.007491501 0.06060000333 -0.04491636333 0.2205562841 0.8772194314 0.4264281823
0.02047282667 -0.00182178685 -0.015508615 0.9982859129 -0.05821309694 -0.006039167222
0.02014948333 0.010660972 -0.05313138667 0.9808102173 0.1198974743 0.1537397584
0.0165023125 0.0122715625 -0.01290988 0.8162045394 0.5777094323 -0.00787156949
0.00529852525 0.06004465 -0.08015583 0.8303544848 0.1778656899 -0.528086381
0.01274840833 0.01614085 -0.007874932833 -0.6291188366 -0.7773004431 -0.003675675715
0.018970562 0.008009049 -0.04064758 0.9084131888 0.4164367876 0.03695781789
0.013229085 0.03281274 -0.0763699525 -0.6329556803 -0.01201665636 0.774094766
0.020552095 0.005377263 -0.05263214 0.999807318 -0.0008401238548 0.01961175932
0.01435636429 0.04794954714 -0.07533214571 -0.7046684927 -0.0008117464659 0.7095362263
0.018050705 0.03031986 -0.07046123167 0.86181439 0.008040193455 -0.5071600463
0.01978109714 -0.002198294571 -0.05290817571 0.9598967696 -0.2469001339 -0.1328100732
0.01228554 0.017923784 -0.042971866 0.6672456695 0.5249930274 0.5283611811
0.01498240714 0.01300731 -0.0003829054143 0.5441779604 0.4866538416 0.6834020676
0.009895640556 0.06022888889 -0.07815755778 -0.3962166785 -0.6067794894 0.6890798175
0.005744204 0.03540202333 -0.08037149667 0.3784432067 -0.002727995446 -0.9256204931
0.0181008675 0.0111563375 -0.0452650875 0.8878612794 0.418170764 0.1919259249
0.01346032 -0.010438415 -0.05853992 0.6642323743 -0.6372097431 -0.3908440818
0.01824449 -0.009498905857 -0.02315468 0.8697918676 -0.4934164428 0.001523524787
0.0166237675 0.0551885975 -0.048502585 0.7936917662 0.0008473859322 0.6083195395
0.020403412 0.028166004 -0.058045576 0.9960364181 -0.00521277189 0.08879347274
0.01796402714 -0.007068892571 -0.05304762 0.8618917824 -0.4569790192 -0.2198015727
0.019840585 0.005345073167 -0.01061467633 0.9565181593 0.2916502212 -0.003627592673
0.01410907667 0.01497745 -0.02326235 -0.6922586033 -0.721601457 -0.008328469802
0.011730255 0.045866215 -0.043686105 0.5554344014 -0.01175387746 0.831477283
0.01695044 -0.004394507333 -0.06034252167 0.825660931 -0.4409928414 -0.3518655153
0.01239079125 -0.016396475 -0.0031629695 0.5984594003 -0.7863931186 0.1530758283
0.02042669667 -0.002328212333 -0.0030105625 0.9536103749 -0.16751052 0.2501349209
0.01565978333 0.02568907333 -0.04722236667 0.7626631015 -0.01278338002 0.6466696056
0.0101721204 -0.017884696 -0.008139024 0.5173484348 -0.8557693819 -0.003059744702
0.01931244857 -0.007020530429 -0.005678269143 0.9500488405 -0.3119767176 0.008816368498
0.01860764 0.008832391 -0.01978718 0.9029650818 0.4296733127 -0.00590807491
0.01541064333 0.06060000667 -0.06874712333 0.4859420932 0.8400542675 -0.2411827308
0.007334714 0.027963034 -0.04138576 -0.4174453142 4.812534089e-05 -0.9087020454
0.0098554826 0.048265212 -0.078635648 -0.4805711611 0.01007651106 0.8768978407
0.01981151857 0.005507894429 -0.03565747 0.9582677958 0.2858290426 0.004958817395
0.0071543858 0.04548107 -0.079881492 -0.4059497633 0.002659028158 0.9138915249
0.0071863466 0.060128364 -0.079716274 0.4030830249 0.4309780626 -0.8073301584
0.015854685 -0.0131139 -0.02082494 0.7811160651 -0.6243753663 0.003618676141
0.007673099429 -0.01908059 -0.03819190286 -0.4509635724 0.8924932663 0.009360871125
0.00780763775 -0.01690193 0 0.2756914712 -0.6320942206 0.7241899675
0.0118624125 -0.0091566045 -0.06262903 0.5887491926 -0.641226195 -0.4921416007
0.0165926025 0.03802498 -0.048427395 0.8134069376 0.003838675564 0.5816824034
0.01458534 -0.008215158 -0.06007737 0.6951915412 -0.5882695442 -0.4130952243
0.02007831 -0.004437065 -0.01561459 0.9691853148 -0.2462925583 0.004449858757
0.019685592 -0.0045082541 -0.00051472118 0.8298747407 -0.173700755 0.5302225594
0.019737058 0.0057601812 -0.0082473182 0.9567617789 0.2908480755 -0.003780918678
0.01423433 0.0148606675 -0.0260211625 -0.6927134458 -0.7211231533 -0.01137891847
0.016886195 -0.01174814125 -0.0306246475 0.8256678879 -0.5639500987 0.01525860501
0.006553756 0.01951506 -0.028048425 0.400715969 0.9162010506 -0.001532040919
0.005957943 0.003009942 -0.07624953 0.3856117691 -0.3980193737 -0.8323966253
0.01217774333 -0.01414849 -0.05316013167 0.5880356251 -0.7570246415 -0.2848294153
0.01014714333 0.0178793 -0.0104213155 -0.4814549235 -0.8764054031 0.01071102562
0.019857454 0.0078989576 -0.048322034 0.9622553916 0.217455571 0.1636387364
0.0077487055 -0.01271397 -0.06144864 0.4399211432 -0.758787362 -0.4803239814
0.01469673143 -0.01437742 -0.01804428 0.7157523338 -0.6983540761 0.0004255805257
0.01664388333 0.04545582667 -0.04850878667 0.8150612333 0.002954805341 0.5793672887
0.01809462714 -0.009577427 -0.04324226 0.8666223708 -0.4962527004 -0.05195116695
0.01907432286 -0.00447464 -0.05309073429 0.9279780808 -0.3323915332 -0.1684415334
0.009710478286 0.05576087714 -0.04247971429 0.4731294073 -0.004957255007 0.880978995
0.02003589167 -0.004614137 -0.01296248167 0.9706398989 -0.2405367361 0.0005149519946
0.019018095 0.01553766 -0.06796630833 0.9194950045 -0.06635820705 -0.3874603528
0.01910019 0.012759378 -0.050325296 0.924119066 0.2155417546 0.3155086432
0.01796303167 -0.009449858833 -0.04571385333 0.8635332223 -0.4959185801 -0.09151576834
0.0142085975 0.0149708125 -0.0405817325 0.715499139 0.6817001622 0.1527935569
0.01792352125 0.0279759425 -0.050516395 0.861215884 0.009206954432 0.5081559142
0.02040741429 0.05819720143 -0.05821126857 0.9106954881 0.3931646228 0.1267095392
0.012871068 0.01608948 -0.040376744 -0.6573263897 -0.7327899215 -0.1759003933
0.016568202 0.027988484 -0.048381568 0.794747266 0.003057817946 0.6069328075
0.01605168 -0.01285664 -0.01634521 0.7861848563 -0.6179901756 -0.001230690691
0.02027595667 -0.002060760217 -0.0479786 0.9815537086 -0.1824195748 -0.05723124908
0.0123761225 0.0158298175 -0.0003626007125 0.4348342503 0.5478853258 0.7146613496
0.019104336 0.0076361642 -0.038281134 0.9356448391 0.3522348822 0.02234553203
0.009561142333 -0.01119608 -0.06225278667 0.4730670622 -0.7221253723 -0.5047202208
0.01454041857 0.02568641714 -0.07516263429 0.7120308468 -0.006379850882 -0.7021191998
0.013169175 0.007692738 -0.074036575 -0.6317112916 0.2843997174 0.7211502235
0.01989363286 0.05804968286 -0.06578543 0.8881503951 0.3991814782 -0.2276906305
0.006657232 0.01945913 -0.01084505 0.4149812608 0.9098172522 0.004808416285
0.02043471167 0.02308526833 -0.058268985 0.996576236 0.008869733227 0.0822017858
0.008821048 -0.01858026 -0.02092663 0.4777911525 -0.8784719706 -0.00161599213
0.009799870143 0.02792144286 -0.07867617143 -0.4814671994 -0.005971221702 0.8764437691
0.01358859 -0.012642095 -0.053898825 0.6680218813 -0.6849047786 -0.2909505291
0.01312172 0.053466815 -0.076422785 -0.6318915033 -0.005852128954 0.7750347609
0.01452643875 -0.01204843875 -0.0529681625 0.7111517429 -0.6544406471 -0.2568474995
0.01252367286 -0.01632818429 -0.03299671143 -0.6100869416 0.7923275831 0.003305257683
0.01928791429 0.007550427286 -0.04314352429 0.9420866124 0.328103843 0.06943113847
0.0165985 0.043115196 -0.048446082 0.8144433151 -0.004466086231 0.5802259392
0.00940966725 0.0028661465 -0.07459393 -0.4793431015 0.3925698457 0.7849325495
0.02041955667 0.01058961067 -0.06079699667 0.9928167344 -0.05022881572 -0.108590966
0.01542937667 0.01359072667 -0.01032472933 0.7546439206 0.6560344422 -0.0114614025
0.007245807667 0.04300922 -0.041362135 0.3848053096 -0.001231824501 0.9229969428
0.0119398275 0.057786265 -0.0438557975 0.5987954911 0.2805205756 0.7501680922
0.01591711 0.05806625 -0.07365199 0.7137284771 0.3137928002 -0.6261994407
0.0098536425 0.02054659333 -0.078643275 -0.4888068166 0.01985918382 0.872165987
0.01790360143 0.03300648 -0.05049164714 0.8635101225 -0.002572878871 0.5043249435
0.01480704429 0.01812083429 -0.04576940571 0.7562009935 0.2605110418 0.6002449954
0.016520482 0.055665256 -0.072837996 0.7826021511 -0.001685696298 -0.6225199046
0.0115412 0.01699774 -0.0099175155 -0.5489834905 -0.8357903315 0.008464570942
0.01210911667 0.04334644 -0.07723577 -0.5963214652 0.004856784199 0.8027310395
0.01578497 0.006635729 0 -0.4714166529 -0.1888873229 -0.8614452499
0.012425286 0.060425652 -0.04526999 -0.4790232279 -0.6643818066 -0.5737016317
0.01502740571 0.01042701743 -0.0730831 0.729250739 -0.1983361289 -0.6548710863
0.01947031875 -0.001809297762 -0.05541652375 0.9476815858 -0.2565420467 -0.1899626022
0.007337615857 0.03797994714 -0.04139437571 -0.3875884621 0.002654714929 -0.9218286915
0.01306508333 0.05298096667 -0.04474341 0.6314035885 0.003006235823 0.7754485612
0.0117420925 0.02306967 -0.043685825 0.5846324481 0.01594245598 0.8111416268
0.01299821 0.04033523333 -0.07654390333 -0.6346741304 -0.009457439567 0.7727220102
0.01002787886 -0.01468802857 0 -0.3852271175 0.5401810679 -0.7482008299
0.011385645 0.017102925 -0.0076742235 -0.5477651014 -0.8365724916 0.00999299206
0.01761961333 0.01057158633 -0.0054092995 0.8513310734 0.5245199881 0.0106857641
0.01989797286 -0.004597543 -0.04548993429 0.9614436627 -0.2667832391 -0.0667292047
0.010240063 -0.01783652833 -0.04042196 0.5192897171 -0.8542666852 -0.0238037876
0.02051984667 0.003086491167 -0.05312873333 0.9977347113 -0.05108618856 -0.04376810726
0.0092422605 -0.018363915 -0.01080481 0.4920651557 -0.8705325408 0.006706558296
0.01979790143 0.005535695429 -0.01833652 0.9578017413 0.2872452066 0.01029639113
0.016595894 0.023031558 -0.048417822 0.8105584113 0.0101364308 0.5855700767
0.01863702 -0.008024694 -0.0464487 0.8980851972 -0.4289746726 -0.09707578875
0.01306967333 0.04837665333 -0.07647306 -0.6311363385 0.008455608367 0.7756258279
0.01784113833 0.050703735 -0.05036774167 0.8583572323 -0.01143000029 0.5129251572
0.02048634167 0.01033336183 -0.05567648667 0.9947351379 0.051002111 0.0888863891
0.012862286 0.016036972 -0.0055005928 -0.640539821 -0.7679194741 0.002901534489
0.01680308 -0.011890158 -0.037938414 0.8150829811 -0.5793050083 -0.006741017591
0.01474458556 -0.01430162111 -0.04062207889 0.7144897853 -0.6993362351 -0.02081290493
0.01786754 0.04079164167 -0.05042432833 0.8575218098 -0.004938936631 0.5144239035
0.016713408 0.0081395746 -0.070098494 0.814800616 -0.2065462872 -0.5416997207
0.01916117 0.03315233333 -0.05311499833 0.9381756373 -0.01673682402 0.3457547574
0.01884649 -0.008255466 -0.017855 0.9169838571 -0.3986130747 -0.01575508076
0.0077371454 0.0103248644 -0.078277434 -0.4117581154 0.2425199964 0.8784300233
0.01446567429 0.04556724 -0.07521602571 -0.7065656313 0.003364685348 0.7076395181
0.0131665975 0.03306634 -0.0448143225 0.6465601444 -0.0004678211889 0.7628628715
0.01797440625 -0.001978737775 -0.06060459375 0.8631113803 -0.3729496333 -0.3405103761
0.010575303 -0.0176608125 -0.02784286 0.5173630912 -0.855747578 -0.005613787719
0.020386705 0.008291279625 -0.0529732925 0.9912752232 0.09570388898 0.09063220976
0.01570522667 0.05308701667 -0.07388979 0.7692438914 -0.008861444937 -0.6388938178
0.01328955 0.0161464 -0.04202909 -0.6494492102 -0.6924231943 -0.3142703349
0.02034356625 0.002943433125 -0.008036683125 0.9892841477 0.1458026169 -0.007646702971
0.02053018714 0.008272995857 -0.05806537714 0.9974740766 -0.035238005 -0.06167454494
0.01380428 0.01691289 -0.04383631 0.7144572168 0.4526741519 0.5335138214
0.01840342 -0.002769072 -0.058509405 0.8887955444 -0.355250368 -0.2895507835
0.00994217 0.01583861571 -0.07828531857 -0.4717632996 0.1082536872 0.8750545859
0.01993135571 0.05563322143 -0.06561411571 0.9683013103 0.01718243308 -0.2491933715
0.02009547833 -0.004370233667 -0.01792196333 0.9755289122 -0.2195773793 -0.01136292145
0.007209359 0.038221096 -0.079867434 -0.3922962001 0.002565023494 0.9198353723
0.02046574 -0.0019749455 -0.01825251 0.9981630475 -0.05977395382 0.00987952282
0.006040674 0.0250928 -0.04090701 -0.3907823564 -0.003221274439 -0.9204774703
0.01436630714 0.05806042286 -0.04589589286 0.6544744353 0.3571971528 0.6663883309
0.0124975325 0.013077505 0 -0.4397293288 -0.5274539213 -0.7269322377
0.01459914429 -0.009437717571 -0.05806641 0.7162172479 -0.6028524816 -0.35157039
0.01835454 0.01420418 -0.04932155 0.8916233757 0.2501164431 0.3774248546
0.0089769655 -0.0185148425 -0.035780225 -0.4690612954 0.8831591197 0.003386803192
0.01992171 0.04065510625 -0.0656629275 0.9704923943 -0.001145182989 -0.2411290136
0.01610584 -0.01278174 -0.01328764 0.7872634084 -0.6163990877 0.01638567761
0.007714377667 0.05323608667 -0.07965158167 -0.4103128429 0.0005762989616 0.9119446468
0.00904656175 -0.0184790825 -0.0280180325 0.4852741067 -0.8743618021 -0.0006931362374
0.01481639714 -0.01427335286 -0.03560436714 0.7121694876 -0.7019194612 -0.01112164085
0.005985505 0.05587902 -0.04089256 -0.3248980449 -0.07250545907 -0.9429656509
0.02044650714 -0.002098009071 -0.007905767571 0.9946434346 -0.1031909658 -0.006005209133
0.01795993375 0.04816472375 -0.05061548125 0.8599575979 0.001199197103 0.5103640777
0.009829667875 0.01819573625 -0.0785628775 -0.4789445423 0.05548149488 0.8760901375
0.01765166375 0.01055111525 -0.02299992125 0.8497217079 0.5272110115 0.00464418807
0.018128334 -0.009695327 -0.005595958 0.8685111081 -0.4955787923 0.009492933442
0.01319266 0.0556071275 -0.0448454675 0.6361970247 0.02541306218 0.7711079834
0.020424752 0.043105268 -0.0629974 0.9924525375 0.003547348052 -0.1225780454
0.0177579 0.01037764067 -0.02819265833 0.8510320913 0.5250295645 0.009398717307
0.02058224833 0.05068436833 -0.06059628167 0.9999568723 -0.005809320879 0.007246061317
0.01199972 0.050456986 -0.043896326 0.5949074805 0.006719043452 0.8037661004
0.010448808 -0.01772449 -0.0053463944 0.525694747 -0.8506570077 -0.005261961031
0.01474615143 -0.01391312 -0.0005189842243 0.5985470811 -0.6129404878 0.5157958415
0.005791312 0.0606 -0.04449133 0.1998055476 0.8360736562 0.5109389245
0.02000596167 0.045595215 -0.055800455 0.9659462977 -0.01173253909 0.2584764933
0.01433592 0.015356655 -0.0749363175 -0.6984769716 0.1084919534 0.7073608812
0.0135743 0.018383025 -0.04460829 0.7180036486 0.3125722503 0.62190783
0.017801092 -0.0021238458 0 0.7195058631 -0.05079822093 0.6926260562
0.018413335 -0.007854991 -0.04877464 0.899989641 -0.4152996829 -0.132456859
0.01545831667 0.04301238667 -0.04702679333 0.763281966 0.005270025667 0.6460440134
0.006637835333 0.01946104333 -0.007934011667 0.4103122392 0.9119411691 0.002677781117
0.01794875 0.0526678 -0.05059163857 0.8582274102 0.01009616557 0.5131703225
0.01153265 0.017005825 -0.015696115 -0.5493942616 -0.8354651882 -0.01280095718
0.01346826 -0.01555033 -0.02512643 0.6530435006 -0.7572848979 -0.00733278418
0.01879155 -0.0066676275 -0.04975292 0.907455444 -0.3972957534 -0.1366773626
0.017418114 0.060600002 -0.065525492 0.5705798865 0.7974798966 -0.1961234501
0.016694105 -0.01202096 -0.00813304275 0.8086463874 -0.588285034 0.00342622574
0.019128096 -0.0070528382 -0.045300716 0.9284579848 -0.3654586127 -0.06637599681
0.01981753333 0.005475610833 -0.03054472167 0.9597546889 0.2808395333 -0.0003061233193
0.009712869667 0.033137225 -0.042461955 0.4815720478 -0.003666823187 0.8763988346
0.01414483667 0.005723584667 -0.07225351667 0.6920138948 -0.3016517405 -0.65583763
0.02039801333 0.02049654 -0.057931765 0.992893326 0.01441597159 0.1181313802
0.01225943833 -0.01643307333 -0.0007064298167 -0.5222635727 0.6528643174 -0.5486428199
0.013003365 -0.009373942667 -0.06085804833 0.6306169199 -0.6371585432 -0.4431154377
0.01318462 0.0606 -0.07171107 0.3779393038 0.8702112136 -0.3160606371
0.02057318 0.0004945271017 -0.03539789 0.9997054487 0.02285975374 -0.008151528358
0.01586816667 -0.01039830333 -0.05317154333 0.7764617938 -0.5806648019 -0.2448172187
0.009732071167 0.04585352333 -0.078709425 -0.4686110801 0.006104303998 0.8833834915
0.0144103375 0.01466359 -0.00576464675 -0.6898007242 -0.7239157573 -0.01099714583
0.007468810833 0.01289729833 -0.07899331833 0.3996673073 -0.1819465273 -0.8984216742
0.01292942 0.023059015 -0.04460317 0.6325090873 0.03132651031 0.7739191845
0.014485682 0.050683496 -0.075205276 -0.7055043688 -0.0009869347665 0.7087048832
0.01769929 0.01044808557 -0.007750314143 0.8499557748 0.5268374825 -0.004177083933
0.0142800325 0.0405913625 -0.0458007325 0.698962621 -0.0008268265582 0.7151577244
0.007541671429 0.03321669 -0.07974421 -0.415831185 -0.005192394214 0.909426998
0.02036872833 0.002966226167 -0.03308385333 0.9936559841 0.1118873659 -0.01135793347
0.01319273 0.01124739 0 -0.4786236753 -0.4387191156 -0.7605556621
0.018151968 -0.009649316 -0.010590746 0.8717479658 -0.4899521015 -0.001556400053
0.01846834 0.0026838315 -0.06364544 0.8891613661 -0.2767710109 -0.3644034475
0.01666586333 0.01207587 -0.02820856667 0.8179727019 0.5752567353 -0.0005894059142
0.01009034325 -0.017761155 -0.0433656025 0.5159373259 -0.8531521564 -0.0770718736
0.011627315 0.016969515 -0.038150945 -0.5588048669 -0.8212078467 -0.1155629411
0.01766452667 0.010523069 -0.01536179333 0.8506355994 0.5257288952 -0.005310915101
0.02036075833 0.03304033667 -0.05776418667 0.9859831847 0.01122184613 0.1664669028
0.008522384 0.0277165 -0.041850625 0.4384210025 0.002922434502 0.898764977
0.0205731325 0.015512225 -0.0605059 0.9994518348 -0.009743673238 -0.0316400175
0.0204392075 0.038317945 -0.0629539325 0.9962892312 -0.01047556414 -0.08542850978
0.01479073714 -0.01427246143 -0.005732230571 0.7166383768 -0.6974413142 0.002247263981
0.008187646333 0.01889350667 -0.03806500333 -0.4602339096 -0.8865669006 -0.04673199231
0.019675755 0.06044023 -0.05822998875 0.8503561758 0.504979022 0.1479545931
0.020577784 0.053103688 -0.06015774 0.9990350799 -0.0008582843575 0.04391096185
0.01452174429 -0.01454031143 -0.008210227286 0.7162937917 -0.6977979283 0.001120344677
0.015447586 0.013593994 -0.025597804 0.752537953 0.6584852358 0.009155518501
0.01303367667 0.04528331667 -0.04471742 0.628517433 0.01146991876 0.7777109215
0.01794834714 0.01053866171 -0.04311129857 0.8642397784 0.4784898699 0.1553610304
0.01446018857 0.003128084143 -0.07056463286 0.7147674529 -0.340187756 -0.6110480987
0.01999010125 0.002933246 -0.0005069553987 0.8828088038 0.1106018067 0.4565258549
0.0107075 0.01896557 -0.04253432 0.6256173688 0.5041303202 0.5953616784
0.01221576571 -0.006515459143 -0.06534634 0.5987187585 -0.5886140968 -0.5432028104
0.007682111333 -0.01907609667 -0.005824564333 -0.4399542797 0.8980193692 -0.001201831
0.020018558 0.037855538 -0.055791342 0.9720481639 0.01497980866 0.2343031635
0.02040952 0.05555842571 -0.05818665286 0.9940533624 0.04640995672 0.09850902812
0.013114044 0.015826236 -0.076115634 -0.632277857 0.0972017501 0.7686198874
0.01325027667 0.03023207333 -0.07635645667 -0.6415164893 -0.007765315067 0.7670699406
0.020565375 0.0006562402675 -0.04543392875 0.99972569 0.02191280193 -0.008268846838
0.009946461 0.02533259857 -0.04259165286 0.489705767 0.00698376982 0.8718597873
0.016725045 0.0482124925 -0.072541635 0.7987945782 -0.007105840465 -0.6015619078
0.0128118225 0.0160917875 -0.01086051 -0.6270334938 -0.7789041696 -0.01171717873
0.015718155 0.0503193825 -0.0473210425 0.7648909564 0.008841549041 0.644099101
0.0157306875 0.045929915 -0.04733103 0.7647283136 -0.008728357835 0.6442937391
0.02039942375 0.058195705 -0.06309173875 0.9149136192 0.3898200726 -0.104753904
0.01555167 0.01352113333 -0.04044079333 0.7590090159 0.6476273319 0.06696381747
0.01486642375 -0.014188235 -0.002860786125 0.7114049735 -0.6756971327 0.1932261587
0.012697044 -0.012405412 0 0.548830318 -0.5381818247 0.6396449058
0.01917559 0.055140255 -0.06803211 0.9278084143 0.01034311804 -0.3729136176
0.015614178 0.013389986 -0.02814767 0.7521620634 0.6587996465 0.01533806256
0.009810717429 0.04070579714 -0.04251987429 0.4804162356 -0.01061334284 0.8769763951
0.01977818286 0.005582462143 -0.003254364571 0.9400050592 0.2607382382 0.2200137718
0.01310955333 0.0432681 -0.07645005667 -0.6349517258 0.007372683131 0.7725166337
0.020540732 0.0054423982 -0.055304976 0.9998364331 -0.01791665179 -0.002469956473
0.01800889857 0.02559392 -0.07054910286 0.8661674006 -0.007486742372 -0.4996978916
0.01872279 0.001618685 -0.06208549 0.9094388142 -0.2742074513 -0.312620084
0.008542925 0.05863042 -0.04188341 0.4037088749 0.3956298688 0.8249219061
0.0080128975 0.01897016 -0.033473415 -0.4398753158 -0.8980549411 -0.002651278045
0.0152093 0.06033390143 -0.04772983714 -0.5803371274 -0.5754181044 -0.5762836313
0.00988546125 0.01802339 -0.0227780325 -0.4754299146 -0.8797483715 0.003033000776
0.00659029225 0.01948685 -0.0159105575 0.4115659338 0.9113788414 0.001445511343
0.01809714833 0.02052094833 -0.07037983333 0.8635324735 -0.01259001873 -0.5041360518
0.0158451725 0.025539125 -0.0737393925 0.7608248247 0.002228742756 -0.6489534797
0.020560138 0.00074359703 -0.048203242 0.9996968967 -0.02108486608 -0.01270996601
0.00792201475 0.0049913925 -0.0763489125 -0.4175254404 0.352276436 0.8376000354
0.018841505 0.005976663 -0.064852595 0.9211122819 -0.1955679328 -0.3366085973
0.015336782 -0.00451047 -0.063321278 0.7434234791 -0.4915719731 -0.4535179445
0.01185809 -0.016819236 -0.038080168 0.5737604584 -0.8190220872 -0.001325527614
0.01792156 0.02302073833 -0.05050985667 0.8591325133 0.007286028727 0.5117013175
0.01321423333 0.05562584333 -0.07634528333 -0.6415054293 -0.0288201433 0.766576926
0.01862711 0.04482266 -0.05190471 0.9046854572 0.01862247142 0.4256729109
0.018134418 -0.009701475 -0.015267582 0.8698367959 -0.4932883845 -0.007107610263
0.02036107667 0.002954102833 -0.018282365 0.9890122327 0.1471473647 0.0142287243
0.0159517 -0.01298626333 -0.01820503 0.784553539 -0.6200535734 -0.003051317035
0.019266864 0.045956604 -0.05341567 0.9414390227 -0.008561490212 0.3370745725
0.02033513 0.003149759 -0.03048218 0.9827873576 0.1845888402 -0.007481296687
0.018782235 -0.008350463 -0.0005363595 0.7588679357 -0.3334356453 0.559410517
0.016969245 -0.01163051 -0.01813497333 0.8264764827 -0.5627956187 0.01406111857
0.01558055667 0.01341013333 -0.008076525 0.7522511333 0.6588754164 0.001190857053
0.019414238 -0.0068047192 -0.015660432 0.9396674472 -0.3420505626 0.005147942132
0.01154299 0.017006745 -0.02557159 -0.544116198 -0.839009834 0.0002481352119
0.02044751125 0.0303927025 -0.06288516625 0.9962544603 0.01573145244 -0.08502688874
0.01906458857 0.007730744286 -0.02812733143 0.9254830874 0.3787749609 0.003253297568
0.017288828 0.013074648 -0.04568624 0.8456905948 0.4370813318 0.3062145118
0.0149071725 -0.0141645 -0.0281322675 0.7228172701 -0.6910344383 0.002568876764
0.01880655 -0.008342033 -0.009524481 0.9153473172 -0.4026615838 -0.001714020506
0.01562812 0.038398205 -0.0739855525 0.7671593802 -0.01229281244 -0.6413387343
0.0121165725 0.00830193425 -0.0751070075 -0.6064462611 0.2602354458 0.7513324465
0.01568869333 0.04572114333 -0.07391567 0.770678931 -0.006471645441 -0.6371907902
0.01495733143 -0.009547582 0 0.5971951638 -0.3891728129 0.7013575822
0.009868191429 0.01805220143 -0.03050260857 -0.4751593266 -0.8798705756 0.007168301874
0.01169943667 0.006257101333 -0.07466485333 -0.5563248297 0.3130246577 0.7697520689
0.01182036 0.02315738 -0.077443656 -0.5665498942 0.01500451403 0.8238908192
0.01658134667 0.01534989 -0.07234198 0.8033959617 -0.1008339676 -0.5868453287
0.00754562525 -0.0191469525 -0.00838373475 -0.4369161413 0.899499699 -0.002139375458
0.01640407667 0.01241101333 -0.03064015 0.7981567339 0.6024439306 -0.002671815668
0.017147675 -0.009435288333 -0.05081895167 0.8270369791 -0.5349536945 -0.1727263151
0.008857074 -0.01579424 -0.05446773 0.4583346518 -0.8270184384 -0.3255301054
0.019257396 -0.0067712276 -0.00060488078 0.787623733 -0.2602323613 0.5585051239
0.01275016714 0.0161457 -0.02304858 -0.626189734 -0.7796614075 0.003808765499
0.01734562429 -0.006863691857 -0.05566510857 0.8355705811 -0.4776851378 -0.2713645391
0.01447990167 0.038349725 -0.04599374167 0.7012696936 -0.01059613418 0.712817325
0.0076136958 0.048024432 -0.041510232 0.4215340279 0.003311677468 0.9068065373
0.012281085 -0.01634228833 -0.04315719 -0.6017997695 0.7943133343 0.08308648744
0.01866055 -0.00869838 -0.02854167 0.9047385516 -0.4257240017 0.01439540387
0.01216510143 -0.01657002571 -0.01549997286 0.5833897127 -0.8121863577 0.003124644105
0.014563022 0.030772468 -0.075132362 0.7088063546 -0.006001343819 -0.7053775836
0.016643536 0.050830984 -0.048520838 0.817515611 -0.01293114179 0.575761245
0.019863886 0.0053410214 -0.03797632 0.9641717642 0.2652715794 0.001948896002
0.020433818 0.040693706 -0.062973226 0.9963384556 0.0007833393606 -0.08549308922
0.01144582 0.017082055 -0.03286585 -0.5365592698 -0.8438414615 0.005978116865
0.020379602 0.0030555398 -0.05531481 0.9901011536 -0.1130439245 -0.08319120638
0.017083795 -0.0016303035 -0.06306136667 0.8331284168 -0.3862540731 -0.3958596117
0.01257704 -0.016279902 -0.013099128 0.6096637965 -0.7926329988 0.006556255268
0.01974267167 0.01563342833 -0.06585841833 0.9521076805 -0.05438060425 -0.3008882095
0.008420226 0.03220636 -0.04181412 0.4262935655 0.001953095882 0.9045827665
0.01798430857 0.04558734286 -0.07055847429 0.8646765148 0.0119403881 -0.5021871682
0.00981581475 0.04540566 -0.0425311375 0.4742817703 0.0161652202 0.8802246804
0.010573655 -0.01764127 -0.00266756975 0.5088472282 -0.8104218662 0.2903289465
0.01281745333 -0.005234784667 -0.06603600667 0.6171573836 -0.5570447133 -0.5557139113
0.010224951 -0.01787459333 -0.03542025 0.5007234605 -0.8655327253 -0.01136298788
0.0086875475 -0.018615075 -0.040522355 -0.4681492216 0.8829348258 0.03553026472
0.00564554875 0.05328972 -0.0803822625 0.3802463841 0.0001748611332 -0.9248852128
0.0075396096 -0.019145782 -0.030297948 -0.4304977233 0.9025853733 -0.003369586135
0.012156218 -0.011970802 -0.057911932 0.6102287221 -0.6948203603 -0.3805858295
0.01992192833 0.05563061333 -0.05554780333 0.9758491293 0.01317810854 0.2180477339
0.01347485333 -0.01555510667 -0.03810785333 0.6509617232 -0.7589401642 0.01608297393
0.01870325 -0.008596663 -0.03231821 0.9115415008 -0.4110818962 -0.01018660412
0.019901165 0.04309164833 -0.05538676333 0.9617095462 -0.01373359646 0.273726391
0.011920435 0.0355194625 -0.07737631 -0.5947752597 0.0008469717051 0.8038915804
0.01295183 0.050520365 -0.04465279 0.6326500704 0.008002595496 0.7743964404
0.02010200833 -0.004382642667 -0.03074024667 0.9763685571 -0.2160657602 -0.00447527278
0.01870316 -0.008596885 -0.03786123 0.9126723338 -0.4086919958 -0.0002522463716
0.0115564 0.01699153 -0.020588315 -0.5446308893 -0.8386745459 -0.001483410354
0.013403015 -0.01561507 -0.030508095 0.6359363868 -0.7715678639 -0.01636897424
0.016742694 -0.011973472 -0.033345086 0.8119503398 -0.5834224334 0.01883905209
0.0087756365 -0.01859125 -0.01277352 -0.4887975471 0.8723944767 0.002198861495
0.02054721429 0.01320754286 -0.05815851571 0.9996828834 0.02065765366 0.01440118272
0.01589327 0.04802332 -0.07368277667 0.7696335601 -0.0009427344856 -0.638485156
0.0155189 0.013509894 -0.030326248 0.7552763905 0.655318078 -0.01076060481
0.0131613875 0.0279284625 -0.0764251875 -0.6371534117 -0.001130826917 0.7707361749
0.0100847185 0.05823529667 -0.04269962833 0.501514124 0.3795800554 0.7774333187
0.01625375 -0.009093663 -0.05492148 0.7744580133 -0.5665382135 -0.2815124124
0.01599525 -0.01296423 -0.03482122 0.7800595949 -0.6256987206 0.002852954361
0.02039820286 0.03804936857 -0.05805942 0.9920885055 -0.01202906786 0.1249627899
0.007365642667 0.05317168833 -0.04141699333 -0.3907150263 0.00416625443 -0.9205022599
0.0081231435 0.0188974875 -0.0154751775 -0.4518470938 -0.8920937944 -0.001692862422
0.0056005275 0.057624135 -0.08039351 0.3368645422 0.1982300109 -0.9204494244
0.012325115 0.0606 -0.07323621 0.4187571856 0.8180723248 -0.3942081821
0.01897939167 0.007880253833 -0.003137534833 0.8565450489 0.376089615 0.353393804
0.005961875333 0.010822154 -0.07906576333 0.3766926958 -0.2036620896 -0.9036727097
0.01914303667 0.02070151167 -0.06813168833 0.9199752113 -0.01535073295 -0.3916758425
0.01425047333 0.01485286 -0.0327184 -0.691098805 -0.7227310149 0.006505528656
0.005447511 0.03059146 -0.08045616 0.3814546261 0.0025766213 -0.9243839729
0.02039667286 0.03579004 -0.06329163143 0.9917395508 -0.0127691063 -0.1276307691
0.0056274215 0.0506815375 -0.0803914475 0.3679302038 0.0004590688293 -0.9298532972
0.0075138265 0.035786115 -0.07975043833 0.3866817939 0.0002986201447 -0.9222131538
0.016476485 -0.003341726 -0.06259148 0.8099102961 -0.4290444165 -0.3999577489
0.01459637667 -0.01432230833 -0.04317951333 0.7163488865 -0.6948487132 -0.06347864731
0.012929054 0.016004218 -0.018081746 -0.6287189475 -0.7775641805 -0.01031650375
0.020477274 0.00073292136 -0.050648052 0.9965962173 -0.06699734277 -0.04803473413
0.0072987628 -0.013672356 -0.06025322 0.4167058091 -0.7784021013 -0.4695172385
0.01483172833 0.06060000167 -0.05032791 0.5170878099 0.7786463753 0.3554293447
0.007334901375 0.02015729125 -0.04091894 0.5420436059 0.5536269113 0.6322072227
0.01864208 0.04265705 -0.05193176 0.9006373651 0.004449609651 0.4345486597
0.012731565 0.0161679075 -0.02997802 -0.6266826639 -0.7792269099 0.008617522814
0.0157892 0.0330263575 -0.04738635 0.7648644278 0.01204902563 0.6440785884
0.01791328875 0.0506839375 -0.0706872075 0.8623195821 -0.01159945219 -0.5062315586
0.0060094 0.02813247 -0.0803009 0.37989519 0.006036739626 -0.9250098391
0.02046553167 -0.00201331 -0.02301526667 0.9981161664 -0.06061179257 -0.009504156312
0.005514250667 0.04790389667 -0.08042001 -0.3767886896 0.005942917266 0.9262801764
0.01291265333 0.03554722333 -0.07662037667 -0.6301242333 0.009993552597 0.7764300223
0.01018404475 -0.0178928 -0.0156397825 0.5075175229 -0.8616384425 -0.002271219622
0.020577196 0.045419442 -0.060843302 0.9994672319 0.008357102179 -0.03155013675
0.01789358 0.035547795 -0.05044746167 0.8669845002 -0.0005183103323 0.4983348349
0.008483356 0.055719555 -0.041857705 0.4422114204 0.003487756742 0.8969040613
0.0097046434 -0.0039454016 -0.069938948 -0.4707972346 0.5607705273 0.6810920493
0.01664003667 0.01211437667 -0.03811994 0.8091921616 0.5874139792 0.0123637637
0.01035877425 -0.0177908325 -0.037519375 0.5005995788 -0.8655919749 -0.01227170605
0.02032087143 0.003144275714 -0.01309225 0.9887010677 0.1498491516 0.003928163831
0.011769192 0.033368054 -0.077480542 -0.566503832 0.0100763721 0.823997497
0.00784727 0.01904018 -0.0397025 -0.5961854356 -0.7255899361 -0.3436308644
0.006578105 -0.01833075 -0.04950015 0.4151167654 -0.884155103 -0.2143544375
0.008949871 -0.01852705 -0.030787965 0.4856439655 -0.8741068775 0.00933303802
0.01179027333 0.03840666667 -0.04372366 0.5726694182 -0.008000091378 0.8197473611
0.01188192 -0.01107911333 -0.05982859667 0.5756617218 -0.6949755022 -0.430839452
0.02004559857 -0.004621966286 -0.02548759714 0.9808986368 -0.194223334 -0.01073130074
0.019750945 0.005723751 -0.012959495 0.9502124219 0.3115302018 -0.006729536199
0.02011401429 0.01551678 -0.05546234 0.9751073625 0.04663800054 0.2167729885
0.0097221612 0.050490518 -0.07870972 -0.4796850784 -0.005917404183 0.8774207713
0.007201767 0.023056358 -0.041330674 -0.5180707102 -0.1129762129 -0.8478438032
0.016333185 0.01247457 -0.0057181465 0.7805820263 0.6250446142 0.003306116233
0.01173886333 0.05784950667 -0.07748615333 -0.5657306523 -0.2741569004 0.7776804119
0.019930725 0.03040576667 -0.06567346 0.9708348649 0.009709422856 -0.2395524834
0.020463894 -0.002071606 -0.03060484 0.9949244996 -0.1002332327 0.008862236284
0.012998295 0.0281402 -0.044670405 0.6311096395 -0.004120541544 0.7756826955
0.016594892 0.040416708 -0.072736318 0.7988169048 0.012471403 -0.6014449407
0.0119545125 0.04810767 -0.0438654975 0.5785295606 -0.01637614974 0.8154970075
0.01209631286 -0.01662813 -0.010920521 0.5765224238 -0.8170624637 -0.005552048688
0.00914783275 -0.01842822 -0.02554469 0.4864978462 -0.8736688114 -0.004759573725
0.01357906 -0.01545378 -0.03197973 0.6643556102 -0.7472218596 -0.01706211718
0.020453152 0.027849142 -0.062901448 0.996503212 0.0148652452 -0.08222148695
0.014092288 0.014987314 -0.0203502 -0.6925753524 -0.7212804446 0.009690276161
0.01675397 0.01196682 -0.03275082 0.8183964239 0.5746196139 -0.006292274468
0.02040617429 0.04555012429 -0.06316360714 0.9866445647 0.0001345539442 -0.1628879521
0.019033114 0.0078012218 -0.022981792 0.9215889258 0.388165636 -0.001136157689
0.007779211 0.01906026 -0.01311162667 0.4501150148 0.8929698828 -0.001123352104
0.009125706 -0.01840568 -3.664494e-05 0.4186575777 -0.6277495898 0.6562440744
0.01560196333 0.01339112333 -0.005460107333 0.7512785149 0.6598282606 0.01439651283
0.011615635 0.01711787 -0.04098128 -0.6045253687 -0.7064175333 -0.3681349579
0.02033320667 0.003186166667 -0.04058791667 0.9889864064 0.1479983658 -0.001539997901
0.017631654 0.003265235 0 -0.6200106484 -0.132873993 -0.7732601748
0.006127287 0.03770628 -0.080265475 0.3842671284 0.001825644149 -0.9232201477
0.01926042333 0.02782498667 -0.06783489333 0.9295872678 0.009878509812 -0.3684697092
0.01614104 0.01674855 -0.04683423 0.8160804596 0.2898724649 0.4999866374
0.016626115 0.012121235 -0.02068483 0.8040343969 0.594562383 0.004925574695
0.01319095 0.03068053 -0.0448338825 0.6306832935 -0.004639078504 0.7760264571
0.020137506 -0.0042016884 -0.023190386 0.9816704014 -0.1902459879 0.01138802383
0.01992898714 0.03816398857 -0.06568437429 0.9692643307 -0.006439331226 -0.2459373745
0.02033109571 0.003162308857 -0.03573481857 0.9821541592 0.1875030863 0.01469014158
