# .PCD v0.7 - Point Cloud Data file format
VERSION 0.7
FIELDS x y z normal_x normal_y normal_z
SIZE 4 4 4 4 4 4
TYPE F F F F F F
COUNT 1 1 1 1 1 1
WIDTH 596
HEIGHT 1
VIEWPOINT 0 0 0 1 0 0 0
POINTS 596
DATA ascii
0.01670988333 0.03065954111 -0.07257533778 0.8122144079 -0.001872361122 -0.5833560232
0.01883375167 0.008279703 -0.024981885 0.9128538634 0.4082840547 0.00139814614
0.01808991667 0.006041268333 -0.06666099333 0.8821049008 -0.2379693623 -0.4065237097
0.02037798833 0.002870007833 -0.022399795 0.9934995006 0.1131918685 -0.01209723906
0.0159171 -0.006832585 -0.05942803 0.7760393535 -0.5177921556 -0.3600752773
0.01542914 0.01848015 -0.0741281 0.7334183444 -0.04352506499 -0.6783827097
0.0204724525 -0.001848032188 -0.04219764625 0.9942820127 -0.1056304633 -0.01566794277
0.01988924875 0.005241985 -0.03742999125 0.9630418177 0.269286347 -0.00594312658
0.0205508325 0.0005472066 -0.01458737 0.9995043051 0.02927150391 -0.01158978859
0.0179813375 0.047915645 -0.0505932025 0.8707071763 0.0004983935128 0.4918015502
0.01975660167 0.03561146 -0.05486432667 0.9603763121 -0.004531297984 0.2786697087
0.02021798 -0.003841141 -0.03528519 0.9860360114 -0.166527968 0.001191656974
0.01709803833 0.05815970667 -0.07198964667 0.7842764711 0.3205693013 -0.5311739263
0.01769306 -0.01050438 -0.02907724 0.8572878206 -0.5148328052 -0.002185271484
0.01837386875 0.05312427625 -0.0698155475 0.8777500742 -0.01027395824 -0.4790086148
0.01215954333 0.04795949 -0.04401688333 -0.6594274841 -1.321587871e-06 -0.7517681778
0.020076258 0.035344232 -0.065109286 0.9693847277 0.01150960496 -0.2452769428
0.01750972 0.002369943333 -0.06555547333 0.8533068048 -0.3087463437 -0.4201704322
0.02037650333 0.002883111 -0.02483937833 0.9939628193 0.1094449634 0.007727475246
0.019308585 -0.007083132 -0.02728201167 0.9362788958 -0.3511608014 -0.008241412439
0.01778838 0.03025678 -0.050218915 0.8420877403 0.0120562565 0.5392057903
0.02044898 0.02073766 -0.06293504333 0.9904248631 -0.02065559362 -0.1364988533
0.01489985 -0.0003563375 -0.06776743 0.7210539802 -0.4153026137 -0.5546213995
0.02041587 0.0053474302 -0.057337068 0.9946848494 -0.07015324885 -0.07536957004
0.020503586 0.030312836 -0.06247452 0.996103239 0.01043016366 -0.08757596111
0.01507907 0.01403331 -0.007857981 0.7176045539 0.69644355 -0.003175842616
0.01555602 -0.01347858 -0.03706125 0.7528859188 -0.6581208197 0.006307137938
0.02056202667 0.0002223490433 -0.0049231225 0.9997549915 0.01153904528 -0.01888934626
0.01973827667 0.0057299265 -0.007200412667 0.9520500608 0.3059093141 -0.004491461213
0.018987515 0.0079080095 -0.02005773625 0.9252295585 0.3791755948 0.01327148365
0.01936029143 -0.006961490143 -0.03978627714 0.9378593466 -0.3465985107 -0.01700936279
0.01733672 0.025467125 -0.0495118875 0.8310286579 -0.00662999072 0.556190087
0.01442445 -0.0146690875 -0.035071445 0.709872254 -0.7043041842 0.006082688994
0.01361312833 0.02556244167 -0.04519103 0.6941666199 0.005827846462 0.7197907613
0.01670018 0.06017515 -0.07216516 0.6700906297 0.5973633862 -0.4406081398
0.017391385 0.060600005 -0.059091225 0.4877579647 0.8668609457 0.1031710648
0.01933538667 -0.007038712167 -0.037463945 0.9348032771 -0.3547442416 -0.01730191272
0.020571278 0.00031595972 -0.027464812 0.9999903468 0.001517982992 0.004123343846
0.01986229125 0.00527290375 -0.01973904375 0.9652361998 0.2611595873 -0.010712074
0.01830840167 0.045892895 -0.06995625833 0.875345027 -0.01664741674 -0.4832121141
0.020468232 -0.00186406186 -0.0099987846 0.9982264051 -0.05943824341 0.003337573778
0.020539674 0.012963226 -0.057838618 0.998934653 0.03016525046 0.03492301014
0.01388189 -0.01437724 -0.04735689444 0.6939771628 -0.7036253526 -0.1526665015
0.020376625 -0.001730270533 -0.04699763833 0.9915558467 -0.1223784843 -0.04290115809
0.019012515 0.03784314 -0.0527362125 0.9273870086 0.01369535641 0.3738526092
0.020571514 0.00031675006 -0.010078433 0.9999357857 -0.001797541631 0.01118898133
0.01419061571 -0.01257174143 -0.05256455143 0.7110738714 -0.6570503266 -0.250317434
0.01630098833 0.01786972 -0.04756443 0.7980492617 0.2279186518 0.5578265538
0.01548533 0.0026431345 -0.069010205 0.7454271612 -0.3459346138 -0.5697960954
0.01425026286 -0.01482846571 -0.03241582286 0.7147998935 -0.6993205557 -0.003445675136
0.01730773667 0.01112363333 -0.01161444333 0.8382906007 0.5452227698 -0.001000010385
0.018036895 0.00989111975 -0.017653615 0.8699355275 0.4929143727 0.01573528456
0.01996192 -0.0050017034 -0.025026104 0.965629775 -0.2596250772 0.01240793701
0.01384419333 0.01521666667 -0.03011348167 -0.6864555278 -0.727077815 -0.01169013683
0.01411632143 -0.01494366714 -0.01766211286 0.7073069701 -0.7069058896 -0.0009556952318
0.01729464333 0.02310097667 -0.04944516667 0.8330588773 0.005764613646 0.5531542968
0.01730979333 0.0006089770333 0 -0.5260606935 -0.05859027013 -0.8484263828
0.02011593 0.04828885 -0.05617167 0.9744546321 0.004003080388 0.2245487593
0.01979419 0.005529909286 -0.02476521429 0.954726086 0.2974793671 -0.002031442042
0.012210875 0.02834208 -0.044017985 -0.6610559222 6.061035796e-05 -0.7503366338
0.01319048 -0.01581541 -0.035458325 -0.6747558549 0.7380362633 -0.002647695632
0.020062172 -0.0045867646 -0.039888442 0.9749423232 -0.2221200768 -0.01225307485
0.02056793857 0.02540535714 -0.06002224143 0.9991603865 0.00631310544 0.0404804489
0.01798752 0.057945665 -0.050629625 0.8067574338 0.3614552594 0.4674318544
0.014270354 0.060600002 -0.050110746 0.4683637698 0.8042586371 0.3657915032
0.0179301225 0.03590343 -0.050483455 0.8763433238 -0.01245585598 0.4815259395
0.01603223833 0.01287301 -0.02214436833 0.7831191988 0.6217641462 -0.0115614479
0.0165695425 -0.01216976375 -0.017322795 0.8052968804 -0.5928500246 -0.005077675474
0.012214115 0.005914415 -0.07409877 0.6605249143 -0.2793838814 -0.6968869954
0.0121775 0.0305080775 -0.0440112175 -0.6616671124 0.0007475831801 -0.7497973549
0.018584238 0.060136252 -0.052026712 0.7572539554 0.5142452061 0.4026391871
0.014818865 0.032751675 -0.046330325 0.7239797369 0.008727935951 0.689766021
0.02056276333 0.02270923333 -0.05990131333 0.999512669 0.009457240117 0.02974869782
0.01225696667 0.01653020667 -0.0298221 0.6522671303 0.7579651199 0.006038842375
0.02015994 0.003994803 -0.004341981 0.9794457613 0.1911899664 0.0642837259
0.01893920571 0.00798734 -0.009894826714 0.9259805519 0.3774702697 -0.008730011621
0.0199835775 -0.00486960825 -0.0171960925 0.9674574335 -0.2527960885 -0.01096594348
0.020319695 0.037425805 -0.063830025 0.9896261444 0.006202377076 -0.1435326612
0.01482705 0.04794317 -0.046355295 0.7230193524 -0.001183200098 0.6908267627
0.01385126714 0.005568812 -0.07246963429 0.7002463823 -0.3085818773 -0.6437641098
0.01915791 0.0009591051958 -0.06003384 0.9316785475 -0.2616289992 -0.2520423593
0.01492918 0.025440465 -0.04644391 0.7289699768 0.01053439536 0.6844646079
0.01855562 0.03043293 -0.06948832286 0.9099686282 0.01366355823 -0.4144519307
0.02031817 0.003796754 -0.05691948 0.9891700781 -0.1038296289 -0.1037398901
0.01907793625 0.00553470875 -0.0001471883075 0.8266135596 0.2131679077 0.5208353543
0.014850525 0.05558747 -0.046394325 0.7252944875 0.007918449364 0.688393205
0.01377591125 0.015281015 -0.0374617875 -0.6922030711 -0.7209722734 -0.03246366016
0.020443186 -0.00218648922 -0.01482629 0.9955421922 -0.09422417766 0.004189028568
0.020563245 0.00062917875 -0.02225233333 0.9997697636 0.01983351793 -0.008188486711
0.01163231 0.0169371 -0.01369761 0.643447228 0.7654903832 -0.0003713610245
0.01376337 0.030736365 -0.04531862167 0.6914962476 -0.004810838379 0.7223640324
0.01559856333 0.02807666667 -0.07401906667 0.7446568486 0.009742894996 -0.6673763959
0.02055764125 0.0005551609625 -0.017311805 0.999934663 0.006180573964 0.0096161435
0.02047502167 -0.0019802475 -0.039741925 0.9973764698 -0.07174035147 -0.00966950776
0.02015763 0.04344345 -0.05638676 0.976691302 -0.008844281898 0.2144664993
0.02056791875 0.05045327125 -0.05989605125 0.9998745894 0.004657472562 0.01513649204
0.01620643833 0.008545328 0 -0.5683990709 -0.3205140307 -0.757755404
0.01215414 -0.016577005 -0.00059839845 0.7203466322 -0.622108097 0.3067282919
0.01305556333 -0.01592092667 -0.01513445667 -0.6689950337 0.7432660649 -0.001096210944
0.01232376667 0.04297764333 -0.04414068333 -0.6579934241 -0.003393552069 -0.7530160275
0.01374525222 0.01530409333 -0.03468108222 -0.6851938655 -0.7283499794 0.003959051787
0.017908146 0.020631774 -0.050439688 0.8715972074 0.03994918637 0.4885922334
0.02028278 -0.003512368 -0.032304505 0.9874253169 -0.1578261537 -0.009063599174
0.0119875 0.040286275 -0.0438708975 -0.6612919028 0.0005216665571 -0.7501284871
0.01433753 -0.01472923 -0.01268973167 0.7114843747 -0.702678537 0.005732206341
0.01387007857 -0.01197895286 0 -0.5316119494 0.3834128688 -0.7552372523
0.01235921 -0.015116 -0.04973488 0.6365921718 -0.7387125678 -0.2214817125
0.01222439667 -0.01646137333 -0.04222723333 0.6745740855 -0.7369711473 -0.04270048265
0.01443245714 0.05317396286 -0.07524592857 0.7205193217 -0.0006063402962 -0.6934345963
0.015476325 -0.013561655 -0.009680231 0.741894985 -0.6704998659 -0.004664872851
0.01758846 -0.01069981 -0.03570549 0.8597101769 -0.5107817347 0.0006566431081
0.01200855667 -0.01117637333 -0.05949709333 0.6546435924 -0.646886728 -0.3911257189
0.01510053 0.01895692 -0.0464099 0.7600642997 0.1762800538 0.6254818966
0.01537275333 -0.01354726333 -0.04265305 0.743768633 -0.6658452221 -0.0588078297
0.02032926 0.0106414365 -0.0615591275 0.9892871738 -0.05481750939 -0.1352994026
0.0132341 -0.006578894 -0.064114105 0.6818918496 -0.5466058483 -0.4860509768
0.01207880333 0.01019444 -0.07574254 0.6408266008 -0.2294245122 -0.7326019799
0.02055809857 0.01800696 -0.05965284143 0.9992451532 0.002922020934 0.03873739392
0.012151025 -0.016590465 -0.0072971275 0.6694308505 -0.7428595134 0.004698904188
0.01160221 0.01696817 -0.02604673 0.6463837175 0.7630117258 0.001093626456
0.017198296 -0.0096010186 -0.050142506 0.8232911205 -0.5371614874 -0.1834373663
0.02053656143 0.002863729429 -0.05231496286 0.9993823762 -0.02686316453 -0.02265472401
0.02056402333 0.03559838833 -0.05976573667 0.9990672148 -0.01006814337 0.04199205563
0.01815987429 -0.009630141857 -0.004845096571 0.8678291425 -0.4968352435 0.00522687683
0.02023376 -0.0008130355 -0.05147384 0.9843729382 -0.156758565 -0.08022886591
0.01998458 0.00015589095 -0.0551750325 0.9694642784 -0.1973756794 -0.1455398715
0.01894800222 0.01294768778 -0.06752989333 0.9232324182 -0.1089101996 -0.3684840164
0.01766694 -0.01052911 -0.01988267 0.8652919572 -0.5011955634 0.008534404688
0.01897249857 0.06059581857 -0.05707009571 -0.6108247635 -0.7672385572 -0.1955456586
0.01610398857 0.01278307714 -0.02470741714 0.7818988679 0.623405265 -0.0001896728521
0.01538895 0.01707708 -0.0459505 0.7590214649 0.303437747 0.5760312053
0.02056360286 0.003176735143 -0.04989385143 0.9999956 -0.0002065416777 -0.002959278288
0.02012359 0.038246145 -0.056208435 0.9757640467 -0.001275760381 0.2188216113
0.02051649429 0.03552389286 -0.06217854857 0.9980802883 -0.00139264027 -0.0619176769
0.015955346 0.01510079 -0.045234948 0.7718517618 0.4590883098 0.439866777
0.017303395 0.011145205 -0.03711543 0.8447125026 0.5350091613 -0.01503280586
0.02056522 0.010327723 -0.05743648571 0.9999623376 -0.004878574456 0.007177950775
0.020147325 0.058412495 -0.05643665 0.9057795385 0.3716955893 0.2034841924
0.01374271143 0.04281049286 -0.04531085714 -0.6889488816 0.0007827961332 -0.72480951
0.01880044667 0.0005623854833 0 -0.5453732368 -0.02022003774 -0.8379493915
0.01915724167 0.007685763333 -0.04222017 0.9343679145 0.3524960016 0.05199201142
0.020348358 0.043114466 -0.057744416 0.9918555037 -0.009532791221 0.1270109665
0.0120971175 0.0530108875 -0.0439675875 -0.6614419733 -0.003026065333 -0.7499902392
0.01885475 0.04795121833 -0.052392 0.9196556192 -0.004457919583 0.3927004826
0.01301693333 0.02821135333 -0.07654474333 0.683625448 0.0001176468032 -0.7298330172
0.01415157833 -0.01456157833 -0.044905455 0.7050831632 -0.7022388964 -0.09858126215
0.02032059333 0.03310062667 -0.06385318667 0.9897174202 -0.005483309739 -0.1429313173
0.0120760025 -0.016662225 -0.0249682525 -0.6714696201 0.7410317303 0.000723860543
0.014359922 0.042766402 -0.075341488 0.7176132142 0.01394821935 -0.6963021772
0.0200309725 -0.0047373025 -0.03742252 0.9656043132 -0.2599855346 0.003978963483
0.01933170125 -0.00695467025 -0.00482173025 0.9439971478 -0.3293917885 0.01924667547
0.01211675333 0.02096686333 -0.07722889333 0.6655277039 -0.01588735709 -0.7462040386
0.0131173275 0.057695085 -0.0764190075 0.7025180481 0.1464039718 -0.6964440172
0.02057049333 0.0004604506467 -0.039721345 0.9999853256 -0.001285357949 -0.005262733851
0.020278845 0.02989595 -0.06410289 0.9876941609 0.005078043999 -0.1563152522
0.01980694 0.005516772667 -0.03016029 0.960919938 0.2766947132 0.00853863784
0.02052303 0.002850663167 -0.04739845667 0.9992319747 0.03109507806 0.0238444316
0.012205714 0.033314172 -0.04403192 -0.6607161994 -0.0002881201636 -0.7506357444
0.01306967333 0.04837665333 -0.07647306 -0.6781114437 -0.001839077201 0.7349567931
0.0123849 0.055194165 -0.077007405 0.6690964795 0.001532111474 -0.7431739727
0.016831495 0.060600005 -0.067343855 0.5802596356 0.7708356596 -0.2628899792
0.01520825 -0.01354113 -0.04453044 0.7346948098 -0.6723005057 -0.0907500215
0.01795767 0.013151884 -0.06969138 0.8674665662 -0.1100324361 -0.485174834
0.01492602333 0.03557238333 -0.04644469667 0.7249554357 0.005711085558 0.6887720957
0.01978871286 0.01804334286 -0.05476301286 0.9640479037 0.04749970305 0.2614486901
0.01831261333 -0.009378428667 -0.02754725333 0.8884646691 -0.4587048695 0.01484501496
0.014179372 0.0105664614 0 -0.5201566967 -0.3938005075 -0.7578642168
0.019750246 0.057926992 -0.05492267 0.9095536506 0.302035393 0.2854588904
0.01663704286 0.01088594443 -0.0001986857143 0.7306976769 0.5510605141 0.4030052293
0.01933747429 0.01557564143 -0.06713081286 0.939079291 -0.0794228251 -0.3343981162
0.014405635 0.0076052675 -0.0727901525 0.7128425687 -0.2591640047 -0.6516820474
0.02047403 0.01813855571 -0.06239787 0.9953149245 -0.0210725699 -0.09436179198
0.01219885667 0.04076032667 -0.07717248667 0.6678641488 -0.0008661643526 -0.744282694
0.01896037167 0.007997163833 -0.035044365 0.9157575489 0.4016808052 0.006375130802
0.01379609 0.01522872714 -0.005183539143 -0.6727974371 -0.7397608117 -0.009876743236
0.01662081667 -0.01211792167 -0.02751726333 0.8041171264 -0.594376779 0.01057788407
0.019754498 0.055554366 -0.054924944 0.9532067377 0.02312365797 0.301433594
0.01608547875 0.01311170625 -0.07252417375 0.7844017138 -0.1345033741 -0.6054938429
0.01808369667 0.009796080333 -0.01220462667 0.8797432152 0.47529698 -0.01202730681
0.01954436667 -0.004547474333 -0.049805405 0.9461950549 -0.303546166 -0.1121367163
0.01975609 0.04034647333 -0.05486421167 0.9506672183 0.00820375569 0.3101040769
0.014768935 0.040517635 -0.046280565 0.7288325976 0.005437540297 0.6846703424
0.01600542 0.05548154286 -0.0476937 0.7793279862 -0.005043349031 0.6265959261
0.020509606 0.02298535 -0.062341728 0.9978710549 -0.001724788108 -0.06519496105
0.020371465 0.02814999 -0.0578206475 0.9936105538 0.001484218993 0.1128532871
0.013866825 0.0132760575 -0.0749839975 -0.699484509 0.140631065 0.7006741933
0.018967454 0.0079081072 -0.0024024296 0.8935010114 0.3603170338 0.2680066748
0.01767058 -0.01037356 -0.04314316 0.8479204058 -0.5268943346 -0.05842384388
0.01201394 0.04590051 -0.0773122 0.6694423725 -0.0009307056548 -0.7428634085
0.018224144 -0.0068981202 -0.052280608 0.8931104015 -0.4090580757 -0.1871504781
0.01800597 -0.003481632 -0.05877613 0.8759843293 -0.3815874199 -0.2950296524
0.013073555 0.045526015 -0.07647487 -0.6787261321 0.001961368266 0.7343888552
0.017077 0.0354348525 -0.049120825 0.8336452261 5.501435699e-05 0.5523003114
0.020362966 0.02584947 -0.05773884 0.9936563637 -0.007965852766 0.1121765395
0.02056184833 0.0006656965333 -0.04246230833 0.9994663804 0.02856596472 0.01584108887
0.020032244 0.045259988 -0.065290998 0.9703599583 -0.001028182607 -0.2416619418
0.01426974667 0.035747705 -0.07542388333 0.7196268443 -0.005405082562 -0.6943399672
0.01736382 0.01102536 -0.007198407 0.8434113171 0.5372527556 -0.004102045792
0.019925908 0.015579876 -0.05465046 0.9648903761 0.05516261525 0.2567949532
0.01937668875 -0.00690748875 -0.032661135 0.9414884983 -0.336925674 0.008972056161
0.01766418 -0.01050484 -0.006862178 0.8565540049 -0.5160532102 0.002078687425
0.020493194 0.00047982744 -0.049779856 0.9971269526 -0.06620420538 -0.03680819988
0.02043982625 -0.002186278812 -0.007391604625 0.9941864121 -0.1076618467 0.001518160612
0.02034237833 0.035358035 -0.05765863167 0.9922535185 0.009861175058 0.1238374428
0.01460657429 -0.01446739 -0.002233660286 0.694887841 -0.6695295969 0.2624138093
0.01410871111 -0.006929250222 -0.06246558333 0.706836939 -0.5441555462 -0.4519693388
0.01241135667 -0.01642073667 -0.02993090667 -0.6783454384 0.7347298296 -0.004420829177
0.014181632 0.04028224 -0.075508656 0.7193383538 0.01104364355 -0.6945720774
0.01673722125 0.04811003625 -0.07251936625 0.8056685703 -0.009215537067 -0.5922948832
0.01902797833 0.007763151833 -0.0050571955 0.9262966579 0.3763262533 0.01878969472
0.01982030556 0.05305391889 -0.05514320778 0.9627027089 -0.003272528137 0.2705416509
0.01418315 0.01542531571 -0.04234434714 0.7194639184 0.638253191 0.2738695569
0.0173294325 0.011097795 -0.0146341575 0.843540931 0.5368935192 -0.01356638314
0.018957956 0.0079596394 -0.017138736 0.9259768705 0.3775539551 -0.004454922943
0.0140680425 0.06034634 -0.0748507125 0.6728863677 0.5491664538 -0.4956209662
0.01976944714 0.03057934286 -0.05491469857 0.9678288249 -0.004079681231 0.2515764733
0.015406555 -0.0136536 -0.034870215 0.7398316975 -0.6727753357 0.004733612334
0.020369812 0.020436688 -0.057714722 0.9887968261 0.007013755882 0.1491027968
0.02057086667 0.05803858833 -0.05995282 0.9520352032 0.3039887355 0.03492593054
0.01830888167 -0.0093556205 -0.01487829 0.888145936 -0.4595535226 -0.002712231742
0.02056707857 0.0006499973143 -0.03207851714 0.999388468 0.03413062373 -0.007602004645
0.01998873 -0.004695129 -0.042765414 0.9648917347 -0.2606736977 -0.03214286199
0.01935607 0.05057110571 -0.06753349429 0.9492039455 0.002260883937 -0.3146533937
0.0167167575 -0.011974975 -0.01239922125 0.8051326183 -0.5930592154 0.00649875918
0.020046615 -0.00462179125 -0.0222446 0.9660339988 -0.2582159305 0.01014131844
0.01287762 -0.01598404 -0.04213754 0.6745740855 -0.7369711473 -0.04270048265
0.020407226 0.04067249 -0.058138544 0.994638284 -0.01017587183 0.1029132436
0.01932538 -0.0070611535 -0.02983361167 0.9390028575 -0.3434392049 -0.01797626306
0.01499119 0.01411758 -0.002370346 0.7005167046 0.6379101096 0.3199172373
0.01981167 0.005522585 -0.03251939 0.9650825731 0.2619456742 0.0003013670996
0.01735714333 -0.01012268 -0.04752536333 0.8462423022 -0.5157493782 -0.1337031967
0.020556045 0.045768085 -0.05953327 0.9982751766 -0.005712416078 0.05842978851
0.01317642 -0.01582297 -0.02897978 -0.6774601327 0.7355594769 -0.0001566969839
0.01949905833 0.01815862 -0.06702040167 0.9564762856 -0.03076606607 -0.2901836732
0.02029284 0.04049612 -0.0639637 0.9886270598 -0.005942373356 -0.1502705055
0.0160726475 -0.0119616925 -0.047442315 0.7753958836 -0.6178104926 -0.13065764
0.01846964 0.007852561 -0.00023481845 0.8148433916 0.2467586307 0.5245382974
0.01359952857 0.01541641143 -0.009732626286 -0.676586608 -0.7363626107 0.0008170097563
0.01805933333 0.009875649667 -0.03711755333 0.8810081392 0.4729274244 -0.01281834138
0.014485682 0.050683496 -0.075205276 0.7190681423 0.00256756006 -0.6949348274
0.01423066333 -0.01484291 -0.02494764167 0.7117142757 -0.7024560515 0.004276155742
0.01441086333 0.02576995833 -0.07530015 0.7190760577 -0.003921576932 -0.6949203152
0.0179422 0.05550847333 -0.05051907333 0.8780187467 -0.003425828442 0.4786139825
0.0168026975 -0.0117488825 -0.04235576 0.8011911065 -0.596710875 -0.04504378464
0.01612297714 0.01274929857 -0.01461880429 0.7864552969 0.6176228973 0.005479298817
0.01210662 0.027558975 -0.07724243 0.670354593 -0.0002721576224 -0.7420408652
0.01649072889 -0.01191926111 -0.04467266222 0.79461848 -0.6006928158 -0.08803188208
0.019981415 0.00575494375 -0.0450807325 0.9744218472 0.2152667845 0.06451569783
0.015960952 0.02561719 -0.047599836 0.7762500838 0.0009971929165 0.6304243119
0.01721903 0.01128216 -0.02713459 0.8374736748 0.5463844903 -0.01009122716
0.02022892 0.0281223 -0.0643792 0.9837924453 6.391134884e-05 -0.1793109605
0.01691681 0.05077575429 -0.07225965143 0.8114412394 0.0007866072688 -0.5844334831
0.012458 0.0120155 -0.07594831 0.6515957584 -0.1801445461 -0.7368655985
0.0202658 0.05812820667 -0.06399725 0.9443453078 0.2790337724 -0.1742185223
0.01362281 0.01539087 -0.0072830452 -0.6780199898 -0.7350346986 -0.003589594804
0.01929546667 -0.007146086167 -0.03508106 0.9379187562 -0.3465288952 0.01503766967
0.01979594 0.04571038 -0.05503043667 0.9605263615 -0.01095858877 0.2779730529
0.015962868 -0.011418422 -0.050022694 0.7781078928 -0.5998641786 -0.1863090831
0.02026214 -0.003582032 -0.006376905 0.9844984922 -0.1752914983 -0.005967375209
0.02043095 0.005260904 -0.04976014 0.9952868432 0.07771735871 0.05800096418
0.018316134 -0.009356488 -0.032474626 0.9016463696 -0.432468415 -0.002212292955
0.017465415 0.010882195 -0.03228114 0.8427554148 0.5381024373 0.01445952464
0.01595162 0.048174058 -0.04763193 0.7753916259 -0.01335753508 0.631339372
0.02008483 0.0429717175 -0.0650903825 0.9710000178 0.0005779383427 -0.2390787137
0.02046117667 -0.002104073333 -0.02988885 0.9974913817 -0.06966259036 0.01257246699
0.01977242833 0.005655483167 -0.04018431833 0.9544243483 0.2948557323 0.04619805836
0.019724545 0.037962775 -0.0547699 0.9545284741 0.0130127346 0.2978356273
0.01826966667 -0.009043303167 -0.0003888034667 0.7400543702 -0.2939248991 0.6049195672
0.0154679 0.0555695 -0.074140855 0.7314483761 -0.007090422296 -0.6818599555
0.012377305 0.055459455 -0.044195225 -0.6449101601 -0.0370229882 -0.7633611097
0.0204765225 0.0529570475 -0.06260099 0.9958260185 0.0118737921 -0.09049615452
0.01889881 0.0606 -0.059779415 0.5653019462 0.8207537883 0.0824434877
0.0180580375 -0.008941982 -0.0472994625 0.876600834 -0.4663574278 -0.1186664538
0.01482772 0.030583945 -0.04633944 0.735597334 -0.0122812867 0.6773077087
0.01338901 0.0229428925 -0.044983215 0.6965884219 0.04095489983 0.7163011005
0.01353833 0.04776633 -0.04513378833 0.6881852771 0.006225459889 0.7255082825
0.020517186 0.038061692 -0.062189906 0.9987173761 -0.00294209257 -0.05054648131
0.018898416 0.0081323292 -0.032022578 0.9214928775 0.3883750241 -0.003964514649
0.01513496 0.01397372 -0.03987147 0.7466575641 0.6555942051 0.1126885981
0.01429102714 0.01783454714 -0.07526451 0.71511072 -0.05796224179 -0.696603931
0.01255928 0.0606 -0.04897458 0.4726376231 0.816688573 0.3311094259
0.01621971 0.04066115 -0.04794815667 0.7777771476 -0.00115595747 0.6285390779
0.020566232 0.020560626 -0.060080358 0.9995488756 -0.01549880175 0.02572610414
0.0166759275 0.0606 -0.0547266575 0.4955551968 0.8551245702 0.1522728354
0.01862521 0.0103910806 -0.067473572 0.9122857123 -0.1306406085 -0.3881595169
0.01210869 0.01661921 -0.01732764 0.6488332681 0.7609236374 0.00325702336
0.011792015 0.01320375 0 0.5995782396 0.5226290232 0.6061062932
0.02017988 0.02012872 -0.05647804 0.9819451564 0.01204157197 0.1887821768
0.02047106 -0.002010022875 -0.03483406125 0.9951468386 -0.09838972782 -0.001493677115
0.01439619667 0.03812139667 -0.07530298333 0.7181433554 -0.01026540229 -0.6958194756
0.01708449667 0.02036821667 -0.04911032 0.8379806518 0.08758994512 0.5386245712
0.01920405143 0.008153385 -0.06500721714 0.9333492612 -0.1533520459 -0.3245647958
0.01211477 0.05795978333 -0.04398617333 -0.6756232147 -0.2023791258 -0.7089259208
0.01598774556 0.005418872667 -0.06986611444 0.774693232 -0.2691933655 -0.5721759592
0.02054009286 0.005460894857 -0.05243256 0.9996717253 0.02320723815 0.01085659617
0.01887028667 0.043271055 -0.05243696333 0.9252887868 -0.008422049037 0.3791697906
0.01226492 0.04811856 -0.07711439333 0.6731083511 0.001408253285 -0.7395425373
0.01228740667 0.05038429667 -0.04412248333 -0.6599077493 -0.0001703440555 -0.7513466134
0.01370049 0.01532441625 -0.012179305 -0.6760717569 -0.7368357872 -4.795926867e-05
0.01852910143 -0.007198869571 -0.04984550143 0.9019475628 -0.4087273615 -0.1394006383
0.01625640667 0.01259498833 -0.027162695 0.7846675037 0.6199160855 -0.0009775155412
0.020569422 0.00063464376 -0.029644352 0.9994655551 0.02515924471 -0.02087143053
0.02048109714 0.05065044571 -0.06251139429 0.9979980097 -0.003533965238 -0.06314652614
0.0121961 0.017729714 -0.042710444 0.7567348824 0.4403613415 0.483150294
0.01255117 -0.002951521 -0.06838325 0.6775956229 -0.4617226394 -0.5724302369
0.01977677286 0.02797463143 -0.05491506714 0.9529743228 0.0005002003083 0.3030506392
0.020037006 0.020570684 -0.0652633 0.9692164002 -0.004987296452 -0.2461599003
0.018149636 -0.004408458 -0.05702837 0.88047441 -0.3961026172 -0.2605139726
0.01888859 0.02029387714 -0.05244692 0.9191064243 0.03065278515 0.392815208
0.01729543 0.04053112 -0.04945976 0.8332870898 -0.003214822461 0.5528311595
0.019806844 0.02044984 -0.055016672 0.9521462093 0.01541379684 0.3052540107
0.011936515 -0.01254458 0 -0.5204990013 0.4179736077 -0.7445662179
0.0199957025 0.02813286 -0.0654699175 0.9625020852 -0.002526875617 -0.271262513
0.0200117925 -0.00479580675 -0.0272405325 0.9641443002 -0.2653010834 -0.006411202509
0.01556761 0.050087515 -0.074043785 0.7395637246 0.01204589151 -0.6729787469
0.01312172 0.053466815 -0.076422785 0.6824158675 -0.001729548967 -0.7309621006
0.02047507625 -0.00179744605 -0.01240765125 0.9970994862 -0.07586165049 0.006133893576
0.01764022 -0.01058107 -0.022426995 0.8661620321 -0.499760666 0.001615805235
0.01150124 0.01702432 -0.008202665 0.6387727523 0.7693911793 0.002565958587
0.018758214 0.05064739 -0.052190686 0.9202714792 0.01218323934 0.391090748
0.013045575 -0.015923645 -0.005058945 -0.6761740322 0.736704568 -0.007420085413
0.018302668 0.02792034 -0.06998736 0.8874182928 0.01964687049 -0.4605461694
0.0168373425 0.022932265 -0.07240545 0.8099850723 -0.009739940935 -0.5863696072
0.01338123 -0.004140754667 -0.06644477667 0.6816772251 -0.5003715488 -0.5338019052
0.01557838333 -0.01344642333 -0.01488958333 0.7532341784 -0.6577080569 -0.007640970265
0.01661920375 -0.0121087275 -0.019935595 0.8038619427 -0.5948140827 0.001477856005
0.012959165 -0.0014124975 -0.069205825 0.6774196105 -0.4368019001 -0.5918671906
0.01719550833 0.04548926 -0.0493209 0.8321470343 0.01042878697 0.55445699
0.01677759111 0.01793020889 -0.07235234111 0.8080215253 -0.05110338369 -0.5869324143
0.016133658 0.010493052 -0.071775798 0.786338139 -0.1848077896 -0.5895069228
0.01926686375 0.06045448375 -0.0650255875 0.8007601492 0.5816458982 -0.1430777152
0.01887195143 0.02788433 -0.05242968286 0.9201162133 0.01097506145 0.3914916372
0.016224875 0.06060000167 -0.06988263333 0.5834767537 0.7515728138 -0.3077225754
0.01438065333 0.05600227333 -0.07528051167 0.711401317 0.03689290022 -0.7018169848
0.01438330333 -0.01469215667 -0.02243450222 0.7121530296 -0.702023379 0.001112558312
0.01771804 -0.009076049 -0.04918732 0.8589097783 -0.4886113612 -0.1534044668
0.01544065 0.03053879667 -0.07419816 0.7299015806 -0.003364139335 -0.6835439746
0.020028046 0.025605888 -0.065356256 0.9661989812 -0.01176981557 -0.2575286395
0.01496313667 0.02780075333 -0.04647887 0.7296808377 -0.008908736647 0.6837298513
0.0203373325 0.012546105 -0.0554947925 0.991845579 0.0743601045 0.1035032474
0.01429454833 -0.01478717167 -0.03960814833 0.7098763408 -0.7039900701 -0.02176147962
0.01275678 -0.01616917 -0.03830872 -0.6725418088 0.7400132014 0.008244821577
0.015019345 0.020677935 -0.046528445 0.7497753386 0.0757360119 0.6573438964
0.020352884 0.02330079 -0.057630234 0.9935201534 -0.008418189457 0.1133438961
0.01425542333 0.02813197667 -0.07544938 0.7189024666 -0.004532563274 -0.6950961799
0.01683825111 0.04300241667 -0.07237644111 0.8091938934 0.007281695469 -0.5874965701
0.016108786 0.020364798 -0.047772108 0.7826586247 0.1039719085 0.6137062159
0.01232879333 0.01648418333 -0.02471292333 -0.6494818076 -0.7603700761 0.003275526697
0.01847480667 -0.009051597333 -0.01739264 0.8989492654 -0.4380395348 0.003403552838
0.01226319667 0.01650476 -0.005280362333 0.6410397903 0.7675071722 0.0008531511335
0.0133733675 0.0407269325 -0.0449875325 0.6945949761 -0.004047299286 0.7193896292
0.01836632429 0.01807024 -0.06972288714 0.8983885848 -0.04406452681 -0.4369854325
0.01912351 -0.004688606 -0.05236440286 0.9348016754 -0.3175077692 -0.1591686028
0.01967023 0.0108683605 -0.06475491833 0.9449157957 -0.1154732198 -0.3062679784
0.012260265 0.043253045 -0.07711959 0.6710038746 0.00465338555 -0.7414392397
0.01688919571 0.03813695714 -0.07231435857 0.8057790542 -0.00315700416 -0.5922078597
0.01671205 -0.0045257845 0 -0.4783554805 0.1753585316 -0.8604797613
0.01491153333 0.009743557333 -0.07302238333 0.7204951851 -0.2128993952 -0.6599701022
0.01811655333 0.009988599833 -0.04213398333 0.8937161262 0.4374626088 0.09948845033
0.020356714 0.0554654 -0.057822138 0.9935750727 0.002261627966 0.1131523748
0.02009446 0.01024883733 -0.06278127 0.9738090355 -0.08508839691 -0.2108457426
0.013769096 0.055536414 -0.045339892 0.6899751705 0.01435764357 0.723690626
0.01282352 -0.01383105 -0.05264074 0.6790135555 -0.6870652303 -0.2586154689
0.020349044 0.0031137624 -0.037470376 0.9936002109 0.1124806584 0.01033065053
0.02000467 0.032792884 -0.065419636 0.9649109954 0.006457559673 -0.2624977541
0.01972973429 -0.004774492143 -0.04726046286 0.9553473436 -0.2853763548 -0.07662760053
0.01829158143 0.03806901 -0.07000908857 0.8906117562 0.01752038485 -0.4544268211
0.01447175 0.05835893 -0.07520915667 0.7156441541 0.2316880604 -0.6589188777
0.016231276 -0.01187034 -6.260634e-05 -0.6209393748 0.5447323747 -0.5636496543
0.0200430775 -0.004564218 -0.009992 0.9746122678 -0.2238727282 -0.003453840302
0.0199881525 0.01063627975 -0.052136995 0.9707902389 0.1523149255 0.1853819722
0.02056302 0.00056562728 -0.012615856 0.99975915 0.01856740279 0.01170015074
0.020410452 -0.0019845518 -0.044759832 0.9919776107 -0.1228700362 -0.02972160843
0.01954263714 0.005512560571 -0.06235201 0.9421271515 -0.1832431977 -0.2807460792
0.01599889571 0.03068975 -0.04765723 0.7767239452 -0.0094948019 0.62976961
0.01984176143 -0.002185917571 -0.05251278143 0.9593277456 -0.2504953168 -0.1301628704
0.01361022 0.020764588 -0.04516716 0.7386374223 0.1144435335 0.6643172706
0.0156215 -0.01340189667 -0.02502704 0.7405347961 -0.6719183583 0.01157305306
0.01557852 -0.01345223 -0.02090934 0.7511458438 -0.6601140763 0.005415494166
0.0191317275 -0.0070879635 -0.0450613475 0.9277783582 -0.3672201599 -0.06615642287
0.01414008167 -0.01493219167 -0.02983986833 0.7143703113 -0.6997427847 -0.005923987086
0.0196772475 0.01312143625 -0.05251625375 0.958849326 0.1505076435 0.240739318
0.01758754 0.007661079 -0.06848293 0.8530616576 -0.2221176785 -0.4721753332
0.01818898 0.003104456 -0.0646050925 0.8849611215 -0.2792501772 -0.372643465
0.0141655975 -0.01163912375 -0.0548079975 0.6985947123 -0.6561288597 -0.2854125914
0.01775 0.008944489 -0.0687231 0.8704073984 -0.1843845377 -0.4565011534
0.01359034125 0.015437155 -0.01993453875 -0.6773568013 -0.7356374023 -0.005037476344
0.01424922143 -0.01483038857 -0.03743587571 0.7091345339 -0.7050731255 0.0003171040393
0.02039021571 0.00266802 -0.005005684286 0.9944117031 0.1055657487 0.001112403895
0.01376907625 0.0153060775 -0.039935115 0.7055473541 0.6965417889 0.1305084958
0.01433427 0.02035684 -0.075348935 0.7161908321 -0.0236737654 -0.6975028637
0.020334195 0.00136338395 -0.05394851 0.9873290244 -0.1246661687 -0.09818219747
0.01768005 -0.01053379 -0.03262637 0.8613887231 -0.5078914769 0.007464278833
0.01302487 0.055155 -0.076497105 0.6780147916 0.0046748317 -0.7350333927
0.01372023125 0.01532316375 -0.02723785875 -0.6863248756 -0.7272947282 0.0007372173553
0.01166019 0.016920395 -0.019274545 0.6411878015 0.7673733678 0.004039496941
0.01603522333 -0.009394730167 -0.05483699833 0.7787595169 -0.5666871623 -0.2690711335
0.012800375 -0.01613742 -0.022865265 -0.6737441033 0.7389631103 -0.00155078309
0.0120772125 0.0602447925 -0.04461688 -0.459444655 -0.5629013144 -0.6870609283
0.013644884 0.028134074 -0.045212102 0.6917234809 -0.003798584844 0.7221524747
0.02011251 0.03413093 -0.05615527 0.973149806 -0.0009549466733 0.2301706829
0.01977734167 0.005602154833 -0.02238565667 0.9549371961 0.2966571558 -0.009459562949
0.02045965125 -0.002064519 -0.02482571875 0.9976075591 -0.06911435309 -0.001537572539
0.01905412625 0.003174169875 -0.06232291 0.9312815491 -0.2225801261 -0.2883968859
0.013913452 0.017989642 -0.04471879 0.7570397055 0.2688027343 0.5955132025
0.01647290875 0.0155504525 -0.0724789775 0.7953472492 -0.0889740715 -0.5995884987
0.01693662 0.060600005 -0.057069705 0.558076316 0.8011759131 0.2160277338
0.01832391167 0.02566552667 -0.06996118333 0.9009088647 -0.01405371436 -0.4337807173
0.01925269667 -0.007228348333 -0.025088055 0.9390347428 -0.3435772225 0.01297859814
0.0203009 0.038113285 -0.05738145 0.9878191436 0.01000152988 0.1552846061
0.01483842667 0.05078914 -0.04637266667 0.724811139 -0.007991536776 0.6889012615
0.01352703 -0.014080865 -0.04989196333 0.6795805456 -0.7037316155 -0.2072006163
0.0121383325 -0.0165949975 -0.00507323975 -0.671649328 0.7408513051 -0.005150140768
0.019989182 0.040608656 -0.065452622 0.9658141818 -0.001117254992 -0.2592329416
0.0199748975 0.0229779375 -0.065555945 0.9623983995 0.003268376908 -0.2716222346
0.020530542 0.04286257 -0.061956704 0.9989257306 0.01286623512 -0.04451791487
0.0174281175 0.0109196175 -0.00989074925 0.8425480041 0.5384883734 0.01196379731
0.016573755 0.0606000025 -0.05227611375 0.5589809952 0.7993249144 0.2204992705
0.018349338 0.040717678 -0.069897306 0.9019823879 0.003054812091 -0.4317620178
0.01320892 0.05056105 -0.07635825 0.6783928105 -0.001940971715 -0.7346968268
0.01189790667 -0.01459930667 0 0.5858681223 -0.4531085591 0.6719011661
0.01800942667 0.009958937 -0.02479466333 0.8797808414 0.4753464274 -0.005607592148
0.020090084 0.053003012 -0.065025966 0.9754429355 -0.0005362428889 -0.2202516562
0.014371326 -0.014699026 -0.014947758 0.7111138132 -0.7030741728 0.001962704977
0.01933373 -0.007013707571 -0.01718577143 0.9382844253 -0.3454739781 -0.01643373818
0.01666230667 -0.01208106333 -0.03238123667 0.8034304864 -0.5953917295 0.00285340339
0.01839992 0.03308261714 -0.06979482429 0.9008793229 -0.01537721345 -0.4337971725
0.01939648 0.0253993 -0.06744821833 0.9470891299 0.01031576995 -0.3208048705
0.02046344714 0.05568735857 -0.06262234857 0.9977308318 -0.005785219119 -0.06707994068
0.01892196 -0.0070850355 -0.04736764167 0.9208372957 -0.3750195782 -0.1068596781
0.01319546 0.01681448 -0.04298011 0.7450027727 0.4970838309 0.4448354007
0.020376956 0.01825536 -0.057610198 0.9947044295 0.005099624161 0.1026503377
0.020494485 0.05835213667 -0.06236460333 0.9289070765 0.3357389883 -0.1562401193
0.01428534429 -0.004568078857 -0.06485018429 0.7132347505 -0.4952318116 -0.4960258496
0.01223469 0.03836735 -0.04405772 -0.6596504609 0.001600988405 -0.7515708258
0.015465135 -0.01356693 -0.040390545 0.7414242692 -0.6706159601 -0.02375472961
0.013148805 -0.0116594925 -0.0568528975 0.674671571 -0.6596161611 -0.3312473265
0.01439317167 -0.01468103333 -0.01980812 0.7095965925 -0.7045563101 -0.008548793605
0.02056737 0.01552280167 -0.060034775 0.9990347353 -0.00372195253 -0.04376922157
0.02055842857 0.03796432143 -0.05974173571 0.9998492126 0.003035482384 0.0170978912
0.01508284 -0.005063677 -0.06318699 0.730083417 -0.5060358821 -0.4592449132
0.01602622571 0.04308693857 -0.04771667857 0.776341414 -0.003028199239 0.6303053537
0.01895591 0.0079680554 -0.012459682 0.9262041052 0.377022367 0.0003004025709
0.018389334 -0.0092398008 -0.024803584 0.8986112858 -0.4387122924 -0.005411237848
0.01965947 0.0079979702 -0.047213804 0.9475750789 0.2702901014 0.1704251477
0.02027522 -0.003550704 -0.03073349 0.9879765345 -0.1545716327 0.003158746833
0.017173405 0.011356215 -0.034574985 0.8427512979 0.5382807457 -0.004908030228
0.01621338 0.058020264 -0.04793984 0.6941284929 0.3564819323 0.6253848953
0.01623481286 -0.0017040817 -0.06459338857 0.7891738423 -0.415147027 -0.452611967
0.011686475 0.01689967 -0.01242684 0.6377456293 0.7702466901 0.0007407336477
0.01900208286 0.007877333429 -0.02982236571 0.921424562 0.38849189 -0.007129367854
0.01879096857 0.02527918714 -0.05226484143 0.9248935168 0.003559012276 0.3802095686
0.020558035 0.032650625 -0.059640285 0.9981000784 0.01340879351 0.06013682573
0.019794865 0.00554271975 -0.0348301225 0.9532968609 0.3019674071 -0.006385926069
0.01766298 -0.01055056 -0.02642131 0.8575841911 -0.5143044207 -0.006349645185
0.01837544 -0.009218863333 -0.0024175375 0.836881329 -0.4571404387 0.3010851382
0.01907569571 -0.001915461314 -0.0570742 0.9300445747 -0.2918941154 -0.2231925502
0.02000551667 -0.004681201833 -0.002322371333 0.8887834287 -0.2881754246 0.3563971681
0.01880375667 0.01313120833 -0.04973592667 0.9256361548 0.2298112062 0.3006401809
0.0203705875 0.002789671 -0.0022669645 0.9191779695 0.09712924971 0.3816775725
0.01554444667 0.01998245333 -0.07405462333 0.7267409081 -0.03240090833 -0.6861470933
0.02057494 0.04041314667 -0.06016314667 0.9996866942 0.007334296596 0.02393160118
0.01993046 -0.004556925 -0.045135494 0.9626553592 -0.2670630505 -0.04440705481
0.014318684 0.022832118 -0.07539031 0.7178386971 -0.002871362993 -0.6962035336
0.01853859375 0.04308074125 -0.0694984175 0.9127441401 -0.01315806713 -0.4083197276
0.01904744429 0.007747668857 -0.01495358143 0.9305553803 0.3660845145 -0.006986591948
0.01406993571 -0.01490063429 -0.04233169286 0.708973945 -0.7040393577 -0.04104300346
0.01931043625 -0.00708008325 -0.0225392925 0.9393369277 -0.3423929301 0.02032775748
0.01797010667 0.0454727 -0.05056505 0.8752470786 0.002519378051 0.4836695196
0.020562395 0.0003142372167 -0.007142621667 0.9999635334 0.008273039269 0.002118651297
0.0204988925 0.025134825 -0.06250597 0.9976342286 0.01110519902 -0.06784261527
0.0123734 0.00125000825 -0.07154891 0.6691232398 -0.3940677838 -0.6300671962
0.01680712833 0.007929385333 -0.0698616 0.8051257762 -0.2327576139 -0.5455239479
0.016583195 -0.01214985167 -0.007176680167 0.8028242269 -0.596194708 -0.00501305655
0.01905401143 0.06016197143 -0.06760993286 0.8335048784 0.4325127514 -0.3438056683
0.01761196 -0.01060358 -0.01057225 0.8578631673 -0.513848923 0.005483669673
0.015976805 0.01295492 -0.03482969333 0.786134838 0.6180230886 0.006283191744
0.018323628 -0.0089448356 -0.044753622 0.8989239855 -0.4326088484 -0.06917551976
0.01212707 -0.016625185 -0.039385405 0.6627100107 -0.7487210232 -0.01524044451
0.018880835 0.05795423167 -0.05248100167 0.8696662884 0.339146748 0.3586921105
0.020568518 0.043153568 -0.059840258 0.9997669164 -0.005751079835 0.02080956414
0.02017093 0.007545316 -0.06088094 0.9775786316 -0.1131673203 -0.1775758335
0.020578088 0.00042472582 -0.019740346 0.9995773622 0.02855467623 0.005452284184
0.01668537375 -0.0120281775 -0.0224573875 0.8038317628 -0.5948530004 0.00209880301
0.02047578833 -0.001837555333 -0.01725287167 0.997673631 -0.0681624456 0.001098622827
0.020358424 0.047994672 -0.05782401 0.9922116879 0.01201080551 0.123982688
0.013422658 0.045084146 -0.045032612 0.6884781173 0.008039580134 0.7252125531
0.016090446 0.03562417 -0.047756858 0.7763462075 0.01301072965 0.6301724265
0.01812545 0.012791098 -0.047488502 0.8781577457 0.3387225597 0.3377957981
0.012145315 -0.013712845 -0.05432264 0.6671645449 -0.690740426 -0.2788711779
0.01872540833 -0.001930395167 0 0.7470518015 -0.04277668179 0.6633880926
0.02033801833 0.003254291667 -0.04211710167 0.9856409698 0.1682344601 0.01445838979
0.01410531889 0.06044625667 -0.04735993 0.467802411 0.7813669122 0.4130697915
0.017825575 0.0099776905 -0.0004772258 0.8019639405 0.4087244498 0.4356583091
0.01915031889 0.06030477444 -0.05488447222 0.7773047799 0.6076770723 0.1628675994
0.012133938 -0.016622776 -0.032357858 -0.6659200216 0.7460220292 -0.001287132363
0.01235162 0.01645167 -0.01303174 0.6436390026 0.7653270171 0.001841537313
0.01726458 0.0105687592 -0.07013691 0.8258298152 -0.1822502154 -0.5336571702
0.0167237575 0.003056075125 -0.06740861 0.8081279705 -0.3157377334 -0.4972312007
0.012028875 0.01317132 -0.0765194 0.6336619744 -0.1471258941 -0.7594909305
0.0137518475 0.000556357 -0.06974386375 0.6944345639 -0.399636353 -0.5983739815
0.018875776 0.045684122 -0.052451934 0.9234333167 -0.009539750421 0.3836403299
0.02048926 0.0003149785975 -0.000456489325 0.8440838537 0.02595367995 0.5355827242
0.016302518 0.012518072 -0.0095784664 0.7827064192 0.622391019 -0.0002841590769
0.0121429575 -0.016602135 -0.0124318825 0.6736528962 -0.7390429903 -0.002689602057
0.01804923333 0.01807358333 -0.05037720333 0.8907899695 0.08775387691 0.4458615114
0.01832480333 0.0105247555 -0.04490955 0.8887201159 0.4065962469 0.2117924634
0.02056939429 0.05550604429 -0.05994740857 0.9999318991 -0.002303639613 0.01144073166
0.01821251 0.0005970783875 -0.06253569875 0.8781079297 -0.321595704 -0.3542635559
0.01636375857 -0.009785667 0 -0.595210301 0.3573364287 -0.7197467432
0.01599633333 0.01289529333 -0.004559321167 0.7914262869 0.610704039 0.02617267918
0.0161316625 0.02308484875 -0.04781506 0.7751198887 0.01099416693 0.6317185183
0.01685981 0.05553101625 -0.0723403575 0.8109247082 0.01062840397 -0.5850539759
0.019451375 0.05292912 -0.06723526833 0.9537051456 0.00662028698 -0.3006703629
0.02025367333 0.04791901333 -0.06417157 0.9853054351 0.01853974529 -0.1697924539
0.01696283 0.0205058625 -0.07221299875 0.8094407603 -0.02141050966 -0.5868110817
0.01807604 -0.001165794 -0.06122527 0.8819929998 -0.332038853 -0.3344227093
0.015478765 -0.01356904 -0.031957575 0.7412493037 -0.6712293177 0.0008202000086
0.0188039075 0.03058281 -0.0522833025 0.9180619397 0.01116129316 0.396279826
0.016216525 0.0126662025 -0.03978407 0.7875003096 0.6124966519 0.06849170556
0.01886094167 0.008227747333 -0.03972579833 0.9211882719 0.3883057018 0.02511671887
0.01204521 0.01586481667 -0.0002190550333 -0.568325446 -0.7233926524 -0.3920577227
0.013229085 0.03281274 -0.0763699525 0.6824261997 0.004800520899 -0.7309387368
0.01325027667 0.03023207333 -0.07635645667 0.6805356089 0.00190054139 -0.7327125445
0.0142806475 0.04780288625 -0.07540685 0.7100406229 -0.00935311964 -0.704098596
0.01210802 -0.0166325375 -0.0198225725 -0.6692470108 0.7430386271 -0.001427308558
0.01370041667 -0.009429225667 -0.05969545833 0.6988212687 -0.6025407359 -0.3854782692
0.01664595333 0.06038458778 -0.04966948333 0.5221067796 0.7603963816 0.3862665575
0.01983934 0.005407193 -0.014947852 0.9654395906 0.2606094606 0.003017615645
0.01352299667 0.01550522333 -0.02248010333 -0.6805334321 -0.7326980193 -0.005278278339
0.0194233 0.035529202 -0.067368682 0.9498144415 0.002131675293 -0.3128066218
0.0205648475 0.000726209305 -0.04477645 0.9999433039 -0.009538551781 -0.004733402849
0.01693563167 -0.004774992 -0.059905035 0.8201145816 -0.4487325344 -0.3550368793
0.01800058 0.00996725925 -0.02235758 0.8779311214 0.4787761612 0.003214575005
0.01486508 0.01423773 -0.00376579 -0.6964276746 -0.7008652936 -0.1541957663
0.01238941667 -0.004388039333 -0.06727806333 0.6643477327 -0.5057798031 -0.5502989014
0.01983352167 0.01327902667 -0.06497284 0.9553361859 -0.08693447283 -0.2824449845
0.017246286 0.052956294 -0.049410914 0.8305273536 0.003733368762 0.5569653282
0.01320429667 -0.01577373333 -0.002269164667 0.7173246234 -0.6315451546 0.294272157
0.02039457 0.000583060375 -0.0518889425 0.9920754118 -0.1022982983 -0.07294816903
0.020431424 -0.0022658298 -0.0046618374 0.9939598136 -0.100890556 0.04318546781
0.01730257 0.0111465375 -0.0299580575 0.8385092705 0.5448452195 0.006774218127
0.01803075333 0.009929673333 -0.03946381 0.8717466191 0.4899272033 0.005400703571
0.01317355 -0.015828005 -0.03317809 -0.6767472697 0.7362139915 -0.001446301011
0.01981847714 0.005449184714 -0.009968264857 0.9554401145 0.2950312656 0.009525752324
0.01602066857 0.01286860429 -0.007200939857 0.7829513909 0.6220542054 -0.005973696163
0.02037021167 0.008043584667 -0.059816075 0.9918946364 -0.07717205338 -0.1009430758
0.01486957 0.05796330333 -0.04641911333 0.7184582311 0.3048046061 0.6252294957
0.01219673667 -0.009319868667 -0.06200285 0.6567904796 -0.6074322277 -0.4468247472
0.01455527667 -0.007940722 -0.06046549333 0.7263165338 -0.5619416591 -0.3958356535
0.0199752825 -0.004891707 -0.0149009775 0.9654857127 -0.2604538685 -0.001058712429
0.019020255 -0.00462336775 -9.91109e-05 -0.5443523094 0.1471885624 -0.8258426547
0.02056748167 0.013296465 -0.059590795 0.999355207 -0.0199293066 -0.02986625262
0.01483911667 0.04564291333 -0.04636417333 0.7256926267 -0.003004885009 0.688012487
0.01352846 0.052907535 -0.04512842333 0.6911511605 -0.0007142446855 0.7227098749
0.0181137425 0.00972467 -0.0050753205 0.8852962385 0.4650228305 0.00208259022
0.0166604475 -0.0120231675 -0.00502011525 0.8043383113 -0.5940125475 0.01374679381
0.020350046 0.05823635 -0.057781404 0.9148836369 0.3497339094 0.2016782673
0.01621685833 0.02805854667 -0.04792131 0.7781817372 -0.001520798163 0.6280373166
0.02002604 -0.0046988306 -0.019934422 0.9748327099 -0.2228625241 -0.005786449484
0.012189 0.016555355 -0.008044658 0.6387727523 0.7693911793 0.002565958587
0.01552296667 0.02523988667 -0.07410480667 0.7316455834 0.003617727286 -0.6816756211
0.01716125857 -0.002124571429 -0.06240387429 0.8247359707 -0.3974871232 -0.4022618122
0.0199991 0.05813 -0.065434622 0.8911329699 0.38408087 -0.2415862479
0.020381276 0.0027530032 -0.0096459374 0.993486251 0.113892849 -0.003672593307
0.016743265 -0.0119272475 -0.009530394375 0.8021184553 -0.597076431 -0.01028198605
0.020504226 0.0103557338 -0.059736044 0.9985984331 -0.02593583942 -0.04613568763
0.01821030333 -0.009545222167 -0.0076970335 0.88490525 -0.4655595968 0.0140342549
0.01834134333 0.06027372667 -0.06966939333 0.7430411273 0.5081968758 -0.4354604672
0.01880796571 0.03298212286 -0.05227942857 0.918912423 -0.0131163309 0.3942434789
0.016670186 0.005678647 0 -0.5517083055 -0.218814844 -0.8048217254
0.01299821 0.04033523333 -0.07654390333 0.6806982085 0.006124694987 -0.7325383519
0.01221751 0.03821936667 -0.07715785333 0.6761446671 -1.351163001e-05 -0.7367688844
0.01679680625 -0.006952081125 -0.05710818375 0.8020774342 -0.5051581254 -0.3185703343
0.01678497875 0.01578892125 -0.047271565 0.8181595462 0.2635643523 0.5110271903
0.02041231857 0.003082967857 -0.05493981143 0.9935294027 -0.07986583125 -0.08075131588
0.02040995 0.01047920967 -0.05489245 0.9943351729 0.07052194882 0.07952495605
0.01276689 0.01606176 -0.07643689 0.6662449471 -0.09064697789 -0.7402032126
0.020247405 0.01791909 -0.064071065 0.9880051555 -0.01749362787 -0.1534268092
0.018791035 0.035613135 -0.05224781333 0.9186825576 -0.0007673758298 0.3949959107
0.01488334 0.0606 -0.05217516 0.4814137032 0.8311066865 0.2783927477
0.0164673975 -0.012324805 -0.03973643375 0.8005582622 -0.5990687471 -0.01493670517
0.02014602 0.004109533 -0.02151011 0.977176479 0.2123726615 -0.004897093413
0.020485 0.02782638714 -0.06255862857 0.997659787 0.01259569788 -0.06720340688
0.017272066 0.011170132 -0.0048745518 0.8388681689 0.5438356588 0.02330174457
0.014445244 0.045309664 -0.07524466 0.7164714737 0.002555840042 -0.6976117079
0.012223315 -0.014625245 -0.05172022 0.6556548857 -0.7182743067 -0.2328061236
0.01570522667 0.05308701667 -0.07388979 0.7569161456 -0.01172171201 -0.6534068793
0.01840667667 -0.001750720767 -0.05964886 0.8933247823 -0.32971589 -0.3053821625
0.02013921 -0.0029313235 -0.04782131 0.9747047839 -0.2150702718 -0.06078949296
0.01225836 0.01651711 -0.015433375 0.6478382591 0.7617737558 0.002516939291
0.016169795 0.0126744725 -0.00228325425 0.7377053701 0.604113086 0.3013937065
0.0199706175 -0.00486640175 -0.00752738225 0.9735599691 -0.2284075881 0.003310633434
0.02027108667 0.02347419667 -0.06414585 0.9869311024 -0.01378586451 -0.1605520133
0.0171407175 0.0483064575 -0.049243825 0.8301548705 -0.01065335517 0.5574310692
0.017262885 0.042599435 -0.04940893 0.8319180058 0.01286030676 0.5547495328
