# .PCD v0.7 - Point Cloud Data file format
VERSION 0.7
FIELDS x y z normal_x normal_y normal_z rgb
SIZE 4 4 4 4 4 4 4
TYPE F F F F F F F
COUNT 1 1 1 1 1 1 1
WIDTH 515
HEIGHT 1
VIEWPOINT 0 0 0 1 0 0 0
POINTS 515
DATA ascii
-0.043350175 0.025203725 -0.29223625 -0.6496603776 0.3614393754 0.668807126 6.454380727e-42
-0.04216922 0.02474976 -0.2906252 -0.652433521 0.3260831383 0.6841054653 6.454380727e-42
-0.0272293 0.02249146667 -0.278076 -0.6462749144 0.1102074687 0.7551046609 3.943253879e-42
0.03211975 0.00725507625 -0.287719625 0.646682297 -0.4643305968 0.6051438702 6.09564832e-42
-0.0394592 0.02466326667 -0.288086 -0.6011561164 0.2643543438 0.7541406398 6.09564832e-42
0.03521118 0.00990905 -0.289551 0.7057196499 -0.1987928042 0.6800302911 6.09564832e-42
-0.0247498 0.024292 -0.275879 -0.5476398103 0.2345840476 0.8031568731 3.225789065e-42
0.00394821 0.0238495 -0.270996 0.2556200774 0.2914695568 0.9217938346 1.073394624e-42
-0.0403839 3.53992e-05 -0.3009274 0.3954629785 0.3342585076 -0.8555000191 7.889310354e-42
0.0446167 0.0238037 -0.302979 0.6180504981 0.5606269341 0.5510998299 8.606775168e-42
0.041748 0.0266724 -0.302979 0.7290117378 0.4568159996 0.5097656605 8.606775168e-42
-0.03257447 0.01529999 -0.2826659 -0.6061288146 -0.1592928097 0.7792519881 5.019451099e-42
0.05145265 0.02687835 -0.3095705 -0.3859995831 -0.4566572502 -0.8015413137 1.111790202e-41
-0.0003276465214 -0.0003748703429 -0.2796805714 0.2764243946 0.627960295 -0.7274994309 4.301986285e-42
0.0139236 0.00339127 -0.278076 0.2905628748 -0.672071891 0.6810966078 3.943253879e-42
-0.0527496 0.02494046667 -0.2995605 -0.4530054176 0.1345444244 0.8812967091 7.530577947e-42
-0.05110384286 0.02499822857 -0.299072 -0.4154375238 0.2195962218 0.8827169213 7.530577947e-42
-0.0258255 0.022727975 -0.276855 -0.5971250454 0.1509701502 0.7878132354 3.584521472e-42
-0.0569458 0.01543805 -0.301025 0.4443309178 0.0922605533 -0.8910993355 7.889310354e-42
-0.02304363125 0.0225839625 -0.27508525 -0.5165768509 0.1314446631 0.8460914003 2.508324251e-42
-0.01973131111 0.02229648889 -0.272949 -0.4271318232 0.1497274529 0.8917062832 1.790859437e-42
0.0430298 0.01206716667 -0.297119 0.7160008744 -0.2197116387 0.6626232291 7.17184554e-42
0.0438843 0.00369644 -0.302979 0.5894378265 -0.5347506533 0.6054789736 8.606775168e-42
-0.0176276875 0.0223388625 -0.272156 -0.3798779067 0.1511789081 0.9125994268 1.432127031e-42
-0.01575014 0.0227722 -0.271973 -0.3122773524 0.2288327711 0.9220186647 1.432127031e-42
-0.0131249 0.02244097692 -0.2707707692 -0.2877508069 0.1964190998 0.937346793 1.073394624e-42
-0.01994833333 0.01981735 -0.272949 -0.4635691388 0.02322128903 0.8857564142 1.790859437e-42
0.004884959375 0.0202083625 -0.269653625 0.1518608257 0.3796947058 0.9125624472 7.146622168e-43
-0.010454175 0.0224762 -0.27002 -0.1461552292 0.2327230443 0.9614981194 7.146622168e-43
-0.03531391667 0.007184981667 -0.2893883333 0.6178753208 0.5959382486 -0.5129207461 6.09564832e-42
-0.002888786667 0.02226256667 -0.27002 -0.03762047605 0.2719052517 0.9615883911 7.146622168e-43
-0.002773046875 0.015074725 -0.269165125 -0.06834241688 -0.08796824218 0.9937760826 7.146622168e-43
0.00466918875 0.0223140625 -0.270996 0.1940669948 0.4074047519 0.8923896961 1.073394624e-42
0.01197403846 0.02216163077 -0.2727237692 0.3013996406 0.3921702446 0.8691149267 1.790859437e-42
0.04220965 0.0023466375 -0.3024905 0.5637202792 -0.5989537319 0.5687476364 8.606775168e-42
0.04937745 0.000839233 -0.308105 -0.3399635741 0.4142901305 -0.8442680001 1.075916961e-41
-0.0394592 0.00843048 -0.292969 -0.5053481581 -0.6977776359 0.5076707693 6.813113134e-42
0.01487264615 0.02265815385 -0.273926 0.1988549869 0.2130688685 0.9565868238 2.149591844e-42
0.04724118333 0.02271523333 -0.3045655 0.5617138525 0.4804920797 0.6735019742 8.965507575e-42
0.04202275 0.0259094 -0.3024905 0.6898239107 0.54704093 0.4742248339 8.248042761e-42
0.04487917 0.02538757 -0.3048828 0.5438370034 0.5377169686 0.6442839246 9.324239982e-42
0.00692367375 0.0049724575 -0.274414 0.1507324733 -0.6233508833 0.767276611 2.508324251e-42
0.0421173 0.01744386 -0.2951173 0.7435495394 0.04894172039 0.6668873896 6.813113134e-42
-0.0546265 0.0249786 -0.300049 0.3648625671 -0.1174745997 -0.9236206069 7.530577947e-42
-0.03269449167 0.02252070833 -0.2825519167 -0.6101668028 0.108086692 0.7848654278 5.019451099e-42
-0.005319595 0.01761245 -0.269043 -0.008330252027 0.07472918609 0.9971690707 7.146622168e-43
0.02478536667 0.009797423333 -0.2792156667 0.5430169234 -0.4383976636 0.7161983729 4.301986285e-42
-0.0312805 0.0231476 -0.281982 -0.6256056888 0.1678346317 0.761872075 5.019451099e-42
-0.03034668 0.02223051 -0.2806152 -0.6562562461 0.1187320368 0.7451378684 4.660718692e-42
0.02725346667 0.02228289167 -0.2796224167 0.6920570208 0.2267901823 0.6852906633 4.301986285e-42
0.028717 0.022396075 -0.281006 0.7111033866 0.241210684 0.6604160655 4.660718692e-42
0.02984398571 0.02237592857 -0.2825402857 0.7388729431 0.2031025463 0.6425076884 5.019451099e-42
-0.04041800833 0.0025936775 -0.3001301667 -0.3652625826 -0.4678999764 0.8047688226 7.530577947e-42
0.0303802 0.0236511 -0.283936 0.7544481977 0.2620691169 0.601770467 5.378183506e-42
0.03189500909 0.02244010909 -0.2849122727 0.7447395017 0.2530476878 0.6175191838 5.378183506e-42
-0.03330078 0.002598382 -0.2925782 0.6926560124 0.5233546746 -0.4963139462 6.813113134e-42
0.04788206667 0.02532956667 -0.307129 0.4390427426 0.460597446 0.7714217153 1.00417048e-41
0.03779605 0.01255543333 -0.291992 0.6910350105 -0.08253249033 0.7180940066 6.454380727e-42
0.0496894 0.02489216667 -0.3077796667 0.414097409 0.4953559067 0.7636398769 1.04004372e-41
-0.04259551538 0.02234943846 -0.2900393077 -0.6662475263 0.1488100423 0.7307323758 6.09564832e-42
0.02745735556 0.01767306667 -0.2794867778 0.6917622189 0.005356202028 0.7221054934 4.301986285e-42
-0.0409851 0.0233765 -0.289063 -0.6354127176 0.2087719408 0.7434143898 6.09564832e-42
-0.04013975 0.02226563 -0.2879883 -0.642746057 0.07280099667 0.7626123007 6.09564832e-42
-0.03730266667 0.00813675 -0.2906903333 -0.5995372457 -0.6104163329 0.5176359644 6.454380727e-42
0.01388806667 0.02165223333 -0.272949 0.2943440749 0.3509836107 0.8889162338 1.790859437e-42
0.0342483375 0.0224151625 -0.287719625 0.6918933993 0.2300945117 0.6843537387 6.09564832e-42
0.03707276 0.0222992 -0.290137 0.7093971135 0.1757098371 0.6825553373 6.09564832e-42
-0.0394592 0.0130692 -0.288086 -0.5976386742 -0.2563623985 0.7596751514 6.09564832e-42
0.05145263333 0.02442933333 -0.308105 -0.4229531618 -0.4311323153 -0.7970166558 1.075916961e-41
0.0192337 0.0032610925 -0.281006 0.3766978459 -0.6126146837 0.694839537 4.660718692e-42
-0.028812375 0.019924175 -0.279053 -0.639915138 0.06738847628 0.7654850811 4.301986285e-42
-0.0516052 0.02313235 -0.299072 -0.4650170766 0.1565858465 0.8713437847 7.530577947e-42
-0.046394325 0.022567725 -0.293945 0.6946757161 -0.2377279243 -0.6789043257 6.813113134e-42
-0.0078747275 0.02017975 -0.26928725 -0.006589965411 0.2406339614 0.9705935653 7.146622168e-43
-0.0002234575125 0.02017498125 -0.2692261875 0.03613463298 0.2238418946 0.9739553863 7.146622168e-43
0.00232786 0.02018451875 -0.2693483125 0.1194765954 0.3215333858 0.9393304131 7.146622168e-43
0.038147 0.022934 -0.291992 0.7387182818 0.2472660978 0.6270205554 6.454380727e-42
0.019573225 0.01729838333 -0.2740073333 0.3725787165 -0.01057513528 0.9279403356 2.149591844e-42
-0.05498253333 0.0219523 -0.3006996667 0.4670308384 -0.01540888409 -0.8841067595 7.889310354e-42
0.03523255 -0.000603199 -0.2995605 0.5161736873 -0.7313147943 0.445806456 7.530577947e-42
-0.02739869 0.02009125 -0.2777097 -0.6385023235 0.06198211524 0.7671199386 3.943253879e-42
-0.02602236 0.02030028 -0.276855 -0.5967100906 0.06282547194 0.7999937674 3.584521472e-42
-0.02502442857 0.01989528571 -0.275879 -0.5559842747 0.02514201739 0.830812473 3.225789065e-42
0.007132636667 0.01992121111 -0.2701284444 0.1842106081 0.3433665449 0.9209592107 7.146622168e-43
-0.0352478 0.004957836667 -0.2926433333 0.6556842715 0.6128243094 -0.4410493191 6.813113134e-42
0.01143646667 0.01977536667 -0.270996 0.3163670089 0.3485359404 0.8822894162 1.073394624e-42
-0.0213165 0.017292025 -0.273926 -0.4802166902 -0.08368591591 0.8731486689 2.149591844e-42
-0.0505422 0.007512409167 -0.3024905 -0.5034542253 -0.3733193323 0.7792089059 8.606775168e-42
0.01255035 0.02027893333 -0.271973 0.3406713289 0.3758632949 0.8617829362 1.432127031e-42
-0.0221252 0.01088335 -0.275879 -0.4607694982 -0.3922776568 0.7961216675 3.225789065e-42
-0.05061846667 0.0173645 -0.2974446667 -0.6273720259 -0.1432666948 0.7654273286 7.17184554e-42
0.01743208571 0.01998249286 -0.273926 0.281900913 0.1719784654 0.9439042762 2.149591844e-42
0.0156708 0.0208588 -0.273926 0.2736288831 0.2233247302 0.935549731 2.149591844e-42
-0.04258725 0.01086045 -0.292969 -0.5969559753 -0.5247320474 0.6068771226 6.813113134e-42
0.0195923 0.01991400833 -0.2742513333 -0.294192137 -0.08955074357 -0.9515417231 2.149591844e-42
-0.0122147 0.000765324 -0.281006 0.2739690333 0.6190003316 -0.736056763 4.660718692e-42
0.0236359 0.0200348 -0.275879 0.5019507015 0.04415062483 0.8637686123 3.225789065e-42
0.0451965 0.00654602 -0.302002 0.6276944812 -0.4117922745 0.6606260371 8.248042761e-42
0.02505493333 0.02012888333 -0.277262 0.628443156 0.07575973061 0.7741573889 3.584521472e-42
0.018104575 0.014860175 -0.273926 0.4004485351 -0.0990166332 0.9109537184 2.149591844e-42
0.0403544 0.0222168 -0.2946776667 0.7850671206 0.2740641663 0.5554803767 6.813113134e-42
-0.02565765 0.004307745 -0.28418 -0.4889851342 -0.6331927007 0.5999671177 5.378183506e-42
-0.0331344375 0.0122995 -0.284058 -0.5928172122 -0.2962400733 0.7488722 5.378183506e-42
-0.0530013875 0.0100460075 -0.302368375 -0.396854261 -0.5248257827 0.7530369136 8.248042761e-42
0.0099945125 0.006750105 -0.273926 0.2194672344 -0.5526601244 0.8039906218 2.149591844e-42
0.044212325 0.0219841 -0.30029275 0.7546598567 0.3790818646 0.5355235201 7.530577947e-42
-0.0054588325 0.00336647 -0.275879 -0.1474362687 -0.6756857938 0.7222958222 3.225789065e-42
0.04500323333 0.02279663333 -0.3023276667 0.6283659069 0.5418395254 0.5581811675 8.248042761e-42
-0.0386353 0.020156875 -0.287109 -0.6362281849 0.02812589572 0.7709880872 5.736915913e-42
0.0467377 0.01505915 -0.300537 0.7448027006 0.01213265128 0.6671744419 7.530577947e-42
-0.03534950667 0.0199595 -0.2844565333 -0.614924079 -0.007345035827 0.7885521083 5.378183506e-42
-0.0305359 0.01989746 -0.2805175 -0.6616105476 0.08468238617 0.7450505867 4.660718692e-42
0.037735 -0.000609398 -0.3024905 0.4781320167 -0.7366622014 0.478245309 8.248042761e-42
-0.0569458 0.017578125 -0.301025 -0.457779376 0.00855729452 0.8890246429 7.889310354e-42
0.03005368 0.02001952 -0.2821774 0.7396868956 0.109508019 0.663981393 5.019451099e-42
-0.0269012 0.0132675 -0.278076 -0.585415327 -0.2930701404 0.7559092457 3.943253879e-42
-0.007875443125 0.0150814 -0.26928725 -0.08020082505 -0.2477896686 0.9654885332 7.146622168e-43
0.03942002857 0.01752582857 -0.2925502857 0.701812531 -0.06038145842 0.7097980352 6.813113134e-42
0.03467134444 0.01992288889 -0.2875432222 0.7467031632 0.1141668275 0.6552864424 5.736915913e-42
-0.0389099 0.0117416 -0.289063 -0.558223941 -0.4534941425 0.6947870857 6.09564832e-42
0.0388489 0.0215454 -0.291992 0.7539006639 0.09262445855 0.6504263976 6.454380727e-42
0.0414734 0.0218506 -0.296143 0.7612872156 0.3928802077 0.5158361346 7.17184554e-42
0.04624426667 0.02186076667 -0.3026533333 0.6708937221 0.4162474661 0.6137097527 8.606775168e-42
-0.05054319 0.01996611 -0.2974121 -0.6393180409 0.08526262603 0.7642007113 7.17184554e-42
-0.0465698 0.0209961 -0.293945 0.6983589488 -0.1229109179 -0.7051153699 6.813113134e-42
-0.045596 0.01976431818 -0.2926137273 -0.7030829751 -0.01376135237 0.7109746516 6.813113134e-42
-0.0409851 0.01755525 -0.289063 -0.6107279548 -0.07159495723 0.7885971895 6.09564832e-42
-0.01024906273 0.002023437273 -0.2794079091 -0.344538245 -0.6647375695 0.6628856322 4.301986285e-42
-0.042831425 0.02002335 -0.29003925 -0.6502114783 0.03868203152 0.7587679052 6.09564832e-42
0.0120592 9.85712125e-05 -0.2805175 0.1869121662 -0.6747399464 0.7139956911 4.660718692e-42
-0.0480957 0.004878998333 -0.3021648333 -0.4393919798 -0.3383638495 0.8321325576 8.248042761e-42
-0.0261536 0.01747895 -0.276855 -0.5926049735 -0.07086028233 0.802370342 3.584521472e-42
0.0135727 0.01742553333 -0.270996 0.3865488159 0.14786043 0.910339116 1.073394624e-42
0.0357056 0.0206451 -0.289063 0.7091417969 0.1225489361 0.6943339759 6.09564832e-42
-0.05309043333 0.01747894167 -0.2993976667 -0.4985999895 -0.02549674139 0.8664571349 7.530577947e-42
0.0392609 0.0198498 -0.2924805 0.7472461078 0.08045683409 0.6596589666 6.454380727e-42
0.04279583333 0.02003986667 -0.297119 0.7736775374 0.2691535438 0.5735672916 7.17184554e-42
-0.01555938 0.01776225333 -0.2709309333 -0.3786596137 -0.04158450624 0.9246013334 1.073394624e-42
0.01255035 0.01212311667 -0.271973 0.3219109209 -0.3023375113 0.8971986337 1.432127031e-42
-0.02039794667 0.01027933 -0.2754882 -0.4112722945 -0.4467344064 0.794533492 2.867056658e-42
-0.01301575 0.017681125 -0.27002 0.3353371643 0.03745830431 -0.9413532077 7.146622168e-43
-0.0027713775 0.01761245 -0.269043 -0.01736973145 0.07825689701 0.9967818972 7.146622168e-43
-0.05060491111 0.01238928889 -0.2991805556 -0.5553039301 -0.4283347262 0.7128582661 7.530577947e-42
0.05297853333 0.0199941 -0.307129 -0.4591225031 -0.2908207522 -0.8394223116 1.00417048e-41
0.00232506 0.01761245 -0.269043 0.05888510998 0.05609875384 0.9966872497 7.146622168e-43
0.007119815 0.01765315 -0.2696129167 0.1746864869 0.1540187325 0.9725033991 7.146622168e-43
0.05188858571 0.01989091429 -0.306152 -0.5177754902 -0.2515366446 -0.8177027933 9.682972388e-42
0.0483704 0.0206375 -0.303955 0.601281628 0.3506003183 0.7180110171 8.965507575e-42
0.0309448 0.013176 -0.282959 0.7403610696 -0.1568915251 0.6536440438 5.378183506e-42
0.05001324167 0.01999664167 -0.3053791667 0.5491488681 0.3136155444 0.7746488308 9.324239982e-42
-0.01781004 0.01748657 -0.271973 -0.4295000494 -0.06256931911 0.9008966577 1.432127031e-42
-0.03035191429 0.01802064286 -0.2803081429 -0.6717447091 -0.04121185023 0.7396354705 4.301986285e-42
-0.0289764 0.017608625 -0.279053 -0.6579946417 -0.063166296 0.7503686231 4.301986285e-42
-0.0250702 0.0174179 -0.275879 -0.5342470346 -0.05123811255 0.8437741178 3.225789065e-42
-0.02301216875 0.017344475 -0.2747190625 -0.5192871733 -0.09337118803 0.8494837567 2.508324251e-42
-0.01994833333 0.017230975 -0.272949 -0.4714316163 -0.1051733251 0.8756088184 1.790859437e-42
0.0165863 0.017230975 -0.272949 0.4354993247 0.0493257235 0.8988366432 1.790859437e-42
0.01794435 0.017292025 -0.273926 0.3635632065 0.03063492538 0.9310656777 2.149591844e-42
0.021938325 0.01737213125 -0.27514625 0.4424125727 -0.05416533271 0.8951744144 2.867056658e-42
-0.04268538571 0.01771544286 -0.2900392857 -0.6535309139 -0.09871724312 0.7504347077 6.09564832e-42
-0.03730468 0.01757812 -0.285889 -0.619744817 -0.06141544143 0.782396642 5.736915913e-42
0.004674148 0.007318496 -0.2722658 0.1166570819 -0.5753983744 0.8095108622 1.432127031e-42
-0.0328308 0.017572 -0.2825682 -0.625543749 -0.08053835176 0.7760209997 5.019451099e-42
-0.022689825 0.012595175 -0.275756875 -0.4929113579 -0.3336889869 0.8035484138 3.225789065e-42
-0.00532317125 0.0150780625 -0.2692261875 -0.06015135986 -0.1476808451 0.987204225 7.146622168e-43
0.02903745 0.01739503333 -0.2808431667 0.720150548 -0.01420680128 0.6936723687 4.660718692e-42
0.0309448 0.01753233333 -0.282959 0.7249336945 0.03545375465 0.6879056402 5.019451099e-42
0.03708497 0.01776732 -0.2902347 0.7289355414 -0.05928753113 0.6820102383 6.09564832e-42
-0.05550640833 0.01757303333 -0.3009436667 -0.457779376 0.00855729452 0.8890246429 7.889310354e-42
-0.0578613 0.0176315 -0.302002 0.3614973555 -0.08546203417 -0.9284481152 8.248042761e-42
0.0143204 0.010441572 -0.272949 0.3534905095 -0.3470722197 0.8686687136 1.790859437e-42
-0.01762769375 0.0152459125 -0.272156 -0.4312994459 -0.1809076403 0.8838852944 1.432127031e-42
-0.01524907273 0.01526850909 -0.270996 -0.3274401628 -0.2229187289 0.9181994228 1.073394624e-42
0.03230456667 0.004756928889 -0.2899307778 0.5363736862 -0.5713233668 0.6212027682 6.09564832e-42
-0.013024325 0.01513291875 -0.270203 -0.3028332085 -0.2653344982 0.9153631257 7.146622168e-43
-0.01515960667 0.00765864 -0.2751626667 -0.2625089404 -0.5888693666 0.7644095272 2.867056658e-42
0.00232506 0.01506805 -0.269043 0.0960924096 -0.1116764704 0.989087769 7.146622168e-43
0.009368895 0.015123375 -0.27002 0.2117368929 -0.09813344096 0.972387431 7.146622168e-43
0.01195335 0.01515866875 -0.27063 0.2986765768 -0.09653742149 0.9494592296 1.073394624e-42
0.0135727 0.01550293333 -0.270996 0.3888907747 0.007879865073 0.9212501686 1.073394624e-42
0.014757175 0.01507886667 -0.2720543333 0.4541924015 -0.07469348793 0.8877669431 1.432127031e-42
0.0404968 0.01716615 -0.293945 0.7166045854 -0.02816476128 0.6969107651 6.813113134e-42
0.052215575 0.0174160125 -0.306152 0.5504905213 0.0961924447 0.8292811342 9.682972388e-42
0.0532227 0.0182953 -0.307129 -0.4706374394 -0.1736104145 -0.8650779298 1.00417048e-41
0.04496253333 -0.0003759663333 -0.307129 0.3768790058 -0.4706381679 0.7977856416 1.00417048e-41
0.0095410325 0.004981995 -0.27490225 0.1902215799 -0.6402820138 0.7442141448 2.508324251e-42
0.05421756 0.01770936 -0.307129 -0.4837512569 -0.1012196279 -0.8693326799 1.00417048e-41
0.02196216875 0.0147829125 -0.2754515625 0.4495655445 -0.1363318301 0.882782223 2.867056658e-42
0.0404968 0.0150814 -0.293945 0.6676721609 -0.06069460471 0.7419771226 6.813113134e-42
-0.03798327273 0.009950110909 -0.2895067273 0.5931260697 0.5684245833 -0.5701709907 6.09564832e-42
-0.030521425 0.014741875 -0.281006 0.6615188694 0.1886936384 -0.7258012788 4.660718692e-42
0.03250123333 0.0149536 -0.2849123333 0.7825736573 -0.1170913132 0.6114475409 5.378183506e-42
-0.002826770833 0.004643756667 -0.2742513333 -0.03798829624 -0.7111217162 0.7020418749 2.149591844e-42
-0.02732848889 0.01501633333 -0.2779403333 -0.6302486787 -0.2161587265 0.7456956537 3.943253879e-42
-0.02563781 0.01473388 -0.2769771 -0.5629320274 -0.25577853 0.7859293073 3.584521472e-42
0.04721372 0.004802322 -0.3049804 0.4461192297 -0.5158937905 0.7313215639 9.324239982e-42
-0.0247498 0.01545715 -0.275879 -0.5047656959 -0.1801062431 0.8442590441 3.225789065e-42
-0.02093315 0.0147924625 -0.27417 -0.4736051399 -0.2516953789 0.8440068766 2.149591844e-42
-0.01955872 0.0150986 -0.272949 -0.4479963572 -0.2022220115 0.8708648127 1.790859437e-42
-0.02343138 0.00437851 -0.2821774 -0.4539080341 -0.6317675302 0.6283607915 5.019451099e-42
0.0236359 0.01545715 -0.275879 0.5124613419 -0.1264121788 0.8493546575 3.225789065e-42
0.0366516 0.01251223333 -0.291016 0.7159064702 -0.09585830604 0.6915844931 6.454380727e-42
0.0248762 0.01478902857 -0.2773782857 0.6073483036 -0.1775226557 0.7743473024 3.584521472e-42
0.02722676667 0.01498795 -0.2793783333 0.6574400367 -0.1095555374 0.7454999546 4.301986285e-42
0.02571105 0.0118275 -0.279053 0.6102983713 -0.3073465358 0.7301191717 4.301986285e-42
0.0290412625 0.01506995 -0.280883875 0.6736427821 -0.09083356544 0.7334539287 4.660718692e-42
0.0301666 0.015129075 -0.281982 0.7189080176 -0.05356835774 0.6930380172 5.019451099e-42
0.03951086923 0.007469763846 -0.2949970769 0.7003240614 -0.3479404882 0.6232845463 6.813113134e-42
0.0309448 0.0151825 -0.282959 0.7510456813 -0.04623590762 0.6586293536 5.019451099e-42
-0.046043375 0.0150814 -0.293945 -0.6670005222 -0.2505762906 0.7016564871 6.813113134e-42
-0.0263367 0.0113297 -0.279053 -0.5766512627 -0.3964886754 0.7143318917 4.301986285e-42
-0.04472856667 0.01512401111 -0.2926433333 -0.67176652 -0.2591623301 0.6939485782 6.813113134e-42
-0.050498975 0.0024485625 -0.303955 -0.4447124434 -0.2128685857 0.8700102344 6.72483133e-42
-0.04242862 0.0150383 -0.2905275 -0.6561568747 -0.2072546531 0.7256057225 6.09564832e-42
0.0302391 0.00935746 -0.28418 0.6533539558 -0.378392051 0.6557042506 5.378183506e-42
-0.03969316667 0.0149981 -0.288086 -0.6226541035 -0.1431654555 0.7692889703 6.09564832e-42
-0.035319 0.0149447 -0.2847495833 -0.5992399029 -0.1809511873 0.7798514003 5.378183506e-42
0.0489197 0.01231383333 -0.302979 0.6926523832 -0.09781086695 0.7146087813 8.606775168e-42
-0.02868398333 0.01465606667 -0.2793783333 -0.6364874922 -0.245273654 0.7312485945 4.301986285e-42
0.03558962 0.0146286 -0.2892582 0.7496612413 -0.1106278185 0.6525101601 6.09564832e-42
0.036930075 0.014906875 -0.290649625 0.7145116721 -0.1200268101 0.6892507782 6.454380727e-42
0.0389709 0.01259613333 -0.292969 0.6809575781 -0.09742183295 0.7258138627 6.813113134e-42
0.03930665 0.015018475 -0.292846875 0.6700123099 -0.08747030974 0.7371787094 6.813113134e-42
0.04202547273 0.01505347273 -0.295366 0.7069718092 -0.06609070607 0.7041469161 6.813113134e-42
-0.0449524 0.01037851333 -0.295736 -0.5660212018 -0.5498451249 0.614239642 7.17184554e-42
-0.0335388 0.0145645 -0.283936 -0.5787981386 -0.2177342194 0.785865462 5.378183506e-42
0.04415895 0.01490783333 -0.2976075 0.7576289076 -0.02912452678 0.6520354287 7.530577947e-42
0.0422058 -0.00501633 -0.309082 0.06358427156 -0.5936860328 0.802180737 1.111790202e-41
0.0480347 0.01513673333 -0.302002 0.7382373431 0.08099967161 0.6696601216 8.248042761e-42
0.0297317375 1.7441625e-05 -0.2924805 0.5413086193 -0.6195143858 0.5684952985 6.454380727e-42
0.0489197 0.014823925 -0.302979 0.7089700498 0.01993860392 0.7049566799 8.606775168e-42
0.0502472 0.0148973375 -0.3045655 0.6068783945 0.07077746638 0.7916370156 8.965507575e-42
0.0542908 0.0150223 -0.307129 -0.4698383642 -0.08671981968 -0.8784825464 1.00417048e-41
-0.01316453333 -0.0002348426667 -0.2823076667 0.1662945022 0.5805194047 -0.7970842862 5.019451099e-42
-0.0516052 0.01462935 -0.299072 -0.4875654297 -0.3136499785 0.8148028245 7.530577947e-42
-0.02038247143 0.01263648571 -0.274414 0.4697412435 0.31108395 -0.8261779108 2.508324251e-42
-0.0193024 0.0136795 -0.272949 -0.4329010813 -0.2769294955 0.85785005 1.790859437e-42
0.02772525 0.009232841667 -0.2821448333 0.5904444083 -0.4217840024 0.6880942204 5.019451099e-42
-0.01544466364 0.01258571818 -0.2723279091 -0.3119952605 -0.455592109 0.8337234479 1.790859437e-42
-0.0146637 0.0135727 -0.270996 -0.3128135267 -0.3532181947 0.8816941672 1.073394624e-42
-0.0128212 0.01317215 -0.270996 -0.2830405432 -0.4090087819 0.8675251392 1.073394624e-42
0.03885906667 0.00547409 -0.295736 0.6672934305 -0.470576912 0.5773013489 7.17184554e-42
-0.01047803188 0.0125913625 -0.270569 -0.2209133897 -0.4259225451 0.8773752104 1.073394624e-42
-0.0053396225 0.0125656 -0.27002 -0.1537846325 -0.2784021515 0.9480730609 7.146622168e-43
0.01457216667 -0.0007905953333 -0.281982 -0.2623394991 0.6394530776 -0.722687864 5.019451099e-42
-0.002774954375 0.0125317625 -0.26928725 -0.08067262926 -0.2439614423 0.9664236864 7.146622168e-43
0.0440369 -0.00465012 -0.309082 -0.1367937528 0.5153330373 -0.846001968 1.111790202e-41
0.002330958125 0.0125470125 -0.269653625 0.08876216044 -0.2552791847 0.9627844082 7.146622168e-43
-0.03767395 0.01258150833 -0.2874346667 -0.5919549047 -0.3422405564 0.7296991108 5.736915913e-42
0.01461985 0.01268195625 -0.272461 0.4266521446 -0.2066270729 0.8804959967 1.790859437e-42
0.0391235 0.003396353333 -0.2977703333 0.5931485415 -0.5836388539 0.5545633381 7.530577947e-42
0.01652222 0.0131607 -0.272949 0.4254062325 -0.1741055723 0.8880972847 1.790859437e-42
0.01761836364 0.01254620909 -0.273926 0.4116898997 -0.1910823472 0.8910661946 2.149591844e-42
0.01956039091 0.01269742727 -0.2746358182 -0.4346998108 0.2174097421 -0.87393883 2.508324251e-42
0.01199457692 0.005167153846 -0.2754280769 0.2622128321 -0.6258206739 0.7345698842 2.867056658e-42
0.053772 0.0146103 -0.306152 -0.4700264109 -0.07459414005 -0.8794946773 9.682972388e-42
-0.03523908571 0.01270402857 -0.285261 -0.5971008965 -0.2684246692 0.7559224275 5.378183506e-42
-0.0308092 0.01221297778 -0.2823076667 -0.6039804487 -0.3119711555 0.7334041285 5.019451099e-42
-0.02963515 0.01263555 -0.281006 -0.6092575374 -0.3490139089 0.7120354939 4.660718692e-42
-0.02788289167 0.01235009167 -0.2796224167 -0.6127445454 -0.3586259404 0.7042240815 4.301986285e-42
-0.02514546667 0.01232248 -0.2774248 -0.5449190931 -0.37246991 0.7512185755 3.584521472e-42
-0.0133524 0.0120964125 -0.271973 -0.2863935196 -0.4629553857 0.8388391161 1.432127031e-42
0.0228373 0.01201885 -0.276855 0.5125773196 -0.3286649203 0.7932489279 3.584521472e-42
-0.01941936667 0.00320562 -0.281006 -0.3080391084 -0.6254368103 0.7168965783 4.660718692e-42
0.02448400833 0.01242954167 -0.277669 0.5894902164 -0.2732025683 0.760172113 3.943253879e-42
0.027304325 0.01237233333 -0.2801106667 0.6267374957 -0.2752216503 0.7290083365 4.301986285e-42
0.028717 0.01274616667 -0.281006 0.65228999 -0.2284869229 0.7227112113 4.660718692e-42
0.0205841 0.00670624 -0.279053 0.4195305759 -0.5985428782 0.6824518437 4.301986285e-42
-0.0269928 0.00348854 -0.285889 -0.4488240128 -0.6085909111 0.6543501421 5.736915913e-42
0.02975461111 0.01236218889 -0.2823076667 0.6851803519 -0.2435164724 0.686460205 5.019451099e-42
0.03196715 0.0124565 -0.2849123 0.7770931208 -0.1910180141 0.5996985909 5.378183506e-42
-0.04506426667 0.00343577 -0.301025 -0.3547066401 -0.405387622 0.842522448 7.889310354e-42
0.03375677143 0.01255362857 -0.2875277143 0.7822860427 -0.1435028102 0.606164574 5.736915913e-42
-0.05528261667 0.01318231667 -0.301025 0.4183340112 0.3247840454 -0.8482405195 7.889310354e-42
-0.05295015714 0.01256942143 -0.3006067143 -0.4261408043 -0.4536189957 0.782709283 7.889310354e-42
0.04456918889 0.007703568889 -0.3005912222 0.6581046061 -0.3819007865 0.6488837467 7.889310354e-42
-0.049491875 0.01299095 -0.298096 -0.5579626372 -0.3745002984 0.7405587228 7.530577947e-42
-0.048061375 0.012168875 -0.297485375 -0.5949621037 -0.4155424455 0.6880004151 7.17184554e-42
-0.027494425 0.00754213375 -0.282348375 -0.5225191713 -0.5342404606 0.6645004484 5.019451099e-42
-0.047012325 0.01288985 -0.29583775 -0.6284788988 -0.3663272955 0.6861622157 7.17184554e-42
-0.03306071667 0.00467682 -0.2897138333 -0.571816842 -0.6333404038 0.5214455218 6.09564832e-42
-0.04544372 0.01218949 -0.2948731 -0.628656501 -0.436620312 0.6435477503 6.813113134e-42
0.009566502 0.009631352 -0.271973 0.2353325696 -0.4282025695 0.872502803 1.432127031e-42
-0.02039081667 0.004903158333 -0.2798665 -0.3227973092 -0.6299983412 0.7063313579 4.301986285e-42
-0.0443115 0.01294325 -0.292969 -0.6502661585 -0.3744152268 0.6610349166 6.813113134e-42
-0.04213463333 0.01272586667 -0.2906903333 -0.6369522358 -0.4043378155 0.6563556812 4.182875916e-42
-0.0185038 0.01199596667 -0.273926 -0.3596240486 -0.3999356961 0.8430432864 2.149591844e-42
0.03541565 0.01244608333 -0.289551 0.7280104148 -0.1117871016 0.6763907745 6.09564832e-42
0.05391238 0.010115032 -0.306152 -0.4409416139 -0.002073879681 -0.8975333933 9.682972388e-42
0.04188706667 0.01247405556 -0.2956003333 0.7035551955 -0.1345718746 0.6977825574 7.17184554e-42
0.0440674 0.01268131667 -0.2977703333 0.7206813516 -0.1294799497 0.6810677882 7.530577947e-42
0.04523216667 0.01227315 -0.2992348333 0.7255876504 -0.1839375599 0.6630908954 7.530577947e-42
0.04669628571 0.01272255714 -0.3006067143 0.7268864972 -0.05857942425 0.684254683 7.889310354e-42
0.04789432 0.01241454 -0.302002 0.7183311136 -0.0777043787 0.6913482775 8.248042761e-42
-0.0555827 0.01203281667 -0.302002 0.3675803466 0.4627821038 -0.8066705729 8.248042761e-42
0.0357361 -0.00498199 -0.307129 -0.4042557606 0.7467937165 -0.5280875165 1.00417048e-41
0.0502472 0.0123736 -0.3045655 0.5862368356 -0.01865473236 0.8099249185 8.965507575e-42
0.054657 0.0128403 -0.307129 -0.3378898953 -0.08405372424 -0.9374248717 1.00417048e-41
-0.01488365 0.01087186667 -0.272949 -0.2852122036 -0.4832379121 0.8277288924 1.790859437e-42
-0.01276168 0.010305016 -0.2727538 -0.2803925794 -0.5194965089 0.8071575922 1.790859437e-42
-0.01063919143 0.009956366429 -0.2723215714 -0.2729087139 -0.5151889135 0.812466133 1.432127031e-42
-0.009849555 0.0110092 -0.270996 -0.2559171659 -0.4400771868 0.8607197418 1.073394624e-42
-0.008045196875 0.0049815175 -0.2749023125 -0.2334157621 -0.6567786683 0.7170487172 2.508324251e-42
-0.005346059375 0.010017385 -0.270325 -0.169011772 -0.4464645842 0.8786947115 7.146622168e-43
-0.002782941875 0.010009755 -0.270081 -0.06615540342 -0.4558245661 0.8876076991 7.146622168e-43
0.004901648125 0.01002548875 -0.270569 0.137731962 -0.4253005962 0.8945106537 1.073394624e-42
-0.002626418333 0.003148396667 -0.275879 -0.02720744348 -0.7214292606 0.69195345 3.225789065e-42
0.0120349 0.01009703375 -0.2724 0.2715329599 -0.4176755649 0.8670737997 1.432127031e-42
-0.0267181 0.00613403 -0.282959 -0.510327973 -0.5749722112 0.6395094341 5.019451099e-42
0.01726378 0.01024322333 -0.2745116 0.4113997083 -0.3584774031 0.8380001381 2.508324251e-42
-0.04010012 0.010702494 -0.2906252 -0.5760357739 -0.5414729832 0.6123641038 6.454380727e-42
-0.0369263 0.01077776667 -0.2877603333 -0.5807928666 -0.4536627666 0.675921401 6.09564832e-42
-0.01534501 0.005356599 -0.2774655 -0.2504135881 -0.7072479032 0.6611304245 3.584521472e-42
0.02159118333 0.00821368 -0.2778725 0.4616029679 -0.5123044838 0.7242008119 3.943253879e-42
0.04407245 0.0003498195 -0.3059893333 0.4479860481 -0.5318653285 0.7186290929 9.682972388e-42
-0.04773421538 0.007768191538 -0.3003490769 -0.5248798862 -0.4760814637 0.7055831241 7.889310354e-42
-0.03547451429 0.009823395714 -0.2873881429 -0.6158315785 -0.4582330691 0.6409164699 5.736915913e-42
-0.03459165 0.010421755 -0.28564475 -0.6052842444 -0.3654318938 0.7071707817 5.736915913e-42
0.03469848 -0.004522706 -0.3055174 -0.4931259229 0.7340330581 -0.4669285746 9.324239982e-42
-0.03296406667 0.009883250833 -0.2847494167 -0.5612530075 -0.3949569333 0.7273266683 5.378183506e-42
0.01523846667 0.00961431 -0.273926 0.37004883 -0.4065267953 0.8353441375 2.149591844e-42
0.02218628182 0.009889767273 -0.277188 0.4910219274 -0.4393149727 0.7522631332 3.584521472e-42
0.0240224 0.01041414 -0.278076 0.546320414 -0.3712037074 0.7508274188 3.943253879e-42
0.02668762 0.010069285 -0.2806152 0.5991028828 -0.409576184 0.6879848002 4.660718692e-42
0.05001222 0.009699253 -0.3044434 0.5668329344 -0.2135583771 0.795671568 8.965507575e-42
-0.0455766 0.002254575455 -0.3020908182 -0.3276309096 -0.4054596986 0.8533817551 8.248042761e-42
0.0293236125 0.01006126625 -0.28271475 0.6284900038 -0.3794680225 0.6789730002 5.019451099e-42
0.0316484 0.01001316 -0.2852377778 0.7105716916 -0.3182153352 0.6275562696 5.378183506e-42
0.03374225 0.01021574167 -0.2879231667 0.7442058106 -0.1938912755 0.6391900224 6.09564832e-42
0.0389709 0.01051331 -0.292969 0.6844486891 -0.1427578042 0.7149476914 6.813113134e-42
-0.05503085 0.01023769 -0.30273475 0.3193714109 0.5168518564 -0.7942707727 8.606775168e-42
-0.0519409 0.0108032 -0.301025 -0.4381785328 -0.4755464851 0.7627942802 7.889310354e-42
-0.0503311125 0.010157595 -0.300414875 -0.5161269654 -0.4719556861 0.714752255 7.889310354e-42
-0.04832968333 0.009793598333 -0.2992348333 -0.5424171385 -0.4914603156 0.6813592343 7.530577947e-42
-0.04311116667 0.009724941111 -0.294732 -0.5150904622 -0.6188470104 0.5930515943 6.813113134e-42
0.04763793333 0.002048813333 -0.307129 0.3895996911 -0.4513974563 0.8027779376 1.00417048e-41
-0.02848435 0.0092907 -0.28222625 -0.5471417722 -0.4822470015 0.6841591267 5.019451099e-42
-0.008437155 0.0092773475 -0.271973 -0.2503612305 -0.485895813 0.8373914934 1.432127031e-42
0.0327454 0.009620673333 -0.287109 0.7339019591 -0.2799344679 0.618889819 5.736915913e-42
0.04008264286 0.009773261429 -0.2945032857 0.6965292533 -0.251869736 0.6718695077 6.813113134e-42
0.03448485455 0.007217407273 -0.2898617273 0.6223678159 -0.4089417547 0.6674016354 6.09564832e-42
0.04281008 0.009828194 -0.2975098 0.6995339481 -0.294808961 0.6509530951 7.17184554e-42
0.0489197 0.0105171 -0.302979 0.634920286 -0.1039083391 0.7655581542 8.606775168e-42
0.01474 0.007578609375 -0.274658125 0.3262638294 -0.5434328985 0.773454975 2.508324251e-42
0.05225626667 0.009887046667 -0.3058266667 -0.5297157176 0.0916328195 -0.8432109374 9.682972388e-42
0.007505415 0.00911713 -0.271973 0.1871184239 -0.462315392 0.8667474683 1.432127031e-42
-0.0361938 0.00900269 -0.289063 0.6145809581 0.551246056 -0.5642854169 6.09564832e-42
-0.02518209167 0.0078427 -0.2802735 -0.5353472056 -0.5180809266 0.6670798476 4.660718692e-42
-0.02248055714 0.008186885714 -0.278076 -0.4565608717 -0.5154315472 0.7251775579 3.943253879e-42
-0.03338622 0.00690918 -0.2874998 -0.5633145401 -0.575166611 0.5931779653 5.736915913e-42
-0.005484580833 0.002067566667 -0.277262 -0.113237846 -0.7074053895 0.697678153 3.584521472e-42
-0.020428975 0.0076548275 -0.27736375 -0.3716776958 -0.5745978384 0.729172829 3.584521472e-42
-0.005462645385 0.00729106 -0.2723483846 -0.1968020424 -0.6021288767 0.7737633824 1.432127031e-42
-0.005039216667 0.00843811 -0.270996 -0.1816310273 -0.4846325162 0.8556526715 1.073394624e-42
-0.0004388279167 0.008224486667 -0.270996 0.01437829476 -0.553902965 0.832457068 1.073394624e-42
0.004268645 0.00843811 -0.270996 0.1078785945 -0.4531898747 0.8848622188 1.073394624e-42
0.009304675833 0.007796608333 -0.2727863333 0.1855392487 -0.5349886929 0.8242343633 1.790859437e-42
0.01184208333 0.008285526667 -0.272949 0.2588521485 -0.4847625308 0.835464454 1.790859437e-42
-0.02040736667 0.002329110833 -0.2823076667 -0.399618018 -0.6067021607 0.6871811464 5.019451099e-42
0.0287628 0.003171925 -0.288086 0.5675440432 -0.6094449365 0.5535978942 6.09564832e-42
-0.03833008889 0.002311495556 -0.2992891111 -0.4926975089 -0.4461859837 0.7471059046 7.530577947e-42
0.01692368889 0.007860396667 -0.2755533333 0.3784316629 -0.5217060807 0.7645993996 2.867056658e-42
0.0186208 0.00837962 -0.275879 0.4078100903 -0.4719600666 0.7816294683 3.225789065e-42
0.01958211667 0.007543565 -0.277262 0.4092175853 -0.5676309105 0.7143781333 3.584521472e-42
0.02461242727 0.007826025455 -0.2803843636 0.503127123 -0.5225623262 0.6883252962 4.301986285e-42
-0.05254106667 0.008481343333 -0.302979 -0.422382321 -0.4329356053 0.7963415954 8.606775168e-42
-0.0498047 0.00866699 -0.301025 -0.5108579433 -0.4693074135 0.7202601706 7.889310354e-42
-0.04246828 0.008229066 -0.2956546 -0.4575301399 -0.6624838131 0.5931115987 7.17184554e-42
-0.0348816 0.008051553333 -0.2877603333 0.6095191886 0.5521663077 -0.5688573875 6.09564832e-42
-0.03025987778 0.007519616667 -0.2846952222 -0.497730297 -0.5466369696 0.6733888735 5.378183506e-42
-0.0229587625 0.0071234725 -0.279175 -0.4796919117 -0.5421404808 0.6899125806 4.301986285e-42
-0.0181922875 0.0070734025 -0.277007625 -0.3022114764 -0.6210569187 0.7231573323 3.584521472e-42
-0.002912521111 0.006973264444 -0.2721898889 -0.07070129348 -0.6139171977 0.7861978132 1.432127031e-42
-9.661861e-05 0.007058714 -0.2721682 0.01215565404 -0.6076321666 0.7941255506 1.432127031e-42
0.002353908333 0.007190703333 -0.2722983333 0.05144716046 -0.5957239109 0.8015399002 1.432127031e-42
-0.00714493 0.000757217 -0.278076 0.245182796 0.6801041292 -0.6909006947 3.943253879e-42
0.01223833 0.007108305 -0.2740236 0.2875008494 -0.5430131971 0.7889739725 2.149591844e-42
0.0376587 0.00152302 -0.299072 0.5258721157 -0.6943141224 0.4913109171 7.530577947e-42
0.0298123 0.00752555 -0.2849123333 -0.6113722098 0.4673318143 -0.6386117729 5.378183506e-42
0.03125 0.00789261 -0.285889 0.6632313298 -0.4381592692 0.6067459583 5.736915913e-42
0.041687025 0.0075054175 -0.2976075 0.6868529269 -0.3681536648 0.6266545586 7.530577947e-42
0.04302364 0.00747299 -0.299072 0.6747870648 -0.3738685479 0.6363055288 7.530577947e-42
-0.05317517778 0.007157642222 -0.304362 -0.4381741612 -0.3837636522 0.8128523013 8.965507575e-42
-0.04300365714 0.006952557143 -0.2976772857 -0.3947190304 -0.6515405519 0.6478362419 7.530577947e-42
-0.0286001 0.007052103333 -0.283936 -0.4860740431 -0.5588059313 0.671913652 5.378183506e-42
-0.008501055 0.006750105 -0.273926 -0.2486698876 -0.6039624574 0.757226939 2.149591844e-42
0.028127 0.007052103333 -0.283936 0.5664258479 -0.5115202645 0.6461491916 5.378183506e-42
0.04990982222 0.007325064444 -0.304769 0.4871287836 -0.3527099538 0.7989375675 9.324239982e-42
-0.03852336667 0.006852466667 -0.2945963333 -0.5350629459 -0.6929364945 0.4832666536 6.813113134e-42
-0.02221676667 0.00322469 -0.2826333333 -0.4233348065 -0.6305633425 0.6505209548 5.019451099e-42
0.03981188889 0.002315946667 -0.2999402222 0.5423172088 -0.6482949236 0.5344209362 7.530577947e-42
0.0331726 -0.000597954 -0.297119 0.5413617515 -0.6992455549 0.4668866115 7.17184554e-42
-0.0259552 0.00677872 -0.281982 -0.5350280654 -0.5458076765 0.6448557587 5.019451099e-42
-3.263926e-05 0.0057869 -0.272949 0.01046394619 -0.6669880917 0.7449948935 1.790859437e-42
-0.04720056667 0.005575816667 -0.301025 -0.4628526504 -0.4172183923 0.7821101183 7.889310354e-42
0.0254822 0.00677872 -0.281982 0.5074175216 -0.5321972157 0.6777120202 5.019451099e-42
0.032959 0.006607055 -0.289063 0.609031427 -0.4621084974 0.6446211737 6.09564832e-42
-0.04071043333 0.00643921 -0.297119 -0.425359772 -0.6808763134 0.5962185088 7.17184554e-42
-0.0346069 0.00357437 -0.292969 0.7031636327 0.5412251083 -0.461125024 6.813113134e-42
-0.03023378 0.005922698 -0.2856936 -0.495577129 -0.5973503627 0.6305361634 5.736915913e-42
-0.02260936364 0.005413056364 -0.2804731818 -0.4198297201 -0.6366532087 0.6468505994 4.660718692e-42
-0.0375061 0.003396353333 -0.2977703333 -0.5870183544 -0.5336094492 0.608827075 7.530577947e-42
-0.01777901667 0.00580152 -0.2778725 -0.2369804731 -0.6913804128 0.6825198753 3.943253879e-42
-0.0142822 0.00598145 -0.275879 -0.2710053007 -0.6574822059 0.7030457139 3.225789065e-42
-0.01026152875 0.00539875 -0.2753905 -0.2389876638 -0.6576095313 0.7144470596 2.867056658e-42
-0.005523135714 0.004834311429 -0.2744837143 -0.1555041098 -0.6787092516 0.7177549886 2.508324251e-42
-0.00475311 0.0059166 -0.272949 -0.1161438383 -0.6543606995 0.7472099329 1.790859437e-42
-0.0028126225 0.0059166 -0.272949 -0.04224134968 -0.6716085261 0.7397010586 1.790859437e-42
0.002360105 0.0059166 -0.272949 0.04790070471 -0.6409360133 0.7660982635 1.790859437e-42
0.0219516625 0.00549984 -0.280639625 0.4321310003 -0.5983325814 0.6747302577 4.660718692e-42
0.0169429875 0.00544119 -0.277618125 0.3752204121 -0.6359259648 0.6743944021 3.943253879e-42
0.0244217 0.0052312225 -0.2825519167 0.4822645862 -0.5755332573 0.6604410183 5.019451099e-42
0.0262451 0.00613403 -0.282959 0.5151969727 -0.5312376265 0.6725761395 5.019451099e-42
0.02895861667 0.005736031667 -0.2854005 0.5643752903 -0.5472925415 0.6180221725 5.736915913e-42
0.029985425 0.0050396925 -0.2875975 0.577762548 -0.5787905442 0.5754927837 6.09564832e-42
-0.0403137 0.005447384286 -0.2979564286 -0.3883033924 -0.6512276139 0.6520146244 7.530577947e-42
-0.0548096 0.00588989 -0.305176 0.4276057066 0.3863673608 -0.817235353 9.324239982e-42
-0.05286475455 0.005227174545 -0.304843 0.4511319557 0.2775197994 -0.8482114828 9.324239982e-42
-0.04544742222 0.005089655556 -0.3004827778 -0.4365917403 -0.4866766886 0.7566594036 7.530577947e-42
-0.04289937273 0.005005923636 -0.2994272727 -0.3418824746 -0.5586931919 0.7556310547 7.530577947e-42
-0.03756102 0.005146026 -0.2956546 -0.5902209031 -0.6351351178 0.4982395685 7.17184554e-42
0.0454712 0.00442886 -0.303955 0.5404157443 -0.5185684843 0.6625990872 8.965507575e-42
0.01215702222 0.00294855 -0.277669 0.214981194 -0.6997600373 0.6812627807 3.943253879e-42
-0.03033011429 0.004670824286 -0.2873881429 -0.4915068564 -0.6190731209 0.6125108008 5.736915913e-42
-0.01552531875 0.00242555125 -0.2807006875 -0.2037696384 -0.6461779695 0.7354807721 4.660718692e-42
-0.01812743333 0.004656896667 -0.2793783333 -0.2252939393 -0.6734796653 0.7040367756 4.301986285e-42
-0.0003162193818 0.004585264545 -0.2742809091 -0.01176306563 -0.6957159405 0.7182206906 2.149591844e-42
0.03223528571 0.0001040271429 -0.2948172857 0.5497640161 -0.6728797608 0.4949670232 6.813113134e-42
0.004646723333 0.004645876667 -0.2743597778 0.08394161057 -0.652082077 0.7534870741 2.149591844e-42
0.03406776667 0.00538254 -0.2906903333 0.5772707907 -0.5034020009 0.642919015 6.454380727e-42
0.03638713333 0.005419413333 -0.2926433333 0.6440643152 -0.446995334 0.6207868629 6.813113134e-42
0.03733316667 0.004757563333 -0.294637 0.6123329699 -0.5343302739 0.5827001737 6.813113134e-42
0.04966905556 0.002294645556 -0.3076712222 0.3147362525 -0.4901015607 0.8128601057 1.075916961e-41
0.0436096 0.005456925 -0.301025 0.6415803173 -0.4693316146 0.6067145391 7.889310354e-42
0.046051 0.00585175 -0.302979 0.5460499677 -0.4845681535 0.6833909111 8.606775168e-42
0.04945543333 0.005340998889 -0.3059351111 0.4126024733 -0.4570658133 0.7879403793 9.682972388e-42
-0.0510254 0.00478935 -0.303955 0.462288177 0.2513894004 -0.8503487583 8.965507575e-42
-0.03841143333 0.004566196667 -0.2974446667 -0.5387778299 -0.5909831961 0.6003809723 7.17184554e-42
-0.01562806 0.004195402 -0.279053 -0.2428841618 -0.6833340459 0.6885215071 4.301986285e-42
0.013003 0.00425466 -0.276855 0.2865506225 -0.671372471 0.6834820743 3.584521472e-42
0.025472 0.004365283333 -0.2842613333 0.5009683352 -0.5561191165 0.6631457271 5.378183506e-42
-0.0137787 0.00406265 -0.279053 -0.2525064343 -0.7203600007 0.6460046208 4.301986285e-42
0.0302277 0.00421143 -0.289063 0.5605402705 -0.5966888331 0.5742447576 6.09564832e-42
0.049751275 0.0039281825 -0.307129 -0.3327290392 0.4879720155 -0.8069539631 1.00417048e-41
0.05161132 0.004183196 -0.307129 -0.2989640499 0.486034148 -0.821213312 1.00417048e-41
-0.0517578 0.00370979 -0.303955 0.4486602398 0.23988738 -0.8609053572 8.965507575e-42
-0.04967246667 0.002978643333 -0.302979 -0.4364550889 -0.2655750831 0.8596376158 8.606775168e-42
-0.04780274 0.002616503 -0.3026859 0.3751027889 0.3366653117 -0.8636864973 8.606775168e-42
-0.03249103333 0.003316243333 -0.2906903333 0.6222142293 0.5677734531 -0.5389645246 4.182875916e-42
-0.03056642 0.002978516 -0.289063 -0.557881634 -0.5467561938 0.6243602702 4.947984878e-42
0.0422946 -0.00273956 -0.3075726364 0.2048148751 -0.5887125795 0.7819644274 1.04004372e-41
-0.02783356 0.002485847 -0.2876952 -0.4520001945 -0.574539726 0.6823488312 6.09564832e-42
0.03952026667 -0.00426865 -0.308105 -0.2092242577 0.6469648822 -0.7332541518 1.075916961e-41
-0.02503411818 0.002804237273 -0.2852673636 -0.4688349852 -0.6228445572 0.6263053682 5.736915913e-42
-1.112646667e-05 0.003148396667 -0.275879 -0.04802268593 -0.6952255257 0.7171856733 3.225789065e-42
-0.02296787778 0.002197264444 -0.2844783333 -0.4977487958 -0.6171516862 0.6094012902 5.378183506e-42
-0.01776885 0.00284218875 -0.28076175 -0.222432788 -0.6348855524 0.7398945804 4.660718692e-42
-0.0419617 0.00082016 -0.301025 0.3395403839 0.4004960823 -0.8510671042 7.889310354e-42
0.03732297143 0.002318791429 -0.2973981429 0.5678034955 -0.6417807905 0.5154770678 7.17184554e-42
-0.01290741333 0.002353286667 -0.2801595333 -0.2349584233 -0.6695496639 0.7046259907 4.660718692e-42
-0.0117569 0.00339127 -0.278076 -0.2971991771 -0.7173177695 0.6301808206 3.943253879e-42
-0.0100974925 0.0032238975 -0.27777075 -0.3214197404 -0.6940954965 0.6441434562 3.943253879e-42
-0.007920457 0.002397919 -0.2774655 -0.2444850865 -0.6837695 0.6875218639 3.943253879e-42
-0.007421495 0.00336647 -0.275879 -0.2209295817 -0.6727847383 0.7060813097 3.225789065e-42
0.002381205 0.00303364 -0.2753905 -0.02146692706 -0.6612602584 0.749849346 2.867056658e-42
0.009757229 0.002593996 -0.2773434 0.2199303483 -0.6972117646 0.6822949488 3.943253879e-42
0.0147289 0.002324885455 -0.2795854545 0.3449914917 -0.6349896003 0.6912084188 4.301986285e-42
0.01695721538 0.002652388462 -0.2804049231 0.3510020374 -0.6266490405 0.6957790955 4.660718692e-42
0.02206726 0.003181456 -0.2827636 0.4004131707 -0.5659467583 0.7206757659 5.019451099e-42
0.0235596 0.0034523 -0.282959 0.446250956 -0.5452929811 0.7095883659 5.019451099e-42
0.02476172857 0.002465112143 -0.2851215 0.5164891442 -0.5555324561 0.6516307652 5.378183506e-42
0.02674866667 0.003262836667 -0.285889 0.5854947796 -0.5567825179 0.5892275373 5.736915913e-42
0.02970038889 0.002466095556 -0.2898223333 0.5481108972 -0.6088492066 0.5734780623 6.09564832e-42
0.03163146 0.003269576 -0.2906252 0.5361324287 -0.5909841743 0.6027434982 6.454380727e-42
0.0416565 0.00343132 -0.3006996667 0.603064005 -0.5652407746 0.5628647018 7.889310354e-42
0.04497739091 0.002537554545 -0.3051091818 0.5256856833 -0.5217910434 0.671854649 9.324239982e-42
0.007000351 0.002068902 -0.2774655 0.2449814086 -0.6327624321 0.7345718576 3.943253879e-42
0.0513916 0.0024812225 -0.308105 -0.2768030021 0.4741183907 -0.8358180721 8.159760958e-42
-0.01810075 0.001603125 -0.281982 -0.3054267204 -0.5850594605 0.7512788738 5.019451099e-42
0.00239396 0.00173807 -0.276855 -0.03344998767 -0.621465887 0.7827268039 3.584521472e-42
0.00469208 0.00173807 -0.276855 0.1171190078 -0.6294792936 0.7681399332 3.584521472e-42
0.02797443333 0.001701353333 -0.2893883333 0.5719552816 -0.5898951901 0.5699919479 6.09564832e-42
0.043335 0.001908305 -0.303955 0.5377481099 -0.5810649669 0.6108931777 8.965507575e-42
-0.0435486 0.00153828 -0.302002 -0.3107650535 -0.418219837 0.8535322193 8.248042761e-42
-0.00796814 0.00036354046 -0.2792482 0.312518802 0.6808325118 -0.662419119 4.301986285e-42
-0.0214233 0.00144672 -0.283936 0.4630908637 0.6131464157 -0.6399986913 5.378183506e-42
0.009681705 0.00142097 -0.279053 0.2263703008 -0.6941789517 0.6832803743 4.301986285e-42
-0.04284671667 -1.232816667e-05 -0.3021648333 0.3035078735 0.3872103292 -0.8706038891 8.248042761e-42
-0.03582765 0.0004581215 -0.2976075 0.6702673329 0.430673873 -0.6043688588 7.530577947e-42
-0.0342407 0.000806332 -0.296143 0.7135082366 0.4819410832 -0.5085654222 7.17184554e-42
-0.03193665 0.00027684825 -0.2924805 0.6750647084 0.5138974883 -0.5293363874 6.813113134e-42
-0.03014626667 0.0001027515556 -0.2902562222 0.56869318 0.4949283398 -0.6569885886 6.09564832e-42
-0.02536427273 0.0001638043636 -0.2878195455 0.4414987537 0.5644864686 -0.697448118 6.09564832e-42
-0.022911075 0.0006090255 -0.28564475 0.4965161828 0.584686608 -0.6415709241 5.736915913e-42
0.036483775 -0.001505615 -0.3024905 0.4836922879 -0.7401662359 0.4671142407 8.606775168e-42
-0.01998396667 0.0007700923333 -0.2826333333 0.3944354892 0.6139788942 -0.6837035632 5.019451099e-42
0.0313721 -0.00415802 -0.300049 0.572526275 -0.6903284902 0.4423349861 7.530577947e-42
-0.017875675 0.000183202625 -0.282348375 0.2533766884 0.6130899012 -0.7482787093 5.019451099e-42
-0.0054979325 0.000757217 -0.278076 -0.05151649874 -0.7305884946 0.6808718689 3.943253879e-42
-0.002477541111 -4.998794444e-05 -0.2798123333 0.03144220381 0.6853560223 -0.7275290444 4.301986285e-42
0.00042760395 0.000757217 -0.278076 -0.1848012617 -0.6484700342 0.7384680822 3.943253879e-42
0.002310492727 -2.171755455e-05 -0.277743 -0.1380691623 -0.5902632226 0.7953151793 3.943253879e-42
0.004441072 -0.0002968465867 -0.2778318 0.1382444216 -0.5939205214 0.7925571867 3.943253879e-42
0.007315550909 -0.0003223741182 -0.2793192727 -0.3488888694 0.5831523143 -0.7336279269 4.301986285e-42
0.009657295333 -0.0001673374667 -0.2802245333 -0.2100387334 0.6810160888 -0.7014989788 4.301986285e-42
0.01437462222 0.0001736747556 -0.281006 0.2727597743 -0.6758388614 0.6847217968 4.660718692e-42
0.01708843636 0.0001609490909 -0.2826925455 0.3718860907 -0.555042907 0.7440618973 5.019451099e-42
0.0188751 0.00043574 -0.282959 0.3774528153 -0.5453757604 0.7483947168 5.019451099e-42
0.02405092 0.000236416 -0.2854982 0.5014108194 -0.5688079934 0.6519544898 5.736915913e-42
0.0260315 0.000784397 -0.288086 0.6102469307 -0.5728952535 0.5471651598 6.09564832e-42
0.02724455 0.0001029252 -0.2900393 0.5825430173 -0.5865420243 0.5626829362 6.09564832e-42
0.0313416 0.000798225 -0.292969 0.534105547 -0.6342567537 0.5589719448 6.813113134e-42
0.03395586667 0.0005716286667 -0.295736 0.5456485431 -0.6883462905 0.4779613497 7.17184554e-42
0.034812925 0.0001050235 -0.2976075 0.5332593451 -0.7038693581 0.4692572829 7.530577947e-42
0.0361023 0.000812054 -0.298096 0.5212391861 -0.7160781667 0.4642647629 7.530577947e-42
