# .PCD v0.7 - Point Cloud Data file format
VERSION 0.7
FIELDS x y z normal_x normal_y normal_z rgb
SIZE 4 4 4 4 4 4 4
TYPE F F F F F F F
COUNT 1 1 1 1 1 1 1
WIDTH 597
HEIGHT 1
VIEWPOINT 0 0 0 1 0 0 0
POINTS 597
DATA ascii
0.184082 -0.0917969 -0.210815 -0.3504865 0.7862745 0.3108465 2.889841771e-39
-0.02667235 -0.033287075 -0.253906 0 0 1 1.805592689e-38
-0.0314636375 -0.005621433125 -0.253784 -0.3575325625 -0.0682855625 0.872444375 1.805592689e-38
-0.3395385 0.24688725 -0.470215 0.536561 0.578761 0.60782425 1.458853296e-38
-0.33636475 0.24945075 -0.475342 0.66755825 0.56945675 0.47448925 1.458853296e-38
-0.335083 0.256348 -0.4873045 0.4485425 0.1725165 0.138013 1.458853296e-38
0.44812 -0.1678465 -0.515625 -0.093144 -0.353854 0.92064325 2.019073364e-38
-0.02407455 0.006652832 -0.251953 0 0 1 1.805592689e-38
0.447998 -0.175171 -0.517578 0 0 0 2.019073364e-38
0.00825691125 0.02942656875 -0.25531 0.0675505625 0.283819875 0.896708 1.805592689e-38
0.202271 -0.05649823333 -0.2071126667 -0.5565706667 0.231175 0.3406253333 2.889841771e-39
-0.02912031786 -0.1234957857 -0.22351075 -0.01530189286 0.4222498571 0.7420671429 1.362886771e-38
-0.036610925 -0.0185636 -0.25813825 -0.654556 -0.1946550833 0.7137819167 1.805592689e-38
0.03538259167 0.011516575 -0.2572430833 0.06172916667 -0.4265945 0.819445 1.805592689e-38
0.07879278235 -0.07805678824 -0.237915 0 0.04301582353 0.9812994118 0
0.1865984615 -0.1105767692 -0.20874 -0.3440929231 -0.09373576923 0.7015954615 2.889841771e-39
-0.3396 0.245483 -0.46875 0.42467 0.471855 0.772663 1.458853296e-38
-0.3372393333 0.2458493333 -0.470703 0.400041 0.3876256667 0.809846 1.458853296e-38
-0.334839 0.2490235 -0.47753925 0.85458125 0.4100625 0.258206375 1.458853296e-38
0.229614 -0.0397339 -0.266846 -0.722728 0.688312 -0.0623783 2.346363015e-38
0.2098085 -0.081085225 -0.265625 -0.858101 0.03516425 -0.3016583575 2.346363015e-38
-0.334595 0.253174 -0.4832765 0.7855295 0.467494 0.3962285 1.458853296e-38
0.1863511765 -0.1156507647 -0.2106858235 -0.4045346471 -0.09363088235 0.6787853529 2.889841771e-39
0.409424 -0.229126 -0.493896 -0.836452 0.393624 -0.381324 1.170884499e-38
0.395752 -0.2284545 -0.465088 -0.05110325 -0.541648 0.83695025 1.170884499e-38
0.210798 -0.08587648571 -0.2751811429 -0.7590941429 0.5527567143 -0.0834568 2.346363015e-38
0.1982248571 -0.07078624286 -0.204712 -0.1415455714 -0.02880885714 0.8865284762 2.889841771e-39
-0.0017069324 0.02434847 -0.25288115 -0.0066838 0.21447635 0.9235362 1.805592689e-38
0.202271 -0.0574646 -0.206787 -0.850258 0.350258 0.068106 2.889841771e-39
-0.338135 0.244995 -0.469727 0.60467 0.583075 0.542584 1.458853296e-38
-0.334717 0.24646 -0.473633 0.744855 0.51048 0.386929 1.458853296e-38
-0.3342286667 0.2467856667 -0.4755046667 0.7872093333 0.5399456667 0.295553 1.458853296e-38
-0.3367513333 0.236776 -0.4652506667 0.1797213333 0.1797213333 0.548999 1.458853296e-38
0.02103997083 -0.1258977917 -0.220825 0 0 1 1.403918612e-38
0.00820732 0.01662825 -0.253906 0.0157998125 -0.016002375 0.995814125 1.805592689e-38
-0.338501 0.2420045 -0.467285 0.4980855 0.540279 0.667114 1.458853296e-38
0.1838268182 -0.108171 -0.211792 0 0 1 2.889841771e-39
-0.0069074625 0.0323486 -0.256836 -0.101532 0.56655075 0.7912935 1.805592689e-38
0.472168 -0.126587 -0.529785 -0.933834 -0.350188 0.0729558 0
0.2203776667 -0.05776976667 -0.2787273333 -0.749613 0.5711586667 -0.307913 2.346363015e-38
-0.0499878 -0.107178 -0.229858 -0.424843 0.826084 0.370262 1.362886771e-38
-0.336182 0.244873 -0.47168 0.613121 0.306561 0.728082 1.458853296e-38
-0.334595 0.2443643333 -0.4724935 0.8062005 0.1442588333 0.5102993333 1.458853296e-38
-0.334229 0.25 -0.481689 0.66806 0.534448 0.517746 1.458853296e-38
-0.333008 0.252686 -0.486816 0 0 0 1.458853296e-38
-0.33374 0.251831 -0.4853515 0 0 0 1.458853296e-38
-0.0218506125 -0.03086471875 -0.253784 0.20209775 -0.0459559375 0.9136699375 1.805592689e-38
0.02570498 -0.12594 -0.220825 0 0 1 1.403918612e-38
-0.3341065 0.23938 -0.469727 0.5582555 0.2021855 0.748787 1.458853296e-38
0.402893 -0.2161255 -0.47998025 -0.41715175 -0.529271 0.666998 1.170884499e-38
-0.33593725 0.2422485 -0.469971 0.6367335 0.37015525 0.6578385 1.458853296e-38
-0.33374 0.245361 -0.474854 0.8252 0.438069 0.356568 1.458853296e-38
-0.187744 -0.139038 -0.247925 0 0.830907 0.556411 0
0.474121 -0.132324 -0.538086 -0.936677 -0.324715 -0.131135 0
0.206543 -0.1102295 -0.260986 0 0 1 2.346363015e-38
0.2124566667 -0.06854926667 -0.2530384444 -0.3311895556 -0.1442871111 0.7288870778 2.346363015e-38
-0.338135 0.23999 -0.466797 0.301925 0.335472 0.892356 1.458853296e-38
-0.3362792 0.2392578 -0.4673826 0.584635 0.3448072 0.7232116 1.458853296e-38
0.1907958333 -0.08062744 -0.207764 -0.0148148 0.0148148 0.9925926 2.889841771e-39
-0.334961 0.242676 -0.47168 0.810974 0.219182 0.542476 1.458853296e-38
-0.0329895 -0.013442975 -0.253906 -0.588541 0 0.80846725 1.805592689e-38
-0.0264930875 -0.121513375 -0.223755 -0.227611375 0.457486625 0.719573125 1.362886771e-38
0.008409024375 0.03674316875 -0.260193 -0.0071574375 0.415377125 0.8503406875 1.805592689e-38
0.05577235161 -0.1007277355 -0.228035129 -0.0941813871 0.3185559677 0.8070175806 1.403918612e-38
0.1956154828 -0.05077072759 -0.2123647241 -0.1643183793 0.2884892759 0.760951069 2.889841771e-39
0.04584064643 -0.1132682857 -0.2250631429 -0.005206928571 0.2542725714 0.8484398214 1.403918612e-38
0.023429875 0.01251605 -0.255859 0.08299675 -0.324338125 0.880316375 1.805592689e-38
-0.337402 0.238403 -0.465576 0.497389 0.552655 0.668712 1.458853296e-38
-0.334473 0.240723 -0.470215 0.5769725 0.545343 0.6043955 1.458853296e-38
0.4052735 -0.2208865 -0.479736 -0.61333425 0.0675195 0.73065225 1.170884499e-38
-0.006721496 -0.12594 -0.220825 -0.05878092 0.00301264 0.97974836 1.362886771e-38
0.223327625 -0.04800415 -0.265381 -0.77719125 0.5759075 -0.1464272625 2.346363015e-38
0.18629884 -0.078459476 -0.21028796 -0.75512488 0.20298532 0.211686776 2.889841771e-39
0.463501 -0.154907 -0.527832 0 0.842417 0.5344105 2.019073364e-38
-0.007056427333 -0.008249154667 -0.2602702667 0.4609918667 -0.1070299333 0.7933722667 1.805592689e-38
-0.014127725 -0.0183582375 -0.255371 0.3226895 0 0.881928625 1.805592689e-38
0.2201934706 -0.05060532941 -0.2579275294 -0.7519052353 0.48551 0.06923773529 2.346363015e-38
0.237960875 -0.0330963125 -0.258789 0 0 0.75 2.346363015e-38
0.03744505 -0.111755 -0.223755 0.5492355 0.1411195 0.810593 1.403918612e-38
0.453695 -0.154012 -0.530762 -0.082736 0.07521433333 0.980687 2.019073364e-38
0.403809 -0.235352 -0.489746 0 0 0 1.170884499e-38
-0.01934336875 -0.0008077999 -0.2525025625 0.325752625 -0.2037855 0.8675269375 1.805592689e-38
0.2089317143 -0.09787424286 -0.2680664286 -0.9880764286 0 -0.1527331429 2.346363015e-38
0.008261203125 0.0118913625 -0.255432 0.12794075 -0.3290821875 0.875724375 1.805592689e-38
0.209147 -0.086853 -0.272624 -0.3898156667 0.8365496667 0.0392022 2.346363015e-38
-0.028951675 0.001586795563 -0.252807875 -0.2160905 0.0675655625 0.92297675 1.805592689e-38
0.4764405 -0.132935 -0.5351565 -0.2743595 -0.928532 0.2297535 0
0.2507528333 -0.02253213333 -0.262939 0 0 1 2.346363015e-38
-0.004258204211 0.03647013158 -0.2583266842 -0.08082257895 0.3393146316 0.872244 1.805592689e-38
-0.04233806667 -0.1252033333 -0.224854 -0.4900163 0.4643383333 0.5766253333 1.362886771e-38
-0.0295003 -0.0400696 -0.254883 -0.1749676667 0 0.9490881667 1.805592689e-38
0.2242125 -0.04676055 -0.2681885 -0.83308875 0.4388345 -0.05644795 2.346363015e-38
-0.014946 -0.0414124 -0.253906 0 0 0 1.805592689e-38
-0.01673584 -0.0056194305 -0.2537108 0.307065 -0.01280195 0.8870612 1.805592689e-38
-0.02169035 0.01172445 -0.251953 0 0 1 1.805592689e-38
0.2201743333 -0.05080158333 -0.260498 -0.833724 0.3531638333 -0.10121565 2.346363015e-38
0.209106 -0.0827637 -0.264893 0 0 0 2.346363015e-38
0.237183 -0.0288493 -0.26001 -0.9866826667 0 0.1151203333 2.346363015e-38
0.026001925 0.03148651875 -0.2572634375 0.0287743125 0.297818625 0.9030775 1.805592689e-38
0.206726 -0.100204625 -0.27319325 0 0 0.75 2.346363015e-38
0.0059413925 0.00563431 -0.26001 0 -0.879262 0.476339 1.805592689e-38
0.1862646 -0.11319832 -0.21024404 -0.486153 -0.13536384 0.5960804 2.889841771e-39
-0.01665346 0.00397749 -0.2525392 0.3095939 -0.0482349 0.88459995 1.805592689e-38
-0.01233675 -0.0135498 -0.255859 0.320934375 0 0.883407 1.805592689e-38
0.1840443846 -0.1003935385 -0.2104771538 -0.3313159231 -0.1275119231 0.5647449385 2.889841771e-39
0.1835675714 -0.09096416429 -0.211792 -0.02661228571 0.02661228571 0.8464235714 2.889841771e-39
0.210205 -0.080932625 -0.270508 -0.931915375 -0.2944865 -0.0388765875 2.346363015e-38
0.0330767 0.02096555714 -0.253906 0.2096265714 0.2559642857 0.8801744286 1.805592689e-38
-0.007516648889 -0.01800537778 -0.2605522222 0.8039522222 -0.06587522222 0.5454827778 1.805592689e-38
-0.0539856 -0.119751 -0.223755 0.970142 0 0.242536 1.362886771e-38
0.033100125 0.026450175 -0.255737 0.1691535 0.1337249375 0.923412 1.805592689e-38
0.01001356 0.0259552 -0.253906 0.1626545 0.623815 0.744216 1.805592689e-38
0.2058838 -0.08891604 -0.27002 -0.4565226 0.7868278 0.268821 2.346363015e-38
-0.001354906333 0.001127031333 -0.261963 0.07434588889 -0.2812615556 0.8990366667 1.805592689e-38
-0.0826416 -0.0979004 -0.229858 0 0 0 0
0.2079104 -0.0932251 -0.2650882 -0.9423026 -0.1708596 -0.18458488 2.346363015e-38
-0.02437 -0.04000177778 -0.253906 0 0 1 1.805592689e-38
0.0185051 0.02726236667 -0.254883 0 0.199003 0.93407775 1.805592689e-38
0.0256424 0.0351868 -0.26001 0 0.66436475 0.74740725 1.805592689e-38
-0.02407455 -0.008262634 -0.251953 -0.082301 -0.0110753 0.97332295 1.805592689e-38
-0.04356893333 -0.1243286667 -0.223755 -0.3213503333 0.769292 0.442019 1.362886771e-38
0.4560545 -0.1513675 -0.530762 -0.070207 0.15292875 0.9650435 2.019073364e-38
0.191406 -0.08813476 -0.205688 -0.4677783 0.1596674 0.5005983 2.889841771e-39
-0.0217743 -0.015783325 -0.25293 0 0 1 1.805592689e-38
-0.05122512727 -0.1205721818 -0.2254750909 0.184081 0 0.9263661818 1.362886771e-38
-0.0173492 -0.0362854 -0.253906 0.6278525 0.1204985 0.7417625 1.805592689e-38
0.404785 -0.218567 -0.479736 -0.807243 -0.1582565 0.5682285 1.170884499e-38
0.01571415625 0.02718734375 -0.254883 -0.0416375625 0.191188375 0.9343515 1.805592689e-38
-0.0376282 -0.0105590875 -0.256836 -0.76269775 0 0.63981425 1.805592689e-38
0.449219 -0.158936 -0.520996 -0.676283 0.676283 -0.292031 2.019073364e-38
-0.01413597222 0.01886749444 -0.2526043333 0.050125 0.4390347778 0.8387725556 1.805592689e-38
0.2158815 -0.06350705 -0.27002 -0.355638 0.3237895 -0.1366815 2.346363015e-38
0.2117106667 -0.06807453333 -0.2535806667 -0.945997 -0.1057735 0.05502325 2.346363015e-38
-0.011704925 0.02942656875 -0.25531 -0.080802375 0.3033190625 0.896956125 1.805592689e-38
-0.02424862632 -0.1210905789 -0.223755 -0.048054 0.2394439474 0.8485719474 1.362886771e-38
0.4506835 -0.157593 -0.520508 -0.2836925 0.9381365 0.03594905 2.019073364e-38
-0.00580025 -0.0157299 -0.261963 0.426052375 -0.112956875 0.850768125 1.805592689e-38
0.480713 -0.143148 -0.541992 0.1704603333 0.2370836667 0.955732 0
-0.0491272 -0.120813 -0.22583 0 0 1 1.362886771e-38
0.008110471667 0.02152674444 -0.2529842222 0.1133105556 0.1133127778 0.9317364444 1.805592689e-38
0.048646545 -0.10850215 -0.226807 0.12792505 0.00305915 0.92603635 1.403918612e-38
0.44592275 -0.17321775 -0.5180665 -0.3977185 0.32115825 0.765351 2.019073364e-38
-0.00420459 -0.0006839135417 -0.2623696667 0.5290018333 -0.3698494167 0.7058901667 1.805592689e-38
0.4055175 -0.2158815 -0.47876 -0.0865375 -0.04807625 0.97956475 1.170884499e-38
0.189453 -0.06640625 -0.20874 -0.842492 0.3452255 0.160096 2.889841771e-39
0.03336334167 0.0192871 -0.253906 0.1438444167 -0.1880385833 0.9026038333 1.805592689e-38
-0.07152448571 -0.09781321429 -0.231812 -0.03542714286 0.2208848571 0.9010816429 0
-0.004546575714 -0.02319337143 -0.2636368571 0.3513732857 -0.1112288571 0.8419988571 1.805592689e-38
0.120239 -0.154114 -0.347168 0 0.2128985 0.9524095 0
0.02060319167 0.033762625 -0.2583823333 -0.0130955 0.5770174167 0.777433 1.805592689e-38
0.01828003333 0.0023791 -0.2632646667 0 -0.4459643333 0.79725 1.805592689e-38
-0.007516648889 -0.0205434 -0.2605522222 0.7766132222 -0.025976 0.6021721111 1.805592689e-38
0.02079208947 0.0240856 -0.253906 0.05493342105 0.08327147368 0.9617090526 1.805592689e-38
-0.0360565 0.00622892375 -0.255859 -0.4107755 0.192448125 0.861306 1.805592689e-38
0.2257302727 -0.04626188182 -0.2538172727 -0.1416911818 0.4138989091 0.7516843636 2.346363015e-38
-0.01421496364 -0.1273523636 -0.2219794545 -0.1624482727 0.01247427273 0.9077307273 1.362886771e-38
0.218628 -0.06092835 -0.280029 -0.7172675 0.652859 -0.2423985 2.346363015e-38
-0.03339303333 0.003899043333 -0.253906 -0.2762372222 0.143593 0.9031893333 1.805592689e-38
0.406494 -0.229004 -0.48877 -0.811936 0.310654 -0.494222 1.170884499e-38
-0.0332336 -0.0383911 -0.255859 -0.579524 0 0.814955 1.805592689e-38
-0.02669084211 -0.1205316316 -0.224854 -0.1610634211 0.2555037895 0.8504608421 1.362886771e-38
0.216064 -0.0548096 -0.251953 0 0 0 2.346363015e-38
-0.005755835714 -0.003186361429 -0.261963 0.3492342857 -0.01370857143 0.858894 1.805592689e-38
0.229309 -0.0467377 -0.2824705 -0.597739 0.72793 -0.3316185 2.346363015e-38
-0.00828552 -0.12439 -0.220825 -0.676488 0 0.736453 1.362886771e-38
0.0284958 -0.1243085 -0.220825 -0.1536531667 0.7550403333 0.5339141667 1.403918612e-38
0.2224852 -0.05272216 -0.2706056 -0.7200918 0.5101008 0.204737 2.346363015e-38
0.2009033333 -0.05845236667 -0.207601 -0.4495575667 0.3842202667 0.3318650667 2.889841771e-39
-0.02665995 0.0166187125 -0.253784 -0.2118444375 0.2134349375 0.899676125 1.805592689e-38
0.22406 -0.0441589 -0.255859 -0.3065605 0.649243 0.6131805 2.346363015e-38
-0.028938325 -0.0008078743875 -0.25268575 -0.3027284375 0.041316125 0.8976048125 1.805592689e-38
-0.02653215 0.011754975 -0.252563625 -0.2681056875 0.2301961875 0.898651875 1.805592689e-38
0.19574 -0.0615348625 -0.209717 -0.100538 0.154365875 0.654991375 2.889841771e-39
-0.0305786 0.01151786667 -0.253906 -0.5298046667 0.135375 0.81013 1.805592689e-38
-0.01655461538 0.02108059231 -0.2537558462 0.06958084615 0.4638843077 0.8270906923 1.805592689e-38
0.216919 -0.05906675 -0.27002 -0.924694 0.1638515 -0.3409455 2.346363015e-38
-0.01233675 -0.008091925 -0.255859 0.433064375 -0.0314655 0.845821375 1.805592689e-38
0.003345343077 0.001813595231 -0.2624885385 0.1964492308 -0.4636911538 0.7863134615 1.805592689e-38
0.118439 -0.15509 -0.345703 0.497534 0.5890745 0.605222 0
0.120667 -0.15979 -0.346191 0 0 0 0
-0.00692296 0.03394318125 -0.2573855625 -0.017936125 0.3082485 0.890087 1.805592689e-38
0.02094078125 0.014293675 -0.255127 0.068374875 -0.31065025 0.8826071875 1.805592689e-38
-0.00852966 -0.0291519 -0.26001 0.593095 -0.2362115 0.722225 1.805592689e-38
0.02594661875 0.004140375625 -0.26300025 -0.0315255 -0.5742581875 0.783886625 1.805592689e-38
-0.0838623 -0.0994263 -0.22583 0.706055 0.706055 -0.0545116 0
-0.03434626667 -0.1159208333 -0.226807 -0.199607375 0.095273875 0.91908425 1.362886771e-38
0.187134 -0.120992 -0.211792 -0.9098963333 -0.1437436667 0.2685463333 2.889841771e-39
-0.01170254375 0.001602532 -0.25531 0.4796425 -0.118199625 0.825071375 1.805592689e-38
0.01317595 0.010437 -0.256836 0 -0.6389965 0.7692095 1.805592689e-38
0.023246775 0.0214386 -0.253906 0 0 1 1.805592689e-38
0.217651 -0.0622559 -0.280029 0 0 0 2.346363015e-38
0.1837245714 -0.08557562857 -0.210815 -0.09137635714 -0.06587864286 0.943075 2.889841771e-39
0.2078601053 -0.08593428947 -0.2577097895 -0.7873173158 -0.03946115789 0.3548044316 2.346363015e-38
0.187378 -0.09134926667 -0.209717 -0.8635253333 -0.2622926667 0.2815723333 2.889841771e-39
0.0181656 0.03378296667 -0.258545 -0.08959833333 0.55705775 0.79878 1.805592689e-38
-0.0067763325 0.016503325 -0.252075125 0.01320875 -0.23141625 0.8946421875 1.805592689e-38
0.06025186667 -0.10334775 -0.226807 0 0 1 1.403918612e-38
-0.01909835556 -0.120827037 -0.2235017037 -0.179838963 0.2785127778 0.8408844815 1.362886771e-38
0.216553 -0.0633545 -0.258789 -0.8898105 0 0.3373163 2.346363015e-38
-0.00487137 -0.00921631 -0.261963 0 0 0 1.805592689e-38
0.1836876154 -0.09547308462 -0.2107305385 -0.1972529231 0.1490636154 0.7462332308 2.889841771e-39
0.408447 -0.226685 -0.493896 -0.931942 -0.248518 -0.26405 1.170884499e-38
0.221558 -0.0489197 -0.261963 -0.704361 0.704361 -0.0880451 2.346363015e-38
0.21167 -0.074707 -0.258789 -0.998752 0 0.0499376 2.346363015e-38
-0.001585145 0.002300531429 -0.260986 0.1312478571 -0.3977694286 0.8605297143 1.805592689e-38
0.0182991 0.036197675 -0.26062 0.113639875 0.655355875 0.72806575 1.805592689e-38
0.0007914709333 0.0125173 -0.253906 0.1154631667 -0.4387738333 0.834404 1.805592689e-38
-0.029026025 -0.0233185 -0.253418 -0.3014553 0.03422585 0.89827905 1.805592689e-38
0.1901855 -0.120056 -0.20874 -0.3179715 -0.3179715 0.7186055 2.889841771e-39
-0.01608884 -0.03594972 -0.254883 0.121917 0.0361861 0.9449942 1.805592689e-38
0.0033881675 0.01657774375 -0.253174 0.2009529375 -0.2828520625 0.88531575 1.805592689e-38
0.0281887125 0.0263796 -0.255066 -0.0290875 0.256159 0.913474 1.805592689e-38
-0.01649635789 -0.02330099474 -0.253906 0.1727337368 -0.03536331579 0.9351935263 1.805592689e-38
0.391846 -0.228149 -0.465576 -0.260595 -0.550145 0.793367 1.170884499e-38
0.02099375385 0.03168193846 -0.2571366154 0.04076884615 0.5344794615 0.8205624615 1.805592689e-38
0.396484 -0.224365 -0.4646 -0.23804 0.964688 0.112756 1.170884499e-38
-0.0802002 -0.09719845 -0.2353515 -0.502814 0.8003905 0.316452 0
-0.014101025 0.02394105 -0.254883 -0.0153836875 0.081404125 0.9766445 1.805592689e-38
-0.006836786667 -0.01311534444 -0.2607691111 0.4473366667 -0.03955955556 0.8131473333 1.805592689e-38
0.2088485556 -0.08056642222 -0.2604437778 -0.7411624444 0.3312536667 -0.02241744444 2.346363015e-38
0.209229 -0.086853 -0.27002 -0.822434 0.498445 -0.274145 2.346363015e-38
-0.0682373 -0.0966797 -0.230835 -0.752577 0 0.658505 0
-0.0335388 0.01879885 -0.256836 0 0 1 1.805592689e-38
0.03099411538 0.02123083846 -0.253906 0.05463184615 0.1638109231 0.9375812308 1.805592689e-38
0.4658203333 -0.151062 -0.529785 0.1278123333 0.06369083333 0.9751738333 2.019073364e-38
-0.0156097 -0.0162099 -0.254883 0.5780613333 -0.1436443333 0.7699716667 1.805592689e-38
-0.009434304286 0.03126745714 -0.255859 -0.03466814286 0.50931 0.8044088571 1.805592689e-38
0.199951 -0.0828247 -0.204712 0 0 0.75 2.889841771e-39
0.02925875 0.0175323 -0.253906 -0.1803265 -0.6931825 0.6673855 1.805592689e-38
0.2207391176 -0.05065737647 -0.2505244706 -0.1689641765 0.6309687059 0.6497722353 2.346363015e-38
-0.01116945 -0.01329802 -0.256836 0.639124 0 0.7690982 1.805592689e-38
0.1932576667 -0.1008301 -0.205688 -0.02353343333 -0.0215723 0.9762543667 2.889841771e-39
0.004109385 0.0384216 -0.260986 0 0 1 1.805592689e-38
-0.00987243 0.02454375 -0.254883 -0.27051725 0 0.91812225 1.805592689e-38
-0.079376225 -0.097564725 -0.23257475 -0.1281605 0.91868225 0.209738375 0
0.1980092727 -0.1108843636 -0.2048894545 0.07681045455 -0.2169099091 0.9360480909 2.889841771e-39
0.393457 -0.2334474 -0.4683592 -0.01300144 -0.5378528 0.823819 1.170884499e-38
0.2217613333 -0.0510864 -0.2655436667 -0.8268846667 0.31607 -0.3471296667 2.346363015e-38
0.215088 -0.0651245 -0.281006 0 0 0 2.346363015e-38
0.2304874615 -0.03797091538 -0.2627891538 -0.6510706923 0.6829886154 -0.09018859231 2.346363015e-38
0.05845086818 -0.09839143182 -0.2283824545 -0.2385528636 0.2895007727 0.7947950909 1.403918612e-38
0.493164 -0.147583 -0.566895 0 0 0 0
0.2168376667 -0.06384276667 -0.2736003333 -0.8738703333 0.3588023333 -0.02075516667 2.346363015e-38
0.02810770667 0.01663308 -0.254883 -0.0536822 -0.07036693333 0.9624184 1.805592689e-38
-0.014127725 -0.038316725 -0.255371 0.3126614375 0.1561510625 0.8469041875 1.805592689e-38
0.2358973529 -0.03096636471 -0.2604692941 -0.6760526471 0.2961051765 0.3466376353 2.346363015e-38
0.2280408889 -0.04078504444 -0.2654352222 -0.7389123333 0.6292347778 -0.1258561111 2.346363015e-38
0.4060058 -0.2232912 -0.4730468 -0.4137032 0.6776662 0.4614258 1.170884499e-38
0.204956 -0.0317688 -0.211792 0 0 1 2.889841771e-39
0.4508055 -0.165649 -0.514648 0 -0.091454 0.991565 2.019073364e-38
0.44824225 -0.1591185 -0.5151365 -0.0659185 0.6708825 0.62097625 2.019073364e-38
-0.02934266 -0.118393 -0.22583 -0.0157164 0.01527985 0.9949391 1.362886771e-38
0.472412 -0.125977 -0.532715 -0.936173 -0.351065 -0.0182846 0
0.031099325 -0.1237793125 -0.220825 -0.1211354375 0.284612375 0.820653625 1.403918612e-38
-0.02656935 -0.018177025 -0.25293 0 0 1 1.805592689e-38
0.0034647 0.035675 -0.258789 0.089495 0.63751625 0.74117075 1.805592689e-38
-0.07130647143 -0.1026262857 -0.229858 0.2149677143 0.04701614286 0.7399925714 0
0.0307668 0.0175323 -0.253906 0.1411813333 -0.5772796667 0.7711633333 1.805592689e-38
0.195903 -0.1033126486 -0.2052131892 -0.2204792703 0.3006819189 0.7211015108 2.889841771e-39
0.2079671667 -0.0834656 -0.2626138333 -0.387728 0.2130658333 -0.193864 2.346363015e-38
-0.02186205 -0.03990175 -0.253906 0 0 1 1.805592689e-38
0.01581256667 0.006256103333 -0.2603353333 0.01487975 -0.7191525 0.6805356667 1.805592689e-38
0.468872 -0.151245 -0.5302735 0.27546 0.2846765 0.9121525 2.019073364e-38
-0.04924336429 -0.11590775 -0.2271207143 -0.1352500357 0.28945525 0.839162 1.362886771e-38
0.40625 -0.223999 -0.487793 -0.8877015 -0.451993 -0.0605703 1.170884499e-38
0.2332827368 -0.03560116316 -0.2680792632 -0.7476881579 0.4601922632 0.1924181974 2.346363015e-38
-0.08155941154 -0.09829477692 -0.2271543077 0.1385285769 0.3782532692 0.6782448846 0
-0.01403234375 0.0039962525 -0.253723 0.435610125 -0.0712924375 0.834326 1.805592689e-38
0.226929 -0.0476685 -0.280029 0 0 0 2.346363015e-38
0.04580685 -0.110916 -0.22583 0 0 1 1.403918612e-38
0.000987958675 0.01655580625 -0.2528689375 0.10322525 -0.1851856875 0.929506875 1.805592689e-38
0.013072975 0.026962275 -0.254883 0 0.14925275 0.95055825 1.805592689e-38
0.0185051 0.0157928 -0.254883 -0.059558 -0.60894675 0.779969 1.805592689e-38
-0.01379903333 -0.003230095 -0.254883 0.40204525 -0.07870941667 0.8524566667 1.805592689e-38
0.0058019175 0.0166234875 -0.253845 0.11456575 -0.194782 0.92142625 1.805592689e-38
0.4459635 -0.1685993333 -0.5174155 -0.5440023333 -0.4212868333 0.6576615 2.019073364e-38
-0.04150646667 -0.1180573333 -0.226807 0.1878946667 0.3134584167 0.7441115 1.362886771e-38
0.1865506667 -0.118137 -0.210815 -0.4739305556 -0.1252118889 0.6273167778 2.889841771e-39
0.232605 -0.0426636 -0.257813 0 0.1962195 0.959889 2.346363015e-38
0.23407 -0.0342407 -0.258789 -0.306231 0.700285 0.5540725 2.346363015e-38
0.2039998333 -0.100647 -0.25765 -0.6721961667 0.251134 0.0950225 2.346363015e-38
0.1931500357 -0.1107896786 -0.2071010357 -0.4706122143 -0.1416265357 0.5872329357 2.889841771e-39
0.2098593333 -0.07510376667 -0.2652183333 -0.820664 0.4372853333 0.04317328333 2.346363015e-38
-0.1885986667 -0.138733 -0.248901 -0.004998166667 0.4233958333 0.7668336667 0
0.08122668182 -0.07847456364 -0.2353959091 -0.5716397273 0.5103095455 0.3311143091 0
0.1933296585 -0.09084561951 -0.2055213659 -0.2719086829 -0.03915214634 0.7649755512 2.889841771e-39
-0.00487137 -0.00487137 -0.261963 0 0 1 1.805592689e-38
-0.0810547 -0.0975749 -0.2324626667 0 0.3307593333 0.041345 0
0.0797729 -0.0795898 -0.236816 -0.337629 0.934369 0.113852 0
0.2217495714 -0.05633545714 -0.2830985714 -0.730184 0.5220384286 0.3199977143 2.346363015e-38
0.4411623333 -0.1732583333 -0.5206706667 -0.1443826667 0.4089616667 0.481153 2.019073364e-38
0.05121556923 -0.1012526154 -0.227783 0 0.04159676923 0.9877829231 1.403918612e-38
0.045874 -0.115204 -0.224854 0 0.4471953 0.7236172 1.403918612e-38
-0.016644295 0.009352872 -0.25239265 0.27265215 -0.14122975 0.89221015 1.805592689e-38
-0.004197900455 0.009024882273 -0.2553266364 0.1965025455 -0.4581678636 0.8225611364 1.805592689e-38
0.01842881875 0.038940425 -0.262451 0.127145875 0.27144225 0.888710125 1.805592689e-38
0.196655 -0.06572266 -0.205688 -0.4999813 0 0.49806799 2.889841771e-39
-0.01416015263 -0.02824963158 -0.2550884737 0.3006590526 0.03162957895 0.883568 1.805592689e-38
0.020637525 0.00745392 -0.258789 0 -0.71413675 0.7000045 1.805592689e-38
0.008244322 0.03222654 -0.256836 0.037781 0.4576882 0.860701 1.805592689e-38
0.2182545294 -0.05327112941 -0.2483842941 -0.02126035294 0.4631763529 0.7838581765 2.346363015e-38
-0.01927014444 0.02142164444 -0.2536891111 0.03109666667 0.4657794444 0.8376695 1.805592689e-38
-0.006984923333 -0.1232434444 -0.221802 -0.1648647778 0.2397890556 0.7684375 1.362886771e-38
-0.0116892 0.004017235625 -0.255005 0.395333375 -0.113932625 0.8489811875 1.805592689e-38
-0.0142148375 -0.1208318333 -0.222778 0 0 1 1.362886771e-38
-0.00142490775 0.03131105 -0.255859 0 0.294206 0.9042805 1.805592689e-38
-0.0091590775 0.01649665 -0.251953 0.0009735625 0.037238875 0.978564625 1.805592689e-38
0.1882731667 -0.08847046 -0.208252 -0.3427490667 -0.001477366667 0.6783994867 2.889841771e-39
0.021003725 0.02933979375 -0.255859 0.086866 0.2855165625 0.89118275 1.805592689e-38
0.0474091 -0.1066285 -0.22583 0.4415145 0.11772045 0.873235 1.403918612e-38
-0.02407455 -0.01094815 -0.251953 0.0005661875 -0.000559 0.9916865 1.805592689e-38
0.196899 -0.0618286 -0.205688 -0.702247 0.702247 0.117041 2.889841771e-39
-0.0126419 -0.035980225 -0.255859 0.641662 0 0.766987 1.805592689e-38
0.2103358571 -0.07834298571 -0.2580917143 -0.7221839286 0.4356907857 -0.01518960714 2.346363015e-38
-0.001430152 0.00800323 -0.256836 0.154073 -0.6091835 0.7477315 1.805592689e-38
0.477783 -0.144897 -0.541992 -0.4786 0.652637 0.587373 0
-0.01420671053 0.01180386842 -0.2526214737 0.2099548421 -0.2443987368 0.8974681579 1.805592689e-38
0.2223713333 -0.05251056667 -0.268636 -0.920092 0.2736436667 -0.1904306667 2.346363015e-38
0.0034251225 0.009791066667 -0.255859 0 -0.4269355833 0.8453583333 1.805592689e-38
-0.0650635 -0.102417 -0.229858 0 0 1 0
-0.05613593077 -0.1133753077 -0.2274826923 0.4317705385 -0.1843746154 0.7453300769 1.362886771e-38
0.0109062125 0.0384216 -0.260986 0.12469575 0.1209845 0.92976025 1.805592689e-38
0.4508055 -0.161377 -0.514648 0 0 1 2.019073364e-38
0.187378 -0.101257 -0.209717 -0.98965 0 0.143499 2.889841771e-39
0.481201 -0.137848 -0.54223625 -0.28047075 -0.07912225 0.84805975 0
0.2124426667 -0.07107205556 -0.2579211111 -0.9416495556 -0.109131 0.02562834222 2.346363015e-38
0.219116 -0.0517883 -0.248901 -0.332312 0.673942 0.549034 2.346363015e-38
0.0307045 0.02857973333 -0.255859 0.01786425 0.28358375 0.9081781667 1.805592689e-38
0.212341 -0.0722046 -0.265381 -0.789879 0.5652275 -0.1028396 2.346363015e-38
0.224868625 -0.0458335875 -0.270264 -0.913245625 0.236654125 0.0017758125 2.346363015e-38
-0.01665346 0.006668396 -0.2525392 0.2616608 0 0.90254516 1.805592689e-38
-0.0583496 -0.107361 -0.229858 0.3765373333 0.5252456667 0.4420047 1.362886771e-38
0.2150608889 -0.06272378889 -0.2626138889 -0.6705712222 0.447992 0.3455359578 2.346363015e-38
0.01322840625 0.0089473725 -0.25781275 0.064073625 -0.614757875 0.768916 1.805592689e-38
0.058372525 -0.10334775 -0.226807 0 0 1 1.403918612e-38
0.3988035 -0.237305 -0.470703 0 -0.524097 0.851658 1.170884499e-38
0.2080078182 -0.1087536364 -0.2607198182 -0.3805605455 -0.1175137273 0.4604087636 2.346363015e-38
0.030811325 -0.1207642 -0.221802 0 0 1 1.403918612e-38
0.09518435 -0.08148195 -0.228882 0.06863975 0.366319 0.79754425 0
0.04308744444 -0.1156786667 -0.224854 -0.09328561111 0.2499612778 0.828572 1.403918612e-38
0.0276031 0.00259399 -0.263916 -0.546688 -0.546688 0.634243 1.805592689e-38
0.2027264667 -0.06347656 -0.2055578667 -0.3009389333 -0.3009389333 0.6626983333 2.889841771e-39
0.2090455 -0.08050535 -0.253906 -0.220527 0.4410545 0.0826975 2.346363015e-38
0.40313725 -0.2232665 -0.475342 -0.2105915 0.8973765 0.3119025 1.170884499e-38
0.187012 -0.09635416667 -0.20874 -0.902732 0.2270243333 0.119936 2.889841771e-39
0.3912355 -0.227051 -0.465576 -0.1923075 0.2996575 0.861795 1.170884499e-38
0.482178 -0.137329 -0.552734 0 0 0 0
0.212036 -0.0766602 -0.276855 -0.921068 -0.312505 -0.232323 2.346363015e-38
0.223877 -0.0484619 -0.276855 -0.449823 0.858754 -0.245358 2.346363015e-38
9.13143e-05 0.0355225 -0.257813 0 0 0 1.805592689e-38
0.1847735 -0.1059263333 -0.211792 -0.7616806667 -0.1327706667 0.349922 2.889841771e-39
0.475749 -0.1334226667 -0.542643 -0.7875173333 -0.5511513333 -0.1351525 0
0.4559325 -0.156433 -0.5229495 -0.0298675 0.9511515 0.30209725 2.019073364e-38
0.2328422222 -0.03516643333 -0.2627223333 -0.7345583333 0.6288352222 -0.1682596 2.346363015e-38
-0.0365162125 -0.000817283825 -0.255432 -0.3030399375 -0.110589375 0.8812674375 1.805592689e-38
0.213969 -0.06661988333 -0.270508 -0.6003588333 0.7746361667 -0.02681326167 2.346363015e-38
0.2450763333 -0.02319336667 -0.260986 0 0 0 2.346363015e-38
0.0009913603125 0.01420974375 -0.253662 0.1580690625 -0.2801264375 0.887894375 1.805592689e-38
-0.0068171025 0.02441216875 -0.25354 -0.3076935625 0.270414 0.8730241875 1.805592689e-38
0.447266 -0.159912 -0.52002 -0.282418 0.958077 0.0482613 2.019073364e-38
0.4684246667 -0.149007 -0.530762 0.2063366667 0.3726033333 0.8787123333 2.019073364e-38
0.2330323333 -0.03574116667 -0.265381 -0.7168486667 0.6369651667 -0.2452231667 2.346363015e-38
0.083374 -0.0799561 -0.229858 0 0 0 0
0.23489375 -0.03261565 -0.266846 -0.6811775 0.45024725 0.4873805 2.346363015e-38
0.4726565 -0.12854 -0.5302735 0 0 0 0
0.1962011875 -0.07341765312 -0.2054135 -0.3770134062 0.02983234375 0.6452389562 2.889841771e-39
-0.009694433333 -0.01061122917 -0.2581383333 0.7197966667 0 0.6687536667 1.805592689e-38
-0.0354309 -0.121826 -0.223755 -0.556435 0.572801 0.601896 1.362886771e-38
0.3985186667 -0.2312013333 -0.466797 0.05400696667 -0.462474 0.8742566667 1.170884499e-38
-0.009272576875 0.029390325 -0.255005 -0.0662771875 0.21384225 0.9248255 1.805592689e-38
-0.04675292 -0.1249146 -0.2252444 -0.2139678 0 0.9365828 1.362886771e-38
0.211853 -0.0782064 -0.2753905 -0.9654166667 -0.003568 -0.2398161667 2.346363015e-38
-0.02924652667 -0.1207072 -0.2251468 -0.1402918 0.3205957333 0.8180207667 1.362886771e-38
-0.004066690588 0.006327909412 -0.2571808235 0.2251340588 -0.5497493529 0.7686980588 1.805592689e-38
0.1982090455 -0.07303965455 -0.2047563636 -0.04059240909 -0.02029618182 0.9570824818 2.889841771e-39
-0.0108643 -0.0032558425 -0.256836 0.6388935 0 0.76929525 1.805592689e-38
0.0400085 -0.122314 -0.221802 0 0.707107 0.707107 1.403918612e-38
0.229736 -0.039917 -0.26001 -0.638144 0.638144 0.430747 2.346363015e-38
0.1906194722 -0.08577134722 -0.2069498333 -0.1471632778 -0.04542544444 0.8614645444 2.889841771e-39
0.395752 -0.229736 -0.47583 -0.546789 0.607543 -0.576119 1.170884499e-38
0.2081011765 -0.08844352353 -0.2680951176 -0.6712383529 0.4788735882 0.1682560647 2.346363015e-38
-0.03643521818 -0.02346801818 -0.2573689091 -0.4965864545 0.1818405455 0.7883451818 1.805592689e-38
0.184875375 -0.0883941625 -0.211792 -0.533742375 -0.1823295 0.5416071875 2.889841771e-39
0.186630375 -0.075912475 -0.21040325 -0.645639125 0.07814525 0.44857 2.889841771e-39
-0.01937865 -0.0056018825 -0.25293 0 0 1 1.805592689e-38
0.192749 -0.1057128 -0.206787 -0.5 0 0.5 2.889841771e-39
-0.0314789 -0.011035925 -0.253906 -0.2151489375 0.0307943125 0.9319964375 1.805592689e-38
0.232056 -0.0365448 -0.269043 -0.7563355 0.429381 0.351614 2.346363015e-38
0.395996 -0.228149 -0.474854 -0.597179 0.587058 -0.546571 1.170884499e-38
-0.0237427 0.02879841667 -0.256836 -0.10002175 0.02019841667 0.9727645 1.805592689e-38
0.4036456667 -0.218099 -0.480713 -0.8194906667 -0.2951836667 0.3290452667 1.170884499e-38
0.03093803889 0.01153268333 -0.2572159444 0.08712733333 -0.4824867778 0.8280642222 1.805592689e-38
0.1878356 -0.07060852 -0.2099915 -0.42806275 0.3137084 0.564337825 2.889841771e-39
0.008272381667 0.02427673889 -0.2538517778 0.08768294444 0.1175742222 0.9406565 1.805592689e-38
-0.0649414 -0.0994263 -0.230835 0 0 1 0
0.452393 -0.157959 -0.525879 -0.445976 0.891953 -0.0743294 2.019073364e-38
0.00847244 0.0022649775 -0.262085 -0.083563125 -0.201016 0.865582625 1.805592689e-38
0.407959 -0.23291 -0.493408 -0.8217595 0.27519 -0.496945 1.170884499e-38
-0.009351337 0.009832748 -0.253906 0.0956489 -0.2879855 0.8944652 1.805592689e-38
-0.011775975 0.0323486 -0.256836 0 0.58798875 0.80886875 1.805592689e-38
-0.006829369444 -0.005801942778 -0.260498 0.4893566667 0.1452377222 0.7279135556 1.805592689e-38
0.03589496552 -0.1207381034 -0.2221385517 0.1153113793 0.2368704828 0.8490026207 1.403918612e-38
-0.008671568 0.003620146 -0.256836 0.516043 -0.260672 0.7813026 1.805592689e-38
0.02537824375 -0.1235846875 -0.220825 0.209615875 0.2246692919 0.8401335625 1.403918612e-38
0.01834412 0.0107422 -0.256836 0.0247257 -0.4716777 0.8324192 1.805592689e-38
0.395874 -0.234131 -0.46875 -0.04044245 -0.5622635 0.8224375 1.170884499e-38
-0.028965025 -0.0056018825 -0.25293 -0.1001999375 -0.065817375 0.95305975 1.805592689e-38
-0.02900696667 0.02124025556 -0.255859 -0.2788288889 0.2802086667 0.8780471111 1.805592689e-38
0.2086588333 -0.0856018 -0.255615 -0.63587725 -0.17143475 0.525752 2.346363015e-38
-0.0126419 -0.0383911 -0.255859 0.6028445 0 0.7934385 1.805592689e-38
0.003331130588 0.01904207647 -0.2528725294 0.1197452941 -0.08238441176 0.9527906471 1.805592689e-38
0.217407 -0.0572205 -0.265869 -0.927367 0.235522 -0.290722 2.346363015e-38
0.01572544167 0.0338033 -0.2587076667 0.07107125 0.4622385833 0.823343 1.805592689e-38
-0.0116295875 0.00940370375 -0.253723 0.1715304375 -0.292172125 0.8725585625 1.805592689e-38
0.400879 -0.235229 -0.46875 -0.463178 -0.411714 0.78483 1.170884499e-38
-0.02627565 0.0231323 -0.255859 -0.1999375 0.501449 0.8112325 1.805592689e-38
-0.010166175 -0.127319 -0.221802 -0.29256075 0 0.90327475 1.362886771e-38
0.1933493514 -0.1134627297 -0.2072622973 -0.3346993514 -0.03261805405 0.6843956622 2.889841771e-39
0.06060357143 -0.1008474571 -0.2275041429 0 0.2372209048 0.8671450952 1.403918612e-38
0.39563 -0.224854 -0.465576 -0.1791215 0.9564785 0.203293 1.170884499e-38
0.03585815 -0.1138916667 -0.223755 0 0 1 1.403918612e-38
-0.03645326 0.01445539 -0.2579106 -0.1661775 -0.1186245 0.9005548 1.805592689e-38
0.1883311154 -0.1082248077 -0.2083646154 -0.2012683462 -0.01719380769 0.8191602654 2.889841771e-39
0.1937573478 -0.1083056522 -0.205688 -0.2581913478 -0.02966086957 0.771761413 2.889841771e-39
0.01079464562 0.03403474375 -0.2581179375 0.1291278125 0.5721718125 0.769644125 1.805592689e-38
0.2119488571 -0.0708967 -0.2576732857 -0.9398091429 -0.1792731429 0.1264805429 2.346363015e-38
-0.01929855 0.006652832 -0.251953 0 0 1 1.805592689e-38
0.00341439375 0.029403675 -0.255127 0 0.445501875 0.853344375 1.805592689e-38
0.412598 -0.2357785 -0.501953 -0.859461 0.05129175 -0.508417 1.170884499e-38
0.481201 -0.1401776667 -0.541992 0 -0.1382893333 0.9699603333 0
-0.00788116 -0.0005213808667 -0.258789 0.7185526667 -0.2168106667 0.597277 1.805592689e-38
-0.01423184 0.01649665 -0.251953 0 0 1 1.805592689e-38
0.4021 -0.234131 -0.46875 -0.240772 -0.674161 0.698238 1.170884499e-38
-0.03587846667 -0.01334761667 -0.255859 -0.357362 -0.1796365 0.8577058333 1.805592689e-38
0.05407108 -0.09868166 -0.228882 0 0 1 1.403918612e-38
0.08614237857 -0.07395716429 -0.2373655 0.09890392857 0.3091007143 0.8291669286 0
-0.0383911 -0.0057125075 -0.257813 -0.78097075 -0.06344975 0.61137275 1.805592689e-38
-0.0351868 -0.02090455 -0.256836 -0.7939995 0 0.607919 1.805592689e-38
0.1865233333 -0.1082154 -0.20874 -0.3309096667 0 0.7067044 2.889841771e-39
-0.007650586667 -0.02320862222 -0.2604437778 0.7521095556 0.02103444444 0.6339072222 1.805592689e-38
0.477051 -0.135132 -0.543945 -0.638144 -0.765773 0.0797681 0
0.08158875 -0.078659025 -0.23336825 -0.43497025 0.49642225 0.272134275 0
0.207947 -0.0882415875 -0.265381 -0.957641875 0.10403225 -0.18303575 2.346363015e-38
0.07911374 -0.07980954 -0.2282226 0 0.7757748 0.30984694 0
0.08579508889 -0.07603285556 -0.2352972222 -0.06604833333 0.766084 0.5942595 0
-0.0385437 -0.03547014286 -0.258789 0 0 0.8571428571 1.805592689e-38
-0.03230793333 0.009348555 -0.254883 -0.6122351667 0.1203251667 0.7542295 1.805592689e-38
-0.03663505833 -0.1258036667 -0.2234293333 0.1383642917 0.1780890833 0.837678625 1.362886771e-38
0.0883043 -0.07520208889 -0.2370602222 -0.04901688889 0.7123645556 0.5672853333 0
-0.026614988 -0.11843024 -0.22540056 -0.24535624 0.31690836 0.82378152 1.362886771e-38
-0.024180425 0.0165643875 -0.252991 -0.2500331875 0.1372601875 0.9128549375 1.805592689e-38
0.02076466667 0.006262780833 -0.2605793333 0.05266791667 -0.7102926667 0.6617470833 1.805592689e-38
0.02057458125 0.00895691 -0.258057 0.0414255 -0.47812775 0.8275666875 1.805592689e-38
0.0508499 -0.1057618 -0.226807 0 0 1 1.403918612e-38
0.454834 -0.159912 -0.515625 0.0324913 0.71481 0.698564 2.019073364e-38
-0.01949953846 -0.01120522308 -0.2530050769 0.1538276154 -0.001239230769 0.9453486923 1.805592689e-38
0.01318593846 0.03385104615 -0.2583385385 0.1181496154 0.5206657692 0.7911736154 1.805592689e-38
0.03479765 0.031463625 -0.25708025 -0.2896985 0.39489575 0.74800125 1.805592689e-38
0.02387235 -0.121765 -0.220825 0.213976 0.7769275 0.4891815 1.403918612e-38
-0.01580806667 -0.03804523333 -0.254883 0.3935098333 0.1432505 0.834684 1.805592689e-38
0.0058727275 0.0323486 -0.256836 0 0.58789775 0.80893525 1.805592689e-38
0.4635416667 -0.1485186667 -0.5304363333 0.06941066667 0.3745233333 0.5306973333 2.019073364e-38
0.404053 -0.2229005 -0.481689 -0.9540495 0.0920645 -0.2428185 1.170884499e-38
-0.03325403333 -0.116882 -0.22583 -0.45491 0.4493026667 0.7457563333 1.362886771e-38
0.2306722222 -0.04305352222 -0.2572702222 0.04632077778 0.47778 0.7922133333 2.346363015e-38
0.1875 -0.081542975 -0.209717 -0.62724325 -0.30682225 0.436293 2.889841771e-39
0.00583148 0.0118742125 -0.255066 0.12852425 -0.328985125 0.87558325 1.805592689e-38
0.2135707143 -0.06780132857 -0.2607071429 -0.6160435714 0.3742531429 0.3030000143 2.346363015e-38
0.409912 -0.22998 -0.49585 -0.923848 0.0147816 -0.382473 1.170884499e-38
0.184326 -0.0817871 -0.210815 -0.696311 0.696311 0.174078 2.889841771e-39
0.212036 -0.0884603 -0.283936 -0.330604 -0.01722466667 0.6303826667 2.346363015e-38
0.215088 -0.06551104444 -0.2607691111 -0.3917241111 0.2970105556 0.5431910111 2.346363015e-38
-0.007369301818 -0.03356655455 -0.2606310909 0.6405692727 -0.006246 0.7373053636 1.805592689e-38
0.018253325 0.0351868 -0.26001 0.0332695 0.691444 0.71572775 1.805592689e-38
0.01577376875 0.01213885 -0.255859 0.0422606875 -0.202531125 0.9251421875 1.805592689e-38
-0.01177598 0.03344726 -0.256836 0.0514023 0.0514023 0.8686703 1.805592689e-38
0.2184245556 -0.0559082 -0.2655436667 -0.6905142222 0.6964494444 -0.01259680222 2.346363015e-38
0.1943185714 -0.1132551429 -0.205688 -0.6305332857 -0.1724097143 0.4400147857 2.889841771e-39
0.09068370476 -0.07375662857 -0.2377056667 -0.09967285714 0.3348126667 0.7964274762 0
0.402344 -0.230103 -0.483887 0 0 0 1.170884499e-38
-0.0280151 -0.121826 -0.223755 -0.561464 0.577978 0.592198 1.362886771e-38
0.008379617333 0.008866373333 -0.2572268 0.1423266667 -0.5663868 0.7800824 1.805592689e-38
-0.03671265 0.009045192857 -0.256836 -0.1642407857 0.1136815 0.9389561429 1.805592689e-38
-0.0115599375 0.0141291375 -0.2522583125 0.116648125 -0.319142875 0.87404775 1.805592689e-38
-0.03834023333 -0.0377299 -0.258789 0 0 0.3333333333 1.805592689e-38
-0.055831925 -0.10667425 -0.230835 0 0 1 1.362886771e-38
0.4429935 -0.175293 -0.52002 -0.413793 0.2068965 0.189655 2.019073364e-38
0.444824 -0.1728515 -0.52002 -0.6754545 0.108789 0.5373625 2.019073364e-38
0.08846212727 -0.07585559091 -0.2354847273 -0.05500063636 0.8865849091 0.3699212727 0
0.232544 -0.0449829 -0.283936 -0.151747 0.9479505 0.1783798 2.346363015e-38
0.187012 -0.0770264 -0.20874 -0.736036 0.654254 0.173786 2.889841771e-39
-0.011741625 -0.12571725 -0.221802 0 0 1 1.362886771e-38
0.2229248 -0.05145874 -0.2708008 -0.8228264 0.4068854 0.0316872 2.346363015e-38
0.1983644 -0.1134644 -0.205688 0.00837408 -0.0726228 0.9795554 2.889841771e-39
-0.009601901538 -0.03078518462 -0.2581883846 0.7032654615 -0.002214307692 0.6896724615 1.805592689e-38
0.000999809525 0.03131105 -0.255859 0 0.294194625 0.904289 1.805592689e-38
-0.004756926667 0.00736618 -0.255859 0.144614 -0.5686653333 0.7776996667 1.805592689e-38
0.0184326 0.019035325 -0.253906 0 0 1 1.805592689e-38
0.394531 -0.226685 -0.47168 -0.622972 0.567679 -0.538189 1.170884499e-38
-0.01399515 0.00937891125 -0.253052 0.2133289375 -0.1316835 0.915438375 1.805592689e-38
-0.03384396667 -0.025672925 -0.255859 -0.2285384167 -0.03248108333 0.9224418333 1.805592689e-38
-0.00623067 0.0357768 -0.2581383333 0 0.3802683333 0.85045 1.805592689e-38
0.003566048182 0.03700396364 -0.2602761818 0.02304309091 0.5631981818 0.7871801818 1.805592689e-38
0.48291 -0.137085 -0.541992 -0.237407 -0.759701 0.605387 0
-0.036506675 0.001603127625 -0.255371 -0.352882875 0.05145325 0.8829163125 1.805592689e-38
0.227661 -0.046402 -0.2785645 -0.315414 0.344088 -0.1792125 2.346363015e-38
0.1878660833 -0.09549966667 -0.209717 -0.4421899167 0.2649208333 0.5451860917 2.889841771e-39
-0.05081175 -0.106628 -0.229858 0 0 1 1.362886771e-38
-0.0329895 -0.01194 -0.253906 -0.413879 0.419118 0.808112 1.805592689e-38
0.0896606 -0.0720215 -0.237915 0 0 1 0
0.1884679286 -0.1106522143 -0.2085308571 -0.2762747143 -0.08375614286 0.7735893571 2.889841771e-39
-0.006756305 0.0216712875 -0.25268575 -0.312345875 0.1558043125 0.882139875 1.805592689e-38
0.199829 -0.0809326 -0.204712 0 0 1 2.889841771e-39
-0.01929855 0.0093364675 -0.251953 0 0 1 1.805592689e-38
-0.06901280588 -0.09852151765 -0.230835 -0.1108371176 0.1414544706 0.9080374118 0
-0.014946 -0.0032176975 -0.253906 0.649302 0 0.7605305 1.805592689e-38
0.408936 -0.234741 -0.49585 -0.816655 0.171487 -0.551059 1.170884499e-38
-0.0465884 -0.1085284348 -0.2288342174 0.0004148695652 0.045375 0.9788828696 1.362886771e-38
0.2086914 -0.08582762 -0.2654786 -0.787992 0.4127528 -0.3977492 2.346363015e-38
-0.009223936364 0.02101132727 -0.2530187273 -0.2250404545 0.123725 0.8854449091 1.805592689e-38
0.40625 -0.2312625 -0.489746 -0.834704 0.226168 -0.5006455 1.170884499e-38
0.01602745 0.0259552 -0.253906 -0.105047 0.55365975 0.80225775 1.805592689e-38
0.0527649 -0.111694 -0.22583 0.1655445 0.175891 0.937787 1.403918612e-38
0.05273437778 -0.1132 -0.22583 0 0 1 1.403918612e-38
0.0034375175 0.0323486 -0.256836 0 0.58798875 0.808869 1.805592689e-38
0.03009795 0.0128174 -0.255859 0.2099545 -0.528161 0.7871435 1.805592689e-38
0.2259215 -0.043952975 -0.270508 -0.5137185 0.52421875 -0.135382925 2.346363015e-38
-0.0380859 -0.0005153811667 -0.255859 -0.5235156667 -0.1069106667 0.8167693333 1.805592689e-38
-0.029052725 -0.0206394125 -0.253662 -0.3023195625 0.042790625 0.8974344375 1.805592689e-38
-0.040863 -0.02100116667 -0.261963 -0.776114 0 0.630593 1.805592689e-38
0.212036 -0.083313 -0.283936 -0.808511 0 0.581313 2.346363015e-38
0.1934449 -0.06015933 -0.2107052 0.0412467 0.1405643 0.8046902 2.889841771e-39
0.2313636667 -0.036026 -0.27002 -0.08245 0.07852383333 0.7883785 2.346363015e-38
-0.02646635 -0.000805437 -0.251953 0 0 1 1.805592689e-38
0.113129 -0.156738 -0.343262 0 0 0 0
0.05600483333 -0.09838868333 -0.228882 0 0 1 1.403918612e-38
0.0084691025 0.0274887 -0.254883 0.13635275 0.272751125 0.889115625 1.805592689e-38
-0.02917152857 0.02416992143 -0.2572547143 -0.1419909286 0.3513185714 0.8774522857 1.805592689e-38
-0.024269125 -0.0356903 -0.253906 0 0 1 1.805592689e-38
0.240112125 -0.0258903375 -0.257935 0 0 0.875 2.346363015e-38
0.224243 -0.046936 -0.271973 -0.86871 0.430988 -0.244114 2.346363015e-38
-0.001864514333 0.01226744167 -0.253906 0.0791315 -0.34854475 0.8720569167 1.805592689e-38
-0.0514832 -0.124573 -0.226807 -0.512607 -0.512607 0.688816 1.362886771e-38
0.03330230625 0.03147125625 -0.2571413125 -0.0139195625 0.3004485625 0.8964374375 1.805592689e-38
0.467529 -0.155151 -0.528809 0.408248 0.408248 0.816497 2.019073364e-38
0.220703 -0.05803935 -0.2805175 -0.7123028333 0.6575673333 -0.2125013333 2.346363015e-38
-0.02417375 -0.02327272 -0.25293 0 0 1 1.805592689e-38
-0.0335897 0.0015935885 -0.253906 -0.1990820833 0 0.9340193333 1.805592689e-38
0.0157299 0.00745392 -0.258789 0 -0.71413525 0.700007 1.805592689e-38
0.02836174286 0.009235381429 -0.2585101429 0 -0.6634942143 0.7464300714 1.805592689e-38
0.2229937647 -0.04584636471 -0.2576977647 -0.8086925882 0.4837524706 -0.03053383941 2.346363015e-38
0.4506023333 -0.1708986667 -0.5169273333 -0.2135623333 -0.444687 0.8469646667 2.019073364e-38
0.1959334783 -0.06327023261 -0.2077636739 -0.571850913 0.2636098696 0.4378260152 2.889841771e-39
-0.0248566 0.0250397 -0.256836 -0.399875 0.399875 0.824742 1.805592689e-38
0.407471 -0.222046 -0.473633 -0.231833 0.958945 0.163337 1.170884499e-38
-0.006341413636 -0.1238791818 -0.220825 -0.2211253636 0.3880019091 0.7310361818 1.362886771e-38
-0.01668245 0.0015868192 -0.2529299 0.36108005 -0.19714325 0.8557619 1.805592689e-38
-0.028965025 -0.013389575 -0.25293 -0.15241825 -0.020046625 0.9436141875 1.805592689e-38
-0.028995525 -0.0157995375 -0.253174 -0.291774 -0.033667375 0.8985406875 1.805592689e-38
0.206189 -0.09029543 -0.2687988 -0.3868851 -0.1553066 0.7754509 2.346363015e-38
0.04097834444 -0.1109618333 -0.2252335556 0.1103281667 0.2313924444 0.8404419444 1.403918612e-38
0.20520025 -0.1003113917 -0.2571615833 -0.56743075 0.54220275 0.4214363333 2.346363015e-38
-0.0329895 -0.00261593 -0.253906 -0.617113 -0.163488 0.7492525 1.805592689e-38
-0.03184626154 0.01194587692 -0.2551082308 -0.4929131538 0.2171070769 0.8128433846 1.805592689e-38
0.01337815 0.0050354 -0.260986 0 -0.62608525 0.77975475 1.805592689e-38
0.03270177143 0.03632028571 -0.2605677143 0 0.6136051429 0.7332794286 1.805592689e-38
0.219482 -0.0518188 -0.273926 -0.705285 0.6717 0.226699 2.346363015e-38
-0.00648117 0.005812072 -0.256836 0.2603092 -0.5141754 0.7830524 1.805592689e-38
0.1859796061 -0.08089376364 -0.2103159091 -0.4886206061 0.02405566667 0.5713984909 2.889841771e-39
0.020839675 0.01722715 -0.253906 0 -0.32456025 0.880342 1.805592689e-38
0.219971 -0.054718 -0.265869 -0.703922 0.670402 -0.234641 2.346363015e-38
0.005803682 0.002452086 -0.2621582 0 -0.2426402 0.8925434 1.805592689e-38
-0.038810725 0.0083312975 -0.25756875 -0.394012 0 0.307822 1.805592689e-38
0.21228 -0.074707 -0.258789 0 0 1 2.346363015e-38
0.010616305 0.02414856 -0.253906 0.01112385 0.0518938 0.98357225 1.805592689e-38
-0.07150823182 -0.1007247636 -0.2300356364 0.1729424091 0.2556237727 0.7703256091 0
0.21167 -0.06650796667 -0.2526043333 -0.4582203333 -0.2472423333 0.2573360333 2.346363015e-38
0.02354175833 0.01105438333 -0.25708025 0.09109266667 -0.57007975 0.7884788333 1.805592689e-38
-0.006915598824 -0.01065646588 -0.2606989412 0.4306918235 -0.1427807059 0.8153242353 1.805592689e-38
0.02334405 0.02636625 -0.254944 0.0538001875 0.1822294375 0.929278125 1.805592689e-38
0.1835146471 -0.08812039412 -0.211792 0 0 1 2.889841771e-39
0.003385692308 0.00672766 -0.2581883846 0.1008992308 -0.6782414615 0.6838199231 1.805592689e-38
-0.02424061667 -0.1233723333 -0.2231688 -0.05885963333 0.2949183333 0.821071 1.362886771e-38
-0.02981567143 0.02217755714 -0.256836 -0.2326944286 0.2331257143 0.8858124286 1.805592689e-38
-0.02407455 -0.000805437 -0.251953 0 0 1 1.805592689e-38
0.2118965714 -0.07121058571 -0.2630788571 -0.9345677143 0.1614671429 -0.0973894 2.346363015e-38
0.2110867222 -0.07327271111 -0.2628851111 -0.8040345 0.498941 -0.0047821 2.346363015e-38
-0.01691435 0.01649665 -0.251953 0 0 1 1.805592689e-38
-0.0382385 -0.010253925 -0.256836 0 0 0.5 1.805592689e-38
0.08362121 -0.078231815 -0.2330812 -0.26127335 0.5869112 0.6210953 0
0.03898969231 -0.1131874615 -0.224854 0.2819927692 0.1156239231 0.8749648462 1.403918612e-38
0.0207862875 0.036235825 -0.260864 -0.123521 0.5767925 0.777007125 1.805592689e-38
0.44458 -0.163208 -0.516602 -0.8809615 0.1853375 0.3882785 2.019073364e-38
0.0532379 -0.10325625 -0.227783 0 0 1 1.403918612e-38
0.1908888571 -0.06617663333 -0.2084146667 -0.3070902857 0.2432814286 0.413135619 2.889841771e-39
-0.004237991429 0.03157263571 -0.255859 -0.007303357143 0.2078589286 0.9238043571 1.805592689e-38
0.224609 -0.04759215 -0.273926 -0.7881035 0.559332 -0.003424 2.346363015e-38
