# .PCD v0.7 - Point Cloud Data file format
VERSION 0.7
FIELDS x y z normal_x normal_y normal_z rgb
SIZE 4 4 4 4 4 4 4
TYPE F F F F F F F
COUNT 1 1 1 1 1 1 1
WIDTH 519
HEIGHT 1
VIEWPOINT 0 0 0 1 0 0 0
POINTS 519
DATA ascii
-0.012146 -0.00968933 -0.345215 0.4211180826 -0.6725027062 0.6086046917 4.053395938e-41
0.0491333 0.0145874 -0.339111 0.1427428312 0.5012883348 -0.8534251517 3.909902975e-41
-0.0524292 0.0200195 -0.336182 0.4780120963 0.7296829918 -0.4889449532 3.838156494e-41
-0.0505371 0.0199127 -0.334229 0.5360114889 0.6974879958 -0.4756071693 3.802283253e-41
-0.02579846364 0.01106192727 -0.3278585455 0.5992836216 0.4344011196 0.6724245743 3.62291705e-41
-0.04841613333 0.01905823333 -0.333252 0.5962039609 0.6379622792 -0.4873858505 3.766410012e-41
-0.0166016 -0.00306702 -0.336182 0.5450069031 -0.3446517237 0.7643184316 3.838156494e-41
-0.0477295 0.0197296 -0.331055 0.6242924667 0.6041003524 -0.4952995863 3.694663531e-41
-0.0455551 0.01935195 -0.328125 0.6667192772 0.3935575827 -0.6329279853 3.62291705e-41
-0.04281616 0.0189514 -0.3259766 0.3756300084 -0.1909251821 -0.90689011 3.551170568e-41
-0.03855242857 0.0185111 -0.3256137143 0.2301352956 0.5321581569 0.8147671089 3.515297328e-41
-0.01618194 -0.008595276 -0.3408206 0.5209935607 -0.6113022157 0.5957141183 3.945776216e-41
0.0342293 0.01086715 -0.352295 -0.6165361564 -0.2526758572 0.7456796089 4.232762141e-41
-0.02171634 0.01340942 -0.3340336 0.650099434 0.4457986709 0.6153326507 3.802283253e-41
0.03639392222 -0.001524712778 -0.3479276667 0.6974133427 -0.2777876954 -0.6606425855 4.125142419e-41
-0.0378418 0.0194855 -0.327148 0.368068628 0.4978514232 0.7852830353 3.587043809e-41
-0.0356954 0.01924643333 -0.3274736667 0.4104042236 0.537998364 0.7362921523 3.587043809e-41
0.011713975 0.00845575375 -0.323852625 -0.685742751 0.1374026066 0.714756884 3.443550846e-41
-0.03332518889 0.01878523333 -0.3283421111 0.4595166791 0.5290737967 0.713390033 3.62291705e-41
-0.03053113333 0.01909723333 -0.3307293333 0.5398765683 0.4015832328 0.7397730721 3.694663531e-41
-0.02799768571 0.01912361429 -0.3324145714 0.5641757583 0.4063390391 0.7187449471 3.730536772e-41
-0.02619497143 0.0188664 -0.3338102857 0.6175258821 0.407265854 0.6729014111 3.802283253e-41
-0.02487945 0.0037965775 -0.327148 0.7383840693 -0.08781566308 0.668638449 3.587043809e-41
-0.02362057143 -0.003690174286 -0.3307758571 0.6855608704 -0.2718223126 0.6753657701 3.694663531e-41
0.03240965 0.003481548333 -0.3540851667 -0.5935653808 0.1605815612 0.7886023719 4.268635382e-41
-0.00803121 0.01602555 -0.344238 -0.1188399574 0.5584313893 0.8209941827 4.053395938e-41
-0.0262909 0.01528423333 -0.331055 0.548658939 0.5285317827 0.6477866341 3.694663531e-41
-0.0252838 0.01917523333 -0.335205 0.6762488602 0.3778251238 0.6324046607 3.802283253e-41
0.008885704444 0.01923624444 -0.333252 0.6622468905 -0.4554883561 -0.5949448828 3.766410012e-41
0.007511135 0.0020632775 -0.3286135 0.6918963886 0.283329164 -0.6640812994 3.65879029e-41
0.01159921667 0.01916505 -0.3304036667 0.6210245662 -0.4880972073 -0.6132614487 3.694663531e-41
0.04137165 0.01570895 -0.3402915 -0.3250723006 -0.6817348817 0.655412504 3.945776216e-41
0.013995175 0.0188465 -0.327758625 -0.5289774726 0.5799578954 0.6195415022 3.62291705e-41
0.02148852727 0.006210324545 -0.318115 0.1940441429 0.04381083292 -0.9800140211 3.228311402e-41
0.04697334444 0.0009289966667 -0.3410376667 -0.3681323594 0.2264937467 0.9017644641 3.945776216e-41
-0.0386353 -0.0130615 -0.327148 0.003602565132 0.6396790185 -0.7686337065 3.587043809e-41
-0.00313441 0.01883613333 -0.3435873333 -0.5856818626 0.1819620619 0.7898522418 4.017522697e-41
0.04129026667 0.01102446667 -0.345215 -0.6268446486 -0.343267429 0.6994521133 4.053395938e-41
0.01600265 0.0194855 -0.327148 -0.5152579585 0.5833474375 0.6278654341 3.587043809e-41
-0.0312633625 0.0061225925 -0.322021 0.4371982513 0.222949062 0.8712929501 3.371804365e-41
-0.0532188375 -0.0089864725 -0.345703 0.05999887774 0.6819411625 0.7289419631 4.053395938e-41
0.01630706 0.01862184 -0.3255858 0.5268648735 -0.618874034 -0.5825876201 3.515297328e-41
0.0230713 0.0192566 -0.323242 -0.2290886338 0.2695330557 0.9353450325 3.407677606e-41
0.03436283333 0.008475834444 -0.3526203333 -0.5986748014 -0.1228858286 0.7915096685 4.232762141e-41
0.01384126 0.01646118 -0.3255858 -0.5864952236 0.5462728935 0.5980044135 3.515297328e-41
0.023582475 0.018432625 -0.322021 0.1152334492 -0.6868574383 -0.7175988515 3.371804365e-41
0.0363261 0.0138711 -0.3481446667 0.6641361326 0.5284669519 -0.5288155426 4.125142419e-41
0.0296478 0.0206299 -0.346191 -0.283103729 -0.9254427896 0.2518092967 4.089269179e-41
0.03096775 0.0206909 -0.347168 -0.3716835819 -0.8537876511 0.3645517271 4.089269179e-41
0.01421483333 -0.01045608333 -0.3305665 0.6443256394 0.393182862 -0.6559357495 3.694663531e-41
0.0324707 0.02059935 -0.345703 0.5004327473 0.7651953742 -0.4050223509 4.089269179e-41
0.04411316667 -0.005880355 -0.3376465 0.2736099927 -0.7805611686 -0.5620158662 3.874029734e-41
-0.0350952 -0.0067749 -0.323242 0.3080048796 -0.6220028806 0.7198926383 3.407677606e-41
-0.06079441111 0.005884381111 -0.3473851111 -0.05426764471 0.2294351337 -0.9718099311 4.089269179e-41
0.040863 0.0200806 -0.337158 -0.2287772339 -0.5743196974 0.7860139073 3.874029734e-41
-0.00391006 0.00938797 -0.340088 -0.2728915792 0.4035599821 0.8733095252 3.945776216e-41
-0.02032251429 0.01375034286 -0.3356237143 0.5922091288 0.4717322643 0.6532664224 3.802283253e-41
0.03175353333 0.0193761 -0.3483075 -0.5047276071 -0.7235227315 0.4709192071 4.125142419e-41
-0.02849577 0.01411286 -0.3282227 0.5060944608 0.5554803347 0.6597802623 3.62291705e-41
-0.05049302222 0.008422853333 -0.3504504444 0.3456177706 -0.4019772348 0.8479166582 4.196888901e-41
-0.0200592 -0.006396486 -0.3354004 0.5726243781 -0.4650331657 0.6751632961 3.802283253e-41
-0.05308023333 0.01882936667 -0.33846 0.2841946797 0.8308337906 -0.4784857328 3.909902975e-41
0.0024929 0.0104065 -0.334229 0.7567616599 -0.2668992116 -0.5967215439 3.802283253e-41
0.0197601 0.0152359 -0.319092 -0.4769945228 0.2877607977 0.8304636949 3.228311402e-41
-0.0460968 0.018520375 -0.3305665 0.6664002252 0.5323211938 -0.5220583171 3.694663531e-41
0.0131302 0.00930023 -0.323242 -0.675622395 0.1931387106 0.7114996963 3.407677606e-41
-0.043731675 0.0183525 -0.3276365 0.63189689 0.1910543963 -0.7511354991 3.62291705e-41
0.0211200625 0.0037872775 -0.318115 0.2436366843 -0.03310986262 -0.9693012447 2.829221599e-41
-0.05581110909 0.008657630909 -0.3476120909 0.3451425808 -0.3748450174 0.8604462865 4.089269179e-41
-0.0315959 0.0183105 -0.329102 0.4971210101 0.5233687971 0.6920663289 3.65879029e-41
0.00559235 0.0091095 -0.330078 0.7313724523 -0.2228278759 -0.6445479608 3.694663531e-41
-0.0289154 0.0185471 -0.331055 0.536984245 0.4358280463 0.7222893012 3.694663531e-41
0.0369008 0.0009507528333 -0.3487956667 0.664188136 -0.3526313192 -0.6591701394 4.16101566e-41
-0.053695675 -0.00411128875 -0.348755 0.4307594972 0.4291403422 0.7939047942 4.16101566e-41
-0.02407534 0.01810304 -0.3359866 0.6710517246 0.4297340095 0.6041674139 3.838156494e-41
-0.0320435 -0.0136108 -0.331055 -0.4934745667 0.5283385334 -0.6908988683 3.694663531e-41
-0.0623779 0.00793648 -0.347168 0.01729637115 0.2649734554 -0.9641005671 4.089269179e-41
-0.02297101429 0.01875087143 -0.3377161429 0.6812114921 0.4620196364 0.567880937 3.874029734e-41
-0.02332762 -0.01304934 -0.3389158 0.5596975907 -0.5395457309 0.6289904699 3.909902975e-41
-0.0180664125 -0.00395632 -0.3356935 0.576386247 -0.3364176422 0.7447160964 3.802283253e-41
-0.02107848 0.01826782 -0.3389158 0.5579584954 0.5347321135 0.6346210556 3.909902975e-41
-0.020439125 0.0190735 -0.34039325 0.4975878914 0.5662596513 0.6570816522 3.945776216e-41
-0.0185470625 0.0185890375 -0.340851125 0.462976056 0.4967082952 0.7341212713 3.945776216e-41
0.00482559 0.01070785 -0.331055 0.7397557563 -0.2967424738 -0.6039083749 3.694663531e-41
0.0373128 0.0116933 -0.3487956667 0.6843996786 0.4181082019 -0.5973128254 4.16101566e-41
-0.01069423143 0.01594761429 -0.3438197143 0.266427672 0.5738155727 0.7744365592 4.017522697e-41
-0.0197296 0.0120316 -0.335205 0.6017969032 0.4200666221 0.6792529133 3.802283253e-41
-0.02500608 -0.01332248 -0.337744 0.5665003714 -0.5462240853 0.6170223479 3.874029734e-41
-0.0005303854 -0.008351134 -0.3440428 -0.5072397902 -0.5951312989 0.6233189651 4.053395938e-41
-0.0177155 0.019577 -0.342285 0.4339940678 0.502030035 0.7480741896 3.981649457e-41
-0.0489095 -0.004030863333 -0.3509926667 -0.3185454565 -0.5164365185 -0.7948723888 4.196888901e-41
0.0350647 0.0117722 -0.351318 -0.6380201502 -0.3091431589 0.7052381124 4.196888901e-41
0.037178025 -0.00622368 -0.345703 0.7640887472 -0.2616469557 -0.5896687689 4.089269179e-41
0.01247595 -0.0083141325 -0.331055 -0.604985018 -0.450846219 0.656300857 3.694663531e-41
-0.015564 -0.00934601 -0.3426106667 0.5483023001 -0.5922747505 0.590402581 4.017522697e-41
-0.016005525 0.0188903875 -0.342651375 0.5173783 0.4500648824 0.7278470281 3.981649457e-41
-0.01434135 0.01865385 -0.343994 0.4959157632 0.5127616037 0.7008160198 4.053395938e-41
0.00652694625 0.015797625 -0.333129875 0.6707532694 -0.4587858256 -0.5827569114 3.766410012e-41
0.01418495 0.006199518333 -0.32104475 -0.6898950352 0.01273185906 0.7237974441 3.335931124e-41
0.0175018 0.0106964 -0.319092 -0.4868095795 0.2079056737 0.8484053655 3.228311402e-41
-0.0128726875 0.019054425 -0.345581 -0.4557761716 -0.5102332341 -0.7293354017 4.053395938e-41
0.0396627 -0.0093689 -0.3339033333 -0.03032309898 0.8429389284 0.5371540493 3.802283253e-41
-0.01056671333 0.0198669 -0.347168 0.1068779958 0.4803410305 0.8705455694 4.089269179e-41
-0.0218506 0.008743286667 -0.331055 0.737418579 0.1480662843 0.6590069915 3.694663531e-41
0.04129026667 0.001485827667 -0.345215 -0.6392417811 0.3117268057 0.7029909985 4.053395938e-41
-0.0369568 -0.0106964 -0.326172 -0.1341192203 0.6488625601 -0.7489922649 3.551170568e-41
-0.008651733333 0.01959226667 -0.347168 -0.1144002484 0.4755073025 0.8722415884 4.089269179e-41
-0.007805506667 0.01870728333 -0.346191 -0.2040728218 0.522702022 0.8277299557 4.089269179e-41
-0.0002025482 0.0187073 -0.341309 -0.6099618208 0.1611677551 0.7758682439 3.945776216e-41
-0.0339559 -0.00548045 -0.322021 0.3838299999 -0.463641135 0.7985683622 3.371804365e-41
-0.0557060125 0.011699675 -0.345947 0.2838781338 -0.5067887688 0.8139891578 4.089269179e-41
0.0132065 -0.00219536 -0.325195 0.6345101376 0.4531939552 -0.6261087159 3.515297328e-41
0.0013291825 0.01865643333 -0.340088 -0.5969138217 0.1904261231 0.7793790997 3.945776216e-41
-0.0282898125 0.016670225 -0.330688625 0.537468584 0.5057793501 0.6747701611 3.694663531e-41
0.00253105 0.01860046667 -0.339111 -0.5932830609 0.2652876172 0.7600247955 3.909902975e-41
-0.0544739 -0.001530488333 -0.349121 0.4482865915 0.2766966565 0.8499871129 4.16101566e-41
0.00402116875 0.018630975 -0.337890625 -0.6119333262 0.313697168 0.7260383537 3.874029734e-41
0.0280609 0.012825 -0.357178 0.4317185083 0.2852566303 -0.8557147798 4.268635382e-41
0.0057106 0.0192871 -0.337158 -0.5900270496 0.3533963758 0.7259332492 3.874029734e-41
0.04205932 0.01667482 -0.339111 -0.2368474008 -0.6440711401 0.7273758831 3.909902975e-41
0.006317902 0.01855774 -0.3355958 0.6373610003 -0.4370024161 -0.6346651429 3.802283253e-41
0.0379639 0.0132828 -0.347168 0.6589267088 0.5016130451 -0.5605354096 4.089269179e-41
0.0123164 0.01829016667 -0.3287763333 -0.5813875506 0.5260222736 0.6207165888 3.65879029e-41
0.0298157 0.0199127 -0.348145 -0.304735887 -0.8422268112 0.4447359191 4.125142419e-41
0.0332489 0.018848425 -0.34741225 -0.5956199231 -0.6672832997 0.4471799471 4.089269179e-41
-0.0176137 0.009379066667 -0.335205 0.4450188525 0.3935224501 0.8044242054 3.802283253e-41
-0.00764656 -0.00723648 -0.345215 0.1142217436 -0.6518810612 0.7496695775 4.053395938e-41
0.03487143333 0.019399 -0.3439126667 0.6426625553 0.6376372156 -0.4247394746 4.053395938e-41
0.03609213333 0.01878356667 -0.3426106667 -0.6254334528 -0.6374476313 0.4499927927 3.981649457e-41
0.0236206 -0.00671005 -0.320068 0.256493733 0.6258576194 -0.7365549573 3.300057883e-41
-0.0108738025 -0.00802612 -0.343994 0.4074185383 -0.6568754018 0.6344484543 4.053395938e-41
0.03695678 0.01885684 -0.3410648 -0.6210320306 -0.627018844 0.4702835169 3.945776216e-41
0.0378723 0.0194092 -0.339111 -0.5078692243 -0.6452716757 0.5706954666 3.909902975e-41
0.03942192222 0.01856652222 -0.3385687778 -0.4240431492 -0.6020504446 0.6765520452 3.874029734e-41
0.04171075556 0.01851401111 -0.3375922222 -0.2273680829 -0.5945065631 0.7712753732 3.874029734e-41
-0.0319214 0.00774384 -0.322021 0.3976078799 0.2725175561 0.876151902 3.371804365e-41
0.04409112222 0.01850893333 -0.3374836667 -0.1408351443 -0.5864434141 0.797652546 3.874029734e-41
0.0354919 0.0157471 -0.347168 0.688656043 0.5404763496 -0.4833613244 4.125142419e-41
0.0456543 0.01848856667 -0.337158 -0.1065746291 -0.5761616597 0.8103576928 3.874029734e-41
-0.02546945 0.01369478333 -0.3305665 0.5640027691 0.5453294915 0.620094043 3.694663531e-41
-0.05770876667 0.01822916667 -0.342285 0.2072150734 0.4931575017 -0.8449009361 3.981649457e-41
0.01116433333 0.01154963333 -0.3255206667 -0.6628384099 0.2814285797 0.693861079 3.515297328e-41
-0.00476837 0.0180511 -0.344238 -0.4964548473 0.3273875182 0.8039589526 4.053395938e-41
-0.0197296 -0.0046463 -0.335205 0.5772204499 -0.3899777191 0.7174496016 3.802283253e-41
-0.05546266 0.01837466 -0.3410648 0.2462635165 0.734559565 -0.6322788356 3.945776216e-41
-0.05130614 0.01822204 -0.3381346 -0.2444098311 -0.8686873898 0.4308666305 3.874029734e-41
0.001310945875 0.001310869875 -0.335571375 0.6821528921 0.2722318442 -0.6786436877 3.802283253e-41
-0.0491028 0.0183716 -0.335205 0.5335335916 0.7160236675 -0.450168873 3.802283253e-41
-0.0377655 0.0142746 -0.323242 -0.2481936361 -0.475786136 -0.8438172028 3.407677606e-41
0.006979623333 0.0177968 -0.334229 0.6594662864 -0.4558957959 -0.597715016 3.802283253e-41
-0.02325948333 0.01377995 -0.3327635 0.6069904134 0.5119472508 0.6078426199 3.766410012e-41
0.0147934 0.0178833 -0.326172 0.5421004308 -0.5868602422 -0.601433437 3.551170568e-41
0.02974446667 0.0189514 -0.3506673333 -0.4051696067 -0.7687434047 0.4948445893 4.196888901e-41
0.00326538 0.006412506667 -0.332275 0.7648131389 -0.04976970182 -0.6423268944 3.730536772e-41
0.002274193333 -0.0082194 -0.340902 0.6680718895 0.4740925113 -0.573512198 3.945776216e-41
0.0357971 0.0125656 -0.350342 0.6572968865 0.3906911169 -0.6444542297 4.196888901e-41
0.0379944 0.01825715 -0.340088 -0.541463551 -0.5978867721 0.5910572144 3.945776216e-41
-0.026576975 -0.01075745 -0.33398475 0.558678508 -0.5834595759 0.5894516503 3.802283253e-41
0.0108948 0.00935364 -0.325195 -0.6571229425 0.1972025453 0.7275304767 3.515297328e-41
0.009591238571 0.008490428571 -0.3257532857 -0.6667356605 0.1016070194 0.7383356775 3.551170568e-41
-0.02887345 0.0083694475 -0.324219 0.5017397848 0.3023505838 0.8104574713 3.479424087e-41
-0.0566101 0.0179596 -0.342285 0.1474599832 0.5761785918 -0.8039115522 3.981649457e-41
0.014009475 -0.00132280575 -0.3237305 -0.6415629298 -0.4069407259 0.6502278467 3.443550846e-41
-0.01619264 0.004235074 -0.334229 0.4037422671 -0.02004513097 0.9146531443 3.802283253e-41
-0.0605774 -0.006204878571 -0.346191 -0.004927236992 -0.3825613014 -0.923916973 4.089269179e-41
0.03700765 0.01666641667 -0.3435871667 0.6765623325 0.5893382002 -0.4415245134 4.017522697e-41
-0.0534668 0.0178528 -0.340088 -0.2353136054 -0.8350897423 0.4972450397 3.945776216e-41
-0.0448761 -0.0109291 -0.333252 0.8939305042 -0.1475631138 -0.4232178885 3.766410012e-41
-0.0382385125 0.0163192875 -0.32397475 -0.2143909627 -0.5554366357 -0.8034467368 3.479424087e-41
-0.03588865 0.01686475 -0.325195 0.3329180291 0.5598086015 0.7588016313 3.515297328e-41
-0.0326945 0.0169067 -0.327148 0.4961739429 0.5560782007 0.6667746644 3.587043809e-41
-0.02038742222 0.008794147778 -0.3330348889 0.6964956333 0.2143623107 0.6847938614 3.766410012e-41
-0.0303802 0.0173187 -0.330078 0.527478272 0.487763486 0.6955957549 3.694663531e-41
-0.02742 0.0174255 -0.332275 0.5495523411 0.4495698922 0.7041868618 3.730536772e-41
-0.0257778 0.0164632875 -0.332641375 0.6005479574 0.4771718396 0.6415989296 3.730536772e-41
0.006971993333 -0.005680083333 -0.3339033333 0.6319794661 0.4650042928 -0.6199781949 3.802283253e-41
-0.02792356 0.008737184 -0.325195 0.5431341251 0.2760357082 0.7929751635 3.515297328e-41
0.0024929 0.00130602625 -0.334229 0.6836555897 0.2870575772 -0.6709791219 3.802283253e-41
0.01339085 0.01147461667 -0.3234048333 -0.6692032855 0.2572927463 0.6971136244 3.407677606e-41
0.03271486667 0.0109889 -0.3529456667 -0.6179353557 -0.2154461458 0.756134151 4.232762141e-41
0.04174804286 -0.004144395714 -0.3407857143 -0.4912889011 0.5846772407 0.6455910004 3.945776216e-41
-0.0499878 -0.012001 -0.341309 0.5479405784 -0.6317608176 -0.5483059291 3.945776216e-41
-0.0168457 0.0178986 -0.341309 0.4904348441 0.4910392561 0.7199681331 3.945776216e-41
0.03221438 -0.004199218 -0.3511228 -0.6599742504 0.135626464 0.7389448227 4.196888901e-41
-0.0127716 0.012207 -0.340088 0.4133338867 0.5651502685 0.71397498 3.945776216e-41
0.011673925 0.016530025 -0.328002875 0.632409716 -0.4933306702 -0.59722927 3.62291705e-41
-0.03542654286 -0.001516343143 -0.321045 -0.2671464665 0.2322048712 -0.9352612807 3.335931124e-41
-0.05088588571 0.01592147143 -0.343401 -0.008993324171 -0.8697915633 0.4933373658 4.017522697e-41
0.0132904 0.0171661 -0.327148 -0.5864924281 0.541994656 0.6018873854 3.587043809e-41
0.022228225 -0.0053663225 -0.319092 0.3755571961 0.5419604522 -0.7518215618 3.228311402e-41
0.0483551 0.00903829 -0.342285 0.2627199997 0.255395473 -0.9304576047 3.981649457e-41
0.01714831667 0.01587803333 -0.3218583333 0.5519949644 -0.4852329409 -0.6781228151 2.79194706e-41
0.029350275 0.01786425 -0.352539 -0.48485501 -0.6837117728 0.545393281 4.232762141e-41
-0.01359667143 -0.006334034286 -0.3406112857 0.486717086 -0.5773218596 0.6555958729 3.945776216e-41
-0.0280457 0.01225533333 -0.327148 0.5177034415 0.490360563 0.7010917664 3.587043809e-41
-0.0559730625 0.0162458375 -0.342651375 -0.07235410406 -0.6720206057 0.7369892735 3.981649457e-41
-0.0548401 0.0170898 -0.341309 0.1919826503 0.7574502105 -0.6240287178 3.945776216e-41
-0.05323283333 0.0170898 -0.341309 -0.2002974458 -0.7603156527 0.617900511 3.945776216e-41
-0.0178782 0.01677453333 -0.340088 0.4861575333 0.5354763144 0.6905910291 3.945776216e-41
-0.03102873333 0.01375835 -0.3260091667 0.5305210547 0.4669216069 0.7074825959 3.551170568e-41
-0.0511322 0.01706695 -0.3406985 0.1476766066 0.8952534273 -0.4203723597 3.945776216e-41
0.0241260625 -0.00865077875 -0.321655 0.1682924475 0.5983115863 -0.7833906419 3.371804365e-41
-0.01067608333 -0.01400502222 -0.3508842222 0.231075553 -0.6614340843 0.7135187741 4.196888901e-41
0.03436283333 0.0059717 -0.3526203333 -0.6208015082 0.05976400988 0.7816864784 4.232762141e-41
-0.03612672 0.0157776 -0.324219 0.3277573386 0.5198716988 0.7888653521 3.479424087e-41
-0.00230408 0.01548 -0.341309 -0.5300469631 0.3885273196 0.7537219241 3.945776216e-41
0.033554075 0.0156994 -0.35083 0.6841059097 0.4921981944 -0.5382750614 4.196888901e-41
-0.02266183333 0.01627731667 -0.3355306667 0.6078645029 0.5136974169 0.6054879933 3.802283253e-41
-0.0276184 0.00704575 -0.325195 0.5769990637 0.1840010478 0.7957485123 3.515297328e-41
0.0417595 0.009020805 -0.345459 -0.6691941106 -0.1779421752 0.7214678264 4.053395938e-41
0.002260523333 -0.00576655 -0.3387856667 0.6275817288 0.4799873122 -0.6129872378 3.909902975e-41
-0.0185979 0.01590093333 -0.338623 0.5170520658 0.5357000337 0.6675946638 3.874029734e-41
-0.0161228125 0.016165725 -0.340851125 0.5095648004 0.5314639825 0.6766755127 3.945776216e-41
0.0486679 0.01382255 -0.340088 0.1585986591 0.5291693646 -0.8335623846 3.945776216e-41
-0.01329573 0.01654816 -0.3433594 0.4480859823 0.5455315525 0.7082473281 4.017522697e-41
-0.00555293 -0.0023098 -0.342285 0.008140717262 -0.5260443393 0.8504181805 3.981649457e-41
-0.01050824333 0.0172882 -0.345215 0.2157480614 0.5936973207 0.7752265897 4.053395938e-41
-0.03327724286 -0.008261542857 -0.3257532857 0.4070360846 -0.6768899619 0.6133038442 3.551170568e-41
-0.00805537 0.0172882 -0.345215 -0.1765181825 0.5424093645 0.8213607079 4.053395938e-41
-0.00642014 0.0172882 -0.345215 -0.251115671 0.5017427861 0.8277651215 4.053395938e-41
-0.053543075 -0.013571725 -0.342651375 0.2310855677 -0.428613359 -0.8734357726 3.981649457e-41
0.02189636667 0.008876804444 -0.317139 0.3189230342 0.002169538756 -0.947778134 3.192438161e-41
-0.0054755225 0.0163049625 -0.34375 -0.3587210903 0.4739408636 0.8041761233 4.017522697e-41
-0.0119324 -0.00309372 -0.339111 0.4694929271 -0.4439560203 0.763203409 3.909902975e-41
0.00567627 0.0167847 -0.335205 0.6582288172 -0.4530933942 -0.6011998007 3.802283253e-41
-0.00150013 0.0171356 -0.342285 -0.5659047038 0.2553074669 0.7839451279 3.981649457e-41
-0.0006868324286 0.01625715714 -0.3406112857 -0.6026898648 0.324049368 0.7292166577 3.945776216e-41
-0.0272522 0.0149765 -0.330078 0.5461423513 0.5399390704 0.6404641539 3.65879029e-41
0.000926495 0.0170441 -0.340088 -0.6156099864 0.2902018378 0.7326713028 3.945776216e-41
-0.005533855556 0.01143307778 -0.3411733333 -0.2365964581 0.4775451132 0.8461517481 3.945776216e-41
0.0319163 0.01351335556 -0.3532713333 0.6510686025 0.3074171188 -0.6939772258 4.232762141e-41
0.0317459125 -0.001440404875 -0.352539 -0.6028050304 0.2431968074 0.7599219751 4.232762141e-41
0.008196513333 0.01419576667 -0.330078 0.6635126969 -0.4478321305 -0.5993306967 3.694663531e-41
0.0102539 0.01609805 -0.329102 0.6456283268 -0.4747821622 -0.5981186856 3.65879029e-41
0.00182270975 0.0160551125 -0.338378875 -0.6309946542 0.3457619281 0.6944742152 3.874029734e-41
0.00111853975 -0.0016789465 -0.33740225 0.6687752205 0.386244083 -0.6352599569 3.874029734e-41
0.003580726667 0.016627 -0.337158 -0.632017401 0.3902264292 0.6695351662 3.874029734e-41
0.0371704 -0.01084133333 -0.3304036667 0.5376990274 0.6276578545 0.5629612541 3.694663531e-41
0.0034666075 0.0089836125 -0.3327635 0.7698579318 -0.2341982697 -0.5936917848 3.766410012e-41
-0.05088805 0.0146694 -0.345947 0.2305353526 -0.7231037188 0.6511332145 4.089269179e-41
-0.04867553333 0.006504056667 -0.351318 -0.2891852399 0.3255542285 -0.9002146085 4.196888901e-41
-0.0324402 0.01418115 -0.32543925 0.4792792631 0.4595073528 0.7477595741 3.515297328e-41
0.004255296 0.0158661 -0.3357912 0.6547096377 -0.438594183 -0.6156219888 3.838156494e-41
0.03641184286 0.01079992857 -0.3506208571 0.6782659486 0.2982160043 -0.6715821006 4.196888901e-41
0.0144475 0.01572673333 -0.324219 0.6188704478 -0.4842785251 -0.6184445642 3.479424087e-41
0.01893006 0.01574404 -0.3202634 -0.5342569988 0.380780164 0.7547025414 3.300057883e-41
-0.04647825 -0.0110283 -0.336182 0.8080912322 -0.374317344 -0.45483523 3.838156494e-41
0.0205841 0.016037 -0.320068 0.3442220294 -0.6792334344 -0.6481922061 3.300057883e-41
0.0212822 0.01561355 -0.319092 -0.2234806883 0.5273953089 0.8197015128 3.228311402e-41
0.0443802 0.0162773375 -0.338867 -0.1697339337 -0.6129444687 0.7716796421 3.909902975e-41
-0.0600586 0.01597215 -0.343262 -0.08076125893 -0.3751157483 0.9234531902 2.026697969e-41
0.019250875 -0.00588321625 -0.321410875 -0.5344477982 -0.508017228 0.6754880066 3.335931124e-41
-0.0534617 0.01594925 -0.3427735 -0.06541491179 -0.7347457579 0.6751811317 4.017522697e-41
0.03593443333 -0.006462733333 -0.3474936667 0.7565430414 -0.1929048183 -0.6248442667 4.089269179e-41
-0.0246887 0.006315866667 -0.327148 0.7174992691 0.1075603834 0.6882045937 3.587043809e-41
-0.04832966667 0.01626586667 -0.340902 0.1428794361 0.9293333588 -0.3404775689 3.945776216e-41
0.0199585 -0.00751877 -0.322021 -0.4734016951 -0.5126158121 0.7163210623 3.371804365e-41
-0.0344238 0.0154724 -0.324219 0.392126791 0.4665023419 0.7928506446 3.479424087e-41
-0.02109273333 0.01549786667 -0.3358563333 0.5713431403 0.5234470507 0.6321156549 3.838156494e-41
0.001465398833 -0.006604513333 -0.3406985 0.6431775323 0.4739648551 -0.6013983522 3.945776216e-41
-0.0143433 0.0129776 -0.339111 0.4499357905 0.5514286601 0.7024843181 3.909902975e-41
0.0124741 0.0155716 -0.326172 -0.6261840071 0.4576463089 0.6312316891 3.551170568e-41
0.0321503 0.0167694 -0.351318 0.6536493709 0.5175893817 -0.5521265541 4.196888901e-41
0.03756715 -0.00679779 -0.34375 0.7641990289 -0.4124543676 -0.4958641335 4.053395938e-41
-0.0483856 0.0156174 -0.344238 -0.03261833693 -0.9204295508 0.3895452297 4.089269179e-41
-0.03586834444 0.01389821111 -0.3233505556 0.341009912 0.443871678 0.8286677098 3.407677606e-41
-0.05106355 0.01126606667 -0.3483889167 0.3268309519 -0.5106385267 0.7952545655 4.125142419e-41
0.02210998571 -0.001282079286 -0.317139 0.4664560401 0.2881843222 -0.8362825833 3.192438161e-41
0.04145303333 -0.008092246667 -0.3355306667 0.2078540599 -0.7940143259 -0.5712599585 3.802283253e-41
-0.0337448 0.0138358875 -0.324096875 0.4313817189 0.4235147653 0.7965833642 3.479424087e-41
-0.003084181667 0.003722825833 -0.3380535 -0.4776110513 -0.1638558124 0.8631563917 3.874029734e-41
0.01723228333 -0.0057621 -0.3237305 0.6661387661 0.474154824 -0.575705087 3.407677606e-41
-0.0564575 0.00996399 -0.346191 0.2178954296 -0.433436513 0.8744451789 4.089269179e-41
0.0165290875 0.00096767375 -0.320434375 -0.5956675198 -0.2940221734 0.7474832221 3.300057883e-41
-0.030365 0.01458233333 -0.327148 0.5247578379 0.5340787628 0.6628643049 3.587043809e-41
0.004425045 0.006383895 -0.3305665 0.761353764 0.002512424084 -0.6483318084 3.694663531e-41
-0.0144272 0.01548 -0.341309 0.4629564187 0.546200256 0.6980950041 3.945776216e-41
-0.005535126667 -0.001091241 -0.341309 0.03384274272 -0.5617445257 0.8266182653 3.945776216e-41
-0.0378418 -0.0122833 -0.327148 -0.1267055548 0.5923277966 -0.7956717186 3.587043809e-41
0.000120103 0.0153885 -0.339111 -0.6016847204 0.3703083936 0.7077055821 3.909902975e-41
0.00486755 0.0151596 -0.334229 0.6738560137 -0.4427902223 -0.5914853268 3.802283253e-41
0.0360107 0.00763321 -0.352295 0.588890499 0.03304140631 -0.8075371482 4.232762141e-41
0.01717484286 0.008645194286 -0.319092 -0.4907715283 0.162190107 0.8560593882 3.228311402e-41
0.009296422 0.01373215 -0.3284181 0.6651744094 -0.3755178793 -0.6453908331 3.62291705e-41
0.007252373333 0.01075745 -0.3286135 -0.6690122446 0.2904481758 0.6841509144 3.65879029e-41
0.0109634 0.0144539 -0.327148 0.6671279703 -0.4089690286 -0.6226432405 3.587043809e-41
0.01190184286 0.0138866 -0.3256137143 0.6690483178 -0.3832265105 -0.6367980764 3.515297328e-41
-0.01545713333 0.0143585 -0.340088 0.4783968756 0.5385375139 0.6936236555 3.945776216e-41
0.0321503 -0.00611496 -0.351318 0.6719127094 -0.1206916528 -0.7307303442 4.196888901e-41
0.01391055714 0.01391164286 -0.3236607143 -0.6512399797 0.3776034637 0.6582568746 3.443550846e-41
-0.00960541 -0.00474167 -0.342285 0.3869095457 -0.5458383639 0.7432102555 3.981649457e-41
0.00011903 0.002110005 -0.336182 -0.645287951 -0.2010359393 0.7370128977 3.838156494e-41
0.000120103 -0.00309372 -0.339111 -0.6241190478 -0.4424850589 0.6439583735 3.909902975e-41
0.008857726667 -0.01087316667 -0.3355306667 0.6280961397 0.2640499679 -0.7319650632 3.802283253e-41
0.015182475 0.013656625 -0.322021 -0.6405834519 0.3489978279 0.6839980682 3.371804365e-41
-0.0136184875 0.0112543125 -0.338623 0.423157913 0.5538920401 0.7170362533 3.874029734e-41
0.01683214444 0.01379733333 -0.3208278889 -0.5834561886 0.3385630556 0.7382099521 3.335931124e-41
0.004092081429 -0.003854752857 -0.3354841429 -0.61692657 -0.4815789887 0.6224815538 3.802283253e-41
-0.0161934 0.01349386667 -0.338623 0.4808860175 0.5214913648 0.7048371405 3.909902975e-41
-0.007984163333 0.0122833 -0.342285 0.01039802665 0.5021128621 0.8647395878 3.981649457e-41
0.01850125 0.013952225 -0.320068 -0.4993209756 0.2980270753 0.8135468184 3.300057883e-41
0.0189514 0.00614166 -0.318115 0.3391923654 -0.008368090198 -0.940679815 3.228311402e-41
0.0154266 -0.00218201 -0.323242 -0.6352572913 -0.4212580098 0.6472942631 3.407677606e-41
-0.03320313333 -0.009442646667 -0.327148 0.445910047 -0.6465763999 0.6189533012 3.587043809e-41
0.01946106 0.01356812 -0.319092 -0.4683091014 0.2963449736 0.8323858734 3.228311402e-41
0.0436401 0.0154343 -0.340088 -0.2144685094 -0.626709675 0.7491583556 3.945776216e-41
0.00721168625 0.00410056125 -0.328247125 -0.6938212676 -0.1677368158 0.7003402096 3.62291705e-41
0.0483398 0.0153885 -0.339111 -0.164039288 -0.5450696934 0.8221861963 3.945776216e-41
-0.003086088889 0.006532033333 -0.3382433333 -0.4510844892 0.198075966 0.8702233595 3.874029734e-41
-0.05855645556 0.01397448889 -0.3440211111 -0.06055943844 0.4688518881 -0.8811983099 4.053395938e-41
-0.01330568 0.009390258 -0.3373534 0.4257750914 0.5065504863 0.7497480753 3.874029734e-41
0.0461731 -0.00548935 -0.338135 0.1551997873 -0.7470345626 -0.6464150279 3.874029734e-41
0.0348511 0.0141907 -0.349121 0.6964182695 0.4834705497 -0.5303374599 4.16101566e-41
-0.05618285 0.0140695375 -0.343872 -0.09275613987 0.5893089653 -0.8025654129 4.053395938e-41
-0.02091287273 -0.003758169091 -0.3334296364 0.6086637483 -0.3354489411 0.7190288238 3.766410012e-41
-0.0540924 0.014801 -0.344238 -0.167630914 0.6848086424 -0.709180513 4.053395938e-41
-0.04888918333 0.01412581667 -0.3476565 0.1018273686 -0.7043888505 0.7024724438 4.125142419e-41
0.0189514 0.003881453333 -0.318115 -0.3426067334 -0.04118346235 0.9385758087 3.228311402e-41
-0.02080689 0.0111725 -0.3334474 0.6726183417 0.3556314475 0.6489305356 3.766410012e-41
0.0324707 -0.00989532 -0.325195 -0.5977359658 0.1012762452 -0.795270292 3.515297328e-41
-0.007997724444 0.01392615556 -0.3428277778 0.02347965046 0.5845373058 0.8110270304 4.017522697e-41
-0.01052570625 0.014217375 -0.34252925 0.2350256219 0.5725699312 0.7854467716 3.981649457e-41
-0.05088805 -0.009094235 -0.345947 0.03995862027 -0.7870501833 -0.6155934679 4.053395938e-41
-0.00565862875 0.0140142375 -0.34252925 -0.2645519181 0.5135428552 0.8162634492 3.981649457e-41
-0.0352783 0.008506774 -0.322021 -0.344704359 -0.3147488539 -0.884370999 3.371804365e-41
0.03434243333 0.01342266667 -0.3509926667 0.6883340183 0.4058411853 -0.6012397289 4.196888901e-41
-0.00393295 0.01430895 -0.342285 -0.3900421758 0.4457964599 0.8056876674 3.981649457e-41
-0.02049370769 0.001209059 -0.3328010769 0.5784125093 -0.1572285428 0.8004487207 3.766410012e-41
-0.00824044 -0.001567190455 -0.340643 0.3276091421 -0.521792305 0.7876579463 3.945776216e-41
-0.002880641429 0.01374161429 -0.3411345714 -0.5243933952 0.383811801 0.7600658316 3.945776216e-41
-0.0002817215 0.01376851667 -0.3387856667 -0.5990636064 0.3590121452 0.7157046005 3.909902975e-41
0.003495695 0.013828275 -0.33544925 0.6922547592 -0.3931149931 -0.6051809238 3.802283253e-41
0.0394694 0.01423515 -0.34375 -0.5626045636 -0.6073328948 0.5609125243 4.053395938e-41
-0.0178782 -0.00928243 -0.340088 0.5105359104 -0.6134016166 0.6025707768 3.945776216e-41
0.04143415714 0.01369912857 -0.3429827143 -0.4877622997 -0.6157005566 0.6188705548 4.017522697e-41
-0.008140564286 -0.006163461429 -0.3439591429 0.2764225455 -0.6073868487 0.7447629102 4.053395938e-41
0.04428407 0.01400679 -0.3408206 -0.2589887416 -0.6004376465 0.7565708588 3.945776216e-41
-0.0496521 0.0100784 -0.350342 -0.2773658932 0.4519631892 -0.8478192242 4.196888901e-41
-0.05588783333 -0.006708781667 -0.3460283333 0.2091144745 0.4831859845 0.8501778878 4.089269179e-41
0.04688178889 0.01382614444 -0.3402236667 -0.2181087015 -0.5550508948 0.8027123386 3.945776216e-41
-0.01858773333 -0.008433023333 -0.3384601667 0.5120693111 -0.6016652396 0.6130122022 3.909902975e-41
-0.05073852 0.01362002 -0.3473634 0.2383296171 -0.6706953111 0.7024007356 4.089269179e-41
-0.05603705556 -0.001527945222 -0.3485787778 0.4095619131 0.2413983206 0.8797646788 4.125142419e-41
-0.037262 0.0130844 -0.322021 -0.2844585398 -0.3659787595 -0.8860828893 3.371804365e-41
-0.029930125 0.00642967 -0.323242 0.4831799509 0.244982708 0.8405478022 3.407677606e-41
-0.02650148 0.01287996 -0.3285158 0.5499149322 0.5245377572 0.6499643902 3.62291705e-41
-0.0463562 -0.00949097 -0.338135 0.7751611778 -0.4263604468 -0.4661994399 3.874029734e-41
-0.023941 0.0129318 -0.331055 0.6336844527 0.4785697044 0.6077952389 3.694663531e-41
0.04637317778 0.00904592 -0.3426106667 0.3216885958 0.151191071 -0.9346965857 3.981649457e-41
0.042511 0.00990295 -0.344238 -0.5651473511 -0.2837184814 0.7746691519 4.053395938e-41
0.0294533 0.0058221825 -0.356201 -0.5496202037 0.1330652739 0.8247492131 4.268635382e-41
-0.0189972 0.0132599 -0.336182 0.5591992289 0.4632536889 0.6875261756 3.838156494e-41
-0.011394475 0.013256075 -0.341309 0.3572954298 0.5782275861 0.7334799483 3.945776216e-41
0.002242723333 0.01312766667 -0.336182 0.6798700611 -0.3326713839 -0.6535338173 3.838156494e-41
-0.01347943333 -0.001480316111 -0.3377007778 0.462980848 -0.4050396579 0.7884108129 3.874029734e-41
0.030426 0.0140114 -0.355225 -0.639575702 -0.3396629228 0.6896172999 4.268635382e-41
0.03885906667 0.0134913 -0.3455403333 0.6185625219 0.5692259866 -0.541629193 4.053395938e-41
0.03258515 0.0082950625 -0.3537595 0.5703723886 0.1137087445 -0.8134775103 4.268635382e-41
-0.0525208 0.0132828 -0.347168 0.3203828855 -0.6100203417 0.7247275277 4.089269179e-41
-0.005896808125 0.003729581875 -0.338623 0.02480136287 -0.1789268166 0.9835497378 3.909902975e-41
-0.03318668462 0.01148986923 -0.3235426154 0.4217414102 0.3650464733 0.8299850934 3.443550846e-41
-0.037262 0.01194 -0.322021 -0.3081352576 -0.3829004992 -0.8708845335 3.371804365e-41
-0.03573607 0.01117707 -0.322021 -0.3576688702 -0.3414385165 -0.8691908414 3.371804365e-41
-0.030454 0.01192855 -0.3253578333 0.4600021152 0.4319677522 0.7757589285 3.515297328e-41
-0.0286153 0.01100583333 -0.3258463333 0.4907971913 0.4285324969 0.7586026734 3.551170568e-41
0.01145324 -0.00870056 -0.3324704 0.5988899858 0.4386736662 -0.6699971638 3.730536772e-41
-0.01052853333 0.003447848333 -0.337158 0.4212671677 -0.1836855194 0.8881405313 3.874029734e-41
-0.00472641 0.0130539 -0.341309 -0.3214228062 0.42041317 0.8484928675 3.945776216e-41
0.009036065 0.011559475 -0.327514375 -0.6669976395 0.32442625 0.6707173452 3.587043809e-41
0.0168228125 0.00398469125 -0.31884775 -0.485190609 -0.1183850197 0.8663573512 3.228311402e-41
0.01214346667 0.01099143333 -0.324219 -0.6833765802 0.2527569581 0.6849163232 3.479424087e-41
0.0146942375 0.0112648125 -0.321777 0.6415370027 -0.2349447168 -0.7302268512 3.371804365e-41
0.006962584 -0.00847473 -0.3359866 -0.6523226567 -0.3628027848 0.6654692261 3.838156494e-41
0.0399597 0.011763 -0.3459958 0.6566527357 0.4130770335 -0.6310107361 4.089269179e-41
0.0167179125 0.0115966875 -0.320434375 -0.5765958863 0.2542512769 0.7764621511 3.300057883e-41
0.0186119 0.01125525 -0.31884775 -0.4709970225 0.1925769345 0.8608576706 3.228311402e-41
0.0335083 0.0130577 -0.352295 0.6825674388 0.305815783 -0.663760799 4.232762141e-41
-0.0546265 0.003027915 -0.350342 0.501187014 -0.05700845337 0.8634590976 4.196888901e-41
0.04348755 0.013092 -0.342285 -0.4084235569 -0.5532585315 0.7260132199 3.981649457e-41
-0.06050416 0.01126558 -0.3458006 -0.03978623575 0.458580057 -0.8877620102 4.089269179e-41
-0.01339466667 0.004092747778 -0.3355306667 0.4364738449 -0.08660645887 0.8955388903 3.802283253e-41
0.03858776667 0.01120587778 -0.3479277778 0.6812946613 0.4044255637 -0.6101455138 4.125142419e-41
-0.05828301818 0.01165632727 -0.3454811818 0.1571556229 -0.5013547943 0.8508498578 4.053395938e-41
0.00486755 -0.00304794 -0.334229 0.6368901559 0.4357936101 -0.6359676554 3.802283253e-41
-0.05336690909 0.01113405455 -0.3477896364 0.3840165523 -0.5018537739 0.7750316621 4.125142419e-41
-0.0310255 0.01052967143 -0.3240794286 0.4639177892 0.3883621701 0.7962129801 3.479424087e-41
0.000918388 0.01169965 -0.337158 -0.6609067847 0.3148957998 0.6812069122 3.874029734e-41
-0.037887575 -0.00588798375 -0.321655 0.1900221145 -0.5490328979 0.8139130624 3.371804365e-41
-0.02316064286 0.01119775714 -0.3306362857 0.7154497716 0.3325143678 0.6144638472 3.694663531e-41
-0.0182724125 0.0111560875 -0.335815625 0.5433876348 0.4241317373 0.7244599008 3.838156494e-41
-0.0157699625 -0.00397801625 -0.337524375 0.5242149864 -0.4034765243 0.7499368923 3.874029734e-41
-0.008579255 0.008419035 -0.3389483333 0.2156450139 0.4456889578 0.8688259785 3.909902975e-41
-0.01107215 0.0115175125 -0.340545875 0.3524172654 0.5701022573 0.7421492352 3.945776216e-41
-0.0299225 -0.00450516 -0.325195 0.5939228119 -0.4414170181 0.6726118566 3.515297328e-41
-0.0151901 -0.00713348 -0.340088 0.5160546001 -0.577605259 0.6325028177 3.945776216e-41
-0.008494906667 0.0111635 -0.3411733333 0.1447898266 0.5419585867 0.8278386294 3.945776216e-41
-0.05859376667 -0.00965881 -0.344238 -0.05658440975 0.3760921945 0.9248528888 4.053395938e-41
-0.0006824664444 0.01133728889 -0.3381347778 -0.6149966933 0.2822174247 0.7362964026 3.874029734e-41
0.001841227833 0.0112521 -0.3356935 0.7101696617 -0.2707424031 -0.6498904545 3.802283253e-41
0.003836767143 0.01127952857 -0.333252 0.7551399882 -0.2998625566 -0.5829631595 3.766410012e-41
0.005911254 0.01123656 -0.3304688 0.6999657452 -0.3355856666 -0.6304206659 3.694663531e-41
0.00798798 -0.00460434 -0.332275 0.6264211027 0.4785056801 -0.6153282995 3.730536772e-41
0.0484619 -0.00310326 -0.340088 0.1994216005 -0.3582160559 -0.9120922555 3.945776216e-41
0.0486679 0.0011282285 -0.340088 0.3468684771 -0.2008025562 -0.9161662475 3.945776216e-41
0.009962065 0.0107403 -0.326172 -0.6553922517 0.255448607 0.7107791539 3.551170568e-41
-0.01798506667 -0.01176963333 -0.342285 0.5467892219 -0.5158679854 0.6594708246 3.981649457e-41
0.02164716667 0.0108795 -0.317139 0.3281365785 -0.08362880839 -0.9409211488 3.192438161e-41
0.0398636 -0.00171208275 -0.344238 -0.6471586405 0.3805725227 0.660568126 4.053395938e-41
0.04195658333 0.01180138333 -0.3440753333 -0.512102039 -0.4697437548 0.7190913061 4.053395938e-41
-0.00230408 -0.00311279 -0.341309 -0.4877071325 -0.4717124735 0.7345945108 3.945776216e-41
-0.01857331111 -0.01370068889 -0.3432618889 -0.5308361573 0.4707325551 -0.7047154289 4.017522697e-41
0.04700723333 0.01184085 -0.341309 0.2752309239 0.4562316608 -0.8462272805 3.945776216e-41
-0.002558393333 0.01083373333 -0.339111 -0.4991419025 0.3456276966 0.7946061015 3.909902975e-41
0.0461197 0.010860475 -0.342285 -0.3684008283 -0.3053189599 0.878100884 3.981649457e-41
-0.0549927 0.0108185 -0.347168 0.3675725717 -0.4921679691 0.789088775 4.089269179e-41
0.004608914 -0.008540344 -0.3385254 0.6744682919 0.4034136547 -0.6183445208 3.909902975e-41
0.0289001 0.0102844 -0.357178 0.6208274663 0.07160790141 -0.7806699466 4.268635382e-41
-0.03382875 0.0100327 -0.322021 -0.3544451153 -0.3259921727 -0.8764118687 3.371804365e-41
-0.00551987 0.009215218571 -0.340088 -0.1420747044 0.4599204038 0.8765203937 3.945776216e-41
0.031211875 -0.00383854 -0.352295 0.6431683048 -0.1629843794 -0.7481782032 4.232762141e-41
-0.0269318 0.0101624 -0.326172 0.5419987174 0.3692899521 0.7548922583 3.551170568e-41
0.03833006 0.0011119352 -0.3475588 -0.6577878477 0.338706452 0.6727503897 4.089269179e-41
-0.0218506 0.0103149 -0.331055 0.7254733043 0.293845115 0.62236929 3.694663531e-41
-0.0119324 0.0105667 -0.339111 0.3955632356 0.550900468 0.734873051 3.909902975e-41
0.01439609231 0.008660531538 -0.321195 -0.6781148782 0.1557322335 0.7182671393 3.335931124e-41
0.00011903 0.00807953 -0.336182 -0.6814098858 0.146805327 0.7170277286 3.838156494e-41
0.01618958 0.009062196 -0.320068 -0.620428895 0.1743100005 0.76464633 3.300057883e-41
0.0479431 0.0106583 -0.342285 0.3363594305 0.3059359533 -0.8906545492 3.981649457e-41
-0.0377197 -0.0083224 -0.3238933333 0.1920097418 -0.7045942597 0.6831392158 3.479424087e-41
-0.0335426375 0.00841140625 -0.322021 0.3535220744 0.3102484287 0.8824783597 3.371804365e-41
-0.0328064 0.00930023 -0.323242 0.4007805817 0.3561422872 0.8441194208 3.407677606e-41
-0.03080333636 0.008613239091 -0.3235084545 0.4491732229 0.3118890623 0.8372386928 3.443550846e-41
-0.02634977143 0.008494788571 -0.3258928571 0.6082081605 0.2480062206 0.7540396197 3.551170568e-41
-0.0289917 -0.005549116667 -0.326172 0.5900981119 -0.4536254792 0.6678384108 3.551170568e-41
-0.02500916 0.008799742 -0.3273434 0.6557200915 0.2847392163 0.6992529874 3.587043809e-41
-0.02817425714 -0.00643158 -0.3278458571 0.5736170238 -0.5309667261 0.6237289843 3.62291705e-41
0.0404663 -0.00592995 -0.3406985 -0.5259252961 0.7126075584 0.4643199874 3.945776216e-41
-0.00550461 0.00815582 -0.339111 -0.1658129863 0.3683411143 0.914784607 3.909902975e-41
-0.0426331 -0.00920868 -0.328125 0.7975817085 -0.03667973107 -0.6020946899 3.62291705e-41
-0.01578775556 0.008867052222 -0.3357477778 0.3825597828 0.4156604265 0.8251511513 3.838156494e-41
-0.01109737778 0.00893487 -0.3382432222 0.3834933128 0.5353136032 0.752577056 3.874029734e-41
-0.02655902857 0.001438065286 -0.3257532857 0.6954819301 -0.1407889061 0.7046157597 3.551170568e-41
-0.008071898333 0.009521483333 -0.340088 0.1886903495 0.5415630814 0.8192102178 3.945776216e-41
-0.002862114286 0.008835928571 -0.3388321429 0.4578679046 -0.3289370639 -0.825928199 3.909902975e-41
-0.000781072875 0.0090150825 -0.337524375 -0.6454915864 0.2080299501 0.7348905713 3.874029734e-41
-0.02568513 -0.0015151019 -0.3280273 0.7358086597 -0.2258021874 0.6384347958 3.62291705e-41
-0.01619264 0.006293486 -0.334229 0.3850873468 0.1968725271 0.9016368135 3.802283253e-41
0.00249036 0.00881958 -0.3339033333 0.7736101418 -0.1943424418 -0.6031238378 3.802283253e-41
-0.01570386667 -0.01351926667 -0.3455403333 -0.6502343928 0.4383680761 -0.6205067802 4.053395938e-41
0.004508206 0.008581544 -0.3308596 0.7656926555 -0.093163284 -0.6364238838 3.694663531e-41
-0.05605401111 0.003427931111 -0.3486872222 0.4136290043 -0.08053077697 0.9068769711 4.16101566e-41
0.006960298 0.008593749 -0.3283204 -0.6909041349 0.1315559981 0.7108758652 3.62291705e-41
0.00863647 0.00902557 -0.327148 -0.6740578706 0.236013818 0.6999596166 3.587043809e-41
-0.0225677 0.00402832 -0.330078 0.7600533634 -0.05696031828 0.6473595654 3.694663531e-41
-0.0008069284286 -0.006603788571 -0.3427037143 -0.5332073922 -0.5304148264 0.6590523414 3.981649457e-41
0.03897095 0.008535768 -0.3481447 0.7118844739 0.1934560872 -0.6751260906 4.125142419e-41
0.0132904 -0.00453186 -0.327148 0.6083075686 0.5302782556 -0.5905648767 3.587043809e-41
0.0440674 0.009072198889 -0.3435873333 -0.4593519058 -0.250122154 0.8523114071 4.017522697e-41
-0.0607605 0.00834783 -0.347168 0.05172493973 -0.3351772331 0.9407341564 4.089269179e-41
-0.0582885625 0.0082449925 -0.347168 0.1739014828 -0.3381875413 0.9248715917 4.089269179e-41
-0.05371475 0.00849151625 -0.348877 0.4425784734 -0.3634550445 0.8197711421 4.16101566e-41
-0.052002 0.00922394 -0.349121 0.3579025417 -0.4196500937 0.8341460121 4.16101566e-41
-0.04849751667 0.00843557 -0.3509926667 -0.2138654367 0.4272226774 -0.8784886789 4.196888901e-41
-0.0262909 -0.007987976667 -0.331055 0.5748199057 -0.5652389634 0.5916814939 3.694663531e-41
0.02868431429 0.00847626 -0.3575265714 0.4638627191 -0.05925830738 -0.8839229779 4.268635382e-41
0.0367927875 0.00854015375 -0.350952 0.706708398 0.1113484465 -0.6986878872 4.196888901e-41
0.0404358 0.00834783 -0.347168 -0.6930404922 -0.1521789101 0.7046534293 4.089269179e-41
-0.02362825 0.006345111667 -0.3286135 0.7628654304 0.04935285379 0.6446709478 3.65879029e-41
-0.03568861111 0.006024675556 -0.3207193333 -0.307374681 -0.2116371608 -0.9277556347 3.335931124e-41
-0.028368 0.00615692 -0.32397475 0.583689755 0.1214504546 0.8028424858 3.479424087e-41
-0.05810546667 -0.00479889 -0.346191 0.09722573101 0.395701414 0.9132182369 4.089269179e-41
-0.0225677 0.00637436 -0.330078 0.7735320279 0.05994896692 0.6309154644 3.694663531e-41
-0.0218506 0.00639343 -0.331055 0.7436299802 0.05271650347 0.666509882 3.694663531e-41
0.0357971 0.000953952 -0.350342 -0.6572996215 0.329417536 0.6778209901 4.196888901e-41
-0.0203603 0.006418864444 -0.3326006667 0.6075362989 0.1444333494 0.7810497123 3.730536772e-41
0.02839658 0.006219482 -0.357178 -0.504134752 0.1674122772 0.8472433424 4.268635382e-41
-0.05607096667 0.0009504016667 -0.3487956667 0.3992285709 -0.02419883244 0.9165320315 4.16101566e-41
-0.0507711 0.0009594356667 -0.352295 0.3508817553 0.0102496484 0.9363636785 4.232762141e-41
-0.0134735 -0.01085206 -0.3458006 0.5277898207 -0.6027600275 0.5984298241 4.089269179e-41
-0.01807148889 0.006447685556 -0.3340118889 0.4666040412 0.1874328368 0.8643781582 3.802283253e-41
-0.020991 -0.01531223333 -0.3429363333 -0.4668190441 0.4855627154 -0.7391270726 4.017522697e-41
-0.01516725 0.00667 -0.335205 0.3580599134 0.2218704752 0.9069545692 3.802283253e-41
0.0147934 -0.00529099 -0.326172 0.641333603 0.4961100061 -0.5852914415 3.551170568e-41
-0.01080066667 0.006779351667 -0.3373208333 0.4552303365 0.2805408821 0.8450219845 3.874029734e-41
-0.0467224 -0.01298525 -0.335205 0.819892181 -0.3753379863 -0.4323172535 3.802283253e-41
-0.0331726 -0.006235395714 -0.3236607143 0.4535344111 -0.5885780358 0.6692401914 3.443550846e-41
-0.005663301 0.006466293 -0.3390134 -0.1064451466 0.1950566977 0.9749986233 3.909902975e-41
-0.0011587172 0.006668852 -0.337158 -0.5514756354 0.143297613 0.8217909817 3.874029734e-41
-8.000475e-05 0.0062913875 -0.336182 -0.6575788345 0.07224690775 0.7499136355 3.838156494e-41
0.002093315 0.006441751667 -0.3337405 0.7518016837 -0.06624771674 -0.6560529463 3.766410012e-41
-0.0150604 -0.001876835 -0.337158 0.512129434 -0.3710639217 0.774619267 3.874029734e-41
0.01672363333 0.00615438 -0.3187663333 -0.4477054916 0.02964751143 0.8936894415 3.228311402e-41
0.03087615 0.00771141 -0.355713 -0.6093042774 0.03479646547 0.7921726475 4.268635382e-41
0.04188030833 0.006263415833 -0.3456216667 -0.6956397588 0.002264968827 0.7183872186 4.053395938e-41
0.0440674 0.006632487778 -0.3435873333 -0.4791494447 -0.04157426654 0.8767481908 4.017522697e-41
-0.00560252 -0.00723648 -0.345215 -0.02166217547 -0.6328005161 0.7740117939 4.053395938e-41
0.04640368889 0.006617654444 -0.3428277778 0.3636151566 -0.08118809147 -0.928004586 4.017522697e-41
0.01714831667 -0.003445308333 -0.3218583333 0.6524594063 0.4248165348 -0.6275568778 3.335931124e-41
0.0483551 0.006605786667 -0.342285 0.3421741242 -0.08525922802 -0.9357605104 3.981649457e-41
-0.05832247778 0.005884381111 -0.3473851111 0.1297408072 -0.2559799742 0.9579361021 4.089269179e-41
-0.05598618889 0.005899218889 -0.3482533333 0.4275798891 -0.2340284151 0.8731587137 4.125142419e-41
-0.0544739 0.005915326667 -0.349121 0.4405921027 -0.250352859 0.8620916686 4.16101566e-41
-0.0128479 -0.00717545 -0.342285 0.4766667301 -0.6098384898 0.6331554666 3.981649457e-41
-0.05301241111 0.005935244444 -0.3505588889 0.4613037034 -0.2560890567 0.8494805991 4.196888901e-41
-0.0507125875 0.00605010875 -0.351196 0.4106855665 -0.285237472 0.8660120958 4.196888901e-41
-0.0115611 0.005959826667 -0.336182 0.4144542204 0.1577973939 0.8962854912 3.838156494e-41
0.03086343333 0.006023406667 -0.3555503333 -0.5708087141 0.1021148394 0.8147085193 4.268635382e-41
0.0324249 0.00600052 -0.354248 0.589595578 -0.1006522202 -0.801402636 4.268635382e-41
0.03669233333 0.005942873333 -0.3509926667 -0.7037276502 0.06948249353 0.7070640547 4.196888901e-41
0.0389201 0.005903457778 -0.3484703333 0.7159341553 -0.07018963911 -0.6946306211 4.125142419e-41
-0.052002 -0.00484085 -0.349121 0.3831589872 0.4939935702 0.7804867348 4.16101566e-41
0.0404358 0.00588099 -0.347168 -0.7005819643 0.0404906191 0.712422221 4.089269179e-41
-0.02801256667 -0.001425902333 -0.3253578333 0.6719443003 -0.2555670002 0.6951088876 3.515297328e-41
-0.04855346667 0.005409243333 -0.352295 -0.2447750232 0.233199205 -0.9411181216 4.232762141e-41
0.0195109 -0.00316238 -0.319092 -0.518479411 -0.3328908163 0.787631135 3.228311402e-41
-0.0499268 0.00513077 -0.352295 -0.2702607997 0.2253259311 -0.9360487834 4.232762141e-41
-0.04852731429 -0.001663479286 -0.3524344286 -0.2746656933 -0.3242797157 -0.9052079446 4.232762141e-41
-0.03567505 0.003905107 -0.320068 0.4010354766 0.09244614657 0.9113858988 2.973695471e-41
-0.03334216667 0.003915997778 -0.3209364444 0.4240079345 0.109535552 0.8990101414 3.335931124e-41
