# .PCD v0.7 - Point Cloud Data file format
VERSION 0.7
FIELDS x y z normal_x normal_y normal_z
SIZE 4 4 4 4 4 4
TYPE F F F F F F
COUNT 1 1 1 1 1 1
WIDTH 576
HEIGHT 1
VIEWPOINT 0 0 0 1 0 0 0
POINTS 576
DATA ascii
0.00533321619 0.01985817909 -0.004145446777 0 0 1
-0.01271398449 -0.011364995 -0.006784935474 0.7694682943 0.6386752852 -0.003524798404
0.0102874279 0.02985618973 -0.04276873016 0.5301894887 0.004454920703 0.8478674777
0.01983210373 0.005475925446 -0.03577662277 0.9638159325 0.2659500716 0.01814958872
-0.01388414478 -0.009919675827 -0.008993571281 0.8322890626 0.554314055 -0.005553798707
-0.01449474239 -0.009025751114 -0.0381644516 0.8679322776 0.4966801675 0.001540346813
-0.0148510046 -0.008442491531 -0.01081858635 0.8624762627 0.5060402809 0.00761119771
0.01604506493 0.0128571825 -0.02042760658 0.8026190898 0.596384811 0.01130282593
0.01524426365 0.01003946352 0 -0.1893609889 -0.1223331648 -0.9742571594
-0.01558509827 -0.006937842846 -0.01220440769 0.9162439951 0.4003958861 0.01341923548
0.0008857465386 0.03407496071 -0.04004720879 0.03621439577 0.0002748532798 0.9993440058
0.01450148487 0.05448411942 -0.04601616669 0.7092854205 -0.005045501089 0.7049033517
-0.01056812668 -0.01338074398 -0.0228966732 -0.5978495819 -0.8016031057 -0.002887623528
0.01731732368 0.01112259102 -0.01352188969 0.8540810793 0.5199328137 -0.01467580665
-0.01070101643 0.01327538013 -0.01965547371 0.6130978694 -0.789951863 0.009330416139
-0.0008202388287 0.01833197594 0 -0.007013009436 0.3474988979 -0.9376541653
-0.01472222519 0.008652162552 -0.02064924622 0.8796988729 -0.475523523 -0.002696681181
-0.01621713257 -0.005416440487 -0.01339746857 0.9568761989 0.290443076 0.005546131401
0.01831173515 0.009378130913 -0.003749165058 0.8855070355 0.4646002666 -0.004886952797
-0.01450847054 0.0581047554 -0.04603019333 0.7962464175 -0.001784999569 -0.6049697979
-0.01661306572 -0.003877964258 -0.01414502811 0.9784816454 0.2062760424 -0.004885069607
-0.01705558586 0 -0.0149804306 0.9998680824 -0.001122668585 -0.01620362616
0.02045460129 0.00233540225 -0.03416204453 0.9919820229 0.1244552813 -0.02196700266
-0.01440183353 0.006122414589 -0.06598534393 0.8481095084 0.2613172173 0.4608943194
-0.01659758186 0.003877604008 -0.01411583328 0.9766952725 -0.2142981768 0.01194303961
-0.01453589964 0.05213764191 -0.04604904366 0.8474873181 -0.002127670843 -0.5308113776
-0.01590111542 0.006177141666 -0.01280093813 0.9323217323 -0.3616100866 -0.003785865253
-0.0148501873 0.00844244957 -0.01081704617 0.8660616838 -0.4999151699 -0.004688573608
-0.006832501888 0.02213278389 -0.04118540573 0.3369548134 -0.0003735990246 -0.9415207455
-0.01388256931 0.00991958046 -0.00899060154 0.8322909451 -0.5543124559 -0.005429911306
0.001009684563 0.05458923721 -0.04006854248 0.05603602999 -0.003375904329 0.9984230399
0.01287847853 0.01223177814 0 -0.0671194614 -0.0230992537 -0.9974775197
-0.01271398449 0.011364995 -0.006784935474 0.7695950308 -0.6385229382 -0.003456287608
-0.01467959213 -0.008724459648 -0.0240381012 0.8784354004 0.4778443425 0.004003962198
0.01993106174 0.00427409637 0 0.7893738827 0.1898697168 0.5838136381
-0.01133609104 0.01277246284 -0.004184332848 0.6557575582 -0.7549542423 0.00511047418
-0.009121073723 0.01630691767 0 -0.2308564586 0.412761566 -0.881097716
0.01887036514 -0.007250404835 -0.04722745132 0.9044159848 -0.4143769063 -0.1016046549
-0.007447402477 -0.017752738 0 -0.2121439914 -0.5068854879 -0.8355010647
-0.006790762663 0.03613545036 -0.04117957115 -0.3326392176 -0.001080048944 0.9430535427
0.01987771034 0.005246729851 -0.0190213604 0.9684734329 0.2490995002 -0.002940888523
0.02050642204 0.01749959183 -0.06200195313 0.952861442 -0.006634008917 -0.3033332528
0.0198266716 0.05198823547 -0.05514163208 0.9691890081 0.01560695987 0.2458232888
0.01903713608 0.05841617584 -0.05278154373 0.9299291408 -0.0005788220284 0.3677383009
-0.006810848713 0.03036005783 -0.04118326569 -0.3321501206 -0.00349023224 0.943220078
-0.009463307381 -0.01422954559 -0.003848567247 -0.5370566915 -0.8434642894 0.01175170193
0.0009756481647 0.04964060211 -0.04006013107 0.042162759 -0.001200665601 0.9991100341
-0.01294451618 -0.00765639925 -0.05443477249 0.7757023607 0.5553391249 0.2998071112
-0.01121236038 -0.01286995697 -0.007183805943 -0.6518999475 -0.7582110414 -0.01193629385
-0.0143891077 -0.005951797009 -0.05350181961 0.8610203978 0.4472333662 0.2421284593
0.01644956398 -0.01204358196 -0.04454206467 0.8325715855 -0.5528446785 -0.0344574595
0.01202305508 -0.01670353127 -0.03834737015 -0.6069784074 0.7854775202 -0.1208398861
-0.0126370821 -0.01145510387 -0.009900810242 0.7641921321 0.6449732196 -0.004464449714
-0.01383435249 -0.01000000286 -0.012184165 0.8328093291 0.5535595554 0.0006633371629
0.004217428207 0.02666238213 -0.0404429512 0.1934683199 -0.006246390274 0.9810866383
0.01524156189 0.007887203217 0 -0.005556640315 -0.002771796698 -0.9999807203
0.01483103514 0.01424474001 -0.03775111771 0.6680402373 0.7055845442 -0.2363740517
-0.01518714523 -0.007753284454 -0.0147643261 0.8869593863 0.461791967 -0.007157245246
-0.01544741058 0.007296761513 -0.03270783615 0.9002178247 -0.435310606 -0.01060869288
-0.01620266914 -0.005461472988 -0.01670127678 0.9479060082 0.3185318127 -0.003418172575
-0.01146638584 0.05248270035 -0.04349190903 0.4981417856 5.255872028e-05 -0.867095588
-0.01660850906 -0.003910437584 -0.01747547722 0.963078589 0.2691927619 -0.003858543989
-0.01691885185 -0.002350576639 -0.01806741905 0.9871695584 0.1594177432 -0.00906895986
-0.01691885185 0.002350576639 -0.01806741905 0.9870266921 -0.1603484311 -0.008166382584
-0.01611718178 0.005697942734 -0.03405457687 0.9458435016 -0.3246129319 0.002552433706
-0.01658938026 0.003909988642 -0.01743902588 0.9600748235 -0.279577544 -0.009629651265
-0.01620266914 0.005461472988 -0.01670127678 0.9509070812 -0.3094742918 -0.001177132789
0.02051013565 0.03595027542 -0.06244866562 0.9945879674 -5.62379033e-06 -0.1038979066
-0.01556510067 0.006995292664 -0.01548523617 0.9164675481 -0.4000439082 -0.007218360072
-0.01480822182 0.008511226654 -0.01404157162 0.8510336147 -0.5249839844 -0.0115586646
-0.01472350216 -0.008652229309 -0.02065173149 0.8797760155 0.4753806483 -0.002720635512
-0.01383260632 0.009999896049 -0.01218083763 0.8045859732 -0.5938297046 -0.002773742692
0.01682499886 0.01188084888 -0.03917207336 0.8212833723 0.5670892238 0.06247747238
0.01439325619 -0.01469828033 -0.02841236687 -0.6660446817 0.7054750923 0.2422589032
-0.009049602509 0.03050735855 -0.04209965897 -0.4444563756 -0.003048629751 0.8957953092
0.01799560738 0.00999088192 -0.02773969841 0.8878575657 0.4600854775 -0.00550422175
-0.0126370821 0.01145510387 -0.009900810242 0.7643261113 -0.6448145756 -0.004445086104
-0.007448262215 0.01849380684 0 -0.2279136244 0.5851425712 -0.7782438893
-0.01348949051 -0.01050864887 -0.03240241241 0.8126602135 0.5827264683 -0.003638753919
-0.005779374838 -0.01771364307 0 -0.2276024259 -0.5070269322 -0.8313367704
-0.006960160255 -0.01561364746 -0.002277617455 -0.5822171271 -0.7520340061 -0.308979078
-0.01656991196 0.004080894947 -0.03496489334 0.9598191505 -0.2805909723 -0.003988046686
-0.009315704346 -0.01433689499 -0.00681616497 -0.5257990891 -0.8505407637 0.01075765212
0.01880751801 0.02367653084 -0.05224150848 0.9170977329 0.007732050036 0.3985874605
-0.004491957188 -0.01648622131 -0.0247904644 0.3752572958 0.9268524586 0.01124641592
-0.0110874548 -0.01296898937 -0.01023025608 -0.6419908037 -0.7666300942 -0.01122972515
-0.01255896378 -0.01154663658 -0.01306594276 0.730517214 0.6828897646 -0.002483836563
0.0171785717 -0.01136249161 -0.02164569473 0.8484813653 -0.5291809794 -0.006845713836
0.01027982712 0.02823564911 -0.04276168442 -0.5373877568 -0.0007605144614 -0.8433349397
-0.01208666801 -0.01090078735 -0.04855804443 0.7047733043 0.6853046158 0.1834452862
-0.01056812668 0.01338074398 -0.0228966732 0.5978495819 -0.8016031057 0.002887623528
0.019437994 -0.006769028187 -0.02010471725 0.9461925265 -0.323505235 0.008004101243
0.0162552166 0.01258178425 -0.01223454952 0.8115353258 0.584158133 -0.01302653401
0.02036979485 0.03557202148 -0.0578837471 0.9797727289 0.00191359306 0.2001043174
0.01983788681 0.05366561508 -0.05518612671 0.9711885809 0.006605368961 0.238220716
-0.01378313923 -0.01008158875 -0.01542510509 0.8166880915 0.5770248466 -0.007930165377
-0.01476669502 -0.008581178665 -0.01732065964 0.8582185119 0.5126623098 -0.02526542921
0.01981214523 0.01555194187 -0.05413362885 0.9674248026 0.09804786421 0.233400659
0.01805605888 0.05986765671 -0.05074702835 0.878935902 0.009668605196 0.4768419006
-0.01604230881 -0.004215803146 -0.04905541611 0.9259934815 0.3607700223 0.1112702262
0.02035139084 0.02393789101 -0.05762586594 0.9775683084 0.001754095836 0.2106113141
-0.0155447731 -0.007053691864 -0.01882027817 0.9134011815 0.4068681263 -0.01251436934
0.01981586266 0.05031332397 -0.05509846497 0.9690726339 -0.01462413203 0.2463419676
-0.01367778969 0.0102487669 -0.02206627083 0.8219722252 -0.5694945975 -0.006128980968
-0.01570722485 0.007505634785 -0.04446983337 0.9136362566 -0.3939996857 -0.1001650547
-0.01692854118 0.002497530222 -0.04316526413 0.9849101017 -0.171744873 0.02134924118
-0.01618796349 -0.00550725317 -0.02005990028 0.9495533872 0.3135956257 0.002479596217
0.006675400257 0.04451899719 -0.04115603256 0.3177257463 -0.006255738486 0.9481620198
-0.01660387802 -0.00394345355 -0.02086158752 0.9591571495 0.2826829288 -0.01038866863
-0.01691662216 -0.002370456219 -0.02146435738 0.9868708999 0.1612579652 -0.009038566268
0.01261987368 -0.01559986909 0 -0.36208852 0.5942874694 -0.7181325138
0.0198891449 0.005192466736 -0.01505480766 0.9701145376 0.2426106999 0.004222816644
-0.01691662216 0.002370456219 -0.02146435738 0.986710679 -0.1622649751 -0.008491979375
-0.01658104324 0.003942913055 -0.02081761169 0.9596221298 -0.2811143612 -0.01000419031
0.01037735367 0.04450149155 -0.0428446579 0.5324196281 -0.00129019821 0.8464795774
-0.01618796349 0.00550725317 -0.02005990028 0.9498984864 -0.3125512676 0.002137915853
-0.008902861595 0.06055130386 -0.0420262146 0.4325780527 -0.003771098935 -0.9015886019
-0.0155447731 0.007053691864 -0.01882027817 0.9148092877 -0.4038760824 0.00284205397
-0.009037881851 0.0338212738 -0.04209339905 -0.4470724163 0.01426955805 0.8943839412
-0.0147655735 0.008581120491 -0.01731850052 0.8582152159 -0.5131428192 -0.01229188071
0.01025186253 0.02176430893 -0.04274191284 0.5840068993 0.127538143 0.8016669905
-0.01153035688 0.0382141571 -0.04353250313 0.4998324912 1.784434954e-05 -0.8661220933
-0.01378183651 0.01008150864 -0.01542259693 0.8271481489 -0.5619535536 -0.005843228245
-0.0008067057729 0.04974580765 -0.04004759598 -0.0341744351 0.004346444169 0.999406432
-0.01255896378 0.01154663658 -0.01306594276 0.7591188887 -0.6509295132 -0.005411242779
-0.01373023891 0.01016445351 -0.01871726227 0.8245749937 -0.5657201735 -0.006063428089
-0.0110874548 0.01296898937 -0.01023025608 0.6419908037 -0.7666300942 0.01122972515
0.01992939949 0 0 0.7828659815 0.01797120107 0.6219307767
-0.0008204423189 0.01980181313 0 -0.007013009436 0.3474988979 -0.9376541653
-0.002654509544 0.05152890396 -0.04018817902 -0.1131358981 0.005294666495 0.9935654156
0.01974022865 0.03616472816 -0.05478463364 0.9652765245 -0.002456357388 0.2612186776
-0.009315704346 0.01433689499 -0.00681616497 0.5257756043 -0.8505559771 -0.01070250823
-0.01506821918 0.007985629559 -0.02656855202 0.8748203627 -0.4843402507 0.01019090571
-0.0167025528 0.01218741035 -0.062617836 0.9774736747 0.07743628446 0.196338578
-0.006960160255 0.01561364746 -0.002277617455 0.5979247647 -0.7384333717 0.3117725636
0.008993944168 0.05022117996 -0.04206992531 0.4477473363 -0.0007674295654 0.8941597921
0.00904611969 0.05597344208 -0.04209779739 0.4241286585 0.001633683818 0.9056004705
-0.01690730858 -0.002453433752 -0.03564331436 0.9832064691 0.1824955285 -0.000648985885
-0.004689152718 0.04011204147 -0.0405700264 -0.2095268928 0.006455198228 0.9777815766
0.01474141979 -0.01436590862 -0.0196268158 0.663912694 -0.7054236606 -0.2481882226
-0.005778708935 0.01697421074 0 -0.08999135354 0.4064257595 -0.9092412542
-0.004851356983 -0.01637561798 -0.02191359901 -0.3903198905 -0.9206038007 -0.01179089163
-0.005780040741 0.01845307541 0 -0.08999135354 0.4064257595 -0.9092412542
-0.003293576598 -0.01986703777 0 -0.1709177194 -0.4974287618 -0.8505008878
0.01681569576 0.04397003746 -0.04875640869 0.8002541402 0.003613548023 0.5996501092
-0.003292378843 -0.01765535355 0 -0.1709177194 -0.4974287618 -0.8505008878
-0.006709217072 -0.01572197723 -0.005044837475 -0.4697295066 -0.8827771275 -0.007663801837
-0.01690487862 -0.002475092888 -0.03934435272 0.9824375104 0.1865344345 0.00463064712
0.01743988037 0.01089370728 -0.005766248703 0.861439743 0.5078558342 -0.002005224484
0.01298755741 0.02422114754 -0.04465368652 0.6377027219 0.0009848312493 0.770281941
-0.009131690979 -0.01444276047 -0.009761928558 -0.5129170584 -0.8583628955 0.01136797438
0.01421168613 -0.01487059498 -0.03296659088 -0.6670528455 0.705502841 0.2393872231
-0.01638794708 -0.004186536789 -0.04588310623 0.9456505151 0.3193581701 0.06128182855
-0.01096062946 -0.01306954479 -0.01332353783 -0.6322561983 -0.774687656 -0.01054207487
-0.01247959709 -0.01163963223 -0.01628163147 0.7538267376 0.6570423716 -0.006369584066
0.01615130806 0.01271795464 -0.01628559685 0.8044982137 0.5938905181 -0.008756518982
-0.01454143429 0.008948451996 -0.03454056549 0.8710973679 -0.4911054743 -0.002188326753
-0.0008169670105 0.04809679031 -0.04004640961 0.02811191813 -0.003776242248 -0.9995976491
-0.01373109055 -0.01016450691 -0.01871891975 0.8245239067 0.5657949149 -0.00603668973
-0.01552410507 -0.007113066196 -0.0222110157 0.9113977048 0.4109015889 0.02267394789
0.02045164299 0.002361071825 -0.03854544449 0.9346166165 -3.252983047e-05 -0.3556568276
-0.01690730858 0.002453433752 -0.03564331436 0.9831725868 -0.182677838 -0.0006870264674
-0.01617292023 -0.005553797245 -0.02347466469 0.9482484533 0.3174994916 0.004352420359
0.01451712799 0.05613661194 -0.04603599167 0.7090497529 -0.01083942659 0.7050751412
-0.01144908619 0.05585900116 -0.04348204422 0.4981037044 -0.0006999965402 -0.8671171834
-0.01659743309 -0.003976985693 -0.02430152702 0.9626856942 0.270291462 -0.01337085216
-0.01691435242 -0.002390671968 -0.02491877937 0.9865228418 0.1633780558 -0.008960662688
0.01779173851 0.02033005524 -0.05022349167 0.8683581618 0.0387328748 0.4944227616
-0.01015645218 -0.01370714378 -0.03293741226 -0.5715459372 -0.8205695268 -0.0009452240706
-0.01706760979 0 -0.02521727943 0.9999936928 -0 -0.003551673458
-0.0145673008 0.04449934387 -0.04607131958 0.9293253461 -0.002648670912 -0.3692524687
-0.01691435242 0.002390671968 -0.02491877937 0.986397558 -0.1641540254 -0.008562334669
-0.01657947159 0.003976557016 -0.02426656151 0.9629803099 -0.2692306207 -0.01355712396
0.01805121803 0.009883091927 -0.02351948357 0.8724380125 0.4884823206 -0.01539275077
-0.01617292023 0.005553797245 -0.02347466469 0.948553745 -0.3165942072 0.003728392658
-0.01552410507 0.007113066196 -0.0222110157 0.9123512689 -0.4087660218 0.02292382039
-0.01372291183 -0.002588199854 -0.06025631714 0.8188543376 0.4260529916 0.3846510396
-0.01653048325 -0.004152733326 -0.04234731293 0.9545330445 0.2975025079 0.01894531093
-0.009131690979 0.01444276047 -0.009761928558 0.5129170584 -0.8583628955 -0.01136797438
0.006496281624 0.01669852352 0 -0.1840063118 -0.1592487638 -0.9699389199
-0.01247959709 0.01163963223 -0.01628163147 0.7539520946 -0.6568983273 -0.006389569166
-0.01096062946 0.01306954479 -0.01332353783 0.6322561983 -0.774687656 0.01054207487
-0.009536736488 -0.0140335331 -0.04308183289 -0.6262811167 -0.7768749257 -0.06509464411
-0.01699813461 0.004278959751 -0.05505042648 0.9942166993 0.07423379893 0.07760475434
-0.005809083462 -0.01604314804 -0.01332703304 0.4316139389 0.9019795141 0.01193163491
-0.008941794395 0.05382469177 -0.04204206848 -0.4412636968 0.01501992111 0.8972517773
0.01165678978 0.02419936466 -0.04361678505 0.5518631411 0.0008356509323 0.8339342751
-0.006709217072 0.01572197723 -0.005044837475 0.4696816298 -0.8828024133 0.007685416656
-0.003292000651 0.01691836071 0 -0.1707970183 0.3787286614 -0.9096114443
-0.0007618308663 0.0563612175 -0.04005207062 -0.02707887464 -0.008895455731 0.9995937202
0.01574156857 0.05457848358 -0.04735282898 0.7702963338 0.001336546246 0.6376846962
-0.003292757034 0.01839234638 0 -0.1707970183 0.3787286614 -0.9096114443
0.01941514206 -0.006841151237 -0.02419953156 0.9448893227 -0.3272980994 0.007753837352
-0.003293576598 0.01986703777 0 -0.1707970183 0.3787286614 -0.9096114443
0.01948176956 0.006629407883 -0.01217751789 0.9497720909 0.312921518 0.003619249091
-0.006113176823 0.01593464565 -0.01052904606 0.4392092944 -0.8983402297 0.008945806622
-0.008944958687 -0.01455018997 -0.0127512331 -0.5007231348 -0.8655056028 0.0132813314
-0.01083183384 -0.01317166138 -0.01646486092 -0.622697502 -0.782400417 -0.009869577511
0.01882795906 0.02859529686 -0.05229146576 0.9177210056 -0.002730493476 0.3972161884
-0.0136781826 -0.01024879074 -0.02206704521 0.8219041339 0.569593214 -0.006096328642
-0.01615465546 -0.005601030827 -0.02694147491 0.9539567942 0.2999420347 0.001100262382
-0.01659024048 -0.004011074543 -0.0277988739 0.9615311142 0.274676861 -0.003246296761
0.006785772085 0.05765381813 -0.0411973362 0.3208852772 0.01108192109 0.947053235
-0.01504650116 -0.005920777798 -0.05090235901 0.8820079168 0.44160615 0.164456812
-0.01691204453 -0.002411233664 -0.02843229294 0.9840265799 0.1780212669 -0.0003443718282
-0.01707175446 0 -0.02874665451 0.9999931875 -0 -0.003691195204
-0.01707106972 0.01469628525 -0.05928432465 0 0 1
-0.009064908028 0.02554459572 -0.04210783386 -0.4495092204 0.01210003546 0.8931937359
0.004236976624 0.03153188705 -0.04045444107 0.1954168503 0.004748736544 0.9807087764
-0.01691204453 0.002411233664 -0.02843229294 0.9839203236 -0.1786079296 -6.533993783e-05
-0.01467815685 0.008724383354 -0.02403527832 0.8784110216 -0.4778893148 0.003984959571
0.00426888895 0.03804170609 -0.04047111511 -0.1905879478 -0.001007762242 -0.9816696076
-0.00987057209 0.01393380642 -0.03991001129 -0.6306662205 0.7760539424 -0.0006299270072
-0.01239894962 0.011734128 -0.01954922676 0.7168500655 -0.6972180662 -0.003598854209
-0.01083183384 0.01317166138 -0.01646486092 0.622697502 -0.782400417 0.009869577511
-0.008944958687 0.01455018997 -0.0127512331 0.5007231348 -0.8655056028 -0.0132813314
-0.01454645061 0.04958721924 -0.04605583572 0.7407858762 -0.001272208973 -0.6717400294
0.01524753475 -0.01219246578 0 0.486952926 -0.4929229321 0.7210435707
-0.006413190365 0.01582760048 -0.007768598557 0.4536398072 -0.8911215909 0.01064121956
-0.004723960876 0.03023972893 -0.04056372833 -0.2096070919 -0.009762451699 0.9777369593
-0.0008204423189 -0.01980181313 0 0.02319543073 -0.4169291233 -0.9086429872
-0.0120416317 -0.01212636471 -0.03312369156 -0.6982593749 -0.7158400084 -0.002632060184
-0.0008202388287 -0.01833197594 0 0.02319543073 -0.4169291233 -0.9086429872
0.01894610977 0.007974803925 -0.005932633877 0.9294154988 0.3690226525 0.003018707002
0.01106587696 -0.01734623337 -0.01670448494 -0.5284161216 0.8489165614 -0.01082008302
0.02023227692 0.003737271309 -0.01814811516 0.9837118195 0.1797218719 -0.003332398819
-0.006113176823 -0.01593464565 -0.01052904606 -0.4392092944 -0.8983402297 -0.008945806622
0.01366821003 -0.01078008652 0 -0.07832529587 0.03707152951 -0.9962383499
0.02043718147 0.05234764862 -0.05835204697 0.9824292551 0.0006178318102 0.1866343406
-0.008755436897 -0.01465922356 -0.01578516579 -0.4961601406 -0.8681884249 0.008600798263
0.002571797848 0.02669758797 -0.040165905 0.08490183665 0.001051978735 0.9963887652
-0.01070101643 -0.01327538013 -0.01965547371 -0.6130978694 -0.789951863 -0.009330416139
0.008672907829 -0.01863838959 -0.01102140713 0 0 1
-0.01231698704 -0.01183016586 -0.022870121 0.7100632689 0.7041261827 -0.004058686798
0.01369578171 -0.01524358654 -0.04276322937 -0.6689080156 0.7055178953 0.2341080222
0.02044397736 -0.002193202019 -0.009866018295 0.9909657531 -0.1341150695 0.0001561596377
-0.01362270069 -0.01033437347 -0.02546759415 0.8076656563 0.5896406059 -0.0003789132944
-0.01613607979 -0.005649071693 -0.030467556 0.9468456392 0.3216746671 0.002957036464
-0.01658292198 -0.004045750618 -0.03135648918 0.9606759183 0.2776522628 -0.003316781572
-0.01220001793 -0.009315718651 -0.05281824493 0.7126603165 0.6474453938 0.2700550598
-0.01690969849 -0.002432150841 -0.03200656128 0.9835735565 0.1805071236 -0.0004871566393
0.01837649345 0.007853551388 0 -0.3305305125 -0.2079032956 -0.9206116445
-0.01707597351 0 -0.03233734131 0.9999947672 -0 -0.003235063306
-0.01459083939 0.03942723846 -0.04609555435 0.7601156412 -0.0003942794196 -0.6497877012
-0.01690969849 0.002432150841 -0.03200656128 0.9835029838 -0.1808915344 -0.0003654873415
0.01990021515 -0.00524582243 -0.01896618652 0.9667289859 -0.2557839458 0.003104988719
0.009620324135 -0.01816997528 -0.001902735233 -0.4800464735 0.64919359 -0.5900025983
-0.016573349 0.004045518398 -0.03133744621 0.9607604009 -0.2773529235 -0.003848094198
-0.01613607979 0.005649071693 -0.030467556 0.9469957751 -0.3212359071 0.002548306963
0.005693702698 0.0196300106 0 0 -0 -1
-0.01231698704 0.01183016586 -0.022870121 -0.7100922577 0.7040968586 0.004074219421
-0.008755436897 0.01465922356 -0.01578516579 0.4961601406 -0.8681884249 -0.008600798263
-0.001822873473 0.01697496605 -0.001994739652 -0.1971288495 0.8563832792 -0.4772293954
0.01992634583 -0.005036225796 -0.003635916948 0.963354201 -0.2642402934 0.04610586508
0.0008186512589 -0.01975858307 0 0 0 -1
-0.0160979538 -0.005747667789 -0.03770427704 0.944706854 0.3278730464 0.005312768742
0.01366821003 0.01078008652 0 -0.08166764436 -0.03465350085 -0.9960569917
0.01737473679 0.01370551109 -0.04665378952 0.8610220095 0.3336239324 0.3838439408
0.0008184486628 -0.01829196739 0 0.1447283491 -0.2931470792 -0.9450494669
-0.001143894315 -0.01704735756 -0.003945837021 -0.02243171325 0.9987412961 -0.04486247468
0.02044570351 -0.002238602638 -0.01762223434 0.9910876572 -0.1326542083 -0.01217032019
-0.008563057899 -0.01476990128 -0.01886485481 -0.4849289239 -0.8744972899 0.009921119955
-0.0122336731 -0.01192778587 -0.02624575615 0.7087316325 0.7054776879 0.0008396616822
0.01788643265 0.03832719803 -0.05038188171 0.8697649542 -0.004208797884 0.4934482855
-0.004583551407 0.06003250122 -0.04057466125 0.1945516106 -0.03245877634 -0.9803550881
-0.01355690861 -0.0104207983 -0.02890649223 0.8201731794 0.5720392237 -0.009331794515
0.01679819107 0.0415038681 -0.04872464752 0.8028517572 0.00260395848 0.5961730247
-0.01440073299 -0.009101831436 -0.04175518799 0.8610163644 0.507515744 0.03284189185
-0.01458954144 -0.008872589111 -0.0309828701 0.8723006962 0.4887349553 -0.01515384344
-0.01611718178 -0.005697942734 -0.03405457687 0.9457527856 0.3248744995 0.002868464668
-0.01657547569 -0.004081031322 -0.03497608566 0.9598129193 0.2806201782 -0.003387563688
0.002737843275 0.05449249268 -0.04019793701 0.09880151049 0.002488467172 0.9951040494
0.01988683319 0.06040137863 -0.05537747574 0.9688021483 -0.03065909673 0.2459317329
-0.01455303669 0.04788935471 -0.04605988693 0.9255544081 -0.002635413654 -0.3786054571
-0.01333579254 0.01068788338 -0.03954291153 0.8006466505 -0.5991363534 -0.000755683586
-0.01707618141 0 -0.03598287582 0.999996387 -0 -0.002688127924
-0.01458778191 0.008872493744 -0.03097933197 0.8722843118 -0.488768726 -0.01500706181
0.01716903305 0.011363307 -0.02166879082 0.8458910596 0.533313598 -0.006702343784
-0.01355690861 0.0104207983 -0.02890649223 0.8202356291 -0.5719504341 -0.009285130728
0.01284709644 0.01610297585 -0.02411411858 -0.6096965425 -0.7926347176 0.0005749216181
-0.0122336731 0.01192778587 -0.02624575615 0.7087316325 -0.7054776879 0.0008396616822
-0.0009124426842 0.03006456375 -0.04004862976 0.03183165375 -0.0007295950768 -0.9994929782
-0.008563057899 0.01476990128 -0.01886485481 0.4849289239 -0.8744972899 -0.009921119955
0.01258372974 0.0593432045 -0.04436032295 -0.6116260262 -0.0241788653 -0.790777457
0.0008184486628 0.01829196739 0 0.1447283491 0.2931470792 -0.9450494669
0.009152711868 -0.01840116882 -0.006403399467 0 0 1
0.0008186512589 0.01975858307 0 0 -0 -1
-0.0102959013 -0.01359658051 -0.02953623009 -0.5797633738 -0.8147835266 -0.001495032728
0.002450634956 -0.01971554184 0 0 0 -1
-0.01707106972 0.004241923332 -0.05121808624 0.9965820619 -0.08027406315 0.0195004767
0.00407561636 -0.01967268562 0 0 0 -1
-0.005500814438 0.01615313911 -0.0161634388 -0.4181245494 0.9083322229 -0.01021929628
0.006497754335 -0.01815330124 0 -0.1841425307 0.1594135027 -0.9698860054
0.00245002985 -0.01825213051 0 0 0 -1
0.0001738309413 -0.01704835129 -0.0046268363 -0.02243171325 0.9987412961 -0.04486247468
-0.006734587669 0.04856900406 -0.04116653824 -0.322330536 -0.003238532867 0.9466216443
-0.01661737251 0.004308730125 -0.05829195786 0.9707333455 0.1691469153 0.170487809
-0.004491957188 0.01648622131 -0.0247904644 -0.3752572958 0.9268524586 -0.01124641592
0.002637290001 0.0397224617 -0.04017433548 0.08568939304 0.003550029119 0.9963155751
0.009970305443 0.01800958633 -0.03092464066 -0.543493736 -0.8393988901 -0.004905320119
0.01525009632 0.01362838364 0 -0.5901315326 -0.5246234282 -0.6136082079
0.004277916908 0.03967263794 -0.04047552872 0.1981046046 0.004953299617 0.9801683684
0.01040487099 -0.0177751503 -0.02592277718 -0.5638000937 0.8259082697 -0.002232557522
-0.005500814438 -0.01615313911 -0.0161634388 0.4181245494 0.9083322229 0.01021929628
-0.008364382744 -0.01488194847 -0.02198461533 -0.4726181551 -0.8811897167 0.01169455137
-0.01039374161 -0.01099059963 -0.05294402695 0.6912044713 0.6714816776 0.2671118407
-0.0007496491075 0.05802022552 -0.04005312347 -0.02496376566 0.0148542669 0.9995779915
-0.006799872875 0.03365834427 -0.04118135071 -0.3369081746 0.003102455755 0.9415323981
-0.01454279995 -0.008948526382 -0.03454334259 0.8711207297 0.4910643832 -0.002108495691
-0.01541676712 -0.007359932899 -0.03631973648 0.8978462486 0.4401792062 -0.01069487638
-0.0165678997 -0.004116932869 -0.03865943146 0.9592429141 0.2825815732 0.0008284096435
0.02047176552 0.05912723541 -0.05859007263 0.9836746247 0.0006396601553 0.17995506
-0.01341329479 0.01059750366 -0.0359423027 0.808865926 -0.5879838057 -0.003310279588
0.01815366173 -0.009674920082 -0.01536664867 0.8784065513 -0.4775070189 -0.01972251416
-0.0170759697 0 -0.03969210052 0.9999994658 1.488374011e-07 -0.001033598897
-0.01656641579 0.004116896152 -0.03865641403 0.9580856343 -0.28636161 -0.008303354643
-0.0160979538 0.005747667789 -0.03770427704 0.9446666187 -0.3280254181 0.002074727253
-0.01541676712 0.007359932899 -0.03631973648 0.8979879965 -0.439885695 -0.01086892746
-0.01486370087 0.002606233835 -0.06276651382 0.8730047796 0.3049901867 0.3805832902
-0.01657518387 0.007613516808 -0.05017798996 0.9029392132 -0.0002219124756 -0.429768226
-0.01015645218 0.01370714378 -0.03293741226 0.5715459372 -0.8205695268 0.0009452240706
-0.01348949051 0.01050864887 -0.03240241241 0.8127413073 -0.5826133813 -0.003635290248
-0.01214266014 0.01202656555 -0.02966480064 0.7032685774 -0.7109218242 0.001862222995
-0.01043310642 0.01348779583 -0.02618979645 0.5884802994 -0.8085086131 0.002181680284
0.0194565506 0.006698651791 -0.01610720253 0.9477922819 0.3188266131 -0.006275444756
-0.006774081707 0.04027026367 -0.04117602158 -0.3307179714 -0.00836446688 0.943692566
-0.01707106972 0.01210093832 -0.05927849007 0.9922745766 0.02895202241 0.1206355877
0.0111212101 -0.01698905373 -0.04485924149 -0.5556712416 0.8313447523 -0.009765965728
-0.0007905495465 0.05222310829 -0.04004931831 -0.04565575276 -0.001996794832 0.9989552368
-0.01459804726 0.0377393837 -0.04610297394 0.7958621809 -0.0007044313211 -0.605477409
0.01737776566 -0.01100705338 -0.009606231689 0.8587321313 -0.5124210598 -0.001945284048
0.006585802317 0.02987091064 -0.04112137413 0.316872575 0.008106982388 0.9484334706
0.006720131397 0.05025038242 -0.04117293072 0.3189588295 -0.00108166472 0.9477679542
-0.008364382744 0.01488194847 -0.02198461533 0.4726181551 -0.8811897167 -0.01169455137
0.0001738309413 0.01704835129 -0.0046268363 0.02243171325 0.9987412961 0.04486247468
-0.000936514318 0.02354509354 -0.04004991531 0.04024819908 0.00902364513 -0.999148966
0.00245002985 0.01825213051 0 0 -0 -1
0.01802582169 0.05652837372 -0.0506780014 0.874359471 -0.001101325104 0.4852775521
0.004073685646 -0.0167529335 0 0 0 -1
0.01915168381 0.01382582474 -0.05116748047 0.9367955734 0.1929418974 0.2918689395
-0.005188271046 -0.01626465607 -0.01903917122 -0.4045359476 -0.914463991 -0.01030903837
0.01791879654 -0.01010265255 -0.0321061821 0.8847176194 -0.466095991 -0.005409361648
-0.0164016037 0.007818840027 -0.06195458221 0.9586246292 0.1527023649 0.2402515515
-0.008162560463 -0.01499570656 -0.02515205574 -0.4596023573 -0.8880136661 0.01404998309
-0.009021479607 0.0379707756 -0.04208463478 -0.446213186 0.003401388708 0.8949202329
-0.01341329479 -0.01059750366 -0.0359423027 0.8088149438 0.5880540666 -0.003286556499
-0.01687023926 -0.002496657848 -0.04304541016 0.9792771444 0.2007032328 0.02710141536
-0.01131318855 -0.01095021343 -0.05089266586 -0.6738779188 -0.7010408102 -0.2333030926
-0.0170644598 3.296136856e-08 -0.04344449806 0.9999111391 0.01184205634 0.006122066977
-0.01660499382 0.004154591084 -0.04250048828 0.9690304034 -0.2448549412 -0.03203334301
-0.01608420753 0.005798474789 -0.04143041611 0.9456635147 -0.3251134605 -0.004664202319
-0.01573161602 0.002595458508 -0.06049191284 0.9162609881 0.2715352238 0.2945070864
0.01952465057 -0.006495540142 -0.004577376842 0.9516030175 -0.3068335664 0.01746023021
-0.01449428272 0.009025726318 -0.03816350937 0.8690283395 -0.4945737455 -0.01365852653
-0.01126353168 -0.009349370956 -0.05485399628 -0.6692571682 -0.6617139802 -0.3379784775
-0.00262366724 0.05650646591 -0.04019176483 -0.0946239066 -0.004516427106 0.9955028469
-0.0120416317 0.01212636471 -0.03312369156 0.6982593749 -0.7158400084 0.002632060184
-0.008162560463 0.01499570656 -0.02515205574 0.4596023573 -0.8880136661 -0.01404998309
-0.01661585331 0.01195628405 -0.05424670219 0 0 1
0.01952482414 0.006495531559 -0.004576971531 0.9500430639 0.3115592573 0.01868170001
-0.005188271046 0.01626465607 -0.01903917122 0.4045359476 -0.914463991 0.01030903837
0.002618486643 0.03645856476 -0.04017191696 0.0901181068 0.001650426891 0.9959297179
0.004073685646 0.0167529335 0 0 -0 -1
0.00407561636 0.01967268562 0 0 -0 -1
0.006496281624 -0.01669852352 0 -0.1841425307 0.1594135027 -0.9698860054
-0.002733059168 0.03669558334 -0.0401866684 -0.1024956375 -0.0006045364103 0.9947332702
-0.008987234116 0.04546170807 -0.0420663414 -0.4450392176 0.01253369051 0.8954233643
-0.0079576087 -0.01511122799 -0.02836860085 0.5464166755 0.8375090541 0.002720479986
0.01988202095 -0.00535769701 -0.02714678574 0.9660159182 -0.2578711039 0.01776905969
-0.0119389019 -0.01222784328 -0.03664080811 0.6936962872 0.7202614487 0.002984385702
-0.01578440952 0.00961147213 -0.06480200958 0.9250382448 0.1604186354 0.3443401038
0.005701054573 -0.01977886391 -0.03289064026 0 0 1
0.01453327465 0.0577914238 -0.04605636597 0.7090501896 0.01444871334 0.7050099739
0.01779792786 0.02196047211 -0.05023387527 0.8683325277 0.01886304637 0.4956236545
-0.01333579254 -0.01068788338 -0.03954291153 0.8025531535 0.5964917154 0.01029899388
-0.01696640778 0.0094134655 -0.05498802948 0.9045753021 -0.0004179181181 -0.4263136736
0.0008669260144 0.03000001335 -0.04004620361 -0.0407699423 0.0007653756234 -0.9991682671
0.01306283092 0.01591779613 -0.01970615387 -0.6178743586 -0.7862759676 0.00117462286
-0.002612685442 0.0581698494 -0.04019291306 -0.09541104293 0.01563956242 0.9953150943
-0.0152264185 -0.007483856678 -0.04347034073 0.888987048 0.4559286331 0.04279147137
0.02056004047 -1.272559166e-08 -0.04273313522 0.9362908171 -5.295197703e-05 -0.3512257153
-0.0158751421 -0.005843320847 -0.04481787109 0.9318851192 0.3573146963 0.06258060819
-0.01701362705 2.890527248e-07 -0.04718298149 0.9948152151 0.09322801289 0.04063527239
-0.01705799294 0.00252197051 -0.0472754631 0.9952429846 -0.08328296626 -0.05055046168
0.01882235909 -0.008312937737 -0.02162075996 0.9112887063 -0.4116454753 -0.01004472171
-0.01312095737 -0.01077085018 -0.04292007828 0.7897838684 0.6107396185 0.05690834475
-0.01643155479 0.005862921715 -0.04597452927 0.9698533853 -0.2398308129 -0.04319250189
-0.01596145439 8.411407471e-07 -0.05687996483 0.9371249295 0.2754830444 0.214256759
0.01102683163 0.01735110855 -0.01679349136 0.528623958 0.8487910651 0.01050898934
-0.01457133102 0.009111275673 -0.04210982513 0.8868182894 -0.4543978933 -0.08411822739
-0.002682218075 0.0465688591 -0.04018437958 -0.09711188903 -0.003231524501 0.9952682243
-0.012356493 0.0008719882369 -0.0656880188 0.7727115562 0.3871716382 0.5030059379
0.01519913483 0.01389886761 -0.007265842915 0.7405048429 0.6719859397 -0.009352778802
0.01042294979 0.05023286438 -0.04288038063 0.5370261314 0.002306851406 0.8435624533
-0.0119389019 0.01222784328 -0.03664080811 -0.6941034629 0.7198731081 -0.001758143809
-0.0079576087 0.01511122799 -0.02836860085 -0.5464166755 0.8375090541 -0.002720479986
0.02054883099 -3.546476364e-09 -0.002177222133 0.9425535148 0.0003184424609 0.3340550409
-0.004851356983 0.01637561798 -0.02191359901 0.3903198905 -0.9206038007 0.01179089163
-0.01376130772 -0.007623508453 -0.05215378952 0.823577862 0.5178574612 0.2313939393
-0.01464431095 0.02427915764 -0.04615060806 0.8146855103 -0.0006266014743 -0.5799026873
0.01049855328 -0.01371651745 0 0 0 -1
0.006497754335 0.01815330124 0 -0.1840063118 -0.1592487638 -0.9699389199
0.005328875542 -0.01985877419 -0.004154572964 0 0 1
0.01441473675 0.01469595242 -0.02836034584 0.6660326196 0.7054435459 -0.2423838964
-0.01156334066 0.02820458984 -0.04355343246 -0.5007233888 -9.77300052e-06 0.865607352
0.01743190384 -0.008959605217 -0.05104675293 0 0 1
-0.01150654602 -0.01241898918 -0.04338508987 -0.6776415693 -0.7312828142 -0.07763600478
-0.007749446869 -0.01522855949 -0.03163552666 0.5369302221 0.8436236012 0.002270717701
0.01558306599 0.01859873962 -0.04684705734 0.7568500289 0.1880496288 0.6259515723
-0.01001469612 -0.01381953621 -0.03639482498 -0.5769950985 -0.8167101951 0.007817515585
0.008676522255 0.01863791275 -0.01101345158 0 0 1
0.01506258011 0.01404974937 -0.01126482773 0.731380734 0.6818796909 0.01105933967
-0.007533619881 -0.01534732151 -0.03494486237 0.5296389074 0.8482225427 -0.001070415513
-0.01182696247 -0.01233048058 -0.04020207977 -0.6902119656 -0.7230928862 -0.02727857186
-0.01514140129 0.004351163387 -0.06337892914 0.8896996639 0.2623098672 0.3736683578
-0.004594210148 0.05836154175 -0.04057468414 0.2023295308 0.001571222901 -0.9793162371
-0.01411921787 -0.009168828964 -0.04501666641 0.8455317124 0.5269943097 0.08575033968
-0.01492112255 -0.007537916183 -0.04670078659 0.8892145254 0.4446226783 0.1077413649
-0.01561119461 0.007855156898 -0.06441744232 0.9109269379 0.2014276757 0.3600541699
0.02057065678 1.257658005e-08 -0.03823255157 0.9346567696 -5.268585887e-06 -0.3555512944
-0.015544384 -0.005884663105 -0.04800967789 0.9129693377 0.3906908937 0.1176758857
-0.0164570961 -0.002535732508 -0.04992670822 0.9607560738 0.2597630436 0.09731869246
-0.002601351261 0.05983543396 -0.04019403839 -0.1075465563 0.01781449385 0.9940404328
-0.01685521507 4.931390285e-07 -0.05076329994 0.9825309977 0.1648875431 0.08628404662
-0.01707106972 0.00254508543 -0.05121740723 0.9982336442 0.04170436565 0.04231237938
0.002562440991 0.02426355839 -0.04016469955 0.07997808542 0.004944964503 0.9967843564
-0.01691556549 0.005933404922 -0.05089219666 0.9028788238 -0.000174971953 -0.4298951022
0.01937752342 0.006915635586 -0.02842137718 0.9448855103 0.3273330015 0.006669219396
-0.01587382793 0.009266854286 -0.04870526505 0 0 1
-0.01408320522 0.01083438778 -0.04494295502 0.8853228541 -0.4490675783 -0.1205891955
0.01749793625 0.01078294945 -0.002012615681 0.8049633056 0.5326611011 0.261354602
-0.00272512722 0.03833728027 -0.04018564606 -0.1026953231 -0.0007689677604 0.9947125611
-0.01001469612 0.01381953621 -0.03639482498 0.5769950985 -0.8167101951 -0.007817515585
-0.007749446869 0.01522855949 -0.03163552666 -0.5369302221 0.8436236012 -0.002270717701
0.01345230961 0.01556328297 -0.01125564766 -0.635364519 -0.7722088293 0.0023349626
0.01884366989 0.03188070107 -0.0523302269 0.9202011592 0.01011285019 0.3913151631
-0.01463963127 0.02595809937 -0.0461457901 0.8146855103 -0.0006266014743 -0.5799026873
-0.01461776543 0.03268352127 -0.04612327576 0.7209208441 -2.731964975e-05 -0.6930174138
-0.01461150932 0.03436758423 -0.04611683655 0.7626200573 -0.0003768545329 -0.6468465863
0.01571353054 -0.01329413128 -0.03342772675 0.758766334 -0.6513083714 0.008429449688
0.02019790649 -0.003942963839 -0.03921230316 0.9749566756 -0.2222563832 0.007847350758
-0.01455928898 0.04619322586 -0.04606357956 0.9255844915 -0.002635753148 -0.3785319034
0.01950398445 0.006561745167 -0.008336338997 0.9487092443 0.3161495959 0.0004504385419
-0.01451674175 0.05639727783 -0.04603604507 0.7962445789 -0.001784982372 -0.6049722179
-0.01449985886 0.05981433868 -0.046023983 0.061897227 0.003217368789 -0.9980773426
0.009154805183 0.01840089417 -0.006398845673 0 0 1
0.00890742588 -0.01809446716 0 -0.3058018542 0.3728864132 -0.8760370705
0.002718863249 0.05202066994 -0.04019358444 0.1036692848 0.001627425241 0.994610492
0.01230488682 -0.01649827766 -0.03348291397 -0.6279860335 0.7704596232 -0.10966089
0.01890200043 0.04177301025 -0.05246983719 0.9241118654 0.007399539294 0.3820503987
0.008904490948 -0.01591970301 0 -0.1594482431 0.3154636434 -0.9354458549
0.002689208508 0.04791005325 -0.04018649292 0.09040946667 0.00629145427 0.9958848056
-0.00987057209 -0.01393380642 -0.03991001129 0.6176046045 0.7862672427 0.01866482269
-0.01270332909 -0.01084184361 -0.04592673874 0.7228157516 0.6779293976 0.1339743302
0.01575808525 0.05623390198 -0.04737360382 0.768756213 -0.002226421621 0.6395380583
-0.01365303802 -0.009226659775 -0.04794345856 0.8172279526 0.5554504798 0.1536659946
-0.01440415955 -0.007583215714 -0.04953834534 0.8623701136 0.4764355731 0.1712510784
0.01889181519 0.008139872551 -0.01359424686 0.9221231542 0.3868659512 0.004860478725
0.01932182693 0.007068558693 -0.03710001755 0.936650211 0.3501476082 -0.009112339737
0.02044239426 0.002149655819 -0.002426613331 0.9548395976 0.07812112278 0.2866678096
-0.01557800484 -0.004242572308 -0.05203112793 0.8995242747 0.4028342302 0.1690581621
-0.01600414085 -0.002552024841 -0.05293628311 0.9352897003 0.3142261175 0.1627732276
-0.0165158205 6.735920906e-07 -0.05402373314 0.969287492 0.208687897 0.1301196351
0.006570792437 0.02662985229 -0.04111534119 0.3178666085 -0.006004306964 0.9481164314
-0.01686849594 0.002565312862 -0.05477396393 0.9869801028 0.1326948636 0.09089746832
-0.01707106972 0.007706228256 -0.05520844269 0.9990947262 0.001172186443 0.0425247462
-0.006822713614 0.02624353695 -0.04118489647 -0.3363844851 -0.001585436187 0.9417234013
0.006579747677 0.02015463066 -0.04102509499 -0.2963384114 -0.314437432 -0.9018384818
-0.007533619881 0.01534732151 -0.03494486237 -0.5296389074 0.8482225427 0.001070415513
-0.01309972382 -0.0008676282763 -0.06308204269 0.7813393517 0.4168168265 0.4645132405
0.01235733128 0.03150555801 -0.04416949463 0.6264821466 0.009216082952 0.7793812827
0.008904490948 0.01591970301 0 -0.1691554904 -0.3138810325 -0.9342725071
0.004223527908 0.02828444862 -0.04044668579 0.1939572552 -0.006302473442 0.9809897359
0.00890742588 0.01809446716 0 -0.2292455049 -0.3966347987 -0.8888910704
-0.01157800674 0.02238333702 -0.04356274033 0.5010653136 7.295216273e-05 -0.8654094674
-0.01264849281 -0.005999927998 -0.05789551544 0.7600018876 0.5350131394 0.3689960317
0.01681206512 -0.007870344639 0 0.4193745281 -0.2292709157 0.8783847975
0.01992976952 -0.002136950493 0 0.7032622474 -0.03296083613 0.7101660331
-0.01157417107 0.0240453949 -0.04356030655 -0.5010189643 -7.690110158e-06 0.8654363046
-0.01155084896 0.03236988831 -0.04354550552 0.5003706148 7.780595972e-05 -0.86581132
0.02037231445 0.04957032394 -0.06336926651 0.9888234674 0.001366240319 -0.1490848202
0.0009650843143 0.04799490738 -0.04005738831 0.04871923813 0.009235001289 0.9987698186
0.01993050766 -0.003561671019 0 0.7257751506 -0.2143746012 0.6536772607
0.004329399586 0.04785129929 -0.04049908066 0.1933942482 0.01618495388 0.9809876207
-0.01154535198 0.03403805542 -0.04354201889 -0.5002644095 -7.621735344e-05 0.8658726897
0.01743818474 -0.01089384651 -0.005770159721 0.8618853719 -0.5070991194 -0.002022102252
-0.01153957748 0.03570745087 -0.04353835297 0.500085562 7.10270584e-05 -0.865975996
-0.006692035198 0.05607627869 -0.04115528107 -0.3212641081 0.0008368929919 0.9469892674
-0.002716844559 0.03998039627 -0.04018458176 -0.1079034659 0.01070149027 0.9941037774
0.01040264225 0.04777360916 -0.04286462402 0.531359228 0.000364361499 0.8471465269
-0.01150650692 0.04407504272 -0.04351736832 0.4991996403 0.0001557637367 -0.8664869848
-0.006706985474 0.05356928635 -0.04115933228 -0.3263094904 0.004765934484 0.9452509732
-0.006805520058 0.03200861359 -0.04118236923 -0.334201473 0.009305476955 0.9424557197
-0.01147913218 0.04995595741 -0.0435 -0.4984104149 -7.134104548e-05 0.8669412052
-0.01145750713 0.05416973114 -0.04348627853 0.4979755511 -0.000419777366 -0.8671909676
0.01820754242 -0.009573866844 -0.01141104603 0.8807085202 -0.473631848 -0.005037372284
-0.01144177246 0.05755082703 -0.04348059464 -0.4980906973 0.001001044331 0.8671243597
-0.01143418217 0.05924481583 -0.04347898865 0.4982639188 -0.001378937749 -0.8670243167
0.01050161028 -0.01588539505 0 -0.1395680095 0.3188417887 -0.9374756981
-0.01099467754 -0.01249430466 -0.04621320343 -0.6493342761 -0.7491736128 -0.1307818636
-0.01298561192 -0.00927412796 -0.05048820114 0.7605511047 0.6025505986 0.2418569685
0.01889129639 -0.008139904976 -0.01359548759 0.9157040516 -0.4018384817 -0.003453178224
-0.01463367844 0.007883231163 -0.06650456238 0.8825423862 0.20505773 0.4231669458
0.01950366783 -0.006561761379 -0.008337086678 0.9501335485 -0.3118139864 0.004275262948
0.01490819669 0.02426876497 -0.04642625713 0.7243615439 -0.001889004365 0.6894177147
0.0205488224 0.02418088531 -0.06201288223 0.9987049506 -4.955808267e-06 -0.05087653331
0.02034839439 0.02062628746 -0.05756820297 0.976535602 0.008207500462 0.2151995702
-0.01493890667 -0.004265325069 -0.05468260574 0.8620112544 0.4433513685 0.2457156108
-0.01641366577 0.002582005978 -0.05785289764 0.9570093805 0.2185788601 0.1906733531
-0.01691885567 0.00777050066 -0.05894380951 0.9894126751 0.08517788798 0.1175044077
-0.01700768471 0.009502989769 -0.05913736343 0.9868648655 0.06032804111 0.1498608175
0.01049855328 0.01371651745 0 0 -0 -1
-0.008974380016 0.04796612549 -0.04205947304 -0.4436703544 0.0008558785292 0.8961896474
0.009620944023 0.01816989517 -0.001901401997 0.3706162625 0.8070279581 0.4597275942
-0.009073600769 0.02224078941 -0.04211248016 0.4506978588 0.02636189369 -0.8922872243
-0.006676424503 0.05858743286 -0.04115097809 -0.320144704 -0.0004977088815 0.9473685243
0.002627684832 0.03808980179 -0.04017309952 -0.08070523665 -0.0007282890159 -0.996737746
-0.009069405556 0.02389226341 -0.04211023712 0.4492643109 -0.003120615421 -0.8933934412
-0.00905755806 0.02802496624 -0.04210390854 -0.4485048363 0.003333446311 0.8937741885
0.01681206512 0.007870344639 0 -0.3849417491 -0.1782645086 -0.9055614914
0.02034977341 0.0222815094 -0.05759613419 0.9770821912 0.003276122776 0.2128371646
-0.008995391846 0.04379432297 -0.04207069778 -0.4443473552 0.01459442359 0.8957356924
-0.009043893814 0.03216373444 -0.04209660721 -0.4486004019 -0.01333260605 0.8936329901
0.002700731993 0.04955278778 -0.04018930435 0.09609423172 0.0007805997776 0.9953719352
0.02025279427 -0.003624103785 -0.006559865475 0.9853106196 -0.1706931651 0.005179412905
0.01288064861 -0.01367233276 0 -0.3585389824 0.4376069555 -0.8245907777
-0.009010781288 0.04046426773 -0.04207891846 -0.4420960361 -0.003093990023 0.8969623861
-0.009003240585 0.04212853241 -0.04207489014 -0.4465004204 -0.01360794627 0.8946799419
0.02040011597 0.04393218231 -0.0580954895 0.9810226882 0.0005093386247 0.1938923047
-0.008960904121 0.05047403717 -0.04205227661 -0.4339351129 0.0006397301508 0.9009438986
-0.008932016373 0.05550302887 -0.04203724289 -0.4422127622 0.01315143272 0.8968137559
-0.01024074745 -0.01255209541 -0.04856386948 0.6794786294 0.7114960523 0.1791149345
-0.01359464836 -0.005978401661 -0.05584659576 0.8129378616 0.4924022075 0.3109213714
-0.0007370797396 0.05968142319 -0.04005414963 0.0292676544 -0.03590858389 -0.9989264127
-0.01414307117 -0.0008649349809 -0.06118016052 0.8303267482 0.3973906525 0.3906893402
0.01647821236 0.01364833355 -0.04448268509 0.8223986689 0.4708021614 0.319383397
-0.01504574966 -0.0008615604043 -0.05899945831 0.8837603915 0.3542223599 0.3057680331
-0.01413688278 -0.004284260273 -0.05702429199 0.8296739187 0.4619640869 0.3134172476
0.006755419016 0.05435809898 -0.04118610001 0.3199648508 -0.009169003919 0.9473850451
-0.01541031265 0.0008634634614 -0.05979243469 0.9071721391 0.3020141166 0.2929610613
-0.0162054882 0.006073812008 -0.06152562332 0.9469163265 0.1879999829 0.2607785977
0.0131454703 0.01414727402 0 -0.3283303027 -0.4314918626 -0.8402463834
0.01209225368 0.01585122538 0 -0.4294733707 -0.5349561693 -0.7275812812
0.01709700203 -0.01148733234 -0.0258685379 0.8454603219 -0.5339934155 -0.006919273434
-0.006828847885 0.02377637291 -0.04118531799 -0.3368082044 -0.001056108412 0.9415726834
0.00818559742 0.01888119507 -0.01575004196 0 0 1
0.01456937981 -0.01453014469 -0.02396805763 -0.6650176368 0.7054414117 0.2451610845
-0.006766829967 0.04192679977 -0.04117437744 -0.3293522911 0.009657705892 0.9441577183
-0.006747246504 0.04607524109 -0.04116970062 -0.3272310406 0.0007679643235 0.9449440493
0.004359187365 0.05195757484 -0.04051180267 0.2132384849 0.004270071397 0.976990847
-0.006725714207 0.05023388672 -0.04116426468 -0.3251795705 -0.008455111317 0.945614487
-0.006716513634 0.05190062714 -0.04116186142 -0.3233600951 0.00964169027 0.9462268685
0.01986602783 0.005302175999 -0.02307442474 0.9664426671 0.2563073459 0.01717892822
0.01190527344 -0.01675226974 -0.003901028633 -0.5826431436 0.8126520815 -0.0111158294
-0.01199856377 -0.007683804989 -0.05646806717 0.7134260274 0.6002916506 0.3614875347
0.02056573772 -2.42292881e-08 -0.02132878876 0.998645971 -0.0005869156823 -0.05201807417
-0.01320739651 -0.004300206184 -0.05912332153 0.790954373 0.4801462065 0.3792766802
-0.01539258289 0.006101154804 -0.06393367386 0.8973071982 0.2367497242 0.3725444406
0.002605501294 0.03401440239 -0.04017024422 0.1322012075 0.002785872076 0.9912189867
-0.01592089272 0.01136933422 -0.06510644531 0.9336239546 0.1432922086 0.3283498962
0.01992203331 0.005036393166 -0.003645984173 0.9641468788 0.2629879376 0.03547028044
0.02027089119 0.004122009277 -0.05759910583 0.9404094318 -0.001897808633 -0.3400389667
0.01189621162 0.01675336838 -0.003920969725 0.5825853716 0.8126807407 0.01201242966
-0.01385332108 0.002614948988 -0.06476042175 0.8133535369 0.3444125425 0.4688667451
-0.004749620438 0.02204533386 -0.04056895447 0.2063627823 0.03058364712 -0.9779974655
-0.004744999886 0.02368233871 -0.04056774521 -0.2098849834 -0.001791504015 0.9777244419
-0.004737404823 0.02613959789 -0.04056575584 -0.2097048855 0.0002759101006 0.9777646879
-0.00472914362 0.02859876442 -0.040563591 -0.2098802208 -0.007320495228 0.9776996999
0.01680987549 -0.005723413229 0 -0.1833253786 0.1149745955 -0.976305612
-0.004713675499 0.03352531815 -0.04056612015 -0.2146800377 0.004987084911 0.9766717004
-0.004705057144 0.03599294281 -0.04056771278 -0.2093978842 0.003303047795 0.9778249414
-0.004695778847 0.03846326447 -0.04056916046 -0.2092624849 -0.008169923573 0.9778253754
-0.004682195187 0.04176232529 -0.04057081604 -0.213507863 0.002549068613 0.9769380199
0.0136266613 0.01539355755 -0.007203875542 -0.6435831191 -0.7653008495 0.01074143822
0.01524156189 -0.007887203217 0 -0.005901763288 0.003704275456 -0.9999757235
-0.004671093464 0.04424090576 -0.04057185936 -0.2080973804 -0.002301121681 0.9781054059
