# .PCD v0.7 - Point Cloud Data file format
VERSION 0.7
FIELDS x y z normal_x normal_y normal_z
SIZE 4 4 4 4 4 4
TYPE F F F F F F
COUNT 1 1 1 1 1 1
WIDTH 566
HEIGHT 1
VIEWPOINT 0 0 0 1 0 0 0
POINTS 566
DATA ascii
-0.01247959709 0.01163963223 -0.01628163147 0.7288076381 -0.6845618959 -0.01464367897
-0.01642392159 -0.004609060049 -0.01050689173 0.9592391859 0.2825823584 -0.002719370314
-0.008364382744 -0.01488194847 -0.02198461533 -0.4576496601 -0.8891076911 -0.006655996824
-0.01464197111 0.0251186285 -0.04614819908 0.6085106026 0.0006462749742 -0.79354548
-0.01698745728 0.001541486084 -0.01155992889 0.9909903358 -0.1338257957 0.005367566645
-0.007533619881 -0.01534732151 -0.03494486237 0.529833132 0.8480925779 -0.003978895803
-0.01641784382 0.004608918548 -0.01049555302 0.9592629177 -0.2825023444 -0.002660830256
-0.01522748089 0.007661883354 -0.00989670229 0.882727336 -0.4694020641 -0.02131085531
-0.009962623835 0.01632499552 0 -0.3495907209 0.7137414394 -0.6069262604
-0.0016692155 0.05975842857 -0.04012409401 0.1135595009 -0.01052370358 -0.9934754609
-0.01326061344 -0.01068738985 -0.009447190762 0.7654848493 0.6433960873 0.008626715946
0.02051328659 0.001491938293 -0.01745588684 0.9946313528 0.1029005423 0.01095219103
-0.01557096434 0.001729460984 -0.06014217377 0.918020921 0.2783688944 0.2823974987
0.01900626564 0.0550691185 -0.05271118546 0.9298894056 0.001302331225 0.3678369168
-0.01621713257 0.005416440487 -0.01339746857 0.9430948253 -0.3325208902 0.001417045071
0.02057149124 0.001608024567 -0.04728088379 0.9989054394 0.04206762758 0.02045086336
-0.01039999771 0.01350103045 -0.004017018437 0.6153625112 -0.7641968775 0.1932151966
-0.01325982571 0.01068734217 -0.009445705891 0.7655085372 -0.643367342 0.008668484189
-0.0102959013 -0.01359658051 -0.02953623009 -0.6162557652 -0.7875459878 0.0003858273471
0.001634643108 -0.01973706245 0 0.1360367599 0.9748828087 0.1763448586
-0.007448262215 -0.01849380684 0 -0.1522294453 -0.4047496966 -0.9016672774
-0.0140154624 0.009728550434 -0.03347148895 0.8093234806 -0.5873533503 -0.003397887632
0.01616300392 -0.01271684265 -0.01625795746 0.7916093711 -0.6109495775 -0.00975793975
0.01977225304 0.04280474281 -0.05492066383 0.9512660508 0.01395836541 0.3080552948
-0.01026403236 -0.01360342598 -0.006999985456 0.6099935892 0.7923132423 0.01214689664
-0.006113176823 -0.01593464565 -0.01052904606 0.486577662 0.8735443753 0.01274375274
-0.01319665813 -0.01077331972 -0.01262505388 0.7733845771 0.6338258051 -0.01188043653
0.01421168613 -0.01487059498 -0.03296659088 0.6961913401 -0.7177507402 0.01230824847
-0.0148091898 -0.008511276245 -0.01404341602 0.8755718458 0.4830268309 -0.007682675176
-0.001643598735 -0.01982352257 0 0.1182430702 0.847315278 0.5177599792
-0.01556510067 -0.006995292664 -0.01548523617 0.9092056482 0.416320626 0.004714418927
0.01805605888 0.05986765671 -0.05074702835 0.8932757589 0.01408945926 0.4492882212
0.005083038211 0.04046866417 -0.04067181015 0.2450754648 -0.0104697239 0.9694474722
0.01682499886 0.01188084888 -0.03917207336 0.8479872914 0.5293346363 0.02687743346
-0.01660850906 -0.003910437584 -0.01747547722 0.9745549273 0.2237488215 0.0133850141
-0.016573349 0.004045518398 -0.03133744621 0.9741444644 -0.2259228029 -0.001203980058
-0.01698918915 0.001567376554 -0.01820159149 0.9955469109 -0.0942610902 0.001093149487
-0.004673270226 -0.01891814931 0 -0.1478852012 -0.4954575831 -0.8559507875
0.01075939274 -0.01755551338 -0.02121033096 0.5682302842 -0.8228650505 0.002729980094
-0.01658938026 0.003909988642 -0.01743902588 0.9712449569 -0.2380721925 -0.002205630263
-0.01231698704 0.01183016586 -0.022870121 0.7187756544 -0.6950987453 0.01411711461
-0.01342191076 0.003493807793 -0.06593564987 0.8432503306 0.3266345619 0.4268942994
0.02038415241 0.03974611473 -0.05798428154 0.9910262022 0.008278029971 0.1334111715
0.01915056467 -0.001426149473 0 0.7768971683 -0.1303553586 0.6159856089
-0.01556510067 0.006995292664 -0.01548523617 0.9064278746 -0.4222785291 0.008327788098
0.001697947502 0.02266215706 -0.04010434151 0.07683434362 0.002692825884 0.9970402361
-0.01480822182 0.008511226654 -0.01404157162 0.8838644498 -0.4677405456 -0.001554484069
-0.01319578505 0.01077326632 -0.0126233902 0.7743438422 -0.6324600453 -0.01964446813
-0.01638450336 0.004725083113 -0.02043875599 0.9510560197 -0.3088892217 0.008938462039
-0.007445754528 0.01627092934 0 -0.20310231 0.682165591 -0.7024240586
-0.01685774612 0.004198357582 -0.04685971451 0.9869102094 -0.153063759 -0.05079098636
-0.007448262215 0.01849380684 0 -0.1541043752 0.4251964302 -0.8918855517
-0.004599369049 0.05752716064 -0.04057465744 -0.2236335033 0.01371094899 0.9745768652
0.001716023728 0.02753412485 -0.04010600567 0.07527389361 0.0003588877777 0.9971628313
-0.00474252367 0.02450127125 -0.04056709671 -0.2062584707 0.001946197735 0.9784956084
0.01345230961 0.01556328297 -0.01125564766 -0.6369500962 -0.7708260801 -0.01103309305
-0.006960160255 -0.01561364746 -0.002277617455 0.3402844 0.8646155876 0.3696571557
-0.01656641579 0.004116896152 -0.03865641403 0.9819901542 -0.1887610314 -0.008038034451
-0.01313136816 -0.01086061049 -0.01585336828 0.7613718002 0.6479732395 -0.02106330523
0.01402456284 -0.01504724026 -0.03763479614 0.6605142304 -0.7507724563 -0.007853036302
-0.01069934813 0.03674188868 -0.04305311712 0.5340793364 -0.01176347465 -0.84535252
-0.01476669502 -0.008581178665 -0.01732065964 0.8829769265 0.4693997671 0.003950425612
0.004882902861 -0.01746374416 0 -0.2810059352 0.778783558 -0.5608313776
-0.01639592075 -0.00472535336 -0.0204607439 0.9529009933 0.3030954853 0.01062185512
-0.01701170158 0.001696416438 -0.05109243393 0.9965862873 0.07218184395 0.04006935759
0.01915198612 0.004278657436 0 0.7919610617 0.1543442509 0.5907415078
-0.01699007797 -0.001580647051 -0.02160594082 0.9907096037 0.1353619827 0.0131001828
-0.006681683302 0.05775002861 -0.0411524334 -0.2878567914 0.01303553184 0.9575847443
-0.01699007797 0.001580647051 -0.02160594082 0.9905744702 -0.1364203472 0.01231697185
0.01731604767 -0.01112269783 -0.0135249052 0.8518219571 -0.5237660019 -0.008278210683
0.01370738101 0.0372364502 -0.04529560089 0.6731627141 0.001223023009 0.7394933837
-0.0155447731 0.007053691864 -0.01882027817 0.9092954212 -0.4159827511 0.01184009414
-0.008162560463 0.01499570656 -0.02515205574 0.5150164751 -0.856602326 -0.0314719783
0.0136738348 -0.0143774004 0 -0.5263341693 0.6398291098 -0.5599920111
-0.004628794193 0.05253032494 -0.04057416534 0.204164015 0.0007899982034 -0.9789363773
-0.001720046714 0.05229029465 -0.04011905384 -0.1178249299 -0.0131613948 0.9929471605
0.01996123505 0.005591896534 -0.04433077621 0.9755534622 0.2118853209 0.05830997414
-0.0147655735 0.008581120491 -0.01731850052 0.878465532 -0.4777989532 0.002543499107
-0.01378183651 0.01008150864 -0.01542259693 0.800946356 -0.5968045246 -0.04805511668
-0.01015645218 0.01370714378 -0.03293741226 0.6385085639 -0.7696146821 0.0002342334061
-0.01010957289 0.01370587492 -0.009996092319 0.5934148434 -0.8044780584 0.02595914328
-0.006960160255 0.01561364746 -0.002277617455 -0.3235399875 0.8629762834 -0.3880641838
-0.004948566914 0.01695556641 0 -0.1372598635 0.5276691767 -0.8382869257
0.01882437992 0.02777490902 -0.05228249931 0.9107278995 0.007222902899 0.4129437284
-0.004673270226 0.01891814931 0 -0.1372598635 0.5276691767 -0.8382869257
-0.0079576087 -0.01511122799 -0.02836860085 0.5154249816 0.8565654677 -0.02515328953
0.01932435417 0.00714596796 -0.04150846863 0.9441844943 0.3274120855 0.03629003832
0.001634441182 0.0190045557 0 -0.1421391931 0.9897048139 0.01675801597
-0.01399187803 -0.005965099335 -0.05467420769 0.8301559373 0.4803078466 0.2830997921
0.01887570477 0.03764425468 -0.05240751457 0.9144173539 -0.003833043085 0.4047545068
-0.006561203718 -0.01577478886 -0.006406718016 -0.5031061222 -0.8641661588 -0.01005384801
-0.009952794075 -0.01380986738 -0.01303738546 0.5784809107 0.8155862982 -0.01337259063
-0.01306502008 -0.01094931746 -0.01913407326 0.760341577 0.6494976218 -0.005790129002
-0.01514140129 0.004351163387 -0.06337892914 0.9004651952 0.2522738735 0.354288477
-0.01472350216 -0.008652229309 -0.02065173149 0.8749088809 0.4842870797 -0.0006888579327
-0.01552410507 -0.007113066196 -0.0222110157 0.9119554219 0.4101248873 -0.01161401212
-0.01638517666 -0.004765391469 -0.02388809586 0.952878691 0.3032933283 0.00594619884
0.02005499363 0.00449200058 -0.01858473778 0.9739804666 0.2264519171 0.009032162981
-0.01070101643 -0.01327538013 -0.01965547371 -0.6491408275 -0.7606622678 0.003016687095
0.01622516251 0.04309866333 -0.04798446083 0.81049896 0.0006270296909 0.5857397397
-0.01420000744 0.009450464725 -0.02135775852 0.8300085057 -0.5573373809 0.02146914647
0.00955644989 -0.01824619293 -0.0359851532 -0.4783508394 0.8777365424 0.02755061755
-0.01373023891 0.01016445351 -0.01871726227 0.7968204708 -0.6042112915 0.002419190587
-0.0119389019 0.01222784328 -0.03664080811 0.6702834854 -0.7419576434 -0.01479542681
-0.001893707722 -0.01764472628 -0.0004986849129 0.1971099826 0.7879521956 0.5833343742
-0.004646720648 0.04920907974 -0.04057346535 -0.2605153461 -0.008121916995 0.9654355436
-0.009952794075 0.01380986738 -0.01303738546 -0.586935907 0.8095944309 0.007943462389
0.01097415638 0.02743163061 -0.04319297409 0.5375110061 0.000806996209 0.8432563472
0.01129470682 -0.0144238553 0 -0.4873233193 0.6403316726 -0.5937098041
-0.006561203718 0.01577478886 -0.006406718016 0.5030808067 -0.8641806677 0.01007351021
0.02045316792 0.04358207512 -0.06288788033 0.9999235844 0.01061677224 0.006333202276
-0.0102959013 0.01359658051 -0.02953623009 0.6414309037 -0.767038523 -0.01477498118
-0.01083183384 -0.01317166138 -0.01646486092 -0.6598972864 -0.751337088 0.005305812548
0.01629985738 0.05216075134 -0.04809832001 0.8065736389 -0.01086073918 0.5910338478
0.01989332771 -0.005301064014 -0.02300664711 0.9748007165 -0.2230457571 -0.003762079623
-0.01299758482 -0.0110394783 -0.02246858311 0.7804960715 0.6251034057 -0.008462537822
0.01737776566 -0.01100705338 -0.009606231689 0.8525376584 -0.5226288479 0.006215171324
-0.01637244797 -0.004806052685 -0.02737017441 0.951934995 0.3062367145 0.00623218199
0.01716903305 0.011363307 -0.02166879082 0.8420174378 0.5393832523 -0.008505385247
0.004884058475 0.01892203236 0 0.2157151438 0.8185201435 0.5324394345
-0.009871599515 0.03444645564 -0.04257514699 -0.4852095686 -0.0288349243 0.8739223202
-0.01699189949 -0.001607868642 -0.02858947372 0.9901966411 0.139461848 0.007810566574
0.01099034977 0.03067331076 -0.0432061367 0.5388776517 0.01136232538 0.8423074107
-0.01699189949 0.001607868642 -0.02858947372 0.9926590344 -0.1209362296 0.001571534008
0.01519913483 0.01389886761 -0.007265842915 0.7432603619 0.668789168 0.01688440294
-0.01636569023 0.004805890083 -0.02735687923 0.9426335808 -0.333522384 0.01430914666
-0.01550308895 0.007173442841 -0.02565898895 0.9076041428 -0.4198067455 -0.004125097492
0.02006266022 0.004445651412 -0.01463282824 0.9671354557 0.2542501866 -0.002419295673
-0.006665575504 0.06026441956 -0.04114793396 0.2789865099 -0.02922089422 -0.9598503355
-0.01415042877 0.009529378414 -0.02475143623 0.8292587679 -0.5587356764 0.0120141489
-0.01239894962 0.011734128 -0.01954922676 0.7180285282 -0.6959945598 -0.005158045009
0.001832668245 0.04877458763 -0.04012332916 0.08249627817 0.01344505917 0.9965006746
-0.01083183384 0.01317166138 -0.01646486092 0.6697773078 -0.7425264869 -0.007264586984
0.02008722019 0.004312258005 -0.003258978486 0.9173474549 0.2571566003 0.3038817697
0.02035651588 0.02808465195 -0.05770831871 0.9902056084 0.00306071947 0.1395832552
-0.002144224942 0.0169373827 -0.0009973698258 -0.2082635281 0.8006420427 -0.5617816501
-0.01634632874 -0.004889487028 -0.03451533127 0.9486895267 0.3161367694 0.006762019216
-0.001643394619 0.01908779621 0 -0.1143559468 0.8655939866 -0.4875138641
-0.008755436897 -0.01465922356 -0.01578516579 -0.537336465 -0.8433278826 0.008222270025
-0.01362270069 -0.01033437347 -0.02546759415 0.7856462535 0.6185997595 -0.009710912863
-0.01463494587 -0.008797901154 -0.02748128891 0.8700270922 0.4930020101 0.001369979231
-0.01492112255 -0.007537916183 -0.04670078659 0.8750176725 0.4695850195 0.1176179507
-0.01547753143 -0.007234666824 -0.02915747833 0.9016752893 0.4323789873 -0.005484882672
-0.006747246504 0.04607524109 -0.04116970062 -0.3025152539 0.0002189942692 0.9531445185
0.005328875542 -0.01985877419 -0.004154572964 -0.3036189985 0.9094555639 -0.2840881572
0.01624405766 0.0455643959 -0.04801363087 0.8049135484 0.002761198667 0.5933856717
-0.01635950089 -0.004847411156 -0.03091202259 0.9496002054 0.3131519816 0.01397448771
-0.016992836 -0.001621832609 -0.03217195129 0.9950854154 0.09902028084 4.120017328e-06
-0.01409512901 0.009609307289 -0.02819230366 0.8116807854 -0.5835420299 -0.02555390533
0.008903569221 -0.0151949892 0 -0.4133739455 0.6405676298 -0.647143796
-0.01580680561 0.006441869259 -0.02981251717 0.9379971731 -0.3465655247 0.007323953135
-0.01070101643 0.01327538013 -0.01965547371 0.6684336498 -0.7437489066 0.005832638261
-0.008563057899 0.01476990128 -0.01886485481 0.519994015 -0.8541251549 -0.008743230962
-0.008755436897 0.01465922356 -0.01578516579 -0.5265107523 0.8500284892 -0.01542709146
-0.006113176823 0.01593464565 -0.01052904606 -0.486577662 0.8735443753 -0.01274375274
-0.0004850316867 -0.01704785442 -0.00428633666 -0.04755564813 -0.8716393222 -0.4878353742
-0.005809083462 -0.01604314804 -0.01332703304 0.4633497944 0.8861741467 0.00153287078
-0.008563057899 -0.01476990128 -0.01886485481 -0.5250422059 -0.8510603525 -0.005192147497
0.01366923237 -0.01149936295 0 0.6071657248 -0.4888369828 0.6264089614
-0.01056812668 -0.01338074398 -0.0228966732 -0.6486372024 -0.7610951245 -0.001997763511
-0.01289529085 -0.01117429209 -0.02757612419 0.7733057885 0.6340051799 -0.005965681812
-0.01458954144 -0.008872589111 -0.0309828701 0.8685273242 0.4956383215 -0.001715043525
0.02027091026 0.003984489441 -0.04350474167 0.9856394318 0.1617937185 0.04834979902
-0.01544741058 -0.007296761513 -0.03270783615 0.9171097706 0.3986076158 -0.00465158769
-0.016991745 -0.001636031002 -0.03581309509 0.9948316639 0.1015058103 -0.002555560668
0.0197252655 -0.004046202183 -0.04955685806 0.9425923712 -0.3129217645 -0.1166172847
0.02051512718 0.001591020942 -0.04285306358 0.9981884664 0.05896906775 0.01193459531
-0.016991745 0.001636031002 -0.03581309509 0.9908631004 -0.134870498 0.000514789547
-0.01578229618 0.006497352123 -0.03338120651 0.9307640464 -0.3654291046 0.01182621689
0.02023999214 0.003661206961 -0.010356143 0.9864657483 0.1639666638 0.000510492595
-0.01458778191 0.008872493744 -0.03097933197 0.8689875752 -0.494819904 0.003722464297
-0.0122336731 0.01192778587 -0.02624575615 0.7136696462 -0.7004731833 0.003599391032
-0.01056812668 0.01338074398 -0.0228966732 0.6720954167 -0.7404596166 -0.002703139748
-0.008162560463 -0.01499570656 -0.02515205574 0.458130357 0.88886632 -0.005765525836
0.01720830854 0.01313634841 -0.04557885615 0.8444128437 0.4361945546 0.3109682621
-0.0004850316867 0.01704785442 -0.00428633666 0.2759215817 -0.8787854277 0.3893628806
-0.01579334641 -0.005050233126 -0.048532547 0.9059161958 0.3958929439 0.1502818124
0.01799032116 0.05236875725 -0.05059819984 0.8935686675 -0.01549700156 0.448658979
-0.005500814438 -0.01615313911 -0.0161634388 0.4414305999 0.8972843255 0.00445698174
0.01040487099 -0.0177751503 -0.02592277718 0.5374132369 -0.8433052361 0.004826129138
0.0136817596 0.01936900568 -0.04503745556 0.7014364328 0.1791038441 0.6898613946
0.008370178064 0.01617328103 0 -0.3502654729 -0.650970459 -0.6734623672
0.01973321152 0.03450917625 -0.05475385666 0.9513878422 0.0002215855448 0.3079953321
-0.01043310642 -0.01348779583 -0.02618979645 -0.6396052535 -0.7685948917 0.01292331523
0.001811390921 0.04548976231 -0.04011784363 0.07776670274 0.01367846392 0.9968777455
0.01984957886 -0.005475190163 -0.03573154449 0.9603768119 -0.2784410141 -0.01212356891
-0.0127655611 -0.01131750679 -0.03276305199 0.7632689101 0.6454913969 0.0275939732
0.02024111176 0.05820723343 -0.06416034698 0.9991052242 0.01208156224 -0.04053130763
-0.01454279995 -0.008948526382 -0.03454334259 0.8712150335 0.4908535395 -0.006867907844
-0.01541676712 -0.007359932899 -0.03631973648 0.9082601929 0.41812987 -0.01519321568
0.01801860905 0.05569545746 -0.05066146851 0.8892281921 -0.004795635627 0.4574387656
0.01635687256 0.01244856644 -0.008271348953 0.8161156396 0.5778585154 0.005899071296
-0.0160979538 -0.005747667789 -0.03770427704 0.9444148346 0.3286071315 0.009898144491
-0.0165678997 -0.004116932869 -0.03865943146 0.9719095001 0.2351849561 0.008942037536
0.01885673141 0.03434860229 -0.05236196136 0.9126587759 0.0007314636195 0.4087216948
-0.01699042416 -0.001650479466 -0.03951822662 0.9977242532 0.06608436607 -0.01338548471
-0.01699042416 0.001650479466 -0.03951822662 0.9967030743 -0.08017208652 -0.0124666844
-0.01575736046 0.006553800344 -0.03701200676 0.9301173831 -0.3667390174 -0.01959966179
0.00999712944 -0.01800613785 -0.03086124992 0.489731226 -0.8718093798 -0.01057031506
0.01096302843 0.02500312805 -0.04318431473 0.5316045719 0.0126652411 0.8468979695
-0.01214266014 0.01202656555 -0.02966480064 0.6850398216 -0.7284981214 0.003306041746
0.01893587557 -0.007922857285 -0.003516452471 0.9119971108 -0.3383485424 0.2319084598
-0.01043310642 0.01348779583 -0.02618979645 0.6647912152 -0.7470204171 -0.003624442043
-0.009804727236 0.04946328863 -0.04253734716 -0.4808735406 -0.02633100825 0.8763944979
-0.008364382744 0.01488194847 -0.02198461533 0.5080684992 -0.8612582867 -0.01002814403
-0.005500814438 0.01615313911 -0.0161634388 -0.4414305999 0.8972843255 -0.00445698174
0.004884659529 -0.01965134811 0 -0.2374985774 0.8693209484 -0.4334460917
0.01327355385 0.0157369194 -0.01540060806 -0.6250252231 -0.7805515314 -0.009098199184
-0.01149892235 -0.002602185249 -0.06375729752 0.7559135356 0.4640665473 0.4617758832
-0.005188271046 -0.01626465607 -0.01903917122 0.4028516014 0.915236253 0.007293045122
-0.01457138395 0.04365324974 -0.04607552338 0.6050641956 0.0005631802416 -0.7961764892
-0.01267609835 -0.01141267347 -0.0362915554 0.7500399321 0.6613725529 0.00514261378
0.02046723461 0.05827763939 -0.05855893898 0.9989845827 0.01553418289 0.04229057336
-0.01449474239 -0.009025751114 -0.0381644516 0.8768934215 0.4805277364 0.01228909533
0.001781549245 0.04057552719 -0.04011202812 0.07959336199 -0.009691866112 0.996780299
-0.01538558674 -0.007424211502 -0.03999493408 0.8840195003 0.4665558473 0.02889921351
-0.0079576087 0.01511122799 -0.02836860085 0.5320489865 -0.8458038112 -0.03924014336
-0.01628875828 -0.004974955082 -0.0418506546 0.9398589437 0.3397201128 0.03543177809
0.01615130806 0.01271795464 -0.01628559685 0.7918006055 0.6107003065 -0.009845647047
-0.01699980545 0.001665370077 -0.04331167603 0.9966547723 -0.08162689576 -0.004039149429
-0.01660499382 0.004154591084 -0.04250048828 0.9758272462 -0.2152551554 -0.03776775999
0.02051011276 0.001573685825 -0.03839170837 0.994160353 0.1074801524 0.009654495633
-0.004614505768 0.05502615356 -0.04057450485 -0.2593152945 0.003325399187 0.965786995
-0.01608420753 0.005798474789 -0.04143041611 0.9439552544 -0.3261276887 -0.05088426458
0.01041126919 0.01777433586 -0.02590783882 -0.5390080109 -0.8423006332 8.607217776e-05
-0.01538558674 0.007424211502 -0.03999493408 0.90771808 -0.4157512674 -0.05655767797
-0.01391503763 0.009856804848 -0.03885321045 0.8000849702 -0.598653873 0.03843931201
0.01636280441 -0.01244801426 -0.008257665634 0.8165182406 -0.5773196317 7.449539785e-05
0.01780135059 0.02277612972 -0.05023923874 0.8788165809 -0.006338876052 0.477117633
-0.01341329479 0.01059750366 -0.0359423027 0.789914519 -0.6131960002 -0.005071286819
-0.006796889544 0.0344838295 -0.0411807785 -0.3177657248 0.001869520292 0.9481674161
-0.0120416317 0.01212636471 -0.03312369156 0.6720745028 -0.7402297503 -0.0193850334
-0.005188271046 0.01626465607 -0.01903917122 -0.4028516014 0.915236253 -0.007293045122
0.004882348299 0.01673477173 0 0.2157151438 0.8185201435 0.5324394345
0.01633082509 0.05547181225 -0.04814457989 0.8136146362 -0.01632762874 0.5811752165
-0.004851356983 -0.01637561798 -0.02191359901 0.3916057145 0.9201225175 0.004417822028
-0.01015645218 -0.01370714378 -0.03293741226 -0.6077366558 -0.7941207761 -0.005324486038
-0.01258137751 -0.01150918198 -0.03987249565 0.7478433235 0.6636858394 0.01585780792
-0.01440073299 -0.009101831436 -0.04175518799 0.8381925189 0.5437307849 0.04230998568
-0.0152264185 -0.007483856678 -0.04347034073 0.8746776645 0.4792185378 0.07272259785
0.01596577072 -0.01146850514 -0.0001489429325 0.7143298081 -0.5415171983 0.443274237
-0.01613154459 -0.005014928818 -0.04535048866 0.9317681763 0.3550907595 0.07562154597
-0.01031044936 0.02811477804 -0.0428286705 -0.5172074083 0.01853977214 0.8556592626
-0.01672520256 -0.002516946793 -0.04658367157 0.9774929868 0.2021821682 0.06024808447
-0.01670664024 -0.001687932938 -0.04849514008 0.9755596499 0.2008475487 0.08912705314
-0.01706453133 0.001681340992 -0.04728892708 0.9998110241 -0.01886197564 -0.004705517581
0.01793873024 0.01010112762 -0.03205606461 0.892139154 0.4516397826 0.01045163608
0.01379718399 0.015227561 -0.003241092205 -0.674289033 -0.7001716377 -0.2347210636
-0.01606938982 0.00668427825 -0.04522218132 0.9552281126 -0.2772994114 -0.1031711657
0.02043320274 0.05150362778 -0.05832458115 0.9949229786 0.01967712871 0.09869689556
-0.01457133102 0.009111275673 -0.04210982513 0.8741591933 -0.4811774171 -0.06568103264
0.01106558609 0.01932864761 -0.04286099243 0.6243656694 0.3714133452 0.6871823905
-0.004851356983 0.01637561798 -0.02191359901 -0.3916057145 0.9201225175 -0.004417822028
0.008104399204 -0.01738823891 0 -0.4278929983 0.7835199447 -0.4505597389
-0.004491957188 -0.01648622131 -0.0247904644 0.3832486276 0.923645189 0.0002329632452
-0.007749446869 -0.01522855949 -0.03163552666 0.5713387917 0.8206440957 -0.01073561065
-0.01298231252 -0.008737785021 -0.05182007853 0.7884480466 0.5780834632 0.2101646675
-0.001759113535 0.04568543243 -0.04011430931 -0.1125346724 0.004617783713 0.9936370683
-0.01001469612 -0.01381953621 -0.03639482498 0.6230187864 0.7820473116 -0.01579854989
-0.01411921787 -0.009168828964 -0.04501666641 0.826803868 0.5565452396 0.08156445358
0.01506258011 0.01404974937 -0.01126482773 0.7343055964 0.6787772331 0.007533847577
-0.01638111877 -0.001699393004 -0.05174771118 0.9569835495 0.2573479613 0.1339944503
0.01328752565 0.01568109512 -0.03315346336 -0.6411731603 -0.7673797728 -0.0050262205
-0.01674537468 0.006773460865 -0.05053509331 0.9917711165 -0.09367951754 -0.0872593857
-0.006826862574 0.02459860611 -0.04118521309 0.3092130025 -0.007505581449 -0.9509631882
-0.01587382793 0.009266854286 -0.04870526505 0.9454121571 -0.2947554369 -0.1389787237
0.008672907829 -0.01863838959 -0.01102140713 -0.5289949358 0.8485295648 0.01272539099
0.02055196381 0.02167064953 -0.06195098877 0.9991548363 -0.005491912763 0.04073637102
-0.01408320522 0.01083438778 -0.04494295502 0.86091035 -0.4580301946 -0.2214536296
0.01890768433 0.04260038757 -0.05248318481 0.9107062412 0.02373893017 0.412371926
-0.004491957188 0.01648622131 -0.0247904644 -0.3832486276 0.923645189 -0.0002329632452
0.005005470753 0.02502954388 -0.04064155197 0.2444316385 0.005254445852 0.9696522907
0.008105315924 0.01811405087 0 0.3927213436 0.7430208439 0.541931704
0.00533321619 0.01985817909 -0.004145446777 0.1960589746 0.9493410402 0.2455859683
0.005701054573 -0.01977886391 -0.03289064026 0.3769858601 -0.9261540737 0.01096781729
0.01776857948 -0.01033344364 -0.04112658691 0.8544989295 -0.518875548 -0.02448969355
0.007609582424 0.01914067268 -0.0207757225 0.4562476334 0.8898035054 -0.009371170981
0.01935102749 0.009685409546 -0.048273983 0.9500821121 0.2583729645 0.1748925139
-0.01463198328 0.02847835541 -0.04613791466 -0.6079973209 -0.0006795057417 0.7939387861
-0.01462370491 0.03100059891 -0.04612939072 0.6074287053 0.0007233531074 -0.7943738696
-0.01461463737 0.03352555275 -0.04612005615 -0.6054079152 -0.003402426653 0.7959080849
0.02051337528 0.001539864868 -0.02973329163 0.9941893932 0.1071364426 0.01045146829
-0.01460149193 0.03689611816 -0.04610652161 0.616252797 0.0007693271268 -0.7875480292
-0.01458707619 0.04027185631 -0.04609167862 0.6057767866 0.0009331857719 -0.7956340955
-0.01455928898 0.04619322586 -0.04606357956 0.6046075537 0.000244458112 -0.796523475
0.001745623916 0.03404468155 -0.0401087265 0.07756963176 0.0005203926054 0.996986801
0.008169750214 -0.0188833046 -0.015785326 -0.5125932156 0.8585289754 0.01327379917
-0.01454974365 0.04873828697 -0.04605786133 -0.6027379384 -0.00266697936 0.7979347497
0.01568378576 0.01267048168 -0.0001989114682 0.6537628981 0.5056605901 0.5629399974
0.01909996033 -0.007621804237 -0.02498562145 0.9256508323 -0.3777146032 0.02241016054
-0.001740273431 0.04898416519 -0.0401166544 -0.1092840872 -0.009902013914 0.9939612359
0.00931709671 0.01846485901 -0.04073356247 0.5158224501 0.7014235096 0.4918660998
-0.01453589964 0.05213764191 -0.04604904366 0.6138404043 -0.0004061819359 -0.7894300432
0.02049059868 0.01317540693 -0.05706399536 0.9979748781 0.02903956601 0.0565936942
0.01915198612 -0.004278657436 0 0.7775776383 -0.2210113908 0.5886654242
-0.01452070856 0.05554456329 -0.04603878784 -0.603804657 0.0002348158172 0.7971322858
0.01903424072 0.007789047241 -0.03351979637 0.9143354661 0.4049298165 0.004743328832
0.009970305443 0.01800958633 -0.03092464066 -0.4879740696 -0.8728488847 0.004016450977
-0.01450847054 0.0581047554 -0.04603019333 0.603152914 -0.0002301601229 -0.7976255446
0.01915056467 0.001426149473 0 0.7950081281 0.09335657575 0.5993718595
-0.01449985886 0.05981433868 -0.046023983 0.6031539945 -0.0001816440023 -0.79762474
-0.00987057209 -0.01393380642 -0.03991001129 0.6383066296 0.7697818129 -0.0007791798158
-0.01126353168 -0.009349370956 -0.05485399628 0.7219333514 0.6099572012 0.3267482957
-0.01052164125 -0.01322626114 -0.04323346138 0.7084877377 0.7016665076 0.07555949753
0.001796331584 0.04303051567 -0.04011406326 0.07997363345 0.002974654482 0.9967925408
-0.01270332909 -0.01084184361 -0.04592673874 0.75970877 0.6411646339 0.1083997094
0.01593640614 0.01299957657 -0.02466383934 0.7627619022 0.6465998323 -0.0101458045
-0.01402859879 -0.008404937744 -0.04874090195 0.8058559246 0.5686730889 0.1649458904
0.01626399803 -0.01258095837 -0.01221404934 0.8084867722 -0.5883272912 -0.01483703416
0.01825963783 -0.009475002289 -0.007540846348 0.8904044563 -0.4551566236 -0.003514586054
-0.015312253 -0.005081675053 -0.05146674347 0.9014308709 0.4000619028 0.1654474506
0.005068152189 0.02016339016 -0.04044868469 -0.2270522195 -0.1069465763 -0.9679926236
-0.0158893919 -0.001709401727 -0.05470268822 0.9294498208 0.3158405986 0.1907032952
-0.01675788403 0.001709635913 -0.05453858566 0.9715955612 0.185816272 0.1465413887
-0.01699813461 0.004278959751 -0.05505042648 0.994955212 0.05827761798 0.08165687587
-0.01688163662 0.01026404238 -0.05480905724 0.998292619 -0.0330721742 -0.04814642386
0.02004033184 -0.00463681972 -0.03094447327 0.9710302955 -0.2389452207 0.002312291133
-0.00987057209 0.01393380642 -0.03991001129 -0.6669640674 0.7429592078 0.05630762133
-0.007533619881 0.01534732151 -0.03494486237 0.5841837908 -0.8114395648 -0.0171793832
0.0178121109 0.02522409248 -0.0502560997 0.8858740929 0.001169516729 0.4639242652
0.01369578171 -0.01524358654 -0.04276322937 0.6527167998 -0.7559052554 -0.05067567593
-0.01032580376 0.02231206322 -0.04283761024 0.4271604729 8.55402208e-05 -0.9041758253
-0.01257157803 -0.001444465478 -0.06332320404 0.7962105611 0.4271501129 0.4284758144
0.0189458847 -0.007974817753 -0.005933161736 0.9112962461 -0.4108781432 0.02680118245
-0.01385332108 0.002614948988 -0.06476042175 0.8451300464 0.3347690933 0.4167551546
-0.01030010319 0.03143596935 -0.04282264709 -0.5351125916 -0.01655272211 0.8446185658
-0.001854931772 0.02520582771 -0.04012108994 -0.1224459602 -0.01534572721 0.9923565365
-0.01026914096 0.03975988865 -0.0428046236 -0.5138771052 0.02076897326 0.8576123661
-0.01025470543 0.04309911728 -0.04279621983 -0.5157418939 0.001265121062 0.856743076
-0.0102390902 0.04644460964 -0.04278713036 -0.5317555155 -0.01611821657 0.8467445157
-0.01063095665 0.0518095665 -0.04301217651 -0.5315522009 0.01684185296 0.8468580812
-0.004749620438 0.02204533386 -0.04056895447 -0.20401694 -0.01320412417 0.9788783067
-0.01019510102 0.05483911324 -0.04276190853 -0.4789981755 0.002940812944 0.8778109702
-0.01017755699 0.05821130657 -0.04275517941 0.5297129894 -0.01544648581 -0.8480362934
-0.01208666801 -0.01090078735 -0.04855804443 0.7474716576 0.6420971489 0.1702861491
-0.01493890667 -0.004265325069 -0.05468260574 0.8562774374 0.446808554 0.2591352277
-0.01542228222 -0.0008595186174 -0.05776484299 0.896169456 0.3364136182 0.2893202096
-0.01626887989 0.001720582545 -0.05754129982 0.9465944055 0.2226453292 0.23321254
-0.01661737251 0.004308730125 -0.05829195786 0.9637556894 0.175873853 0.2006074746
0.0136266613 0.01539355755 -0.007203875542 -0.6430056429 -0.7658011424 -0.009610072489
0.01797949982 -0.009992100716 -0.0277796917 0.8708252339 -0.4910905948 0.02221350302
-0.016862113 0.00690489006 -0.05882077599 0.9829958187 0.09906520177 0.1546134089
-0.01707106972 0.01469628525 -0.05928432465 0.9987881964 -0.008337648335 -0.04850383847
0.01155799898 0.01321615187 0 0.5728722929 0.6121642827 0.5450433258
0.0149095211 -0.01420543098 -0.01538493538 0.7319686705 -0.6813329329 0.002701824721
0.01129693198 0.01586831021 0 0.5103603247 0.6069667685 0.6091992129
-0.004698926687 0.03763959503 -0.04056868935 0.20478137 0.00066832821 -0.9788075111
0.01894946098 0.01629533339 -0.05174064827 0.9282147573 0.125194034 0.3503481384
0.009620944023 0.01816989517 -0.001901401997 0.3980574867 0.8327020857 0.3849122934
-0.008902861595 0.06055130386 -0.0420262146 -0.3644342741 -0.009370464212 0.9311819662
0.009152711868 -0.01840116882 -0.006403399467 0.4759710372 -0.8785531189 0.03994983065
-0.01024074745 -0.01255209541 -0.04856386948 0.7105303958 0.6830055818 0.1692629079
-0.01085346508 -0.01097040653 -0.05191834641 0.7109836559 0.6620244737 0.2371198795
0.01639484262 0.0127831068 -0.04247102928 0.8404686129 0.517231934 0.1615042947
-0.01294451618 -0.00765639925 -0.05443477249 0.7720234868 0.5678506013 0.2855265843
-0.0133926878 -0.005142094135 -0.05745990372 0.8068317024 0.4952458327 0.3221089399
0.01934345627 -0.007067389011 -0.03704422379 0.9373548937 -0.3483076622 -0.006897508946
-0.01462803078 -0.002578175783 -0.05809144211 0.8612352102 0.401109783 0.3120654655
0.02050590611 0.03679536057 -0.06248919678 0.9995897426 0.004109956933 0.0283452783
-0.01597959709 0.00433235836 -0.06103249359 0.9130372793 0.2442876226 0.3266289701
-0.01550188875 0.006978155851 -0.06417555809 0.9141219911 0.2180798348 0.3417925847
-0.01630354595 0.006946326017 -0.06174010277 0.9398516443 0.1809084126 0.2897430466
0.01894610977 0.007974803925 -0.005932633877 0.9162254361 0.4001570676 0.0201313567
-0.01632538064 0.01016302745 -0.06318860245 0.9614984065 0.1295197192 0.2423746206
0.001880101949 0.05536692333 -0.04013469315 0.08141943465 0.004537129501 0.9966695993
-0.0167506218 0.01306203175 -0.06272448349 0.9852594555 0.03879548295 0.1666094711
0.009154805183 0.01840089417 -0.006398845673 -0.4763694733 -0.8792143784 -0.007362180842
-0.006832501888 0.02213278389 -0.04118540573 0.3070556204 0.02005583509 -0.9514802202
-0.004678550005 0.0425882473 -0.04057117653 0.2003703248 -0.002723535037 -0.9797164464
0.01970907688 0.02790245056 -0.05464356613 0.9465276791 0.01271821395 0.3223718346
-0.006818204165 0.02788942623 -0.0411843605 -0.3072442992 0.01522171738 0.9515089279
-0.006808184385 0.03118433571 -0.04118281746 -0.3128167329 -0.004544546862 0.9498026314
-0.006787619114 0.036961586 -0.041178936 -0.3167435739 -0.005749923033 0.9484937779
-0.006777546406 0.03944273949 -0.04117678261 -0.3109294469 0.01847397716 0.9502534352
0.005165229321 0.0519306097 -0.04070031929 0.2487563454 0.0108796469 0.9685049891
-0.006730150938 0.04940144539 -0.04116540146 -0.3122018982 -0.002355967899 0.9500128547
0.005221912742 0.05852255726 -0.04071902657 -0.250352474 -0.001886431339 -0.9681529219
-0.006711749554 0.05273495674 -0.04116059685 -0.3116120951 -0.006117298857 0.9501897078
-0.006697128296 0.05523993301 -0.04115667343 -0.3021921654 -0.006691741037 0.9532235392
0.01190527344 -0.01675226974 -0.003901028633 0.5688117854 -0.7754340053 0.27414459
-0.001479393621 0.0404591039 -0.04009210841 -0.113491263 -0.00766586272 0.9935094201
0.01582524204 0.01314525414 -0.02899771309 0.7886331798 0.6147397751 -0.01235785507
-0.01199856377 -0.007683804989 -0.05646806717 0.7600420858 0.5651057809 0.3209228633
-0.01268601513 -0.004306831121 -0.06006300545 0.7834935183 0.4915090084 0.3802062617
-0.0139329915 -0.001726567417 -0.06071823883 0.8256807377 0.4125012431 0.3848298895
0.0178241024 0.02767470551 -0.05027489471 0.8826929542 0.002262237082 0.4699447105
-0.01401220989 0.0008683510721 -0.06299621391 0.8421685439 0.3752442455 0.387225903
-0.01486370087 0.002606233835 -0.06276651382 0.8773931675 0.3093549597 0.3667161552
-0.01592089272 0.01136933422 -0.06510644531 0.9289026537 0.1440051688 0.3411779175
0.008078573465 0.02499967384 -0.0416850605 0.3949127496 0.004761005964 0.9187062931
0.01366821003 0.01078008652 0 0.5865583183 0.4965236186 0.6398543861
0.01367140532 0.01293814182 0 0.5926490578 0.6370585693 0.4928726749
0.01367511368 0.01509715652 0 0.5577610672 0.6172483131 0.5548937844
0.01189621162 0.01675336838 -0.003920969725 -0.5978724134 -0.7712337879 -0.218510919
0.008089344501 0.02742763948 -0.04169056416 0.3929126725 0.0006204120888 0.9195755797
0.008676522255 0.01863791275 -0.01101345158 0.5297094027 0.8480949617 -0.01195343864
0.005029564738 0.03070495653 -0.04065158749 0.2419282164 0.01065402067 0.9702356569
0.01881074619 0.02449574566 -0.05224921227 0.9097107344 0.01253954526 0.4150531768
-0.004731952906 0.02777887821 -0.04056432724 0.2017001138 -0.004159458762 -0.9794384937
-0.001846256971 0.02765346336 -0.04012031174 -0.1147746555 0.00148039977 0.9933904504
0.01202992249 0.01670269966 -0.03833052826 -0.6224299714 -0.7737925665 -0.11758399
-0.004721471786 0.03106082726 -0.04056434441 -0.2058867948 0.0005987823043 0.9785756328
-0.00471085763 0.03434763908 -0.04056666374 -0.2630923009 -0.01129459264 0.9647045524
0.01831173515 0.009378130913 -0.003749165058 0.8834026838 0.4486891505 0.135195209
0.02036797142 0.03473863602 -0.05786300278 0.9910407504 -0.01661721635 0.1325220704
-0.004663303614 0.04589522171 -0.0405724678 0.2061459728 -0.007967470188 -0.9784888131
0.01385916877 0.05527577686 -0.04544227982 0.6788765382 -0.001730054045 0.7342504019
0.01163203907 -0.01694561195 -0.008068717957 0.5898325778 -0.8074855476 -0.008038691478
0.01379361629 -0.01522795963 -0.00324903512 0.5781821729 -0.7631239534 0.288699163
0.01821087646 0.009573624611 -0.01140316868 0.8781633038 0.4782664449 -0.009508922235
0.01525009632 -0.01362838364 0 0.6159212173 -0.4795915685 0.6250063852
0.016184268 -0.008164091206 0 -0.5887461992 0.3211112467 -0.7417988138
0.02050685883 -0.001539969623 -0.02974988556 0.9942668855 -0.1064798008 0.009767925484
-0.01094946861 -0.007706818581 -0.05830284119 0.7389409405 0.5707763282 0.3580232808
0.01531304359 -0.01375326633 -0.003397879601 0.6868379091 -0.6856590607 0.2410919722
0.02051495266 0.001523512959 -0.02554704285 0.996918546 0.07840340191 0.002513791804
-0.0115874033 -0.006017603397 -0.05971996689 0.7469126956 0.5350642383 0.3947501564
-0.01451775599 0.007002822876 -0.06624495316 0.8900732927 0.2188032409 0.3998683226
0.0162880427 0.007398842017 0 0.7211288952 0.2797524557 0.6338072894
0.01306283092 0.01591779613 -0.01970615387 -0.6641482366 -0.7475593167 -0.007885926369
0.02003915501 0.004587759733 -0.02674941635 0.9625969206 0.2705102232 -0.01521142832
0.01602965164 0.01002873206 0 0.7309002902 0.4245466022 0.5343640597
0.01161325836 0.01694791222 -0.008110531807 -0.5895048468 -0.8077235867 0.008163519145
0.00818559742 0.01888119507 -0.01575004196 0.5134286023 0.8580405304 -0.01255064181
-0.001862715289 0.02276050568 -0.04012179089 0.1103093774 0.01962305199 -0.993703566
-0.001833498865 0.03092041922 -0.04011916351 -0.114545075 0.003437761107 0.9934121036
0.005045662284 0.03395420933 -0.04065789986 0.2428073329 0.0006236393181 0.9700743323
-0.001819306567 0.03419192982 -0.04011788845 -0.120999103 -0.001148890722 0.9926519517
-0.001803674817 0.03746848297 -0.04011648369 -0.1207842397 -0.01716916813 0.9925302953
0.01743818474 -0.01089384651 -0.005770159721 0.8521200341 -0.5207199954 0.052365389
-0.002084658921 0.04268557612 -0.04013696671 -0.1205595913 0.01581451392 0.9925801157
-0.001698355556 0.05560431194 -0.04012135506 -0.1158991479 -0.01289899141 0.9931772266
-0.001681167275 0.05809503746 -0.04012301826 -0.1250923812 0.01208973466 0.9920714362
0.007599019051 -0.01914209175 -0.02079952049 -0.4393232159 0.8983234767 0.003169086506
0.01135232162 -0.01714354324 -0.01233529377 0.5763485362 -0.8171541224 -0.009028016707
0.01361872196 -0.015394454 -0.007221761227 0.6377966072 -0.7701966466 0.003551545159
0.0204986763 -0.001461820304 -0.009734634399 0.9988216452 -0.04799344473 -0.007207665461
0.01680878067 -0.004292375565 0 0.7842566281 -0.2630361658 0.5619194931
0.01697842216 -0.01155045462 -0.00319990623 0.7952394273 -0.5551167875 0.2438023905
-0.012356493 0.0008719882369 -0.0656880188 0.7947091767 0.393329443 0.4623086347
0.01680878067 0.004292375565 0 0.7702700229 0.1942619516 0.6074095702
0.01749793625 0.01078294945 -0.002012615681 0.7968982062 0.5404563983 0.2699261575
0.01132355022 0.01714710045 -0.01240010738 -0.57621559 -0.8172493772 0.008890964319
0.006698440552 -0.01945076561 -0.02667037201 -0.4104657347 0.9118587083 0.005619317196
0.013439888 -0.01556469822 -0.01128396225 0.6371685167 -0.7706482349 0.01084340274
0.01519690704 -0.01389909744 -0.007270921707 0.743443638 -0.6687016464 0.01138706598
0.01866426802 -0.007498220921 -0.0002338982364 0.8593913177 -0.3280317521 0.3922266343
0.008281847239 0.05515998554 -0.04178746033 0.4044331525 0.00142341874 0.9145664541
0.01876550611 0.006903155168 -0.0002981976271 0.8802528777 0.2655131952 0.3932653233
0.01836059952 0.009283416748 -4.089452699e-05 0.6997536927 0.3872223638 0.6003362479
0.01102683163 0.01735110855 -0.01679349136 -0.562828053 -0.8265043457 0.01073076416
0.006799321651 0.01943707275 -0.02644040489 0.4173010974 0.9087572337 -0.004481551461
0.001706496179 0.02509697723 -0.04010512924 0.07001887885 -0.006952031456 0.9975214413
0.001730036139 0.03078711414 -0.04010729313 0.07669725425 0.01096242734 0.9969941607
0.001762792721 0.0373073225 -0.04011030483 0.08108393971 -0.0120524252 0.9966344033
0.001855568931 0.05206680393 -0.04012894535 0.08333697283 0.00144639104 0.9965203746
0.02050642204 0.01749959183 -0.06200195313 0.9994347292 -0.01401534033 0.03055801618
0.00190627718 0.05867546272 -0.04014057541 -0.08087295154 -0.007396147816 -0.9966969764
0.01325507832 -0.0157390461 -0.01544322777 0.6250610997 -0.780524245 0.008973547576
0.015064785 -0.01404951954 -0.01125974274 0.7348347756 -0.6782006885 0.007853570828
0.01924862194 0.007195174456 -0.003398532748 0.9226695089 0.3215883957 0.2127483987
0.02027089119 0.004122009277 -0.05759910583 0.9960290578 -0.05924502387 -0.06645406823
0.01743988037 0.01089370728 -0.005766248703 0.8515306637 0.5189473031 0.07476112203
0.005652681351 0.01978549576 -0.03300223541 -0.3766343201 -0.9263173952 -0.009092426342
0.01306565857 -0.01591746807 -0.01969955254 0.6658308274 -0.7460616229 0.007833525926
0.01284709644 0.01610297585 -0.02411411858 -0.65611338 -0.7546607206 -0.001558675628
0.01616585135 0.03409165573 -0.04789021873 0.7990966896 -0.01194151971 0.6010839215
0.005015185475 0.02746035528 -0.04064569855 0.2406619214 0.0004710885827 0.9706088902
0.01111364818 0.04860240841 -0.04330156422 0.5451663822 0.001272813587 0.8383269026
0.02009107018 -0.004312127352 -0.003249989867 0.9460600395 -0.2131998356 0.243959488
0.02049457169 -0.001432817757 -0.002304345965 0.9542175265 -0.1284018819 0.2701515666
0.02049593449 0.00143280229 -0.002301166534 0.954864575 0.1207507927 0.2713906585
0.01826183891 0.009474843979 -0.00753570509 0.8873238362 0.4610946334 -0.006938935824
0.0162552166 0.01258178425 -0.01223454952 0.7888971177 0.6145048213 -0.005016201092
0.02050978947 -0.001573716879 -0.03839255524 0.9936891462 -0.1121687844 -0.0002110214518
0.01490614796 0.01420578575 -0.01539281082 0.7310412141 0.682330494 0.001959648608
0.02054205608 0.02837269211 -0.06213428307 0.9991684046 0.00304871641 0.04065961792
0.004996060371 0.0226012187 -0.04063945103 -0.222280291 -0.06285480885 -0.9729546471
0.00506348443 0.0372086134 -0.04066464138 0.2438776386 0.0006445690392 0.969805796
0.005104331255 0.04373486423 -0.04067941189 0.251775795 -0.005893935884 0.9677676429
0.005121392488 0.04618863678 -0.04068538475 0.24664481 -0.0009618572327 0.9691054703
0.005139550209 0.04864680767 -0.04069162846 0.2521123635 0.004804577534 0.9676860401
0.005192679882 0.05522235107 -0.04070944977 0.2497278643 0.00125308936 0.9683152501
0.01284730434 -0.01610295105 -0.02411362648 0.6560419387 -0.7546999801 0.006075745474
0.01474141979 -0.01436590862 -0.0196268158 0.7080690307 -0.7061222484 0.005442245349
0.01820754242 -0.009573866844 -0.01141104603 0.8781203841 -0.4783508763 -0.009221175011
0.02008640575 -0.004355549216 -0.006954543591 0.9765567383 -0.2143316537 0.0199719596
0.01962375069 0.007208748817 -0.04523250961 0.9541086376 0.2754703158 0.1174428061
0.02049660301 -0.001447169721 -0.005981247902 0.9998132885 -0.0192159421 -0.002033655096
0.02007816601 0.004355828166 -0.006974012136 0.977612596 0.2099938377 0.01327404096
0.01921161652 0.007309107542 -0.009029740334 0.9188539636 0.3944338606 -0.01137203716
0.0147461195 0.0143654089 -0.0196157093 0.7071519521 0.7070454544 0.004779340307
0.01939178085 -0.006914880753 -0.02838553238 0.9400709562 -0.340848902 -0.009413992236
0.01257970524 -0.01629813004 -0.02873950386 0.6328279584 -0.7742902215 -0.001851493293
0.01456937981 -0.01453014469 -0.02396805763 0.6991520318 -0.7149657254 0.003232316747
0.0160597496 -0.01285577297 -0.02039248276 0.7584399021 -0.6516442623 -0.01134329582
0.01767493343 -0.0105095911 -0.01847111797 0.8499562805 -0.5268479362 -0.002360807357
0.02050442982 0.001461754948 -0.009720873833 0.9987431025 0.04953506549 -0.007648044507
0.01815366173 -0.009674920082 -0.01536664867 0.8808820189 -0.473321983 -0.003628924433
0.01991355515 -0.005138825893 -0.01114027119 0.9625617474 -0.2706715176 0.01455376259
0.02024973106 -0.003660932064 -0.01033284664 0.9865637561 -0.1633751394 0.0007204370629
0.01990033913 0.00513934803 -0.01117188168 0.962619371 0.2704594678 0.01468409881
0.01918679237 0.007384640217 -0.01288588238 0.9302389724 0.3667466975 0.01234156
0.01815881157 0.009674542427 -0.01535432816 0.8808020109 0.4734685325 -0.003919986694
0.02022829437 0.003776540279 -0.02217078018 0.9855241544 0.1695343725 -0.0004874001044
0.01767479992 0.0105096488 -0.01847130871 0.8496466817 0.5273450043 -0.002786153035
0.01604506493 0.0128571825 -0.02042760658 0.7588160448 0.6512130784 -0.01094242295
0.02036167431 0.0314084177 -0.05778225517 0.9906875272 -0.01499599692 0.1353268027
0.01458236122 0.01452875233 -0.023937006 -0.6988363572 -0.715278477 0.002108584015
0.01874615383 0.009623042107 -0.04529495049 0.916962462 0.362540403 0.1665662016
0.013505651 0.01549604177 -0.02852975845 -0.6681424174 -0.7437865214 0.0191656119
0.009494272232 0.01825427055 -0.03613389969 -0.5369180646 -0.8406031054 -0.07145215967
0.008080221415 0.02014740562 -0.04162737274 0.4240737129 0.4597306441 0.780262277
0.008068941116 0.02257409477 -0.04168004322 0.3804644742 0.07909851008 0.9214066472
0.02041055679 0.04645081329 -0.05816794395 0.9942354913 -0.02015470923 0.1053070535
0.008105227828 0.0306684761 -0.04169856167 0.3939886556 0.009910745794 0.9190618675
0.008122943282 0.03391400623 -0.04170734882 0.3949111113 0.0008659039544 0.9187189257
0.008142498136 0.03716473293 -0.04171692753 0.3959480878 0.0008904198693 0.9182724644
0.008163870811 0.04042117023 -0.04172737217 0.3970118785 -0.00857478103 0.9177734151
0.008187014818 0.04368384647 -0.04173881626 0.3987377044 0.0009644824451 0.9170645086
0.008205376863 0.04613507462 -0.04174829292 0.3993002096 0.0008222404111 0.9168198659
0.01895694733 0.04923531532 -0.0525978756 0.9179953471 -0.003609909941 0.3965747235
0.008224878192 0.048590765 -0.04175834274 0.4000707571 0.00115890417 0.9164835221
0.00825242877 0.05187134838 -0.04177246666 0.4024601447 0.0106999711 0.9153749738
0.01972035885 0.03120287418 -0.05469615364 0.9478563726 -0.007910893604 0.3185996151
0.01721512604 -0.01049056339 -0.04704198837 0.8687196755 -0.4888482713 -0.07970880134
0.00831278193 0.05845735931 -0.04180420876 -0.405461589 -0.001923780317 -0.9141100584
0.008754155159 -0.01853874588 -0.04209700394 0.5490409433 -0.8346289946 -0.04414163434
0.01230488682 -0.01649827766 -0.03348291397 0.6195544483 -0.7849523069 -0.001470182765
0.01439325619 -0.01469828033 -0.02841236687 0.71633822 -0.697684383 0.009800829504
0.01595414829 -0.01299785614 -0.02462087059 0.768648895 -0.6396529724 -0.004790719665
0.01885912132 -0.008225363731 -0.017560009 0.9092465425 -0.4162430241 0.003531253785
0.01946035576 -0.006698456287 -0.01609799004 0.9509716604 -0.3092092528 0.006522201592
0.02007651806 -0.004445155025 -0.01459927177 0.9672669212 -0.2537397767 -0.003290718141
0.02050076962 -0.001476779997 -0.01356712294 0.9946126634 -0.1033683615 -0.007786631001
0.020508811 0.00147668764 -0.01354765081 0.99454173 0.1040317194 -0.008009283053
0.0194565506 0.006698651791 -0.01610720253 0.9510453877 0.3089675415 0.00719228212
0.01791546631 0.04244208145 -0.05043369865 0.8820384932 -6.84437365e-05 0.4711773464
0.01886379242 0.008225070953 -0.01754870224 0.9094632599 0.4157750429 0.002773556207
0.01202305508 -0.01670353127 -0.03834737015 0.5960803592 -0.8024300216 -0.02818272159
0.0158420763 -0.01314360523 -0.02895643616 0.7863286852 -0.6178052205 -0.001976952489
0.0175679245 -0.01068567514 -0.02470917702 0.8547726044 -0.5189495623 0.007426072495
0.01913017654 -0.007540982962 -0.02086273861 0.9257540031 -0.3779404853 -0.01185391571
0.02006935024 -0.004491457582 -0.01854954147 0.9743110758 -0.225007689 0.009458729811
0.02052617931 0.006582552433 -0.0569075489 0.9989317778 -0.02166437199 -0.0408161533
0.02050224304 -0.001492070079 -0.0174829607 0.9946348918 -0.102868271 0.01093393175
0.01913296986 0.00754076457 -0.02085589027 0.9262677291 0.3766634401 -0.01235908328
0.01757180119 0.01068541193 -0.02469967175 0.8544064865 0.5195449639 0.007911147286
0.0109525404 0.02257715559 -0.04317778015 0.5552287113 0.06827978678 0.8288901911
0.02001823139 0.004739424348 -0.03968469048 0.9692189931 0.2461467928 0.005128330969
0.01100846171 0.03391979885 -0.04322054005 0.5401081 0.0009640355533 0.8415950992
0.01969471931 0.01967207718 -0.05451525497 0.9496288728 0.01945559768 0.3127722552
0.01102850008 0.03717160511 -0.04323619175 0.5412607106 0.000853192867 0.840854396
0.0110504725 0.04042924786 -0.04325309563 0.5401484838 -0.01127144436 0.8414942483
0.01109354401 0.04614550591 -0.04328566933 0.5447556436 0.001036879108 0.8385941889
0.01114104772 0.0518851366 -0.04332642841 0.5467252588 0.01164845821 0.8372310343
0.01614800406 0.03082758856 -0.0478606863 0.7897617235 0.01309168544 0.6132740235
0.01117030454 0.05517619228 -0.04335288429 0.5484859495 0.001554658709 0.8361583261
0.0136681757 0.03072597027 -0.0452535553 0.6705164114 0.01129819243 0.7418086633
0.01571353054 -0.01329413128 -0.03342772675 0.7550376461 -0.6555871634 -0.01111863984
0.01701266861 -0.0116151123 -0.03019034386 0.8367040708 -0.5474461815 -0.01513196053
0.02051571846 0.001507530242 -0.02145367527 0.9988795602 0.04719118504 -0.00355193642
0.01986602783 0.005302175999 -0.02307442474 0.9743880594 0.2248442649 -0.003600876737
0.01910334778 0.007621525049 -0.02497721195 0.9264282966 0.3757307239 0.02360157707
0.01799560738 0.00999088192 -0.02773969841 0.8893040402 0.4564403954 0.02829292388
0.01701312637 0.01161507225 -0.03018920708 0.8323163155 0.5542908957 -0.00333974858
