# .PCD v0.7 - Point Cloud Data file format
VERSION 0.7
FIELDS x y z normal_x normal_y normal_z
SIZE 4 4 4 4 4 4
TYPE F F F F F F
COUNT 1 1 1 1 1 1
WIDTH 564
HEIGHT 1
VIEWPOINT 0 0 0 1 0 0 0
POINTS 564
DATA ascii
0.01450016403 0.01459227943 -0.01189951038 0.7336828637 0.6794217079 0.009777439166
0.01052514648 -0.0005812556744 -0.07186236572 -0.5022544885 0.4768929726 0.7213276103
0.01273024082 0.01619321442 -0.008132475853 0.60200866 0.7984894064 0.000491115831
0.01009596825 0.0179420414 -0.002527155876 -0.5535878476 -0.832790532 0.0006516874202
0.009812137604 0.01809088516 -0.02712010193 -0.4588975286 -0.8884845249 -0.002882226092
0.0129469223 -0.01602053452 -0.01186846161 0.61277335 -0.7902549299 -0.002442825592
0.01640306664 -0.006203329086 -0.05922186788 0.791813038 -0.5010849951 -0.3492075895
0.01442670155 0.03386336899 -0.07527851868 0.6902060273 -0.00615445779 -0.7235867347
0.004364424229 0.0199909668 -0.08067969894 0.2329284343 -0.02600423799 -0.9721461434
0.01465337944 -0.01444317436 -0.01545902824 0.7318130334 -0.6814987858 0.003014824538
0.01793960953 -0.01006240273 -0.02237494469 0.86915882 -0.4944967538 0.005992160993
0.009932139397 -0.00529380846 -0.06863790894 -0.4981828625 0.5820472573 0.6426778554
0.01923410416 -0.007305483341 -0.02509975243 0.9321092061 -0.3621449895 0.004840914634
0.01954553604 0.03786499405 -0.05416170502 0.9810188618 0.000346693885 0.1939120226
0.0116864233 -0.01559013748 -0.04989524078 0.5710822569 -0.7873543362 -0.2322460014
-0.0003311432153 0.01609812927 -0.08089509964 0.0296219391 0.1135213577 0.9930938738
0.01659147835 -0.01200549603 -0.04307685852 0.7981030649 -0.5995610282 -0.05964956963
-0.007241163015 0.005885168314 -0.0770311203 0.3335687879 0.3613989878 0.8707023805
0.0197171669 -0.005954731941 -0.02611658287 0.9540195551 -0.2996457096 0.007690071627
0.01704242325 0.002923907757 -0.06680823517 0.824019588 -0.3035646289 -0.4783724853
0.003906193256 -0.01815208626 -0.05270322227 -0.1660839744 0.9260296404 0.3389472208
0.02019024754 -0.003955816507 -0.02711254597 0.976698834 -0.2146117775 0.001082884286
0.01905871201 0.04565821457 -0.06839345932 0.924920017 0.005669205214 -0.3801194843
0.01976997757 0.005743561745 -0.03811286163 0.9576054277 0.2879823608 0.007616078316
0.02057403946 1.519918442e-09 -0.02792054081 0.9999859527 -0.004998331327 0.00176383303
0.01856619072 -0.008090342522 -0.04687551498 0.8909663106 -0.4403693076 -0.1106973631
0.02049203873 0.001972865939 -0.02774789619 0.9976159844 0.06888598977 -0.004131360841
0.02018044376 0.00395619607 -0.02709193897 0.9757512095 0.2188792164 0.001210700321
0.01971782112 0.0059547019 -0.02611795807 0.9552431241 0.295778193 0.005082754639
0.01830793953 -0.004221026897 -0.05684925461 0.8851313012 -0.3874776702 -0.2576890272
0.01923506546 0.007305429459 -0.02510177231 0.9339417594 0.3573919952 0.004873588206
0.02057566452 8.49366188e-09 -0.0309565258 0.9999885272 -0.003227595541 0.003539516485
0.01979422951 0.005692587852 -0.04100288773 0.9584473484 0.2844106424 0.02211937594
0.004055972934 -0.002337092012 -0.07367275429 -0.2133600851 0.5430022898 0.812173619
0.005712345123 -0.004101477623 -0.07189855957 -0.2635098733 0.5812465701 0.7698798422
0.01868050194 0.008671005249 -0.02393435478 0.9087865529 0.4172470833 -0.003445683601
0.01930760765 0.007107599258 -0.03428026581 0.9415465499 0.3368072901 0.007137486575
0.01217977428 0.01030369258 -0.07570347595 -0.590595028 0.2280315479 0.7740795347
0.01794620895 0.01006190014 -0.02238881683 0.8677706469 0.4969158792 0.006979495584
0.01709841919 0.01147793484 -0.02060438919 0.817194082 0.5763578799 -0.002329507219
2.513096482e-05 -0.01274857903 -0.06409790039 -0.001541323326 0.8158207567 0.5783027903
0.01597810364 0.01293798733 -0.01824673271 0.7696505571 0.6383787948 -0.0105135313
-0.004404856205 0.05940740204 -0.08066651154 0.1872520746 -0.009720290383 0.9822638019
0.01466992664 0.01444140816 -0.01549381638 0.7338243603 0.6793362484 0.002017388456
0.008993156433 -0.01539552116 -0.05522730255 0.4370252532 -0.8293452573 -0.3481312571
0.006910863876 0.0459836483 -0.07997815704 -0.3334493312 0.003290552357 0.9427622796
0.01966991997 -4.725158215e-07 -0.05683409119 0.9544087558 -0.2227204972 -0.1987448289
0.01852058506 0.03018013573 -0.06958770752 0.9080266438 -0.00861447376 -0.4188238353
0.01294254589 0.01602104568 -0.01185926056 -0.6085742915 -0.793490954 0.003072066776
0.01579480267 -0.01177759457 -0.04961862946 0.7643763455 -0.6161977875 -0.1898133007
0.01077729416 -0.01753260422 -0.0105711441 0.5149823619 -0.8571879125 -0.004695693239
0.01312956142 -0.01585493469 -0.01546379852 0.6604809761 -0.7508426005 -0.0005191337895
-0.01233759022 0.04429830742 -0.07706389999 0.5368937399 -0.009545094099 0.8435958767
0.002314000309 -0.01400712538 -0.06200854111 0.1337013008 -0.8354753038 -0.5330149894
0.02058887005 0.02973317146 -0.06117006302 0.9999297179 0.01109784045 -0.004171003551
0.01509926987 -0.01401323986 -0.02572054482 0.7504498269 -0.6609102212 0.004768308813
0.01481627846 -0.01429575443 -0.01897257233 0.7454216069 -0.6665901173 -0.002059972703
0.01717500114 -0.01136795521 -0.02387992477 0.8231022054 -0.5678897053 -0.002010510064
0.02036292076 0.0481367569 -0.06344475937 0.987472112 -0.004326762662 -0.1577342928
0.01973216248 -0.005900423527 -0.02920106506 0.9551840187 -0.2959887747 0.003759745514
0.0195694685 0.04584939957 -0.06689414215 0.9492979278 0.01022984659 -0.3142113851
0.001869192839 0.05212765503 -0.08107114792 -0.1145679045 0.00347596039 0.9934093381
0.01402691555 0.01507171631 -0.03245157242 0.7020086982 0.7121680148 -0.0007115837478
0.01850648053 0.0001980178157 -0.06137236659 0.8922598484 -0.3079440264 -0.3302163526
0.02006832314 -0.004577132225 -0.02990067291 0.9745098098 -0.2241181861 0.01008311688
0.0203579607 0.04995738602 -0.06346093559 0.9852629684 -0.002238683133 -0.1710317846
0.02033200455 -0.003262615204 -0.03044940948 0.9883451157 -0.1522018233 -0.00292184525
0.02049775696 0.001955014825 -0.03079437256 0.9975526061 0.06991079168 0.001131083435
0.02056805611 0.05951135254 -0.0614633255 0.9990662625 0.02775268002 -0.03311180741
0.01660931587 -0.0001969806353 -0.06525210063 0.8025638706 -0.3771244857 -0.4622427456
-0.005904152155 0.05415963745 -0.08032963562 0.2715552834 0.009644884354 0.9623745135
0.0001804007366 0.01379626226 -0.08058465195 0.01057094607 0.1654852423 0.9861556113
0.0193639307 -0.002421312928 -0.05497925758 0.940550384 -0.2883130392 -0.179556583
0.02033732033 0.003262481451 -0.03046046066 0.9876798086 0.1564737238 -0.002137646404
-0.001793874025 -0.00176470542 -0.07444895172 0.07988543607 0.5492466035 0.8318332078
0.02057250309 0.05396475983 -0.0613934803 0.9996972317 -0.0008215382693 -0.02459207049
0.02018263626 -0.00184359324 -0.0499850235 0.9783723517 -0.1865876897 -0.08928927964
0.01604064703 0.03397921371 -0.07347088242 0.7837305324 0.0009579109545 -0.6211002617
0.02004319763 0.004578017235 -0.02984844398 0.9743308269 0.2251104758 0.002171057203
0.01949515533 0.02558116817 -0.05399542618 0.9448109951 4.958002169e-06 0.3276159085
0.0102705822 0.01596011829 -0.07811781311 -0.494169484 0.09896990021 0.863713772
0.02035289383 0.05178169632 -0.06347777557 0.9850605508 0.00314445714 -0.172179626
0.01973093605 0.00590047884 -0.02919851494 0.9559884954 0.2933892019 0.002961906542
0.01926002502 0.007238247395 -0.02821858025 0.938944305 0.3439786177 0.007893208579
0.01080132008 -0.01708568764 -0.04568244553 0.5117747552 -0.8497430566 -0.1265833234
0.01871683884 0.008590517998 -0.02708819008 0.9108250539 0.4127766878 -0.003623142031
-0.003471066236 0.01446904755 -0.08043215179 0.1717777582 0.1409576396 0.9749991516
0.02045656013 0.01976628113 -0.05834447098 0.9990343064 0.008835910173 0.04303929929
0.01800621605 0.00996671772 -0.02560951233 0.8760807835 0.4821541147 -0.003141732632
0.01216094875 -0.00411389637 -0.06776515961 0.6019108258 -0.5302010515 -0.5971517418
0.01716567802 0.01136875343 -0.02386054802 0.8217796842 0.5698009033 -0.002254181492
0.01292348289 0.01314760399 -0.07583895874 -0.6155378257 0.1592767883 0.7718446022
-0.008432736397 -0.011752635 -0.06240522385 0.3732231068 0.7428764385 0.5557329482
0.008002816359 -0.01142013741 -0.06315046438 0.3889606826 -0.7414811294 -0.54673149
0.01608297729 0.01281135368 -0.02160793114 0.7754533015 0.6313170247 -0.01053524992
0.01846921444 0.0162147851 -0.06936351395 0.8968991725 -0.0797700867 -0.4349811578
0.007712295294 0.02970244265 -0.07967940712 -0.3533312945 -0.005324819425 0.9354831065
-0.001919921835 0.008303311189 -0.07918147278 0.07893703052 0.2983170274 0.951197086
0.01313708019 0.01585406399 -0.01547942829 -0.6574764123 -0.7534741889 -0.001189079815
0.006349555969 0.01954079437 -0.001363461256 0 0 1
0.007366474628 -0.01922903061 -0.006765541553 0 0 1
0.01908245373 0.03971704674 -0.06833932114 0.9261375845 0.006462039522 -0.3771305035
0.01630604744 -0.009798974037 -0.05316259193 0.7932157805 -0.5574276783 -0.2451185612
0.0193394928 -0.001809573293 -0.05621790695 0.943352033 -0.2653561481 -0.1991809642
0.02049895477 0.06004636383 -0.0587716217 0.9996403695 -0.0003965128981 0.02681370045
0.01107017517 -0.01733937073 -0.01438179398 0.530703145 -0.8475456448 -0.004533417682
0.01620192719 0.004071285486 -0.06886396027 0.7726477507 -0.3064718407 -0.555959049
0.0109478426 0.0560178566 -0.0780045166 -0.5092897141 0.006371006744 0.8605715528
0.0145009284 0.02002006626 -0.075186203 -0.68936612 0.02063175826 0.7241192465
0.01620384407 -0.01268547916 -0.02494062233 0.7796697371 -0.6261030977 -0.01048866453
0.01709095001 -0.007912859917 -0.05460773087 0.8263147705 -0.5024187044 -0.2545178688
0.01724521446 -0.01126049423 -0.02708277893 0.8271254947 -0.5620120403 -0.002425417297
0.01804455376 -0.009874868393 -0.02872720909 0.8800524301 -0.4748618625 -0.003732544422
0.005259314537 0.01989518547 -0.02126486969 0 0 1
0.01873861694 -0.008512422562 -0.03015505409 0.9122481731 -0.4096130046 -0.004522962075
0.00411693722 0.0378944521 -0.08074092865 -0.1916486996 -0.0003965655541 0.9814635086
0.006210168521 0.0135126098 -0.0795566508 -0.3015629321 0.1749448927 0.937258813
0.01929485512 -0.007171731472 -0.03129941177 0.9381445168 -0.3462429232 0.0008388502033
-0.0001658050343 0.00232695508 -0.07686927032 0.005590436708 0.449349616 0.8933384967
0.01951685905 0.02986783791 -0.0540580864 0.944934797 -4.945599594e-07 0.3272586583
0.01738912439 0.05363436794 -0.07156923866 0.8486304501 0.009753585141 -0.5288962344
0.003944771449 0.0001931042075 -0.07529572805 -0.1696061704 0.4943872222 0.8525344694
0.0194616127 0.02008447456 -0.05390912628 0.8839430691 0.001857534719 0.467590847
0.0197468853 -0.005847103596 -0.03222939301 0.9556510635 -0.2944292203 0.006517597017
0.007732057333 0.02797496033 -0.07967176819 0.3554505096 -0.01216091065 -0.9346159893
0.01781968212 -0.01027833271 -0.0370758419 0.864728262 -0.5022052036 -0.005913238123
-0.001701975346 0.02422387028 -0.08110917664 0.0815707109 0.007568432957 0.9966388202
0.02020941067 -0.003884599924 -0.03318101311 0.9820632001 -0.1885516396 -0.0003875140852
-0.01552114296 0.02597460556 -0.07410687256 0.7501219832 1.62503812e-05 0.6612994859
0.001825216889 0.01833043337 -0.08100945854 -0.07742690034 0.06186883303 0.9950765411
0.02047820473 -0.001937862754 -0.03373408508 0.9976710507 -0.06809295245 -0.003977985453
0.02057725906 1.522898674e-08 -0.03393785667 0.9999706084 -0.001705214689 0.007474936721
0.01602988887 0.03572689629 -0.07348431587 0.7840416174 0.007113808875 -0.6206674922
0.02050045395 0.001937529802 -0.03377981949 0.997738949 0.06706555305 -0.004381915064
0.008461749077 -0.0185118103 -0.04407714081 -0.4453273762 0.8888180097 0.1081021447
0.02044143677 -0.001871620297 -0.04506803513 0.9954953278 -0.09241913625 -0.02116023694
0.01745478058 0.0441248188 -0.07147133255 0.8563977269 -0.002028834493 -0.5163127126
0.01657409477 -0.01221411705 -0.03746184158 0.8014989811 -0.5979751009 0.005016172452
0.02019989586 0.003884954572 -0.03316145325 0.9812972465 0.1924972484 -0.0007233946492
0.01974381256 0.005847241879 -0.03222307587 0.9565734449 0.2914456134 0.005167093315
0.01955747223 0.04405620193 -0.05423043251 0.955495345 0.00143323744 0.2950026975
0.01928403473 0.007172325134 -0.03127716827 0.9402496903 0.3404849206 0.000733938907
0.005812563181 -0.0181955843 -0.05098239136 0.3227166364 -0.9070847475 -0.2702799166
0.01040919113 -0.01274927711 -0.05888883591 0.5068025847 -0.7417201559 -0.4393203278
0.02055720043 0.003645665526 -0.05334477997 0.9984415571 -0.05056464939 -0.02361510642
0.01840311623 -0.006739453316 -0.05188044739 0.8888417768 -0.4180164668 -0.1876766616
0.01586501551 0.05577851582 -0.07367746735 0.776915974 0.01016775916 -0.6295221887
0.01875250435 0.008511522293 -0.03018360519 0.9129645722 0.4080241137 -0.00346591741
0.02044267654 0.007907825947 -0.05313025284 0.9959933191 0.05730475023 0.06865474415
0.01806509018 0.009873332024 -0.02876942825 0.8736075063 0.4864904884 -0.01170169371
0.01723166275 0.01126164341 -0.0270549202 0.8258208842 0.5639259711 -0.002714097761
0.01823437309 0.007964208603 -0.067337883 0.8850793942 -0.1959017657 -0.4222048842
0.01618395615 0.01268736553 -0.0248997364 0.7810597277 0.6243634632 -0.01076882532
0.01103645992 0.01734358025 -0.01431247997 -0.5308421195 -0.8474524343 0.005569175243
0.0191299305 0.02384137344 -0.06823106384 0.9290465484 0.002968521427 -0.369950941
0.007386868477 0.01922628212 -0.006807468414 0 0 1
0.006328605175 0.01958201408 -0.0262570076 0 0 1
0.01348367882 -0.01553385639 -0.02243477058 0.6737923206 -0.7389205005 -0.0006345438562
0.01420449352 -0.004132062674 -0.0654135437 0.6890048086 -0.5079685996 -0.5169528755
0.01971154881 -0.002434879005 -0.05304112816 0.9570351709 -0.2571269912 -0.1340499612
0.01630701256 -0.01256350803 -0.02817697525 0.7845475067 -0.6199759477 -0.01072539456
0.01731410599 -0.011155056 -0.03022535133 0.8306476132 -0.5567931372 -0.002438273052
0.01809542274 -0.009783723831 -0.03181458664 0.8782178448 -0.4781232112 -0.01147222567
0.01877110672 -0.008435027122 -0.03318896103 0.913978053 -0.405737497 -0.00460458381
0.01816974449 0.009692458153 -0.03489435959 0.8791098962 0.476175919 -0.02054956574
0.01932439804 -0.007106686115 -0.03431439972 0.9391227441 -0.3435088628 0.007080444915
0.006864857435 0.04833529472 -0.0799925766 -0.3315535846 0.008777160483 0.9433955597
0.01914851379 0.001782741785 -0.06089676666 0.9348461427 -0.2399549946 -0.2616950326
0.01180754733 0.01824654198 -0.07735958672 -0.5871385735 0.06164190583 0.80713603
0.02008901215 -0.004495450974 -0.03586973953 0.9773187579 -0.2117363383 0.003970959987
0.0002178256909 0.04612666829 -0.08116680908 -0.02547293664 0.006362303949 0.9996552659
0.006129855633 0.002310752809 -0.07581571579 -0.3114781373 0.4340883857 0.8453097913
0.02034343338 -0.003204623222 -0.03638726807 0.9867959015 -0.1618117074 -0.007128820613
0.02048111534 -0.001920682549 -0.03666736221 0.9976099877 -0.0690961109 0.0001999959883
0.02046545982 0.04399550247 -0.05852909851 0.9991408783 0.0001152163181 0.04144263581
0.02045060539 0.02157083321 -0.05834154701 0.9987690626 0.004359838716 0.04941003293
-0.002291060448 0.04772940254 -0.08104535675 0.1291068875 -0.004190856281 0.9916218273
0.01646311188 -0.0104842701 -0.05086255646 0.7939278235 -0.5727865687 -0.2039464581
0.01181395721 0.02396917248 -0.07745006943 -0.5793822479 -0.0009053477215 0.8150554528
0.02057882595 2.16960907e-08 -0.03686610603 0.9999897564 -0.003142875321 0.003257223925
0.01910283756 0.03381217384 -0.06829284286 0.9338772825 0.005807132889 -0.3575464982
0.02050243187 0.001920366406 -0.03671070099 0.9976871186 0.06797092471 0.0006056426965
0.01910832214 0.03204681015 -0.06828033447 0.9244522102 -0.001555017019 -0.3812947586
0.01704519463 -0.00920964241 -0.05194596481 0.8360693418 -0.5109414432 -0.1998171596
0.007634358883 -0.01832354355 -0.0478133049 -0.3964913199 0.8980910412 0.1903342191
0.005696047068 0.04954681587 -0.08037947083 -0.2605783192 -0.01152327512 0.9653839411
0.01854280758 0.02434104633 -0.06956088638 0.9079314267 -0.004490564906 -0.41909469
0.02034714699 0.00320453167 -0.03639481735 0.9879880973 0.1545071151 -0.002659145957
0.01249824858 0.001738692105 -0.07174649429 -0.6089796759 0.4086341281 0.6798249067
0.02007157135 0.004496054649 -0.03583427811 0.9749459337 0.2224298344 0.002322765718
0.01975645638 0.005794961452 -0.03519326401 0.957400586 0.2887497923 0.002770454341
0.01874366379 -0.004241839886 -0.05510781479 0.9112900393 -0.3559386991 -0.2070219961
0.01131427479 0.01715561104 -0.0180228672 0.5470916833 0.8370617245 -0.004284782032
0.01812286758 0.009781687737 -0.03187038612 0.8764708418 0.4813026423 -0.01210908956
0.0172964077 0.01115654373 -0.03018936729 0.8293310104 0.5587516024 -0.002592690687
-0.01188198948 0.006575575829 -0.07465625763 -0.5790626982 -0.2990916991 -0.7584395474
0.02048397255 -0.001903805256 -0.03954891968 0.9980791251 -0.06175246682 -0.004969189816
0.01509917259 0.01401325035 -0.02572034645 0.7545020683 0.6562766455 0.00525294475
0.01351115227 0.01553073025 -0.0224906292 -0.6714218677 -0.7410753437 -0.0001027695359
0.008460586548 -0.01874643517 -0.01536774254 0 0 1
0.01365539455 -0.01537816143 -0.02581509018 0.6825300807 -0.7308553124 -0.001789241065
0.01521457195 -0.01387841129 -0.02895086098 0.7555694204 -0.6550522896 0.004620483316
0.01738171387 -0.01105157948 -0.03330944061 0.8336250601 -0.5522944473 -0.006332668787
0.01814535713 -0.00969425106 -0.03484531784 0.8762548107 -0.4817366621 -0.01035833399
0.01880300903 -0.008359031677 -0.03616802597 0.9182629302 -0.3959555214 -0.003523654194
0.01956447601 -0.006393065214 -0.03769953918 0.9577074998 -0.2877394332 0.001537310649
0.005745864868 -0.008919520855 -0.06750398636 0.2608695422 -0.7153961253 -0.6481940032
0.02050437355 0.001903505325 -0.03958994675 0.9984221048 0.05614015294 -0.001258519708
0.02039703369 0.0343014698 -0.06334562111 0.9884678108 -0.007869605457 -0.1512265066
0.02021865463 0.00381624651 -0.03901528168 0.98170246 0.1903892865 -0.003492804291
0.01933075905 0.007044034481 -0.03722947693 0.9379538078 0.3467601483 -0.0002322871249
0.007602837563 0.0378010006 -0.07971853065 -0.360273466 -0.009062510984 0.9328027126
0.01882189178 0.00835782814 -0.03620600128 0.9220064628 0.3871314256 -0.005774239672
-0.006786061287 0.02569576073 -0.08003543091 0.3120465055 -0.002212650991 0.9500642518
0.01735995102 0.01105339241 -0.03326567459 0.8326301508 0.5538074079 -0.004938317372
0.01770084476 -0.01002570486 -0.0452109623 0.8571562317 -0.5084898414 -0.08198338635
0.01637630463 0.01244683838 -0.03128734589 0.7983215063 0.6022313054 -0.0004769425245
0.0111362114 -0.01552662659 -0.05147093964 0.5418921006 -0.7994161502 -0.2593969353
0.015221488 0.0138776989 -0.02896476746 0.7605217822 0.6492919457 0.005156358464
0.02034058571 0.05605623436 -0.06352014732 0.9848497538 -0.009916026347 -0.1731260663
0.0205898838 0.02793706894 -0.06115885162 0.9999896209 0.00168493292 -0.004233095708
0.02006915188 0.03767612648 -0.06524472427 0.9676800458 0.0032549758 -0.2521601357
0.01368653011 0.01537464905 -0.02587770081 -0.6817973397 -0.7315411044 -1.459816911e-05
0.02047331524 0.04828784943 -0.05858664513 0.9992926236 -0.0006329764495 0.03760122012
0.008465723991 0.01874575424 -0.01537807369 0 0 1
0.01206437302 -6.212443113e-07 -0.07102545738 -0.5962019809 0.4457998012 0.6676868542
0.0144760294 0.01830279112 -0.07512591362 -0.6944844204 0.04712623955 0.7179627479
0.008941821098 -0.01852008629 -0.01941831589 -0.5013992639 0.8652081475 -0.003693186486
0.01959065056 0.03988307762 -0.06684315491 0.950166083 0.006941133675 -0.3116668662
0.01382369995 -0.01522555828 -0.02912825775 0.6905823151 -0.723251357 -0.0018816804
8.588767052e-05 -0.01675771332 -0.05725801849 0.002640295202 -0.9113980731 -0.4115174131
0.01532750034 -0.01374617195 -0.03211920166 0.7413721238 -0.6710778827 0.004674326446
0.01898161125 0.008203782082 -0.04219713211 0.9223703679 0.3799276355 0.06991349076
0.02047693062 0.05013327408 -0.05861296844 0.9993637576 -0.0005869288779 0.03566140061
0.009935027122 0.05600279999 -0.07858927917 -0.4781447858 0.01518394746 0.878149766
0.01205453682 0.04600915464 -0.07724455261 -0.5862746888 0.002927918318 0.8101070402
0.003978406429 -0.01269087315 -0.06352848434 0.1618983221 -0.8106461352 -0.5627093183
-0.005690589428 0.0005908158422 -0.07507095337 0.2856579198 0.4743068914 0.8327259607
0.01649068451 -0.01232803726 -0.03443264771 0.8041683091 -0.5943755805 -0.005567762817
0.01883434105 -0.008284394264 -0.03909383392 0.9113651634 -0.4114948045 -0.009250124438
0.01937891388 -0.006980239868 -0.04017690277 0.9429980632 -0.3321787513 -0.02029605673
0.0168259449 0.01153811073 -0.0711243782 0.8057215283 -0.1673119532 -0.5681720946
0.01977318954 -0.005693507671 -0.04096103668 0.9559331844 -0.293380287 -0.01094322346
0.01422699451 -0.00903117466 -0.05945016098 0.6956712172 -0.6008884131 -0.3936682265
0.02020637989 -0.003783352613 -0.04182256317 0.9830712895 -0.1827257034 -0.01349655593
0.02056942272 1.686811447e-08 -0.04254458809 0.9999468796 -0.008811302066 0.005347796593
0.02052460289 0.001886671066 -0.04245545959 0.9986383471 0.05092606048 0.01131318408
0.01461420345 -0.01302561474 -0.05004751968 0.7073002439 -0.6788520237 -0.1971960823
-0.006998517036 0.03337748718 -0.07996124268 0.3152542051 0.0002425599807 0.9490072325
-0.006173117161 0.05966866684 -0.08024653625 0.3032714876 -0.02049578716 0.95268375
0.01441280961 0.03560546875 -0.07529041862 -0.6881163318 -0.009478200981 0.7255384743
0.02023566055 0.003782504082 -0.04188080788 0.9849694252 0.1715800404 0.01988771631
0.01630154991 -0.007863151789 -0.0569614296 0.7788334467 -0.5375945513 -0.3231262304
-0.002379832983 -0.002952581167 -0.0735806427 0.1298599282 0.5657978197 0.8142537849
0.01901911736 0.01054513931 -0.04775048447 0.9345596371 0.2972614215 0.1955349892
0.01935439682 0.006981550217 -0.04012813568 0.949879089 0.3123946948 0.01180130792
0.01996033669 0.01575449848 -0.05483534431 0.9856951001 0.08292685912 0.146725273
-0.01126588488 0.0177584753 -0.07770898437 -0.4998813008 -0.07895911814 -0.8624871841
0.01885565376 0.008283047676 -0.03913622665 0.9157542473 0.4016150461 0.009975637156
0.0204531374 0.03607233238 -0.05843732452 0.998880304 -0.0003188866346 0.04730789133
0.01781868172 0.01027851534 -0.03707385063 0.8761020183 0.4820699549 0.007335670404
0.01385841465 0.01522167683 -0.02919730949 0.692582235 0.7213389244 6.253877746e-05
0.02030187321 0.008315825939 -0.06053735733 0.9853000325 -0.08647951917 -0.1473266398
0.01186967945 0.01678953552 -0.02524180794 -0.5639090843 -0.8258146569 -0.006057808513
0.0001175536166 -0.008150941849 -0.06943265279 -0.01375663232 0.6958545848 0.7180509396
0.008948290825 0.01851923752 -0.01943118477 0.5073812937 0.8617148269 0.003432190404
-0.00555671072 0.04570185471 -0.08041752243 0.2430620638 -0.003792891715 0.9700033232
0.002309633493 0.03389690781 -0.08104733276 0.1306741601 -0.003868039647 -0.9914178242
0.009411581993 -0.01829913521 -0.02337231445 -0.5156790131 0.8567274284 -0.009657583364
-0.004008651853 0.05030516624 -0.08076618576 0.1928293035 0.01200226774 0.9811589093
0.01543829918 -0.01361642742 -0.03522779083 0.7386937304 -0.6739821963 0.008920295235
0.009842392206 0.02624570799 -0.07866871834 -0.4782632616 0.007193806969 0.878187054
0.005293832302 -0.01989043999 -0.0213313427 0 0 1
0.01750518799 -0.01085094166 -0.03929320145 0.8451826657 -0.5339111973 -0.02459867956
0.01190694427 0.01200179672 -0.07636817932 0.5804268309 -0.1848655024 -0.7930507172
0.009879914284 0.02165808582 -0.07864935875 -0.4795373514 0.002246519405 0.8775185934
0.01787023163 -0.01013939047 -0.04140827751 0.8651158577 -0.5011686548 -0.02011298649
-0.01216050911 0.04183388138 -0.07720186234 0.5274595493 -0.006096027588 0.8495582748
0.02057710838 0.04784789085 -0.06132442284 0.999756798 0.0107109059 -0.01927748079
0.0188319664 -0.008213151932 -0.04190267563 0.9094442985 -0.4149045662 -0.02766349485
0.01951960945 -0.006284934759 -0.04325506973 0.9459465607 -0.3210840235 -0.04571820436
0.01878944778 0.01163956356 -0.06754489136 0.9156861579 -0.1318015875 -0.3796672249
0.01770747566 0.05971518707 -0.07109499741 0.8539514407 0.007907165251 -0.520292623
0.02014527988 -0.003752497435 -0.04448556137 0.9808241533 -0.191331522 -0.03709755926
0.02054803848 0.001870080352 -0.04527779388 0.9994787778 0.02768045588 0.01661219902
0.007719120979 0.01388111178 -0.07907189941 -0.3797373359 0.1598416078 0.9111806715
0.02034665585 0.003746573329 -0.04488180733 0.9921743131 0.1207508671 0.03177043476
0.01321136904 0.02170124912 -0.07640283966 0.6411196725 -0.01243529784 -0.767340165
0.004205896775 0.005565931956 -0.07783859253 -0.21564057 0.3588295781 0.9081522331
0.006021141211 -0.01671759478 -0.05505097071 0.3040422455 -0.8864165596 -0.3490329437
0.01873947525 -0.00814871788 -0.04448827744 0.9032848653 -0.4233602624 -0.06958836424
0.01972320271 0.006275253057 -0.04365567589 0.9606025859 0.2711616373 0.06094291106
0.02003786182 0.04967020226 -0.0653533783 0.9669664916 0.003303303953 -0.2548821144
-0.008981229782 0.01586056042 -0.07880014038 -0.4515498792 -0.1048594506 -0.886062753
0.01545836067 0.01361439705 -0.03526726532 0.7421204712 0.6702067523 0.008950722539
0.01214609432 0.01661138916 -0.0287517662 -0.5783983017 -0.8157192838 -0.007579889583
0.0002469975203 0.03575134754 -0.08117504883 -0.01537835308 -0.01168915594 0.9998134175
0.01955083847 0.04095613861 -0.0541938858 0.9556387042 0.001427202972 0.2945379943
0.01238363457 -0.0164409256 -0.03212381363 0.6246400438 -0.780911402 -0.001482520962
0.006657771826 0.05782394791 -0.08005917358 -0.3308140693 -0.01536755199 0.9435708187
0.00940542984 0.01829993629 -0.02336021233 0.5197086282 0.8543018653 0.008441838309
0.007700052579 0.005934896946 -0.07684786987 -0.3700956682 0.3485194835 0.8611407353
-0.005509452105 -0.002378467619 -0.07322706604 0.2587286573 0.5458916811 0.7969076197
0.009884735584 -0.00410312295 -0.06969191742 -0.4701022775 0.5708505568 0.6731519074
-0.01424082851 0.009037009239 -0.07348482513 0.6694298454 0.2798320036 0.6881553109
-0.001849652767 0.03179501915 -0.08109414673 -0.1032176992 0.01256540777 -0.9945794172
0.00985187149 -0.01808575821 -0.02719744492 -0.533593536 0.8457039984 -0.007917415165
-0.009722342968 0.0117988286 -0.07771152878 0.4787907061 0.1941801923 0.8561854429
0.009822020531 0.008210532188 -0.07661906942 -0.4627064668 0.2777078204 0.8418913778
0.01415049934 -0.01492924881 -0.03556146622 -0.708017649 0.7061944343 0.0006554516936
0.01939044189 -0.006237436771 -0.04575434685 0.944019518 -0.3204118903 -0.07850713435
0.0200222044 -0.003724037528 -0.04698310661 0.9725310763 -0.2231920488 -0.06609549986
0.01501122379 -0.01309487534 -0.04816000748 0.720472131 -0.6746112685 -0.1606846129
0.01853655243 0.02609005928 -0.06956809235 0.9099775893 0.0002026381689 -0.4146573838
0.02034378815 -0.001857033014 -0.04760865402 0.9871248549 -0.1500599994 -0.05537614417
0.02042333794 0.003618999839 -0.05568664551 0.9915337086 -0.1021875717 -0.08011619595
0.01960925579 0.03395321274 -0.06680013657 0.9514492721 0.006042871181 -0.3077462693
0.0205172739 -2.098083496e-07 -0.04794623566 0.9977129429 -0.06453660834 -0.02009750791
0.02057323837 0.001853746653 -0.0480553093 0.9999157858 -0.009944440004 0.008338427828
0.01369876766 0.01202548504 -0.07489459229 -0.6763584263 0.165143834 0.7178208643
0.0108335743 -0.01750955391 -0.03763048172 0.517856276 -0.8554483082 -0.005750607975
0.02047548485 0.003710784078 -0.04786546898 0.9976624114 0.06221230304 0.02827264192
0.0199492321 0.01407139349 -0.06483378601 0.9687901135 -0.07015732705 -0.237747062
0.02057392311 0.05212459183 -0.06137177658 0.9996501306 -0.01344397822 -0.02277884853
0.02006087971 0.006205347538 -0.04705942345 0.9777567123 0.1852212758 0.09841184148
-0.003443905592 -0.008416127205 -0.06877002335 0.1610635957 0.6867953961 0.7087810678
0.01940568733 0.008107358932 -0.04578512955 0.952083473 0.274120161 0.1356288973
0.0187135849 0.009405030251 -0.044438797 0.9196480249 0.3638077614 0.1479575041
0.01846479893 0.04194714355 -0.06966459274 0.9064694305 -0.004000807386 -0.4222524898
-0.005697227001 -0.0116322031 -0.06428392029 -0.3037306311 -0.7571264985 -0.5783659472
0.01666565323 0.01210139847 -0.04045456314 0.8054656983 0.5919697832 0.02822737579
0.02044491386 0.02759705067 -0.05836324883 0.9986700588 0.0007401312065 0.05155158474
0.004064544082 -0.00770511198 -0.06930830002 -0.1730300816 0.6816661232 0.7109091976
0.01418460464 0.01492550087 -0.03562785339 0.7096275245 0.7045753662 -0.001526366685
0.004343148887 0.0182760458 -0.08062013435 -0.2240054274 0.05820714074 0.9728481368
0.01241304684 0.01643741226 -0.03218106461 -0.6222025569 -0.782855889 0.0007969668309
-0.01274463272 0.00540846777 -0.07344830322 0.6053425232 0.3228863349 0.7275333974
0.01021703148 -0.01788560104 -0.03080953217 0.4825359378 -0.8758755546 -0.001039990148
0.001536744793 0.02774753761 -0.08111991882 -0.07287471756 -0.004155080319 0.9973324475
0.01261229897 -0.01627439308 -0.03541982651 0.6338056973 -0.7734917297 0.0009392912628
0.02058639717 0.03393311691 -0.06119906616 0.9999690913 0.001221283307 -0.007766911408
0.01430919456 -0.01478535938 -0.03868545914 0.715215646 -0.6988830516 -0.005390726556
0.01899340439 -0.006822926521 -0.04769719315 0.9199459585 -0.3752597854 -0.1134880033
0.001987569809 0.04797005463 -0.08106777954 -0.1190364967 -0.00294852032 0.9928855013
0.01940013313 -0.005564725399 -0.04847961044 0.9429330085 -0.3136482724 -0.1118128022
0.01987213262 0.006124562899 -0.06139776738 0.967214525 -0.1346863097 -0.2153036473
0.01984352589 -0.003697675109 -0.04933255386 0.9630132173 -0.2516076345 -0.0964320563
0.02042113304 -2.562999725e-07 -0.05044416428 0.9894774076 -0.1277842317 -0.06786493897
-0.002126303971 -0.01411270618 -0.06187819862 -0.1079003869 -0.841373653 -0.5295733024
0.007726932526 -0.01535310841 -0.05672897148 0.3854696255 -0.8390204094 -0.3840025006
0.0205561924 0.001838288307 -0.05070445251 0.9983052092 -0.05566135914 -0.01698594739
0.006137806654 0.02167730808 -0.08026180267 0.2930841859 -0.01495730125 -0.9559696329
0.01403411102 -0.01444767666 -0.04634069061 0.7023162165 -0.7006808135 -0.1256914066
0.02038023281 0.006137203932 -0.05036761284 0.9916491337 0.1093943043 0.06829993937
0.008286767006 0.05958202744 -0.07941712189 0.4039710229 0.02111256951 -0.9145281144
0.02002852631 0.008000329018 -0.04969178009 0.9676285524 0.2069975148 0.144384949
0.006304813385 -0.01532806396 -0.05795289612 0.3186547664 -0.8527768575 -0.4138004003
0.01965472031 0.009258483887 -0.04897312927 0.9677851921 0.1952026033 0.1590212741
0.01777025223 0.01189941692 -0.04534698868 0.8888912945 0.4107170784 0.2029377934
0.01580634403 0.01334894466 -0.04156665802 0.7906970025 0.6105094223 0.0455685802
0.01432705307 0.01478341389 -0.03871985245 0.7176101811 0.6964257021 0.005183581369
0.02040978622 0.02834162426 -0.06331580162 0.9868488339 -0.005845719351 -0.1615401084
0.01318125391 0.02629769039 -0.07642211151 0.6389665898 0.0008296475866 -0.7692340403
0.01262707615 0.01627264214 -0.03544828415 -0.6397940917 -0.7685290412 -0.005160722464
0.01772214317 -5.450844765e-07 -0.06322017097 0.8593007807 -0.3440617442 -0.3784490513
0.02058145905 0.01779968834 -0.06108488846 0.9998351306 0.001970278569 -0.01805074942
0.006282756329 -0.01958826256 -0.02616965103 0 0 1
0.004071959138 0.04022811413 -0.08074914169 -0.1962985632 0.006238212285 0.9805243285
0.01053450012 -0.01769484138 -0.03426728439 0.5037756942 -0.8638304518 -0.002645853533
0.01283640766 -0.01611117744 -0.03865016174 0.6429458942 -0.7658761339 -0.007370529827
0.01178321123 0.02799190807 -0.07746961594 0.5930736876 0.00111553448 -0.805147413
-0.005335280418 0.00585400486 -0.07767987061 0.2454844773 0.3537400062 0.9025549177
0.02044992352 0.03364540291 -0.05841292953 0.9988001439 -0.0003497338158 0.04897091141
0.02054983616 0.01435444927 -0.05849837685 0.9979060509 0.009085371475 0.06403881303
0.01438934898 -0.01465235996 -0.04160629654 0.7167654426 -0.6963940134 -0.03581449961
0.01552388573 -0.01326456928 -0.04376548767 0.7329078411 -0.6770458696 -0.06674568813
0.01643121147 -0.01191887474 -0.04549201584 0.7928650256 -0.6021787001 -0.09351932546
0.01745868969 -0.009959630013 -0.04744683456 0.8546062273 -0.5040272886 -0.1249187277
0.01939348221 0.01226369476 -0.06623822021 0.9438625379 -0.09310687693 -0.3169457666
0.01953982735 0.03416610718 -0.05412661171 0.8642951236 0.003438923213 0.5029732727
0.02057410812 0.007833966255 -0.05597536469 0.9999825102 -0.005047542365 0.003082468449
0.0202462225 -3.834068775e-07 -0.05275119591 0.9812366344 -0.1637389901 -0.101804766
0.01952724934 0.03170835114 -0.05408808708 0.9284058421 0.0009002319487 0.3715666589
0.02045041656 0.001824336886 -0.05314051819 0.9943191249 -0.08838002982 -0.05931650872
0.01951008701 0.01225904036 -0.05135977745 0.9410540236 0.2602384435 0.2160862724
0.0180477829 0.01425707626 -0.04857711029 0.916189589 0.2991340657 0.2666747977
0.0128368845 0.01611112213 -0.03865107346 0.6851122664 0.7284349695 -0.001917707622
-0.0128092165 -0.004295253754 -0.06697411346 -0.5566020659 -0.5489674799 -0.6235614214
0.007119242191 -0.01931170273 -0.03063204956 0 0 1
0.0129362812 -0.01596513367 -0.04159098434 0.6469973516 -0.7614069264 -0.04066840858
0.01956710434 0.04778829193 -0.05427976227 0.9555368634 0.001431398933 0.2948681974
0.01428618145 -0.01454120064 -0.04413258362 0.7077717512 -0.7005706606 -0.09088397892
0.01964351145 0.01152433427 -0.06507660421 0.9543742831 -0.1032060152 -0.2802110742
0.016050807 0.03223466206 -0.07345822334 0.7843779678 -0.008058830375 -0.620230811
-0.01121748638 0.007739610195 -0.07558973694 0.5598916754 0.280057427 0.7798007113
0.01683841133 -0.01054197788 -0.04893609619 0.8183336731 -0.5538220031 -0.1536593256
-0.001808994293 0.004075085402 -0.07759125519 0.08923010497 0.3953288508 0.9141953227
0.01745477867 -0.009257814407 -0.05009598923 0.8469555026 -0.506635827 -0.1612033355
0.005490549564 0.05786842155 -0.08041851807 -0.2584649144 -0.01519499018 0.9659011338
0.01794836998 -0.007992898464 -0.05102469635 0.8741001939 -0.4560749791 -0.1671659786
0.0196021471 0.03632113457 -0.0668164444 0.9551789095 -0.003160355252 -0.2960122682
0.01867750359 0.05818464088 -0.06916915512 0.9074431629 0.01684635256 -0.4198369999
0.01839155769 -0.006101061821 -0.05315943527 0.9016521742 -0.3876460301 -0.1917130986
0.01912486649 -0.00426476717 -0.05323882294 0.9217740261 -0.3391144165 -0.1879735548
0.01437253976 0.04026576519 -0.07532526779 -0.6859795714 0.003673146138 0.727611528
0.02044768143 0.03182810402 -0.05839575958 0.9987447658 0.0002249490726 0.05008834324
0.02024199486 0.001812048793 -0.05534378433 0.9771451175 -0.1653648472 -0.1335735254
0.02055544281 0.006026273966 -0.05593788147 0.9988512106 -0.02857890283 -0.03846434046
0.02023840523 0.01390344334 -0.05535457993 0.9898120337 0.05986580303 0.1291829071
-0.007700886726 0.0005943251848 -0.07427766418 0.3593642653 0.4784619149 0.801206291
0.01974813271 0.01760478783 -0.05444084167 0.8847734126 0.002215555058 0.4660162011
0.02053582191 0.01615401459 -0.05847819519 0.9970727004 -0.003550289107 0.07637686591
0.01947921371 0.02191418743 -0.05394939804 0.8844023123 0.001927703755 0.4667213665
0.01494804955 -0.01034641266 -0.0557739296 0.7275297915 -0.6123829931 -0.3093339172
0.01948683929 0.02374680519 -0.05397142029 0.8724843236 0.00233695902 0.488636515
0.001785502851 -0.01143977737 -0.06572968674 0.06756249118 -0.7885714716 -0.6112203726
0.01950716209 0.02802952671 -0.05403009224 0.9450011202 -3.714524362e-06 0.3270670923
0.01954292679 0.03601390839 -0.05414426804 0.9917673422 -0.0003038888954 0.1280525152
0.009738566875 0.03605135536 -0.07872250366 -0.4731197882 -0.00081246701 0.8809977332
0.01954855347 0.03971862411 -0.05418047714 0.9556807502 0.001425750154 0.2944015472
0.02058375835 0.03814815331 -0.06123236847 0.9999017195 -0.00892967118 -0.01080797473
0.01956202888 0.04592032623 -0.05425424957 0.9553988973 0.001437508052 0.295314884
0.01763219897 0.03375895182 -0.07120657857 0.857522307 0.004593854306 -0.5144262721
0.01958068085 0.05216044235 -0.05434498215 0.9557032842 0.001422275541 0.2943284046
0.01855032063 0.02201203346 -0.06955171967 0.9083778258 -0.005706442083 -0.4181114232
0.00363134563 0.004041768312 -0.07731003571 0.1622323813 -0.4025044561 -0.9009277536
0.01958732128 0.05404096985 -0.05437563324 0.9555448074 0.001431210508 0.2948424541
0.002060133219 -0.004114580393 -0.0727654953 -0.1005591117 0.5988190545 0.794546163
0.01960999107 0.05970665741 -0.05447660828 0.9554394572 0.001438173923 0.2951836296
0.007768119812 -0.0190648365 -0.03466424561 -0.4432299667 0.8963949724 -0.004821837481
0.006988096237 -0.01826124573 -0.04923585129 0.4002789402 -0.8905416765 -0.2161302672
0.01282289314 -0.0158461132 -0.04408502197 0.6421779802 -0.7607872237 -0.09386288948
-0.01018343163 0.0005995489359 -0.07284194946 0.4758822539 0.4598770607 0.7496993861
0.02057842255 0.04602128601 -0.06130540085 0.999840869 0.001092331472 -0.01780571358
0.0175607872 -0.007950087547 -0.05290566254 0.8578676506 -0.4701388789 -0.2074428321
0.01909508419 0.03617012787 -0.06831052399 0.9318211899 -0.008203181341 -0.3628249962
0.01587023767 0.04019319534 -0.07368269094 0.7654098049 -0.01108117259 -0.6434477743
0.01997290611 0.00180080092 -0.05739970779 0.9633804639 -0.1918836972 -0.1872931621
0.02035443878 0.005387116432 -0.05811437988 0.9852761214 -0.1086423146 -0.1320144391
0.0205595274 0.009564329147 -0.05850391388 0.9995756145 -0.02001642341 -0.02116444377
0.02057469368 0.01195668173 -0.05853785133 0.9996656406 0.01526876936 0.02086795875
0.02044816303 0.02397870731 -0.05834896088 0.9986719999 0.00101401926 0.05150930307
0.01564841811 -0.002161954761 -0.06515523275 0.7607085632 -0.4385689755 -0.4785182709
0.02045846844 0.03972208023 -0.05847731209 0.9989952852 -0.0005036401472 0.04481257161
0.02046872711 0.04583280754 -0.05855309868 0.9992032337 -0.0006807538715 0.03990531799
0.02048072243 0.05198303795 -0.05864046669 0.9994212616 -0.001122333114 0.0339982673
0.007895122766 0.008021001697 -0.07752212143 -0.389422683 0.2892138055 0.8744743271
-0.001504521132 -0.01278497505 -0.06397516251 0.06109186039 0.8137456663 0.5780015356
0.02048465538 0.05383641052 -0.05866890335 0.9994736927 -0.0008356531355 0.03242898923
0.0204944849 0.05817837334 -0.05873960876 0.9996079435 -0.00059875388 0.02799287133
0.008255772591 -0.01884342003 -0.03832793427 -0.4533737022 0.8913185065 0.001898948453
0.01236564112 -0.01570410681 -0.04722171402 0.6117905395 -0.7750460998 -0.1581640891
0.01534993172 -0.0117196846 -0.05140213776 0.7447530689 -0.6295348366 -0.2214243796
0.01876620579 -0.002404156864 -0.05769393539 0.9126396458 -0.327249438 -0.2449422018
0.01984412479 0.00357539165 -0.05968506432 0.9571582017 -0.1790154523 -0.2275997467
0.01928203964 -5.554258823e-07 -0.0586456356 0.9468219755 -0.2389847123 -0.2154401401
0.01906620789 0.04387151337 -0.06837636566 0.9299842425 0.0009993135224 -0.3675980278
0.00365097034 0.05796809483 -0.08083566666 -0.1725960048 -0.008948173798 0.9849520543
0.005736510754 0.04777689743 -0.08037286377 -0.259736747 -0.003600150674 0.9656727506
0.01378018188 -6.349384785e-07 -0.06934315872 0.6758242484 -0.4231775301 -0.6034752384
0.0195859623 0.00179135251 -0.05920715332 0.9535382294 -0.2033956916 -0.2222499444
0.01894034576 0.01395487356 -0.06782362747 0.923439793 -0.08770898604 -0.3735854421
0.01176850653 0.02971999788 -0.07747900963 -0.5876074337 -0.005471824084 0.8091276555
0.02042176247 0.0100900116 -0.06076280594 0.9905053326 -0.06199100907 -0.1227041191
0.0003218658119 0.05823008347 -0.08117902374 -0.02350398116 -0.002528243602 0.9997205464
0.02047386169 0.01186770344 -0.06086397934 0.9963408847 -0.02817133302 -0.08069211558
0.02052941608 0.01423878479 -0.06097437668 0.9965582127 -0.02682819209 -0.07843453796
0.01097860003 0.05423535347 -0.07798868179 -0.5118624761 0.004586200606 0.8590551625
0.02056134033 0.01601820946 -0.06104008484 0.9982797655 -0.008844385295 -0.05795935342
-0.0001346024573 0.04990932369 -0.08116011429 0.0340882449 -0.001622071127 0.9994175106
0.02059230423 0.02017877293 -0.06111631775 0.9999070708 -0.01130856912 -0.007613544998
0.02059288025 0.02196581268 -0.06112683868 0.999992284 -0.0014899369 -0.00363484852
0.02059212685 0.02375499439 -0.06113580704 0.9999599129 0.008473678642 -0.002892970705
0.01449094582 0.02404236031 -0.07522104263 -0.7023582169 0.0005494747398 0.7118234565
0.02059086323 0.02614344406 -0.06114849281 0.9999546184 -0.008802501711 -0.003643773861
0.02058257866 0.03995934677 -0.06124787903 0.9999219181 0.001169781957 -0.01244143545
0.02057970428 0.04419881821 -0.06128726578 0.9998361991 -0.008898347643 -0.01576053508
0.01352469397 0.01031899261 -0.07459579849 -0.6672448726 0.2075941378 0.7153243697
0.01840521812 0.05206943893 -0.06975480652 0.9047922544 0.001012930279 -0.4258520286
0.0205753088 0.0502891407 -0.06135096931 0.9996528573 -0.004023825077 -0.02603792952
0.002276281476 0.03564296722 -0.08105072403 -0.1458792233 -0.003406435625 0.9892965422
0.008549567223 -0.01865112877 -0.04157454681 -0.4606867417 0.8868010027 0.03676557712
0.01410521317 -0.01296813679 -0.05170368958 0.6753676415 -0.6973094915 -0.2400791992
0.01422610474 -0.01228931856 -0.05320485115 0.6957970274 -0.6666900843 -0.2671906215
0.01579252481 -0.009756604195 -0.05477715492 0.7678319363 -0.5815964157 -0.2686628497
0.01743190241 0.04767725372 -0.07150609589 0.8501851641 0.009497372068 -0.5263981256
0.01724262333 -0.006030814171 -0.05741883087 0.8406397023 -0.453159539 -0.2965996007
0.01828239155 -0.002393447638 -0.05931451607 0.8941833794 -0.3404375057 -0.2907548601
0.01869752502 -0.0005962886214 -0.06007227707 0.9115461761 -0.3023963761 -0.2786395532
0.01943385029 0.003557498336 -0.06141955566 0.9541743228 -0.1942473042 -0.2276386314
0.02010236359 0.01003255844 -0.06265364838 0.9679677099 -0.1118371901 -0.2247909152
0.02019890785 0.01179601669 -0.06283562088 0.9780305578 -0.07076222719 -0.1960840002
0.01455257893 0.01204124451 -0.07408338165 0.7147304071 -0.1743470947 -0.6773208514
0.01754820156 0.02597738457 -0.07134128952 0.8573362553 0.008141838268 -0.5146923895
0.009901701927 0.05779035378 -0.07860659409 -0.474801688 -0.007972570116 0.8800567
0.02030388165 0.01414738131 -0.06303617287 0.9812400079 -0.06187058121 -0.1825926562
-0.005651611328 -0.005391066074 -0.07089253998 0.2757382144 0.608805871 0.7438574114
0.02036135864 0.01591225815 -0.06314874268 0.9860559832 -0.04704616915 -0.1596253613
0.0145759058 0.005774028063 -0.07183855438 0.7070893397 -0.3009743126 -0.6398743071
0.01414972401 0.05978097725 -0.07551251221 0.6894824525 0.002273752933 -0.724298818
0.02040036297 0.01767930794 -0.06322855949 0.9907383035 -0.02143433706 -0.1340827472
0.0204212141 0.02004067421 -0.06327939415 0.9920601933 -0.01068832636 -0.1253089488
0.02042217445 0.02181534576 -0.0632917099 0.9888469257 0.001913917001 -0.1489231159
0.02041910076 0.02359259701 -0.06329765892 0.9868637033 0.003574502381 -0.1615154918
0.02041454124 0.02596521854 -0.06330609703 0.9887861841 -0.001480687241 -0.1493308061
0.02040609741 0.03012648392 -0.06332387161 0.9869150978 0.006378685595 -0.1611145618
0.02040228367 0.03191408634 -0.06333273506 0.9884816711 0.004833103538 -0.1512634357
0.01643266106 0.002141954501 -0.06731200409 0.7934675119 -0.3360917392 -0.5073969357
0.02039297104 0.03609510422 -0.06335608673 0.9883816228 0.002154038615 -0.1519773926
0.01901708603 0.05404882622 -0.06847769547 0.9283199107 -0.008438075038 -0.3716866183
-0.004045116723 0.02201802588 -0.0807690506 0.1879436393 0.01575109847 0.9820535074
0.0203887825 0.03789203453 -0.06336735535 0.9862765754 0.002288980304 -0.1650856667
0.02038302994 0.04029258919 -0.06338345718 0.9881866839 -0.007599362087 -0.1530664152
0.01074350739 -0.01409678364 -0.05579777908 0.5167954573 -0.7744834749 -0.3648257153
0.01952755928 0.05609168243 -0.06699965668 0.9536333441 -0.001418824654 -0.3009674932
0.009859725714 0.0182318511 -0.07856842232 -0.4775993573 0.05874410436 0.8766116495
0.02037401676 0.04390458488 -0.06341004944 0.9858600277 0.001983509667 -0.1675591579
0.009867425919 0.05958250809 -0.07862445068 0.4680173866 0.02401353673 -0.883392934
0.02036775017 0.04632055473 -0.06342941284 0.9877857409 -0.006974435863 -0.1556620937
-0.01229235458 0.001809936523 -0.07197179413 0.59143251 0.4016719342 0.69919042
0.0001514117122 0.03985263062 -0.08117448807 0.00948368495 0.0006608025831 -0.9999548105
0.0203476963 0.05361079216 -0.06349545288 0.9855237185 -0.002250568626 -0.1695226686
0.02033511734 0.05789548874 -0.06353951645 0.9846695559 -0.01030902368 -0.1741252125
-0.008755078793 0.02230673218 -0.07923963165 0.4362986021 0.01018877618 0.8997442518
0.01854707527 0.01968775082 -0.06952594757 0.9067252323 -0.01258209753 -0.4215341551
0.02032951355 0.05974012566 -0.06355973816 0.9831602795 0.007856398355 -0.1825764001
0.01036538601 -0.0170006485 -0.04751260757 0.4761339498 -0.8597091093 -0.1849235227
0.01271034908 -0.01423482513 -0.05174119186 0.6285982462 -0.7327382616 -0.2606892497
0.01874512959 0.005865751743 -0.06505734253 0.9108119966 -0.2234597526 -0.3471127279
0.01399268913 -0.0115998373 -0.05531142807 0.6795412838 -0.6671561091 -0.3051661348
0.01550769234 -0.009090539932 -0.05678235626 0.751921674 -0.5730323962 -0.3259565447
0.009874188423 -0.01692359924 -0.04921894073 0.4756249314 -0.8576563776 -0.1954647352
0.01570428149 -0.005771478653 -0.06124742889 0.7613983453 -0.4969977432 -0.4162520908
0.01852605438 0.002165904562 -0.06304214223 0.9022956682 -0.2793155895 -0.3283981252
-0.009953726768 -0.006090990782 -0.06784896088 0.4827087723 0.6040394491 0.6341360935
0.007774945259 0.01085785866 -0.07842153168 -0.3908046913 0.2349403063 0.8899858121
-0.002054489613 0.04001599503 -0.08107329559 0.1170092172 0.01006665777 0.9930798082
0.01902832031 0.004130180359 -0.06313940048 0.9273135695 -0.2211498253 -0.3019640683
0.004337312222 -0.02004415703 -0.04198156738 0 0 1
0.0003212071359 -0.01537519741 -0.05997948837 0.01389759279 -0.8775612834 -0.4792630288
0.01927868843 0.005889066458 -0.06359505081 0.9228521771 -0.2068050741 -0.3249238689
0.02002047539 0.01582513237 -0.06497094727 0.9722937495 -0.04880586525 -0.2286106999
0.02009164524 0.02228272057 -0.06513893127 0.9668291618 -0.01148704089 -0.2551654753
0.01843111897 0.0478861599 -0.06971487045 0.9059666306 0.006266202569 -0.4233027274
-0.00598631382 0.05598778152 -0.08030902863 0.2964056184 0.004390534661 0.9550520575
0.02008987808 0.02405013275 -0.06514871216 0.9672758135 -0.002271915631 -0.2537170453
0.02008795929 0.02581966972 -0.06515932846 0.9670373595 0.006650791602 -0.2545476621
0.02008519936 0.02818213463 -0.06517461395 0.9681886889 -0.002170839203 -0.2502118106
0.02007996941 0.0317335844 -0.06519893646 0.9679091846 0.003804062774 -0.2512714457
0.01592219496 0.04982754421 -0.07361314964 0.7776676371 0.007924526287 -0.628625682
0.02007586765 0.0341068821 -0.06521629715 0.9667731198 -0.004695147332 -0.2555928216
0.0185261364 0.01794865608 -0.06947557831 0.9032904725 -0.04155306363 -0.4270124883
0.02007260323 0.03588989258 -0.06523011017 0.9669839122 0.001822784307 -0.2548309067
0.001848894417 0.02005007839 -0.08107364273 0.07643397473 -0.01692832413 -0.9969309301
0.01310194159 0.03554173851 -0.07646943283 0.6361629801 0.001477567906 -0.7715532902
0.02006429577 0.04006233978 -0.06526528168 0.9664923683 -0.005705217275 -0.2566319397
0.01311854362 0.03380240631 -0.07645919037 -0.6366097346 -0.002504158842 0.7711820635
0.02005643845 0.04365262032 -0.06529853439 0.9673624026 0.003541494854 -0.253372137
0.02004965496 0.04605439377 -0.06532023621 0.9661438867 -0.005430732507 -0.2579466946
0.00956226635 0.04830762482 -0.0788107605 -0.4710306028 0.006440093472 0.8820933604
0.02004387474 0.04786008835 -0.06533642578 0.9662648382 0.002314961965 -0.2575401007
0.02002953529 0.05208984566 -0.0653769989 0.9655861617 -0.007610671003 -0.2599720023
0.02001634216 0.05573392487 -0.06541473389 0.9650267324 0.007070395264 -0.26205613
0.02000657558 0.05817383957 -0.06544055176 0.9626643742 -0.002031779605 -0.2706901819
