# .PCD v0.7 - Point Cloud Data file format
VERSION 0.7
FIELDS x y z normal_x normal_y normal_z
SIZE 4 4 4 4 4 4
TYPE F F F F F F
COUNT 1 1 1 1 1 1
WIDTH 562
HEIGHT 1
VIEWPOINT 0 0 0 1 0 0 0
POINTS 562
DATA ascii
0.01448705769 -0.01459369087 -0.01187164307 0.7187917909 -0.6951821793 -0.007752354304
0.006349555969 0.01954079437 -0.001363461256 -0.3984142805 -0.9169185964 -0.02294228854
0.01588187885 -0.01306612492 -0.01484070683 0.7834804318 -0.6214152965 0.001200951223
0.01745492172 -0.01087428379 -0.01818962574 0.8361288042 -0.548530803 -0.001606526675
0.02059246508 0.02196613693 -0.06112619273 0.9966917592 -0.0007580954421 -0.08127092012
0.01892015362 -0.008063847065 -0.02130955696 0.9075615271 -0.4199087723 0.002949133947
0.006348095894 -0.01954099464 -0.001360425949 0.4455501174 -0.8946738151 0.03230878379
-0.0009373761068 0.01898930073 -0.08108791351 0.04946116493 0.05662641478 0.9971695153
0.0198710165 -0.005336079836 -0.02333448029 0.9583948502 -0.2851040447 -0.0139640547
0.01481591129 0.01429579353 -0.01897180939 0.7327318592 0.6805119217 0.002747158141
0.02045352427 -0.001992436926 -0.0245751222 0.9948755733 -0.1011038414 0.0007790093934
0.02052985764 0.001327137947 -0.0247376852 0.9948094611 0.1013210208 -0.009390788232
0.02017044544 0.003992814541 -0.02397223949 0.9699163387 0.2434322669 -0.0017399474
0.01947921371 0.02191418743 -0.05394939804 0.9773614317 0.006582590293 0.2114741151
0.01946938419 0.006657702446 -0.02403993797 0.9519050358 0.3058551175 -0.01815075295
0.002364427805 -0.01533582878 -0.05976408195 0.1383753843 -0.8574821858 -0.4955568122
0.01864347076 0.00875302887 -0.0207203064 0.9191390962 0.3939329488 0.0003920587765
0.00830466032 -0.01845792484 -0.04510663795 0.4019838257 -0.9092081639 -0.1083951959
0.01650397396 0.0122636199 -0.01776562119 0.806603759 0.5910911566 0.001273003111
0.005259314537 0.01989518547 -0.02126486969 0.360012588 0.932913537 0.007954181176
-0.009865232468 0.04873251724 -0.07863074493 0.4741878781 -0.01691736563 0.8802611311
0.01107017517 -0.01733937073 -0.01438179398 0.559244819 -0.8289767308 0.006543100235
0.01372135496 0.01530666256 -0.01187938547 -0.6746061932 -0.7381224783 -0.009038311019
0.01009596825 0.0179420414 -0.002527155876 0.5130667082 0.8580223195 0.02366964629
0.01479439926 -0.01427283812 -0.03539462852 0.7196911639 -0.6941667732 0.01330863082
-0.004046667099 -0.002963974714 -0.07324634552 -0.2031557186 -0.5670519987 -0.7982354194
0.01390354877 0.04316586473 -0.07573998684 -0.6994394289 0.00993007092 0.7146228929
0.01047730255 -0.01773027802 -0.006673092842 -0.5450421535 0.8384081906 0.0008699580021
0.01988576508 -0.005286977053 -0.02647153854 0.9700555114 -0.2428826606 0.0005639212075
-0.006701320489 0.01924466324 -0.08001078033 0.3071905434 0.04677957488 0.9504975757
0.01438934898 -0.01465235996 -0.04160629654 0.7081113469 -0.7032965874 -0.06286676818
0.01889007378 0.007031660795 -0.0653194313 0.9231290365 -0.1772266675 -0.3412088662
0.0129469223 -0.01602053452 -0.01186846161 0.6167224071 -0.7871640287 0.005124890936
0.01465337944 -0.01444317436 -0.01545902824 0.7131087719 -0.7009478177 -0.01216701726
0.01599134254 -0.0129367094 -0.01827456474 0.7907245617 -0.6121486258 0.005359799917
0.01752151775 -0.01076995277 -0.02149492836 0.8338968972 -0.5517642107 0.01312328777
0.01679523482 -0.001945951377 -0.0632951998 0.8183442853 -0.4007033631 -0.4120066086
0.01952378591 0.03109484673 -0.05407808685 0.9778177915 -0.0007512846802 0.2094559673
-0.01538718001 0.02474318314 -0.07425879924 0.7500928529 8.313896719e-06 0.6613325275
0.01895295334 -0.007988531351 -0.02450790977 0.9061405014 -0.4229269796 -0.006493194362
0.02053288937 0.001315032095 -0.02783390331 0.9950933497 0.09893156487 0.00133072658
0.01231342697 -0.01151126862 -0.05853858185 0.6085516884 -0.6918503149 -0.3885974581
0.01378521421 0.01316355387 -0.07504489051 -0.6675887169 0.1580984818 0.7275508059
0.01829804802 0.002942718744 -0.06425249481 0.8822007279 -0.2820988633 -0.377017383
0.02018044376 0.00395619607 -0.02709193897 0.9806105805 0.1959655561 0.0006247222118
0.01422540855 -0.01484305239 -0.02241574764 0.7173903822 -0.6966475425 -0.005765507301
-0.01340372658 0.0048244946 -0.0725279274 0.6221549692 0.3397591904 0.7053275032
0.01948892307 0.006596474648 -0.02716826916 0.9498403601 0.3125519372 0.01070406197
0.01868050194 0.008671005249 -0.02393435478 0.916269183 0.4004967591 -0.007289047979
0.01804215965 -0.002029703474 -0.06036434326 0.8776863281 -0.3633089932 -0.3125272548
0.01031196518 -0.001282626688 -0.07151408081 -0.4993788601 0.4979006127 0.7090244946
0.01794620895 0.01006190014 -0.02238881683 0.8576329664 0.5142585837 -0.001950384783
0.01659069824 0.01214464426 -0.02110616016 0.8097599434 0.5865923864 0.0140785769
0.02046542803 -0.001938885729 -0.0337077713 0.9978690146 -0.06392807679 0.01306256944
-0.01269640827 0.0486485405 -0.07677025604 0.521486606 -0.0103851015 0.8531962666
0.0140341213 0.02806001494 -0.07563827684 0.7075963297 0.001296565073 -0.7066157039
0.01046206093 0.01773221397 -0.006641049385 0.5407627206 0.8411396974 -0.007725888189
0.0177414093 0.01041754007 -0.03256803036 0.8502044404 0.526452661 7.191378618e-05
0.01077729416 -0.01753260422 -0.0105711441 0.5443493811 -0.8388155384 0.008499642088
0.02057621574 0.04906763077 -0.06133751869 0.9959249105 0.0004297516451 -0.09018529742
0.01312956142 -0.01585493469 -0.01546379852 0.6295921572 -0.7769257019 0.0004114182403
0.01481627846 -0.01429575443 -0.01897257233 0.726996855 -0.6865795732 -0.009168564972
0.02053202772 0.05791818523 -0.06008943081 0.9963926922 0.03848727728 0.07563287858
0.01143204467 0.00935254701 -0.07594529088 -0.5649273764 0.2350478194 0.7909548546
0.01609864235 -0.01280985451 -0.02164049721 0.7983893948 -0.6020108747 0.01254117622
0.01596357632 -0.0009808618824 -0.06570538584 0.7903921255 -0.3963691652 -0.4670886134
0.01898514271 -0.007914622068 -0.0276465435 0.906520731 -0.422075226 -0.008524540852
0.02023566055 0.003782504082 -0.04188080788 0.98984908 0.1412042871 0.01612910665
-0.001302977612 0.03995805422 -0.08112880198 0.06332825275 -0.004288604491 0.9979835371
0.01163691902 -0.0169654541 -0.02175564575 0.5884338494 -0.8085433136 0.001820676515
0.01108683739 -0.01330784988 -0.05688850098 0.5470320146 -0.7546988633 -0.3621955283
0.01990024281 -0.005238777876 -0.02955086899 0.971365904 -0.2373946075 0.009595876442
0.02019025898 0.003920249343 -0.03015445232 0.9824475399 0.1853875481 0.02069512663
0.01725478872 -0.01115800794 -0.0300996774 0.8357227735 -0.5484563584 -0.02762369917
0.006328605175 0.01958201408 -0.0262570076 0.3775521722 0.9259300402 0.01038835426
0.01950748539 0.006536401987 -0.03023784161 0.9561784281 0.2926692597 0.008216932792
0.008460586548 -0.01874643517 -0.01536774254 -0.5094426254 0.8605043726 -0.0006604642539
0.01313708019 0.01585406399 -0.01547942829 -0.642450318 -0.7662888647 -0.00767884864
0.006965067069 0.04305480957 -0.07996141052 -0.3274570354 6.89550486e-05 0.9448660674
0.01075246143 0.01753573036 -0.01051951885 -0.5301618346 -0.8478779375 -0.005606451191
0.01283640766 -0.01611117744 -0.03865016174 0.597957917 -0.8011832958 -0.02348735949
0.01978762913 0.05197384548 -0.06616515923 0.9664776023 -0.006579897069 -0.2566666109
0.007366474628 -0.01922903061 -0.006765541553 -0.4428156307 0.8964033532 -0.01937383909
0.01103645992 0.01734358025 -0.01431247997 -0.5545100712 -0.8321600313 -0.005316316869
0.01724521446 -0.01126049423 -0.02708277893 0.8336736289 -0.5518735787 -0.0205872177
0.01901673603 -0.007842077017 -0.03072723293 0.9146175117 -0.404254462 0.007289523802
0.01991396809 -0.005191472769 -0.03257315826 0.971882694 -0.2352762575 0.009439908134
0.01373806169 0.004302107202 -0.07193523577 0.6765582006 -0.3251316489 -0.6607256708
0.01993618774 -0.005099545956 -0.03844715691 0.9673799496 -0.2527777271 -0.01671686991
0.02053733158 0.001291498393 -0.03385570335 0.9988746622 0.04689808811 0.007069554769
0.002263599776 0.04309735394 -0.0810280714 -0.1350081723 -0.0025755692 0.9908411375
0.02019989586 0.003884954572 -0.03316145325 0.9837629516 0.1790664731 0.01206869298
-0.00338589114 0.004088455975 -0.07737299347 0.1508248604 0.3894303796 0.9086230467
0.01349100475 -0.004603989983 -0.06583442688 0.6641442422 -0.5232829128 -0.5339357815
0.01927964528 0.007129604816 -0.03324188868 0.9361621801 0.3514647162 0.008539661944
0.02053843498 0.001280062169 -0.03678394127 0.995247657 0.09721981002 0.005514503884
-0.00795791165 0.05509712855 -0.07955312602 0.3447888316 -0.000797871087 0.9386799375
0.01875250435 0.008511522293 -0.03018360519 0.9166699856 0.3996414517 0.001687485678
-0.001158068563 0.03408752187 -0.08113883464 0.05899384302 0.01704369961 0.9981128387
0.01768074894 0.01051493788 -0.02947939777 0.8606908072 0.5090997799 -0.005361770253
0.007249899864 -0.01269045162 -0.06190303421 0.3271001394 -0.7967479025 -0.5081321469
0.01723166275 0.01126164341 -0.0270549202 0.8330672919 0.5530071778 0.01348882524
0.01985651143 -0.005252720515 -0.04205816269 0.9596564665 -0.2786003765 -0.03796441158
-0.0009295047894 0.02187364054 -0.08115390205 0.04729647242 0.001468930476 0.9988798156
0.01618395615 0.01268736553 -0.0248997364 0.7799710788 0.6257920632 0.005423080629
0.008389255126 0.05481149165 -0.07937940598 0.4003459028 0.003531417746 -0.9163572923
0.01495896244 0.01415310478 -0.02237991524 0.7435276754 0.6687046869 -0.0007984752284
0.0204645319 0.01916442299 -0.05835682678 0.9960689273 0.01265326111 0.08767318345
0.0187135849 0.009405030251 -0.044438797 0.9137050518 0.385806309 0.1276580203
0.007119242191 -0.01931170273 -0.03063204956 -0.4442937219 0.8958713729 -0.004191887897
-0.0007027530074 -0.01823236847 -0.05359089279 0.005013585471 0.9147828123 0.4039149296
0.01332757568 0.0156905489 -0.01902444458 -0.6499869254 -0.7599221225 0.005946810664
0.007386868477 0.01922628212 -0.006807468414 0.4247813116 0.9052703134 0.00681886234
0.00795773077 -0.01897968483 -0.01119712543 -0.4905331549 0.8714224261 -0.0004233418727
0.01571880484 0.02179537106 -0.07388270187 0.7678453328 -0.002507790885 -0.6406303583
-0.009386780739 0.04020543671 -0.07892089844 0.4198102366 -0.01520493561 0.9074845316
0.01135664368 -0.01715036964 -0.0181090126 0.5777501315 -0.8162133579 0.0007347857011
0.007811041546 0.001272422552 -0.07455926819 -0.3910105299 0.4478776425 0.8040624247
0.01437733221 -0.01469570065 -0.0257678175 0.6930803566 -0.7206822806 -0.01602091779
0.01630701256 -0.01256350803 -0.02817697525 0.8134972009 -0.5815639588 -0.002380339656
-0.004099434217 0.02493463993 -0.08075813548 0.145004212 0.0009717338411 0.9894305606
0.008769974709 0.03084778214 -0.07922143745 -0.3995397636 -0.01331603462 0.9166191469
0.01732260704 -0.01105444686 -0.03318555832 0.840823195 -0.5413083184 -0.00128809779
0.01904775238 -0.007770856619 -0.03375168037 0.9152488421 -0.4027931163 0.008789911481
0.01738814354 -0.01095287704 -0.03621259181 0.834760636 -0.5505950337 0.004448528826
0.02046925418 -0.001921673437 -0.03664322027 0.9952900947 -0.09693220774 0.001332076665
0.01649203992 -0.01119166374 -0.04828024864 0.811970148 -0.5640088854 -0.1503278279
0.01990952072 0.02188898621 -0.06577414551 0.9745885986 -0.002053802146 -0.2239929582
0.02020935917 0.003850293159 -0.03611454773 0.9869875366 0.1607751462 -0.00263721776
0.01429719655 0.006724901994 -0.07250229136 0.697740293 -0.2847948653 -0.6573053843
0.01930303574 0.007065608025 -0.03620958074 0.9378808751 0.3469370487 -0.003761428211
0.01186967945 0.01678953552 -0.02524180794 -0.6271971341 -0.7788572142 -0.002279223424
-0.004404770374 -0.01625596857 -0.05715750122 -0.2024945848 -0.8912591951 -0.405774556
0.01628105354 0.01256594753 -0.02812419701 0.7855958701 0.6187320827 -0.003120702685
0.00220891127 -0.01335922313 -0.06298784447 0.1211267297 -0.8138068797 -0.5683719538
0.01787523413 -0.004821094155 -0.05731435776 0.853620305 -0.4342837517 -0.2876282286
0.01509917259 0.01401325035 -0.02572034645 0.7458247006 0.6661327049 0.00356867462
0.01131427479 0.01715561104 -0.0180228672 -0.5727281042 -0.8197213945 -0.006273277149
0.02052265835 0.007204033375 -0.05715470409 0.9987330811 -0.02611405147 -0.043014986
0.01899416447 0.05767542267 -0.06851328659 0.9331412085 0.01877234841 -0.3590196151
0.007971196651 0.01897788429 -0.01122450447 0.4569563678 0.8894889612 -0.0005156039493
0.0180477829 0.01425707626 -0.04857711029 0.9304551738 0.2623499945 0.2557843816
0.001802649856 0.0246577603 -0.08109690475 -0.08518456199 -0.01413419755 0.9962649321
0.01451913595 -0.01455198479 -0.02903955936 0.7062378145 -0.7078248658 -0.01456394938
0.01904783478 0.004365835285 -0.06317169647 0.9231867201 -0.2174338776 -0.3169365688
-0.01046931712 0.05802421697 -0.07827718353 -0.4935895838 -0.003627243054 -0.8696873955
0.00465707624 -0.01078712034 -0.06576072502 0.2368512412 -0.7500333808 -0.6175365716
0.01907820892 -0.007700922728 -0.03672152519 0.9347667568 -0.3552582771 0.001633063011
0.02047289276 -0.001904765666 -0.0395266304 0.9951483628 -0.0983205167 -0.003579374842
0.0205395174 0.001268827289 -0.03966063309 0.9955891986 0.0933219821 0.009651701498
0.02021865463 0.00381624651 -0.03901528168 0.9877497212 0.156006181 0.003543984538
0.009812137604 0.01809088516 -0.02712010193 -0.5111273977 -0.8595048891 0.0003589624458
0.01932667605 0.007002719879 -0.03912574132 0.9530734458 0.3015390481 0.0269297134
0.01779603767 0.01032229567 -0.03558996201 0.8646075563 0.5024417165 -0.002468834372
0.01637630463 0.01244683838 -0.03128734589 0.7830278323 0.6219588936 -0.00587779457
0.0111362114 -0.01552662659 -0.05147093964 0.5595883038 -0.7878804367 -0.2571096024
0.015221488 0.0138776989 -0.02896476746 0.7402805979 0.6722639681 0.006767093418
0.01158727646 0.01697154236 -0.02165581703 -0.5868395026 -0.809679843 -0.00616036275
0.0126875968 -0.01579656935 -0.04516724968 0.6135515487 -0.7829730064 -0.1025074062
-0.006528245211 0.04582804203 -0.08008229446 0.2877421335 -0.004422407298 0.9576977117
0.01957073021 0.04903546333 -0.05429756737 0.9786088562 0.0005331904351 0.2057290022
0.008465723991 0.01874575424 -0.01537807369 0.5112442055 0.8594354116 0.0003681333007
0.008941821098 -0.01852008629 -0.01941831589 0.4647005072 -0.885383382 -0.0122354179
-0.006772294839 0.0251075414 -0.08004023743 0.3088417976 0.002111032952 0.9511110806
-0.001021222368 0.01039156461 -0.07982182884 0.06539573217 0.2378279271 0.9691033357
0.01191120911 -0.01678448868 -0.02532441521 0.6305707646 -0.7761275161 0.002566992567
0.01465810061 -0.01441106224 -0.03224778938 0.7182267972 -0.6957765014 -0.006732596094
0.008919353008 -0.01683632374 -0.05135094452 0.4603264564 -0.8501322074 -0.25568493
0.01942942047 0.006936463833 -0.04214704641 0.9582449407 0.2802233148 0.05693441319
0.01744781939 -0.01085357285 -0.03917548625 0.8328747909 -0.5533610409 -0.01054235051
0.004865495205 -0.001048588276 -0.07427976532 -0.2151211525 0.5279196533 0.8215982774
0.01910662746 -0.007632317066 -0.03963536835 0.9334923295 -0.3583641769 -0.01293009873
0.006047729969 -0.0167144413 -0.05509747696 0.3083676273 -0.887798027 -0.3416490447
-0.005931539377 0.05476901881 -0.08032276662 0.2857884239 0.004982696851 0.9582797867
0.02054527664 0.001257676333 -0.04249657059 0.9967053915 0.07984713211 0.01424071974
0.01784930515 0.01022880411 -0.03855640793 0.8684449515 0.4957773073 -0.002868411361
0.005744709492 0.01257032204 -0.07953496552 -0.286714608 0.2008138906 0.9367328941
0.01646976471 0.01232996845 -0.03439103699 0.7828795569 0.6221701781 -0.001966939328
-0.004082780361 0.05211444092 -0.08074742889 0.174009813 0.002816894442 0.9847398896
0.01534127235 0.01374476624 -0.032146595 0.7496771258 0.6617852763 0.004945204701
0.01385841465 0.01522167683 -0.02919730949 -0.6731527431 -0.7393424454 -0.01543155322
-0.01040892391 0.02802149391 -0.07831906738 -0.4354132259 0.004191639144 -0.9002209467
0.008948290825 0.01851923752 -0.01943118477 -0.4645620394 -0.8854518454 0.01253558985
0.01118364763 -0.01724824429 -0.02978475189 0.5626766527 -0.8266739344 0.002278297607
0.008993156433 -0.01539552116 -0.05522730255 0.4351880194 -0.8333898214 -0.3406945749
0.01819754505 -0.009482679844 -0.04204489517 0.8891573752 -0.4566631865 -0.02928986724
0.02048072243 0.05198303795 -0.05864046669 0.9958436779 -0.001656162035 0.09106385813
0.01908322334 -0.007567800283 -0.04239683342 0.9301920705 -0.3653112854 -0.03592181521
0.01980874443 -0.004992764473 -0.04519828606 0.9533788468 -0.2965018663 -0.05617310471
0.0108061854 -0.01652847862 -0.04830849965 0.5518871983 -0.814614967 -0.1783899545
0.02041009776 -0.001872996151 -0.04500639343 0.9917752418 -0.1231331007 -0.03493006368
0.01705867132 0.04880646578 -0.0720533282 0.8196783463 0.01408379094 -0.5726509019
0.02056430721 0.001246638 -0.04530976486 0.9989405509 0.04470314573 0.01092724155
0.02034665585 0.003746573329 -0.04488180733 0.9882726077 0.1465063479 0.0430481468
0.01966983604 0.006872421741 -0.04492768097 0.9620473033 0.2585692382 0.08721774645
0.01800952053 0.01012822485 -0.04167975616 0.8850256025 0.4574180245 0.08659349725
-0.009721141815 0.04628338051 -0.07871631241 0.4759764436 -0.003639375157 0.879450499
0.01656148911 0.012215271 -0.03743703842 0.8119556379 0.5836219432 0.01065220751
-0.01015214252 -0.009246350288 -0.06429096222 -0.4309348607 -0.7057307035 -0.5623515981
-0.002683463812 -0.01833403778 -0.05278701782 0.05507563997 0.9230739922 0.3806587431
0.01545836067 0.01361439705 -0.03526726532 0.7594409028 0.6505762853 -0.0001105269368
0.01402691555 0.01507171631 -0.03245157242 -0.6926750035 -0.7212125124 0.007338365395
0.01328854008 -0.001521478415 -0.06874264832 0.6562391241 -0.4585834024 -0.5992090412
0.01214609432 0.01661138916 -0.0287517662 -0.63951304 -0.7687792099 -0.001264135122
0.00985187149 -0.01808575821 -0.02719744492 0.5108803929 -0.8595294746 -0.01450194422
0.008202330907 -0.01491403802 -0.05713546244 0.4136445822 -0.8112819485 -0.4131824775
0.01896957016 -0.007509553194 -0.04493579102 0.9215430813 -0.3812688506 -0.07343305059
0.02039158344 0.03669385529 -0.06335978889 0.9910019786 0.02091557433 -0.132202939
0.01842391205 0.04907913208 -0.0697258873 0.8828714637 0.005547491818 -0.4695819459
0.002449508309 0.0550620594 -0.0810171992 -0.1097864642 0.007002513156 0.9939305293
0.01966577021 -0.004743655841 -0.0480919927 0.9464504247 -0.3083601934 -0.09563254993
-0.003955859721 -0.00118185477 -0.07443976974 0.1696121363 0.5251262351 0.833950934
0.02023785019 -0.002163150281 -0.0480760746 0.9831498144 -0.1688171257 -0.07012289539
-0.01424082851 0.009037009239 -0.07348482513 0.6342984052 0.252085418 0.7308340955
0.0169655749 0.0601738383 -0.07218293762 0.8181377438 0.02421158583 -0.5745123421
0.02056722832 0.001235855997 -0.04804354477 0.9998518903 -0.0005900885154 -0.01720026771
0.006852880001 0.04892481995 -0.07999636587 -0.3357838692 0.008371742471 0.9419018564
0.02047548485 0.003710784078 -0.04786546898 0.9982593175 0.05460382929 0.02228804446
0.02005009524 0.006803674698 -0.04793687566 0.9820242525 0.1504925123 0.1139314326
0.01864888382 0.001775105715 -0.06245098495 0.9070425078 -0.2655571024 -0.3267312573
0.01668182135 0.001172161619 -0.06617036184 0.811756669 -0.3434513918 -0.4723264251
0.02054441325 0.05556736247 -0.0605084343 0.997101612 -0.005873452671 -0.07585432037
0.02036932564 0.04571628825 -0.06342451731 0.9909207616 -0.01244564647 -0.1338699003
0.01611436749 0.01279444456 -0.0393821125 0.7753429626 0.6314886446 0.008085923518
0.02008538055 -0.001591036391 -0.05138760071 0.9752149024 -0.1944899756 -0.1054966518
0.01960999107 0.05970665741 -0.05447660828 0.9867750923 -0.0006794578584 0.1620939714
0.005166498065 0.04603871155 -0.08050122833 -0.2521622551 0.006711473535 0.9676616936
0.01819097099 0.01584966583 -0.06980803986 0.8769129513 -0.0717747477 -0.4752599935
0.0134058404 0.0155990715 -0.03553806877 0.6819051824 0.7313434809 -0.01191785515
0.01241304684 0.01643741226 -0.03218106461 -0.6444077269 -0.7645655229 -0.01335075247
0.01989128749 0.01000783698 -0.06349268786 0.9612229147 -0.1110202181 -0.2524381497
-0.0005535691917 0.05796288605 -0.08114271545 -0.02825162335 0.03272529309 -0.9990650134
0.004875718461 0.0280261737 -0.08057023536 -0.2226070191 0.0001094179787 0.9749082537
0.005293832302 -0.01989043999 -0.0213313427 -0.3611287765 0.9324970621 -0.005935990043
0.01902776591 0.05224299622 -0.06846055857 0.9292017229 0.00724988065 -0.3695018232
0.01261229897 -0.01627439308 -0.03541982651 0.5811994396 -0.8136192753 -0.01519494469
-0.01188198948 0.006575575829 -0.07465625763 0.5629314748 0.3138114859 0.7646113431
0.002221102268 0.009197358608 -0.07941363525 -0.1102348103 0.2735008518 0.9555341808
0.01430919456 -0.01478535938 -0.03868545914 0.7138253378 -0.7002898703 -0.006890912651
0.01405536673 0.0188632946 -0.07554538218 -0.6979219501 0.03603237459 0.715266817
0.01561171913 -0.01336830425 -0.04119184494 0.7610123247 -0.6478500657 -0.03391952289
-0.01204040368 0.03999529775 -0.07729227956 0.4895160451 -0.004673517962 0.8719817657
-0.00137138886 -0.01086950588 -0.06641765213 -0.06946325718 -0.7660572938 -0.6390078861
0.01691471577 -0.01129725552 -0.04506044579 0.8256572099 -0.5579680715 -0.08343741937
0.014350245 -0.01373015594 -0.04825200462 0.6840376654 -0.7089622504 -0.1716537209
0.01800346947 -0.00937577343 -0.04579304886 0.875486993 -0.4766556791 -0.07951030576
0.02051573277 0.001225713342 -0.05062644196 0.9963225168 -0.069030606 -0.05075645767
0.01279973602 0.001160380691 -0.0711187706 -0.6101449697 0.4186049579 0.6726760031
0.02056334877 0.003676607847 -0.05071885681 0.9999855359 0.003874717866 -0.00373023148
-0.0009749357129 0.02477009869 -0.08115090942 0.04997084953 -0.01638876585 0.9986162038
0.0113203667 0.02511182054 -0.07776215871 -0.5561035318 0.01624463739 0.8309542549
0.01933691883 0.0099018116 -0.04836180687 0.9554083563 0.2407561596 0.1709717647
0.01777025223 0.01189941692 -0.04534698868 0.893498605 0.3702188148 0.2541619014
0.01912003937 -0.001563815165 -0.05733410873 0.9240061301 -0.3040291892 -0.2319028322
0.01905612246 0.04625490189 -0.0683993632 0.9313429423 -0.0055300154 -0.364101281
0.01580634403 0.01334894466 -0.04156665802 0.796217378 0.5990324137 0.08484134792
-0.007124676069 0.03694836553 -0.0799082133 0.388860008 0.00608286772 0.9212767732
0.01020969582 0.01788653946 -0.03079540634 0.584818539 0.8111640162 -0.0004639131289
-0.01248793856 0.04615842819 -0.0769407959 -0.542284521 0.008398516326 -0.8401529404
0.01383805125 0.03698949487 -0.07580510494 -0.7017892359 -0.003056173326 0.7123780796
0.006282756329 -0.01958826256 -0.02616965103 -0.3785482806 0.9254872628 -0.01321081816
-0.01224517488 0.04306387711 -0.07713742447 -0.501168166 0.0119381731 -0.8652675594
0.01552388573 -0.01326456928 -0.04376548767 0.7697514314 -0.6345961582 -0.06906844366
0.01802459526 -0.008676702023 -0.04852343369 0.8791828374 -0.4543549929 -0.1435237922
0.01873110962 -0.006779147148 -0.04986752319 0.9132837699 -0.3821406611 -0.1410009604
0.02038447634 0.03969221369 -0.063379378 0.9913632189 0.02251489401 -0.1291977079
0.01912072945 -0.005105751991 -0.05148515828 0.9288118695 -0.3365875447 -0.1549752748
0.01534993172 -0.0117196846 -0.05140213776 0.7254859778 -0.6508392968 -0.2237818263
0.005798560143 -0.01532325363 -0.05830453491 0.319759737 -0.8415008495 -0.4354653039
0.02027857399 0.001212440982 -0.05411389542 0.9842010717 -0.1403693772 -0.107910557
0.02051761882 0.006687357267 -0.05327178701 0.9962901709 0.05768751737 0.06385957834
0.01977571456 0.05500292524 -0.06619720586 0.9686436955 -0.01228876456 -0.248149909
0.01976296759 0.05804404736 -0.06623069382 0.9552740212 0.004663825424 -0.295685294
0.01556597265 0.04564623133 -0.07405371602 0.7613656988 -0.005593030174 -0.6482985352
0.008735956828 0.03373490524 -0.07923731995 -0.3988788841 -0.01128511541 0.9169341754
0.02030524254 0.009134860039 -0.05286994934 0.9919126777 0.07975541264 0.09873354998
0.02007978058 0.01037183189 -0.05244213867 0.979427506 0.1337975311 0.1510628387
0.02033509954 0.0578962059 -0.06353962962 0.9861660912 -0.01992652024 -0.1645581186
0.01053220654 0.0176951313 -0.03426291275 0.5886987253 0.808326224 -0.006521230352
0.02042173131 0.02181567828 -0.06329103343 0.9926744633 -0.0008081746305 -0.1208170387
0.008503198783 0.04889754295 -0.07933373515 0.4006755822 0.001361278177 -0.9162189829
0.02033940582 0.004444946098 -0.05706407623 0.9896722115 -0.09447837882 -0.1078088575
0.0108335743 -0.01750955391 -0.03763048172 0.5512377817 -0.8343329714 0.005039920728
0.02058257484 0.03995982361 -0.06124799474 0.9965061294 0.0004724969099 -0.0835183266
0.0129362812 -0.01596513367 -0.04159098434 0.6207482531 -0.7827552351 -0.04433788595
0.01126011658 -0.008646353722 -0.06391873169 0.5212069351 -0.6598062427 -0.5412938692
0.01454459222 -0.01405447006 -0.04551319631 0.7035424237 -0.6999039959 -0.1231359193
0.01771286488 -0.008299952149 -0.05123677444 0.8558279895 -0.4809056053 -0.1904947536
0.01108927488 -0.0111541841 -0.06065931606 0.5487125348 -0.7067832212 -0.4465109544
0.01893426514 -0.004253303528 -0.05417331886 0.9179540446 -0.3387972958 -0.2063413784
0.01951922655 -0.002121761635 -0.0546266098 0.9573297779 -0.2333340243 -0.170513722
0.01847411092 0.04017358653 -0.06965112813 0.8850925437 -0.00263948636 -0.4654075872
0.02055801163 0.009955363464 -0.0574805542 0.9998717325 -0.0009584618954 0.01598749009
0.01900959587 0.05525558662 -0.068489254 0.9296822977 -0.007716528891 -0.3682815235
0.01926638985 0.001191821054 -0.05986661816 0.9354205841 -0.2552576414 -0.2446055341
0.01963787651 0.00707668066 -0.06302446079 0.9557826904 -0.1595320743 -0.2470404137
-0.009223028183 -0.006693618774 -0.06782843781 0.4162607115 0.6424094131 0.6434571983
0.020517519 0.01259209347 -0.05758078512 0.9995190911 0.01633133523 0.026360462
0.01975487423 0.05987522125 -0.06625150299 0.9574961344 0.01489102244 -0.2880614693
0.02028471279 0.01329359007 -0.05544040108 0.9920998547 0.0650239858 0.1072835479
0.02044492277 0.02820103391 -0.05836700439 0.9937900041 -0.008345740605 0.1109584439
-0.009290726662 0.001788637638 -0.07410926056 0.4341523355 0.4130346253 0.8005711386
0.01996033669 0.01575449848 -0.05483534431 0.9837510005 0.06516855893 0.1672932394
0.01959231186 0.01884588814 -0.05415125783 0.9800241651 0.04503176611 0.1937131278
0.01950716209 0.02802952671 -0.05403009224 0.9773908249 -0.0003109087304 0.2114404849
0.02057841873 0.04602183787 -0.0613055191 0.9961410762 0.0004588834058 -0.08776528757
0.01953982735 0.03416610718 -0.05412661171 0.9780933962 5.733678237e-06 0.2081665399
0.01954376221 0.03663072777 -0.0541499691 0.978197274 6.210039786e-05 0.2076778496
0.004907798147 0.001274123061 -0.07563801575 -0.2499192095 0.4749657618 0.8437700598
0.01954862213 0.03971906789 -0.05418070094 0.9783053929 0.0005821228143 0.2071671291
0.01568866062 0.02814583015 -0.07391689046 0.7638524624 -0.01348316571 -0.6452500445
0.0195546751 0.0428151741 -0.05421534157 0.978386535 0.0006236110517 0.2067834598
0.02052736092 0.01615539042 -0.05846251678 0.99685307 0.03931668897 0.06883425539
0.01894412279 0.036435215 -0.06864099693 0.9258263578 0.007001060968 -0.377884295
0.01958075015 0.05216102346 -0.05434521103 0.9787705263 0.000183583029 0.2049590766
0.01959199429 0.05529676247 -0.05439687347 0.9788298806 -0.0001141205506 0.2046754795
-0.001573673606 0.04885156727 -0.08109763145 0.103231187 -0.006373827417 0.9946369671
0.01960197449 0.05781394958 -0.05444143677 0.9841336356 0.008751427037 0.1772128658
0.02021036339 0.007132306814 -0.06036608505 0.9741157548 -0.1257893475 -0.1878178274
0.01105118322 -0.01726627922 -0.04213377571 0.5612096989 -0.8260002738 -0.05260438703
-0.009241973877 0.03719093068 -0.07900646973 0.4123275698 -0.01756160298 0.9108663817
0.01624437046 -0.01045830011 -0.05175444221 0.7967987817 -0.5679965377 -0.2061349915
0.01714536762 -0.007921661139 -0.05427942022 0.8274812156 -0.5029120349 -0.2497084761
0.01445541604 0.001164143662 -0.06933748372 0.6937747469 -0.3978244485 -0.6003434923
0.01553146807 0.04918867238 -0.07408444977 0.7576384442 0.02146078404 -0.6523215638
0.01840266037 -0.00546821785 -0.05447285843 0.8904308187 -0.4018814403 -0.2135983732
0.01987259102 0.001200993538 -0.05721238708 0.9592857309 -0.2085260691 -0.1904934774
0.0204499855 0.02217266401 -0.05834333038 0.9946657749 -0.0001674642382 0.1031502214
0.001943353229 0.04915901099 -0.08105556488 -0.09807446481 0.01832154158 0.9950104122
0.02044702435 0.02518390942 -0.05835330009 0.9943924657 -0.004291350613 0.1056655498
0.01419040839 0.05501017507 -0.07542235374 -0.6951960015 -0.008333887228 0.7187719151
0.02044697952 0.03122306728 -0.05839033699 0.9940100108 -0.006935689694 0.1090687612
0.02044992352 0.03364540291 -0.05841292953 0.9950090757 0.01544048743 0.09858260785
0.02045399729 0.03668008296 -0.05844379934 0.995120807 0.01567266479 0.09741122617
0.02059150219 0.02494877815 -0.06114198112 0.9968890873 0.002900114697 -0.0787638052
-0.009736528714 -0.001001210213 -0.07207491557 0.4815053963 0.4956983083 0.7227971641
0.02045846844 0.03972208023 -0.05847731209 0.9952387634 -0.0009540775255 0.09746226781
0.02046872711 0.04583280754 -0.05855309868 0.9954939639 -0.0009169101718 0.09482049988
0.02047452037 0.04890299098 -0.05859541957 0.9955925825 -0.0158569599 0.09243357877
0.01404474504 0.05210695376 -0.07557707323 -0.6934113979 0.008762240249 0.7204886234
0.01100592073 0.05187034353 -0.07794894791 -0.5449436215 -0.003482466224 0.8384654566
0.02048601341 0.05445544243 -0.05867869759 0.9959164457 0.01152801572 0.08954070609
-0.01305565262 0.01076625347 -0.0751374855 0.6106622237 0.2380244704 0.7552721364
0.02041684532 0.02477845669 -0.06330171967 0.9910792415 -0.005755035076 -0.1331496025
0.02053350544 0.05977885818 -0.0601174736 0.9976553017 0.04177792598 0.05420796943
0.01786987114 0.017896698 -0.07066132355 0.8773480474 -0.0422519965 -0.4779907662
0.008255772591 -0.01884342003 -0.03832793427 0.4424989437 -0.8964805769 -0.02274335178
0.01972319756 0.003924171543 -0.06045898438 0.9589461306 -0.1751153351 -0.2230626325
-0.007018095493 0.03397147751 -0.0799536438 0.3393916077 0.009746139592 0.9405946786
0.006791554928 0.05187751198 -0.08001586533 -0.3264010712 0.0009512644265 0.9452308902
0.009987600327 0.01000737762 -0.07707485962 -0.4740386074 0.2357609921 0.8483537902
0.02040858014 0.01009081554 -0.06073858515 0.9865596272 -0.07768072157 -0.1437560697
0.02050394154 0.01305304337 -0.06092325211 0.9957009466 -0.0331234019 -0.08650124427
0.0169054985 0.05500345884 -0.07227534049 0.8201239406 -0.006330942175 -0.5721508903
0.0205596784 0.01601849238 -0.06103713481 0.995994262 -0.01481145643 -0.08818191889
0.005238994439 -0.006490667661 -0.07005072021 0.2645525579 -0.6309592996 -0.7293163281
0.02058950615 0.01898856258 -0.06110526848 0.9960662293 -0.006882722553 -0.08834418482
0.02058987872 0.02793739955 -0.06115896606 0.9967033685 0.002804637577 -0.08108347028
0.02058817959 0.03093179893 -0.06117793465 0.9967377902 0.01256355872 -0.07972411568
0.02058639208 0.03393351873 -0.0611991806 0.9966453583 0.01137725359 -0.08104682531
0.02058452797 0.03694228172 -0.061222435 0.9966601919 0.0005092619321 -0.08165906293
0.02058054161 0.04298569489 -0.06127558708 0.9963344332 0.0004514578283 -0.08554234906
0.02057391866 0.05212522125 -0.06137189484 0.9956697268 0.001208493472 -0.09295340017
0.01120479213 0.03723171277 -0.07783165656 -0.550598043 0.0130352107 0.8346687237
0.01080132008 -0.01708568764 -0.04568244553 0.5506620731 -0.8242411299 -0.1319008757
0.01632322388 -0.007615584087 -0.05725257492 0.7855719951 -0.5342957423 -0.3120972609
0.01979888185 0.04895760028 -0.06613524755 0.9690125582 0.002802111056 -0.2469955673
0.01869752502 -0.0005962886214 -0.06007227707 0.8955646888 -0.3281055715 -0.3005172575
0.01985450172 0.02811835384 -0.06596842957 0.9746737385 -0.01005566896 -0.2234054319
0.0201208903 0.01275416819 -0.06351210276 0.9803970749 -0.06224187665 -0.1869425697
0.02035929998 0.01591249084 -0.0631451149 0.9873539261 -0.03597064186 -0.1543966886
-0.004161521614 0.0278582139 -0.08074390984 0.1492623063 -0.01414054927 0.9886965201
0.001833109399 0.01890364838 -0.08103085327 -0.08679405621 0.0569724776 0.9945958619
0.02041445541 0.01885922909 -0.06326047707 0.9896678032 -0.02837477992 -0.1405436275
0.01840516472 0.0520700887 -0.06975491587 0.8819332498 -0.003951678762 -0.4713577486
0.0204109834 0.02774735959 -0.0633133227 0.9909471452 -0.00571590093 -0.1341308461
0.02040483475 0.03072216129 -0.06332677269 0.992584706 0.002668243175 -0.1215256433
0.02039835421 0.03370442454 -0.06334234619 0.9924155722 0.001221580834 -0.1229220881
0.02037707233 0.04269903755 -0.06340085793 0.9912088176 -0.01549148152 -0.1313967042
-0.004213608503 -0.01287288666 -0.06318587494 -0.2185249759 -0.80567281 -0.5505798381
0.01550710392 0.05155895996 -0.0741062088 0.7594427869 0.01639086813 -0.6503675829
0.02036127663 0.04874333 -0.06345009613 0.9906043697 -0.01015638508 -0.1363811956
0.02035287666 0.05178233592 -0.06347788747 0.990511989 -0.006129195427 -0.1372895939
0.02034416771 0.05483249664 -0.0635076313 0.9881916745 -0.01241130037 -0.1527192654
0.02032762718 0.06035573959 -0.06356659317 0.984874634 0.01863554656 -0.1722633788
0.001586550668 0.03684376621 -0.08110777473 -0.1228399574 -0.01562757241 0.9923034434
0.0116864233 -0.01559013748 -0.04989524078 0.5637298638 -0.7941879363 -0.2268791802
0.005356961727 -0.002530558546 -0.07316402181 -0.277104086 0.5425461108 0.7930050713
0.01327200031 -0.01289025021 -0.05401964188 0.6375042137 -0.7116530461 -0.2951920043
-0.004572414494 0.03693439331 -0.08064682007 0.2440309544 0.01747288715 0.9696100203
0.01811846352 0.0009839044809 -0.06311888631 0.86087225 -0.328629024 -0.388460981
0.01940096569 0.01284901881 -0.06624974442 0.9473029654 -0.1015039411 -0.3038322592
0.0183212595 0.007005966663 -0.0666987915 0.887623179 -0.1889376661 -0.4200329158
0.01978475253 0.01579008627 -0.06575251261 0.9618729163 -0.0439575613 -0.2699411524
0.01980626183 0.0190549778 -0.06605147858 0.965982841 -0.02730387718 -0.2571607458
0.01985934512 0.02517255052 -0.06595101674 0.9748151309 -0.00901946866 -0.2228320215
0.0198489027 0.03107091395 -0.06598761241 0.9750232528 -0.0002161317138 -0.222102701
0.01477067833 0.009544285202 -0.07308574371 0.7246643468 -0.212595267 -0.6554882432
0.01984256172 0.03403004742 -0.06600821686 0.9726868263 0.00480429743 -0.232071663
0.01982747316 0.0399727087 -0.06605421829 0.9700079697 0.000900134824 -0.2430714471
0.004503821731 -0.01669991112 -0.05614487839 0.1950747821 -0.9039452991 -0.3805636946
0.01585767555 -0.006594819069 -0.0598901062 0.7730727696 -0.5140595698 -0.3716197676
0.005227221171 0.04310533015 -0.08048825073 -0.2561108976 0.0001871856541 0.9666473882
0.01452367274 -0.008000748555 -0.06037843704 0.7000667357 -0.5795168882 -0.4172130654
0.01866876984 0.005282393932 -0.06491945648 0.9085778033 -0.2143268727 -0.3585392125
-0.007241943359 0.003544294119 -0.0759849205 0.3663592225 0.4007850522 0.839733447
0.01892019685 0.009921405792 -0.06657832336 0.9100194942 -0.1462615638 -0.3879073021
0.017104316 0.01914219165 -0.07194261742 0.8189502739 -0.03874113808 -0.5725553013
0.004337312222 -0.02004415703 -0.04198156738 -0.2821147394 0.9556473784 0.08455389946
0.00731122756 -0.01829239464 -0.04852457809 0.3566523903 -0.9136807767 -0.1949012847
-0.004765583086 0.04287480392 -0.08059926605 0.2588611717 0.004795221934 0.9659026346
0.01756974951 0.00409242332 -0.06655094655 0.8500268736 -0.2738313196 -0.4499674683
0.01902157338 0.01569279321 -0.06797754669 0.9249767155 -0.05529283454 -0.3759797577
0.01882806015 0.01914199702 -0.06883867518 0.9102483582 -0.03047581751 -0.4129396456
0.01095732911 0.05483385637 -0.07797639974 -0.5262598413 -0.003668354899 0.8503158958
0.0188420167 0.02205059099 -0.06888708115 0.9136372525 -0.01639513115 -0.4061996684
0.00882861948 0.02509579992 -0.07919406128 -0.4016371584 0.008295502855 0.9157613104
0.01883395735 0.02496750323 -0.06890029907 0.9124721226 -0.003171317263 -0.4091265919
0.01882491684 0.02788974905 -0.06891498375 0.912168569 0.00048070519 -0.4098149223
0.01881494172 0.03081877804 -0.06893168767 0.9115011681 0.001209514228 -0.4112957058
0.01880414248 0.0337543745 -0.06895017052 0.9120345924 0.009681196021 -0.409998996
0.01908245373 0.03971704674 -0.06833932114 0.9360103292 -0.000575088171 -0.3519720627
0.01907097753 0.04268306605 -0.06836548869 0.9360222409 0.005520818567 -0.3518975493
0.01904283237 0.04924271011 -0.06842966843 0.9302827617 0.007935221089 -0.3667574341
0.01714998055 0.03409464433 -0.07192282189 0.8151800289 0.00189467288 -0.5792045673
0.01898221207 0.05949573135 -0.0685320816 0.93280831 0.04314949791 -0.3577803483
0.003856956005 -0.01987286472 -0.04504909325 -0.2399950987 0.9611598425 0.136286866
0.006910863876 0.0459836483 -0.07997815704 -0.3261954498 -0.00207639082 0.9453000672
0.0132693007 -0.007759702206 -0.06261515236 0.6568645102 -0.5900164097 -0.4694780629
0.01700357723 0.006965342204 -0.06909295019 0.8177931127 -0.2472200078 -0.5197082764
-0.01377970123 0.06005111694 -0.07588671875 0.5854052195 -0.004577634838 0.8107279286
-0.00432558918 0.03998393097 -0.0806998291 0.2529414952 -0.00585606576 0.9674638528
0.01752865846 0.00968718229 -0.0693511625 0.8425006058 -0.1872437504 -0.5051064316
0.01790644531 0.01307622375 -0.06976061859 0.8616758139 -0.1272487128 -0.491245923
0.01845837498 0.04313165474 -0.06967401123 0.8845270949 0.004951920484 -0.4664625353
-0.01573907661 0.02783106136 -0.07385971451 0.7501499142 2.374686807e-05 0.6612678018
0.01844160144 0.04610039139 -0.06969901276 0.8918578056 -0.001357495011 -0.4523138421
-0.001010777414 0.006949330807 -0.07877496147 -0.06049433253 -0.3516380371 -0.9341793867
0.0183647213 0.05808855565 -0.06981897227 0.9043695676 -0.0004906021808 -0.4267498618
0.01834745789 0.06051018143 -0.06984680939 0.9051673337 0.02798243511 -0.4241333296
0.005350221316 -0.01818289185 -0.05143756104 0.2616673096 -0.9252631573 -0.2746239409
-0.003506352146 0.05807146263 -0.08084223429 0.1722861312 -0.02198993509 0.9848014682
0.008881224632 0.0005793982744 -0.07363617706 -0.4244056199 0.4694785907 0.774254301
0.01035141659 -0.007712023735 -0.06589248276 0.497659149 -0.6467408099 -0.5779807057
0.0110513436 0.0489204873 -0.07792286004 -0.5439510654 -0.004182593685 0.8391065155
0.007384169817 -0.01675355911 -0.05368763733 0.3718946727 -0.8732376999 -0.3148813615
-0.003379145741 0.05503569412 -0.08086580467 0.1536721532 0.004430224294 0.9881119585
0.0161934816 0.004070389152 -0.06884956868 0.7980622222 -0.2996570524 -0.5227832634
0.01708927274 0.02811509871 -0.07201862049 0.8165728867 -0.008923431255 -0.5771733649
0.01726771409 0.03093905122 -0.07174696241 0.8159364189 -0.001497669079 -0.578139704
0.01653050232 0.01598246193 -0.07247790375 0.817709582 -0.08618880203 -0.5691419242
0.01713421504 0.03701837285 -0.07194478226 0.8195240657 -0.01034382488 -0.5729514038
0.01711707687 0.03995120112 -0.07196878899 0.8204616241 9.644729474e-05 -0.5717015953
0.01316568375 0.007470911026 -0.07398761749 -0.6400772464 0.2683408485 0.7199265988
0.01709862995 0.04289267921 -0.07199442673 0.8215196697 0.002024493113 -0.5701765812
0.01707924716 0.04584461 -0.07202292803 0.8197488844 0.002491774145 -0.5727176944
0.00701599288 0.04013603783 -0.07994593811 -0.342310342 0.004407726241 0.9395766077
0.008843575795 0.01880112203 -0.07911508179 -0.4014669827 0.05604520082 0.9141570966
0.0170366355 0.0517804735 -0.07208576965 0.8190757184 0.0171250733 -0.5734297686
-0.009633652687 0.03097541189 -0.07876493645 0.4058999065 -0.00395380704 0.9139089852
0.01707719636 0.05793292952 -0.07202060604 0.817387414 -0.003037183764 -0.5760803684
0.01000721455 -0.0127361927 -0.05940890503 0.4691924437 -0.7675925356 -0.4366464818
0.01053045241 -0.01019040235 -0.0626835378 0.4923450352 -0.7012085833 -0.5156577247
-0.01167839241 0.03390768433 -0.07756481171 0.4648424836 -0.006353040487 0.8853706028
0.01644483062 0.01339962169 -0.07211749486 0.8069113227 -0.1282219852 -0.576587582
0.01158968506 -0.001986534369 -0.0700124939 -0.5506956372 0.5070255514 0.6630681756
0.008239458323 -0.01335781789 -0.06000548458 0.4288418932 -0.7720094787 -0.4691438963
0.0114025414 -0.006206077218 -0.06649188805 -0.5286584963 0.6000531295 0.6003802429
0.01496181393 0.0034807266 -0.07020429993 0.7171911481 -0.3509223611 -0.602071718
0.01075472042 0.00436032956 -0.07446117946 -0.5085995042 0.3645470613 0.7800205026
0.002137888392 -0.01816161791 -0.05341916148 -0.1160849777 0.9411048757 0.3175624205
0.008181692243 -0.01110649824 -0.06344723129 0.3955632012 -0.7410899972 -0.5425084053
0.01092132092 -0.004583872318 -0.06844898682 -0.5311353325 0.5653319295 0.6311062256
0.01564403248 0.01662956429 -0.07370339966 0.7497570995 -0.09072240687 -0.6554645197
0.01570353603 0.01892106565 -0.0738257548 0.769618423 -0.04844668732 -0.6366634915
0.01570603085 0.02467860349 -0.07389718882 0.764245109 0.01263738264 -0.6448020703
0.01567247486 0.03104203033 -0.07393524551 0.7630181825 -0.01769190501 -0.6461348541
0.01565456804 0.03394587835 -0.07395555115 0.7621517131 -0.001769962653 -0.6473960406
0.01563514519 0.03685706139 -0.07397758102 0.7509763961 0.003236777832 -0.6603211156
-0.008129050255 0.0581791935 -0.07948119354 0.339466782 -0.01356157306 0.940520275
-0.009135028839 -0.01048684597 -0.06358402634 -0.3760665959 -0.7247148409 -0.5773753674
0.00800026226 0.0131249982 -0.07879460144 -0.4078727288 0.169353873 0.8971951308
0.01561397775 0.03977737681 -0.07400158691 0.7635654615 -0.005461961341 -0.6457073276
0.01559127235 0.04270633698 -0.07402733612 0.7633028185 0.009349607381 -0.6459732131
0.01412681079 0.0597915144 -0.07547242165 0.6929101383 0.04919793189 -0.7193435228
0.004989514947 -0.0143207128 -0.06052305889 0.2447241403 -0.8391093031 -0.4858041505
0.00838672781 -0.008434447002 -0.0665563385 0.4054117134 -0.6705730199 -0.6212673882
0.01334679921 0.01012798055 -0.07467046102 -0.6469845682 0.2147370492 0.7316412838
0.01397044897 0.0160089577 -0.07537537766 -0.6857084932 0.09698653515 0.7213858013
-0.01410061646 0.0006100292802 -0.06942967987 -0.5977000603 -0.4454537862 -0.6665774991
0.01396362293 0.02215541935 -0.07571143723 -0.7055020771 0.01663989546 0.7085124791
0.01401338371 0.03094786739 -0.0756542867 -0.7043394633 -0.001349601172 0.7098620282
0.0139905174 0.03384347916 -0.07567212762 -0.7065618358 -0.0005091813692 0.7076511237
0.01404681516 0.03981041622 -0.07561546326 -0.7014221465 -0.01444262745 0.7125997354
0.01387220271 0.04609917386 -0.07576492818 -0.6963270904 0.009401721208 0.7176630064
0.01383867635 0.04904420386 -0.0757918379 -0.6971080103 -0.0004655888887 0.7169659721
0.002164464355 -0.01671247387 -0.05707638359 0.1205549014 -0.9026847587 -0.4130698999
0.005116362254 -0.01268661054 -0.06306346258 0.2421754192 -0.7969632249 -0.5533540317
0.01097717778 0.001158135126 -0.07260160828 -0.5541952595 0.4223101279 0.7173017288
0.005962155342 -0.01141025639 -0.06443715668 0.326716561 -0.7481341029 -0.5775393085
0.006297523975 -0.008918580055 -0.06726028442 0.3371792431 -0.696678475 -0.6332055437
0.006890552521 -0.00769701004 -0.06821459961 -0.3518488389 0.6597633456 0.6640140981
0.007988970697 -0.001895186476 -0.07248243713 -0.3913072269 0.5279624677 0.7537468321
0.01199953334 0.01313705476 -0.07652773285 -0.5827329962 0.1575064975 0.7972540112
-0.0008890856542 -0.005334313234 -0.07188516235 0.05797433652 0.6243588527 0.7789833113
0.01123859135 0.01596723398 -0.07750378164 -0.5619870334 0.08115419599 0.8231552532
0.004829976082 0.05969997215 -0.08056860733 0.1947545406 0.03355915044 -0.9802777424
0.01133112717 0.01881308598 -0.07768597243 -0.5594542158 0.04078763361 0.8278570827
0.01134115526 0.02224382676 -0.07774976264 -0.5561811951 0.02203509272 0.8307688806
0.01129690297 0.02798617066 -0.07777626461 -0.555057802 -0.0006914380544 0.8318114921
0.01127108558 0.03086673164 -0.07779187012 -0.5536983497 -0.01767974147 0.8325296177
-0.0001569439948 0.05504073105 -0.08115773926 0.006241117759 0.01447166583 0.999875802
0.01117044878 0.04013834318 -0.07785192617 -0.5486949473 0.0149988146 0.8358880849
-0.007240527868 0.03993668175 -0.07985812378 0.3860062471 -0.003551559243 0.9224893298
0.01113332865 0.04305528471 -0.07787395308 -0.5468534518 0.0006129899385 0.8372281209
0.01087419065 0.059602403 -0.07802375285 0.5240926801 0.04509846058 -0.8504663376
-0.0004422786385 -0.01539640903 -0.05992684937 -0.01451545634 -0.8664088878 -0.4991241736
0.008603949229 0.04303240077 -0.07929367193 -0.4023572053 0.0008096104004 0.9154823995
0.004915667892 -0.008311982155 -0.06842570686 -0.2073380295 0.6888417922 0.6946279053
-0.01297106838 -0.001829963326 -0.06889015198 -0.5684348983 -0.4866448709 -0.6633690798
0.007380393505 -0.004099160194 -0.07123417664 -0.3448279099 0.5782167239 0.7394316282
-0.0006173045691 -0.01341538596 -0.06309173679 -0.0009474224789 -0.820496122 -0.5716513064
0.005160170031 -0.004578576756 -0.07168930359 0.2315580731 -0.6102369805 -0.7576223903
0.009277597427 0.006883045912 -0.07646723557 -0.4426764618 0.3187091896 0.8381300631
-0.003700927814 -0.01462063853 -0.06056906382 -0.212495615 -0.8480931077 -0.485369647
-0.01168353558 -0.008033298492 -0.06424848175 -0.4654664886 -0.6554984658 -0.5946954761
0.002154386568 -0.008209339809 -0.06920146027 -0.0904762368 0.6974799342 0.7108697433
0.007697252154 0.006884237885 -0.07720606422 -0.3935362671 0.3204526118 0.861649192
0.008207947095 0.01596010272 -0.0791492513 -0.40647666 0.1206836167 0.9056556683
0.008853284041 0.02222942225 -0.07918255107 -0.4027112153 0.01599088373 0.9151873954
0.008800720374 0.02796863524 -0.07920708593 0.3999070418 0.004586828797 -0.9165442264
0.008691178799 0.0372100385 -0.07925822067 -0.3983177034 0.008979839359 0.9172035596
0.008649600744 0.04011585522 -0.07927572441 -0.4019512867 0.01070511646 0.9155984729
0.008555301905 0.04595888424 -0.0793129425 0.4035072492 0.001317994213 -0.9149754984
0.008326675296 0.05778854465 -0.07940325928 -0.3936973787 -0.01244094067 0.9191559155
0.004939904769 0.01883840031 -0.08048898824 -0.2223618522 0.04535268058 0.973908795
0.008286767006 0.05958202744 -0.07941712189 -0.3942749689 -0.002550015573 0.9189889805
0.002134918324 -0.005308988571 -0.07179636819 -0.1075290501 0.6216515304 0.7758781335
0.005721188545 0.002886956811 -0.07625595093 -0.3049714574 0.4165363955 0.8564402147
-0.001018711995 -0.008372543573 -0.06915941429 0.03972811253 0.7000427771 0.712994942
0.002586628556 -0.002928446174 -0.07357100296 -0.1419704225 0.577023058 0.8042939697
0.004772810459 0.004265556812 -0.07714606171 -0.2176980912 0.3804215783 0.8988253244
0.004870272636 0.006895069838 -0.07815566508 -0.2093325335 0.3215307522 0.9234705549
0.005010758741 0.009576318605 -0.07898983765 -0.246749604 0.274715633 0.9293255371
0.007249913057 0.02223787753 -0.07987345123 -0.3610077944 0.02371929 0.9322611049
-0.009818983078 0.02511427956 -0.07864945526 -0.4208548114 -0.002843645769 -0.9071235535
0.007222050428 0.02510563374 -0.07988317871 -0.3588252542 0.01888918273 0.9332136067
0.007190532525 0.02797996585 -0.07989418538 -0.3571702612 0.004052551463 0.9340305034
0.007155332327 0.03086082363 -0.07990559769 -0.3556858515 -0.01464135864 0.9344908805
0.007115448475 0.03375005468 -0.07991678111 -0.3539042545 -0.01152547234 0.9352106405
0.007063206673 0.03722796377 -0.07993190511 -0.3349336845 0.004730135627 0.9422298301
0.006726370653 0.05484422048 -0.08003686269 -0.3289584139 0.005308968792 0.9443294853
0.006657771826 0.05782394791 -0.08005917358 -0.3337241703 -0.01812076293 0.9424965868
0.006614840031 0.05961879349 -0.08007324982 0.331904648 0.0428253496 -0.9423403282
-0.008381049156 -0.01442949867 -0.05795295334 -0.2911893205 -0.8387465041 -0.4601228983
-0.003936422586 -0.01093498325 -0.06583281708 -0.1817743106 -0.7609166721 -0.6228674964
0.001706947422 -0.001522142708 -0.07459213409 -0.059919174 0.5520238612 0.8316726214
0.001855405104 0.001046129203 -0.07609608765 -0.1120982609 0.4785875572 0.8708547123
-0.004043482343 0.0191136268 -0.08071378326 0.1572446625 0.05660165289 0.9859362905
0.004661162949 0.01360412178 -0.07999537811 -0.2448682009 0.1657273963 0.9552873883
0.004833985289 0.01599013186 -0.08028711065 -0.2110008852 0.1112870247 0.971130179
0.004945818769 0.02227365621 -0.08055658383 -0.2247475878 0.02130024555 0.9741841824
