# .PCD v0.7 - Point Cloud Data file format
VERSION 0.7
FIELDS x y z normal_x normal_y normal_z
SIZE 4 4 4 4 4 4
TYPE F F F F F F
COUNT 1 1 1 1 1 1
WIDTH 560
HEIGHT 1
VIEWPOINT 0 0 0 1 0 0 0
POINTS 560
DATA ascii
-0.01546156502 0.05572753143 -0.07414738083 0.7734307573 -0.007865401814 0.633831996
-0.01788503456 0.01015893459 -0.01910544395 0.8646013255 -0.5024352328 0.004835781386
-0.02005741882 0.01758274555 -0.06504718018 0.9675580958 0.02922204898 0.2509529899
-0.008742616892 0.0159580214 -0.07892000198 0.4273435547 0.1042221686 0.8980619276
-0.01892358685 0.008063622713 -0.02131685638 0.9174048449 -0.3979541917 -0.0009010298845
-0.01945636368 -0.004289705753 -0.05124745941 0.9435290109 0.3004086199 0.1396698488
-0.01748402786 0.001762384057 -0.06520653534 0.8437283172 0.322215364 0.4293015094
-0.0196988945 0.006010197163 -0.02296788025 0.9561744064 -0.2927973193 0.0004840338545
-0.02001376343 0.004663046837 -0.02363862991 0.9755342195 -0.2198412655 -0.001674683139
-0.01707611084 0.04584463882 -0.07202059937 0.8434588766 -0.003214141715 0.5371841331
-0.01107089758 0.04832777786 -0.07793486404 0.5186004998 0.001980230547 0.855014386
-0.02057238579 -5.722045898e-09 -0.02482826519 0.9999894064 0.00270650113 -0.003723165549
-0.02046915245 -0.00199131155 -0.02460845757 0.9974315366 0.07162378264 -0.0006029847015
-0.01955738354 0.0482484684 -0.0669116478 0.9576067668 -0.005775889477 0.2880206924
-0.01552551651 0.04978029442 -0.07408974075 0.7557528029 -0.009584185483 0.6547868693
-0.02032014847 -0.003322761059 -0.02429101181 0.9879596427 0.1546882791 0.002698266315
-0.02004014206 -0.004662100792 -0.02369471169 0.9762370967 0.2166986214 -0.001684815943
-0.01899340439 -0.006822926521 -0.04769719315 0.9265968093 0.3602259216 0.1079612821
-0.01970189095 -0.00601005888 -0.02297424889 0.9554460036 0.2951656778 0.0003961305377
-0.01874272346 0.01990483856 -0.06908686829 0.9043861815 0.007882386951 0.4266421249
0.001605100393 -0.002947936773 -0.07366926956 -0.1061602266 0.5688828993 0.8155380146
-0.01937891388 -0.006980239868 -0.04017690277 0.9440308431 0.3298247653 0.00462508427
-0.01900626469 0.007874884844 -0.02920109272 0.9228946969 -0.3849051292 0.01064987862
-0.01703044319 -0.01158920002 -0.01728578568 0.8248837158 0.5652105799 0.01019096318
-0.01104393101 0.05009474945 -0.07794952393 0.5142474303 -0.001371208144 0.8576407757
-0.01785366249 -0.01016134644 -0.01903874397 0.8662540199 0.4995699882 0.005813767898
-0.01953401089 0.05427493668 -0.06697666931 0.956950771 -0.00345291868 0.2902297352
-0.02047548485 0.003710784078 -0.04786546898 0.9976624114 -0.06221230304 -0.02827264192
-0.01113815022 0.0436355629 -0.07789845276 0.5219343325 -0.003560549801 0.8529782383
-0.01448705769 -0.01459369087 -0.01187164307 0.7325695253 0.6806262606 -0.009475440856
-0.01279287028 -0.005919452906 -0.06534727669 0.6196968628 0.5730094513 0.5363170396
-0.007139833212 0.03201544476 -0.07990989304 0.3457176063 0.00450957523 0.9383277681
-0.02058018494 2.706050873e-08 -0.03974242783 0.9999718442 0.003074206936 -0.006845435145
-0.006347842932 -0.007697468996 -0.0684678688 -0.3085888062 -0.6748712056 -0.6703147056
-0.01272251129 -0.01619412613 -0.00811604023 0.6045860552 0.7965395239 -0.000699079777
-0.01009513378 -0.01794214821 -0.002525381565 -0.552645586 -0.8334163185 0.000310225671
-0.01045740414 0.01773280525 -0.006631259918 0.4942328246 -0.8691104792 -0.01951640368
-0.01294254589 0.01602104568 -0.01185926056 -0.6076351549 0.7942097951 -0.003212452498
-0.01466992664 0.01444140816 -0.01549381638 0.7344073964 -0.6787068722 -0.001660617279
-0.01596754551 0.01293900681 -0.0182245369 0.7692892672 -0.6385750332 0.02039486177
-0.01640306568 -0.006203329086 -0.05922186788 0.8014801709 0.4883563615 0.3451631496
-0.01262076712 0.03784865952 -0.07684204102 0.6025102397 -0.00910519205 0.7980592124
0.008981228828 0.01586056042 -0.07880014038 0.4515497873 -0.1048593593 -0.8860628106
0.003368149996 7.745623589e-08 -0.07529812622 0.1764260458 -0.504438183 -0.8452313115
-0.01724262333 -0.006030814171 -0.05741883087 0.8388531882 0.4572892326 0.2953165868
-0.01777025223 0.01189941692 -0.04534698868 0.8888912945 -0.4107170784 -0.2029377934
-0.01712657833 0.01612525654 -0.07167141724 0.8348120822 0.07905798886 0.5448289841
-0.002301189542 0.05986444092 -0.08102852631 -0.1070753017 0.0146795779 -0.99414254
-0.01658445168 0.01214524174 -0.02109317398 0.8033146644 -0.5955527784 -0.001561421232
-0.02008901215 -0.004495450974 -0.03586973953 0.9737426465 0.2276351569 -0.00273745571
-0.01794620895 0.01006190014 -0.02238881683 0.868635067 -0.4953502898 -0.01006035651
-0.008401450515 0.05421723175 -0.07937467384 0.4027242012 0.008335826275 0.9152834161
-0.02019890785 0.01179601669 -0.06283562088 0.975933324 0.07489625465 0.2048040483
-0.02047415543 0.05013434982 -0.05860779953 0.9995589939 0.0006610704889 -0.02968805601
-0.01868050194 0.008671005249 -0.02393435478 0.9091032005 -0.4165594136 -0.003102547343
-0.01923506546 0.007305429459 -0.02510177231 0.9355496351 -0.3531830853 0.002930602882
-0.01035951853 0.0005797689855 -0.0727070694 0.4946736844 0.4506998427 0.7430798057
-0.02047222519 -0.001973167777 -0.02770624161 0.9975959841 0.0691900686 0.003871285979
0.005492958546 0.04390485001 -0.08043022156 -0.2741703668 -0.002849702061 0.9616769152
-0.01971149635 0.005954991341 -0.02610466003 0.9543585552 -0.298643696 -0.003419202866
-0.02018044376 0.00395619607 -0.02709193897 0.980649888 -0.1957574299 -0.002196754309
-0.01558170366 0.04388080025 -0.07403818893 0.7799219364 -0.003182304147 0.6258687131
-0.01020969582 0.01788653946 -0.03079540634 -0.5445586094 0.8387034117 0.005701584318
-0.02034378815 -0.001857033014 -0.04760865402 0.9914789812 0.1223133256 0.04482053329
-0.02049203873 0.001972865939 -0.02774789619 0.9976159844 -0.06888598977 0.004131360841
-0.01427728128 0.04966221714 -0.07540919304 0.702959219 -0.009292484456 0.7111694497
-0.004507352054 0.00803608346 -0.07866260719 0.1955503643 0.3034191165 0.9325754097
-0.02019024754 -0.003955816507 -0.02711254597 0.9821543341 0.1880653632 -0.002069563435
-0.01912486649 -0.00426476717 -0.05323882294 0.9225824876 0.3383011432 0.1854558978
-0.01935340881 -0.007042813778 -0.03727502441 0.9403153133 0.3401952656 -0.008619332281
-0.01442670155 0.03386336899 -0.07527851868 0.7038904873 -0.0005165787741 0.7103083239
-0.0100355463 0.05008134842 -0.07853171539 -0.4756198098 0.001108371947 -0.8796502532
-0.0197171669 -0.005954731941 -0.02611658287 0.9534473651 0.3015383431 -0.003570664958
-0.01923410416 -0.007305483341 -0.02509975243 0.9326615988 0.360732578 0.003788042926
-0.0129469223 -0.01602053452 -0.01186846161 -0.61277335 -0.7902549299 -0.002442825592
-0.006349555969 0.01954079437 -0.001363461256 0 0 1
-0.01074510098 0.01753665733 -0.0105042181 0.515732771 -0.8567246062 0.006531307561
-0.01121251106 0.03780815315 -0.07785852814 0.5257571635 -0.003541552007 0.8506273346
0.004632762432 0.002934082508 -0.07660303497 -0.2246301854 0.4157757486 0.881289854
-0.01313708019 0.01585406399 -0.01547942829 0.6570445589 -0.7538505804 -0.001322870718
-0.01439328146 0.0379327631 -0.07530725479 0.7019098515 -0.0005406942836 0.7122655881
-0.01481591129 0.01429579353 -0.01897180939 0.745163493 -0.6668730961 0.003412094125
-0.01956756401 -0.0006021311879 -0.056643116 0.9472504587 0.2566462598 0.1919616257
-0.02049775696 0.001955014825 -0.03079437256 0.9975526061 -0.06991079168 -0.001131083435
-0.0004074016735 0.02760274935 -0.0811768074 0.02095331721 -0.01069163575 0.9997232854
-0.02044005203 0.03182997894 -0.05838153076 0.9987754489 -0.0006067720779 -0.04946953024
-0.008683384657 0.03779015636 -0.07926185799 0.4247553565 -0.007955271438 0.9052732189
-0.01716567802 0.01136875343 -0.02386054802 0.8230085867 -0.5680083421 -0.004836266975
-0.0205584259 0.04785479736 -0.0612899704 0.9997675126 -0.009784751571 0.0192140388
-0.01532750034 -0.01374617195 -0.03211920166 0.7366269394 0.6762662181 0.006689877052
-0.01382369995 -0.01522555828 -0.02912825775 0.6707189513 0.7417034206 0.003481973345
-0.01800621605 0.00996671772 -0.02560951233 0.8666960228 -0.4988347912 -0.00136204141
-0.01928403473 0.007172325134 -0.03127716827 0.940427951 -0.3399330666 -0.006385857053
-0.01871683884 0.008590517998 -0.02708819008 0.9021141534 -0.4311126797 0.01821843971
-0.01972386551 0.005900799274 -0.029183815 0.9575269047 -0.2882650819 -0.006743099481
-0.02004319763 0.004578017235 -0.02984844398 0.9708928349 -0.239237696 -0.01150773723
-0.01954855347 0.03971862411 -0.05418047714 0.9556807502 -0.001425750154 -0.2944015472
-0.0144001948 -0.006147888025 -0.06298178228 0.6949172169 0.5473467925 0.4663706148
-0.01314516401 -0.00899580574 -0.06119901276 -0.6249011078 -0.6289199174 -0.4625563132
0.003459267735 0.03366231537 -0.08089118195 -0.1859082914 -0.008645672209 0.9825290629
-0.01738171387 -0.01105157948 -0.03330944061 0.841837947 0.5394436684 -0.01758975713
-0.009812137604 0.01809088516 -0.02712010193 0.4588975286 -0.8884845249 -0.002882226092
-0.02033732033 0.003262481451 -0.03046046066 0.9874942489 -0.1576389399 0.002252351367
-0.002364427567 -0.01533582878 -0.05976408195 -0.1057337379 -0.8732515811 -0.4756595976
-0.01828239155 -0.002393447638 -0.05931451607 0.8923116768 0.346460313 0.2893874963
0.006778576136 0.002362341523 -0.07560041428 -0.3250101981 0.4288163031 0.8429026927
-0.02057566452 8.49366188e-09 -0.0309565258 0.9999885272 0.003227595541 -0.003539516485
-0.01830793953 -0.004221026897 -0.05684925461 0.895696951 0.364379537 0.2548617763
-0.02047524261 -0.001955354691 -0.03074757004 0.9975295542 0.07024698028 -0.0003877453992
-0.01906562138 -0.006171936274 -0.04917356682 0.9280544696 0.35482747 0.1131917313
-0.01225987403 0.0001930554708 -0.07097286987 0.6042555435 0.4394300549 0.6646626701
-0.002359114707 0.05805857372 -0.08102532387 -0.1029997219 0.009729052837 -0.9946338034
-0.02033200455 -0.003262615204 -0.03044940948 0.9883451157 0.1522018233 0.00292184525
-0.01927868843 0.005889066458 -0.06359505081 0.9275084231 0.1989024355 0.3164900411
-0.01865039825 0.009902738571 -0.06729128265 0.9085982044 0.1573612135 0.3868937212
-0.02006832314 -0.004577132225 -0.02990067291 0.9716143562 0.2361986847 -0.01325610259
-0.01742233086 0.01095213318 -0.03628556442 0.8678044616 -0.4968990988 -0.002588816722
-0.0008421265483 -0.006117940108 -0.07126556651 0.05754015611 0.6506994064 0.7571521729
-0.007971196651 0.01897788429 -0.01122450447 0 0 1
-0.01973216248 -0.005900423527 -0.02920106506 0.9568918716 0.290328778 -0.008194315547
-0.01901911736 0.01054513931 -0.04775048447 0.9332833423 -0.2811688624 -0.2234418803
-0.02038027859 0.0120747118 -0.05561774063 0.9934661505 -0.04855977369 -0.1032809579
-0.01955332756 0.04219502258 -0.05420796585 0.9557263664 -0.001423666583 -0.294253438
-0.01900168991 -0.007875203848 -0.02919174004 0.9290557832 0.3698742079 0.006958593389
-0.01870552254 -0.008591259003 -0.02706466103 0.9015339509 0.4323199036 0.01833129203
-0.02008795929 0.02581966972 -0.06515932846 0.9676780023 -0.006884906366 0.252094986
-0.01717500114 -0.01136795521 -0.02387992477 0.8256448071 0.5641530005 -0.006484174902
-0.02037401676 0.04390458488 -0.06341004944 0.9863833378 -0.002535286716 0.1644429483
-0.01312956142 -0.01585493469 -0.01546379852 -0.6604809761 -0.7508426005 -0.0005191337895
-0.01214609432 0.01661138916 -0.0287517662 0.5783983017 -0.8157192838 -0.007579889583
-0.006348095894 -0.01954099464 -0.001360425949 0 0 1
-0.02044816303 0.02397870731 -0.05834896088 0.9987322636 -0.001223617019 -0.05032264244
-0.006017106771 0.03203417206 -0.08030073166 0.2837281982 0.0009078146611 0.9589043151
-0.01215026379 -0.01661088753 -0.02875997162 -0.5837703407 -0.8119062263 0.004524275769
-0.01102646542 0.01734482765 -0.01429193401 0.5308229418 -0.8474620004 0.005929779963
-0.01648901987 0.005803654432 -0.06936383629 0.803904897 0.2683331534 0.530786431
-0.01332757568 0.0156905489 -0.01902444458 0.6643262456 -0.7474348897 0.003424179484
-0.01947921371 0.02191418743 -0.05394939804 0.8849123147 -0.001950901444 -0.4657535713
-0.01800346947 -0.00937577343 -0.04579304886 0.8738438477 0.4757143577 0.1004628278
0.009157851219 0.006509002209 -0.07639514923 -0.4415807644 0.3274098268 0.8353497674
-0.01495896244 0.01415310478 -0.02237991524 0.7522097339 -0.6589034624 0.005171401741
-0.01373448563 0.005765687704 -0.07268710327 0.6787822751 0.3078846521 0.6666795812
-0.01617177773 0.01268851948 -0.02487470055 0.7810066684 -0.6242856086 0.01720647624
-0.0159542985 -0.005370090246 -0.06128382111 0.777403265 0.4899995967 0.3943913777
-0.01675157261 0.01191424513 -0.02757982826 0.8266083551 -0.5627710556 -0.002714077162
-0.02019989586 0.003884954572 -0.03316145325 0.9811978622 -0.1930021672 0.0009585017605
-0.0005949232578 -0.002936288834 -0.07376306915 -0.03721920847 -0.5861122615 -0.8093745409
-0.01583553028 -0.002361073911 -0.06469092178 0.7681181624 0.434288366 0.4705189727
-0.02050045395 0.001937529802 -0.03377981949 0.997738949 -0.06706555305 0.004381915064
-0.02054375267 0.0595225296 -0.06141853714 0.9991548729 -0.02374002959 0.03355519302
-0.007634358883 -0.01832354355 -0.04781330872 0.4052532022 0.8956530569 0.1832360329
-0.006672648311 0.0182434926 -0.07997577477 0.3194146287 0.06787982679 0.9451807362
-0.02056334877 0.003676607847 -0.05071885681 0.9999943219 -0.0008569266141 -0.003259123088
-0.02057725906 1.522898674e-08 -0.03393785667 0.9999706084 0.001705214689 -0.007474936721
-0.02047820473 -0.001937862754 -0.03373408508 0.9976710507 0.06809295245 0.003977985453
-0.01106522846 -0.01733571625 -0.04081033325 -0.5282882297 -0.8486253423 -0.02732352114
-0.02020941067 -0.003884599924 -0.03318101311 0.9843187164 0.1763330622 -0.004828636016
-0.002314000845 -0.01400712538 -0.06200854111 -0.09602162774 -0.8392484387 -0.5352026768
-0.01204582882 0.01370468378 -0.07660751343 0.5821152879 0.1579496478 0.7976175151
-0.02055073166 0.0539738369 -0.06135334206 0.9996838131 0.0004231217414 0.0251414964
-0.01882491684 0.02788974905 -0.06891498375 0.9155017036 -0.003962236093 0.4022945828
-0.0197468853 -0.005847103596 -0.03222939301 0.9565365659 0.2916094746 -0.001308561307
-0.01802612114 -0.00987624836 -0.0286893158 0.8794558408 0.4758570112 0.01084108271
-0.006328605175 0.01958201408 -0.0262570076 0 0 1
-0.01266141733 0.008226253351 -0.0746413091 0.6107823859 0.2535350862 0.7501098834
-0.01677611351 -0.01191200113 -0.02762987709 0.8293184846 0.5587698629 0.002662955932
-0.01620384407 -0.01268547916 -0.02494062233 0.7803918543 0.6250364289 0.01783301044
-0.01957818413 0.04226631165 -0.06685489273 0.9576822961 -0.002967240382 0.2878121179
-0.01351115227 0.01553073025 -0.0224906292 -0.6476749328 0.7619119667 -0.002708571869
-0.01210089159 0.004038226604 -0.07333451462 0.5972243556 0.3691143746 0.7120938474
-0.01509917259 0.01401325035 -0.02572034645 0.7509834536 -0.6603002003 -0.005243845562
-0.008594563007 0.04361653709 -0.07929737473 0.4208607259 -0.008123431252 0.9070888927
-0.0172964077 0.01115654373 -0.03018936729 0.8373395003 -0.5464820418 -0.01483034738
-0.01852605375 0.002165904562 -0.06304214223 0.9051319983 0.2747024608 0.3244605117
-0.01787068939 0.03359216881 -0.07084243011 0.8554764823 -0.005989227149 0.5178070272
0.005429439068 0.04211230278 -0.08044612503 -0.2705705008 0.004035096958 0.9626917067
-0.01930760765 0.007107599258 -0.03428026581 0.9413958096 -0.3372992287 -0.001777618351
-0.02007157135 0.004496054649 -0.03583427811 0.9726308315 -0.2323538822 -0.0009690518972
-0.02034714699 0.00320453167 -0.03639481735 0.9878856551 -0.1551651172 0.002391427482
-0.01030491781 0.029701437 -0.07839295959 0.4939466879 -0.005706165748 0.8694734666
-0.02032951355 0.05974012566 -0.06355973816 0.9840771733 -0.009961720012 0.1774623374
-0.02050243187 0.001920366406 -0.03671070099 0.9976871186 -0.06797092471 -0.0006056426965
-0.00237201786 0.01603210974 -0.08075053024 0.1285341279 0.1126963032 0.9852809352
-0.02048111534 -0.001920682549 -0.03666736221 0.9976099877 0.0690961109 -0.0001999959883
-0.01167178345 -0.007727635384 -0.06461704254 -0.5808058109 -0.6157615994 -0.5324493053
-0.02034343338 -0.003204623222 -0.03638726807 0.9886697503 0.1500688201 0.003387342218
-0.019761343 -0.005794744015 -0.03520320129 0.9583420696 0.2854835136 -0.008924189788
0.001536768556 -0.01681345177 -0.05701261902 0.056137316 -0.90830494 -0.414524713
-0.01877110672 -0.008435027122 -0.03318896103 0.9134292996 0.4069926228 0.001979817603
-0.01263270728 0.04975898997 -0.0768191452 0.6152947137 -0.01227695639 0.7882015552
-0.01675415325 -0.009846956253 -0.05140426064 0.8064487308 0.5547400656 0.2047044314
-0.02045041656 0.001824336886 -0.05314051819 0.9905861612 0.1187211618 0.0681494169
-0.01961179924 0.03159123993 -0.0667776413 0.9592448977 -0.006922875733 0.2824912387
-0.01450219297 0.02174199247 -0.0752092247 0.7093148627 0.001997027011 0.7048889539
-0.01816974449 0.009692458153 -0.03489435959 0.8766095958 -0.4811324901 0.008194114015
-0.0168599062 -0.01179957771 -0.03078591156 0.8183987086 0.5745743121 -0.009376231341
-0.01414771589 -0.00215214626 -0.0672682368 0.6819940755 0.472301492 0.5584043173
-0.01419777775 -0.005333936691 -0.0642204361 0.6894527814 0.5321912298 0.4913525792
-0.01923652267 0.01289835835 -0.0508396492 0.9425844294 -0.2447081364 -0.2272719108
-0.01348367882 -0.01553385639 -0.02243477058 0.6517427741 0.7584345143 0.00290584412
-0.004333829641 0.02400879955 -0.08070804596 0.2067520494 -1.214980697e-05 0.9783933718
-0.01135664368 -0.01715036964 -0.0181090126 0.5478894074 0.8365449361 0.003125231625
-0.005293832302 -0.01989043999 -0.0213313427 0 0 1
-0.008465723991 0.01874575424 -0.01537807369 0 0 1
-0.02033511734 0.05789548874 -0.06353951645 0.9855954303 0.01089860708 0.1687686823
-0.006215371132 0.0005795947313 -0.07486843491 0.3038120094 0.4766757741 0.8249111888
-0.01158727646 0.01697154236 -0.02165581703 0.5485300889 -0.8361135861 -0.005367754578
-0.01368653011 0.01537464905 -0.02587770081 0.6822714718 -0.7310989058 -0.0001694969371
-0.02054803848 0.001870080352 -0.04527779388 0.9994787778 -0.02768045588 -0.01661219902
-0.0006714441646 0.008074240327 -0.07918292427 0.03786778923 0.3117260732 0.9494171295
-0.015221488 0.0138776989 -0.02896476746 0.7584269432 -0.6517499194 -0.003257984822
-0.01755610085 -0.006671602726 -0.0554643631 0.8635767696 0.4336536843 0.2572540478
-0.01636928749 0.01244749165 -0.03127323532 0.7973856808 -0.6034699826 0.0002369631856
-0.01735995102 0.01105339241 -0.03326567459 0.8380686847 -0.5455407648 -0.005114067603
-0.01907632542 0.007700931311 -0.03671773911 0.9256849248 -0.3782946088 0.0007803202715
-0.02055757141 -1.107752323e-07 -0.04529647064 0.9995382927 0.03026824367 0.00265231275
-0.02021865463 0.00381624651 -0.03901528168 0.9881524227 -0.1534448114 0.003078873686
-0.01273079133 0.01826061916 -0.07667287064 0.6119047946 0.05111441101 0.7892780495
-0.01978365135 0.01161972237 -0.0518799057 0.9728982348 -0.1521955089 -0.174084898
-0.01259380674 -0.004116765261 -0.06733871078 0.6047976074 0.5403372706 0.5850260576
-0.01775973511 0.01073753262 -0.04258309174 0.8586144454 -0.4971087209 -0.1251565173
-0.0202229147 -0.003816085935 -0.03902384758 0.9826211297 0.1853832128 0.009422310694
-0.002380555868 0.02983545494 -0.08104011154 0.1398816819 -0.006345004859 0.990147896
-0.01052454329 -0.008328255177 -0.06502163696 -0.5169250216 -0.6430639136 -0.5650286056
-0.01813693428 -0.009694870949 -0.0348283844 0.8779493877 0.4785360011 0.01442803865
-0.02055304527 0.05213299942 -0.06133328247 0.9996670096 0.01154161365 0.02307945015
-0.01997290611 0.00180080092 -0.05739970779 0.9674695002 0.1783660216 0.1794110601
-0.01521457195 -0.01387841129 -0.02895086098 0.7464265909 0.6654667831 -0.001142378138
-0.01770063496 0.01386602259 -0.070338974 0.8524458316 0.1070008758 0.5117488806
-0.0007940746248 -0.0001950702866 -0.07548482005 0.05147672308 0.5014314001 0.8636646907
-0.01365539455 -0.01537816143 -0.02581509018 -0.6825300807 -0.7308553124 -0.001789241065
-0.01163691902 -0.0169654541 -0.02175564575 -0.5493866349 -0.8355423139 0.006585361731
-0.01186967945 0.01678953552 -0.02524180794 0.5639090843 -0.8258146569 -0.006057808513
-0.0144760294 0.01830279112 -0.07512591362 0.7041442701 0.05582298996 0.7078591955
-0.01534127235 0.01374476624 -0.032146595 0.7457026044 -0.6662785312 0.0007379323287
-0.02044143677 -0.001871620297 -0.04506803513 0.9954953278 0.09241913625 0.02116023694
-0.01902247238 0.008195982933 -0.06555953598 0.9252107423 0.1680901172 0.340192291
-0.01646525192 0.01233038521 -0.03438205719 0.8112394158 -0.5847058104 -0.003118589919
-0.02039297104 0.03609510422 -0.06335608673 0.9887760348 -0.002580115159 0.149383051
-0.01630604744 -0.009798974037 -0.05316259193 0.7839036986 0.575723589 0.2324593305
-0.01821503258 0.009604897499 -0.03786213684 0.875431826 -0.4832993435 0.006392386313
-0.0067397964 0.05424941635 -0.08003251266 0.354825592 0.003900243722 0.9349243752
-0.01910547924 0.007632274628 -0.03963308334 0.9165914843 -0.3992043494 -0.0222696733
-0.01979422951 0.005692587852 -0.04100288773 0.9599909222 -0.2788520614 -0.02567015976
-0.01984412479 0.00357539165 -0.05968506432 0.9566074899 0.1840639647 0.2258817546
-0.01608400345 -0.00912526989 -0.05530809784 0.7796499492 0.5562773289 0.2875786677
-0.02023566055 0.003782504082 -0.04188080788 0.9872006907 -0.1592231505 -0.009098601129
-0.002933757782 0.006336761475 -0.07837216568 0.1522211434 0.3587349494 0.9209440589
-0.01079368353 0.002311368644 -0.07341548538 0.5269307053 0.4006002885 0.749575507
-0.005983275414 0.034348629 -0.08031055832 0.2890074534 0.008233126859 0.9572914434
-0.02056942272 1.686811447e-08 -0.04254458809 0.9999468796 0.008811302066 -0.005347796593
-0.02020637989 -0.003783352613 -0.04182256317 0.9819623163 0.1884240366 0.01569687442
-0.01974813271 0.01760478783 -0.05444084167 0.8844692974 -0.002024931383 -0.4665940008
0.001451819062 -0.004137697697 -0.07282919312 -0.07861815373 0.6019866947 0.7946264565
-0.01883434105 -0.008284394264 -0.03909383392 0.9167393611 0.3993995024 0.008305501737
-0.008456396262 -0.005689531326 -0.06924245199 0.4202158214 0.610200978 0.6716200041
-0.01819082642 -0.009606661797 -0.03781398773 0.8836614815 0.4680645891 0.007610946988
-0.01984352589 -0.003697675109 -0.04933255386 0.9623215051 0.255400943 0.09331494596
-0.01725475883 0.004087066174 -0.06718232727 0.8281183384 0.297386289 0.4751646165
-0.01398870087 -0.01507595253 -0.03237637711 0.6773983994 0.7356103216 0.002977104815
-0.01585976028 0.0005853439569 -0.06709993744 0.7736708786 0.3737383276 0.5116180549
-0.01744402885 -0.01095034122 -0.03632872772 0.8702249177 0.4925824982 -0.008430606767
-0.002947853208 0.03387042046 -0.08095701599 0.1609010625 0.001874569027 0.9869687604
-0.01191120911 -0.01678448868 -0.02532441521 -0.567457017 -0.8233793213 0.006247166611
-0.02049132156 0.007774172783 -0.05837321472 0.9950623644 0.05892704787 0.07986547414
-0.008941821098 -0.01852008629 -0.01941831589 0.5013992639 0.8652081475 -0.003693186486
-0.01967686081 -0.001819940805 -0.05427823639 0.9565473171 0.2394145761 0.1664268334
-0.01999866295 0.06000935745 -0.06546006775 0.9738424456 0.006808813155 0.2271222826
-0.008461748123 -0.0185118103 -0.04407713699 0.4453275398 0.8888179129 0.1081022664
-0.00940542984 0.01829993629 -0.02336021233 -0.5197086282 0.8543018653 0.008441838309
-0.01704674339 0.04999518013 -0.07206367493 0.8358617192 0.008163703309 0.5488793496
-0.01402691555 0.01507171631 -0.03245157242 -0.7036253295 0.71054943 -0.005559069026
-0.01611657874 0.04178382492 -0.07337145996 0.7875363695 -0.004361110042 0.6162527464
-0.01482145739 0.01426995134 -0.03544750977 0.7225334664 -0.6912646528 0.009928231602
-0.01655942726 0.01221545887 -0.0374329834 0.8077845551 -0.5893655346 -0.01150561776
-0.01748357773 0.01085271072 -0.03925067902 0.860859313 -0.5087501206 -0.009724094645
0.002683464766 -0.01833403778 -0.05278701782 -0.06457197852 0.9243149786 0.3761280101
-0.02058572674 0.02614448357 -0.06113901138 0.9999597573 0.008119423341 0.003815595149
-0.01898161125 0.008203782082 -0.04219713211 0.9260885621 -0.3697548915 -0.07510855723
-0.01951242065 0.006913021564 -0.04324111938 0.9542800931 -0.2894504211 -0.07461874845
-0.01895730146 -0.00220596234 -0.05720192591 0.9198016887 0.3106627921 0.239694562
-0.002774181604 -0.01815274811 -0.05325754738 -0.1276590285 -0.9327774026 -0.3370897353
-0.02034665585 0.003746573329 -0.04488180733 0.9900164988 -0.1355583766 -0.03861681931
-0.02014527988 -0.003752497435 -0.04448556137 0.9798094029 0.1969505986 0.03440923956
-0.01970473862 -0.005647420883 -0.04361914825 0.9545340747 0.294668473 0.04511309409
-0.006559251308 0.004032988548 -0.07648879242 0.3219306427 0.3991583865 0.8585064029
-0.01933448029 -0.006922448635 -0.04289099121 0.942375799 0.3327848937 0.03438121465
-0.02049880791 0.0600464325 -0.05877134705 0.9998304951 0.0004406425298 -0.01840616461
-0.01750402832 -0.01085103607 -0.03929092026 0.8527241905 0.5217622706 0.02501175388
-0.01479439926 -0.01427283812 -0.03539462852 0.7189036744 0.6950477121 0.009283575398
-0.01241304684 0.01643741226 -0.03218106461 0.6214605048 -0.7834442275 0.001408297128
-0.02038023281 0.006137203932 -0.05036761284 0.9916491334 -0.1093943037 -0.06829994522
-0.01494441605 0.0141355176 -0.03851349068 0.7261908006 -0.6874593701 -0.006821699566
-0.01022068262 0.004032463312 -0.07469652557 0.5079801089 0.3722859969 0.7767620907
-0.01666565323 0.01210139847 -0.04045456314 0.8188852119 -0.5727483533 -0.03723349942
-0.01953393555 0.008229956627 -0.0640619297 0.9491795033 0.1484614536 0.2775202106
-0.0187135849 0.009405030251 -0.044438797 0.925079475 -0.3510935679 -0.1447800795
-0.01949155807 0.02007986832 -0.05396557999 0.8840086433 -0.001869222583 -0.4674668165
-0.02006087971 0.006205347538 -0.04705942345 0.9776397256 -0.18685097 -0.09647425501
0.005118139267 0.03203256607 -0.08052565002 -0.2218355448 0.008772046574 0.975044636
-0.004425537586 -0.01815750694 -0.05234790039 -0.215872244 -0.9201330864 -0.326732731
-0.01940568733 0.008107358932 -0.04578512955 0.9518020541 -0.2763982363 -0.1329543713
-0.0205172739 -2.098083496e-07 -0.04794623566 0.9977129429 0.06453660834 0.02009750791
-0.0200222044 -0.003724037528 -0.04698310661 0.9701297671 0.2307118221 0.07496859471
-0.01620192766 0.004071285486 -0.06886396027 0.7821776548 0.3064927165 0.5424576768
0.007795647621 0.05203219986 -0.0796215477 -0.3966227499 0.006848939458 0.9179561462
-0.01950716209 0.02802952671 -0.05403009224 0.9450011202 3.714524362e-06 -0.3270670923
-0.01939044189 -0.006237436771 -0.04575434685 0.9390244251 0.3343737089 0.08017076698
-0.0069859972 0.04188562393 -0.07995500183 -0.3679565666 0.001934770805 -0.9298409659
-0.01873947525 -0.00814871788 -0.04448827744 0.9027522135 0.424268086 0.07095796069
-0.01816804314 -0.009444111824 -0.04337684631 0.8742739768 0.4814354179 0.06216873763
-0.01751341629 -0.01075753307 -0.04210361099 0.8497298566 0.5252072505 0.04600559579
-0.00872890687 0.03431296253 -0.07924061012 0.4264849424 0.005902260466 0.9044754044
-0.01664388466 -0.01210337448 -0.04041218948 0.8043269452 0.5941524294 0.006407482734
-0.01634413147 0.04632544708 -0.07309421921 0.7870958314 0.007859511214 0.6167806582
-0.01963529873 0.02218134499 -0.06673114777 0.958679532 0.006580784092 0.2844121097
-0.007233651161 0.02395775986 -0.0798791275 0.3448128356 -0.0007028322837 0.9386711961
-0.01628320312 0.05403800964 -0.07318358612 0.782457228 0.001795302884 0.6227017451
0.01188198948 0.006575575829 -0.07465625763 0.5735169967 -0.3077464764 -0.7591905958
-0.000401322782 -0.001757744253 -0.07454045868 0.00812763998 0.5491505262 0.8356839361
-0.01492811298 -0.0141372304 -0.03848193932 0.7287019124 0.6848232783 0.003255826612
-0.01238363457 -0.0164409256 -0.03212381363 -0.6246400438 -0.780911402 -0.001482520962
-0.00985187149 -0.01808575821 -0.02719744492 0.533593536 0.8457039984 -0.007917415165
-0.01262707615 0.01627264214 -0.03544828415 0.6238025219 -0.7815649544 -0.005160987598
0.007093900681 -0.009133773804 -0.06660661316 0.3428886445 -0.7121572614 -0.6125842085
-0.01053450012 -0.01769484138 -0.03426728439 -0.5037756942 -0.8638304518 -0.002645853533
-0.01580634403 0.01334894466 -0.04156666183 0.8009234824 -0.5960200148 -0.05728627556
-0.01965472031 0.009258483887 -0.04897312927 0.9676223478 -0.1926848979 -0.1630322732
0.003535656691 -0.01690970612 -0.05618726349 0.1683885828 -0.9063995432 -0.3874082513
-0.00514922905 -0.004102436066 -0.07210996246 0.2714037434 0.5763895136 0.770788646
-0.02055720043 0.003645665526 -0.05334477997 0.9984415572 0.05056464682 0.02361510652
-0.00915312767 -0.01403589725 -0.05794844437 -0.4433865904 -0.7933231853 -0.4171889921
-0.02002852631 0.008000329018 -0.04969178009 0.9676285549 -0.206997494 -0.144384962
-0.0205561924 0.001838288307 -0.05070445251 0.9983052092 0.05566135914 0.01698594739
-0.02042113304 -2.562999725e-07 -0.05044416428 0.9915587049 0.1167022279 0.056497121
-0.02018263626 -0.00184359324 -0.0499850235 0.982857562 0.1668899407 0.07835024256
-0.01659147644 -0.01200549603 -0.04307685852 0.8022650698 0.5951958198 0.0459640505
-0.01561171913 -0.01336830425 -0.04119184494 0.757522025 0.6523404031 0.02474631688
-0.01261229897 -0.01627439308 -0.03541982651 -0.6217852965 -0.7831864171 0.001442605943
-0.01021703148 -0.01788560104 -0.03080953217 -0.4825359378 -0.8758755546 -0.001039990148
-0.01050819302 0.01769817924 -0.03421715927 -0.5530844614 0.8331237787 -0.001532272624
0.001205764413 -0.01541762066 -0.05987421036 0.02549417771 -0.8772716419 -0.4793167149
-0.01617704582 -0.01184198952 -0.04769166183 0.7845689651 0.6038335669 0.1408423317
-0.02055508995 0.006077122927 -0.05334255219 0.9992636463 -0.0333565753 -0.01896059204
-0.006379061818 0.005747624516 -0.07728571129 0.2933253691 0.356589492 0.8870198205
-0.0128368845 0.01611112213 -0.03865107346 -0.6836041483 0.7298093887 0.007976498021
-0.01804778481 0.01425707626 -0.04857711029 0.9064466313 -0.3027646344 -0.2944283965
-0.01720580006 0.02420496368 -0.07188516998 0.8481223765 -0.001288725691 0.5297988049
-0.02044267654 0.007907825947 -0.05313025284 0.9929582527 -0.09121980514 -0.07558343407
-0.01998536873 -0.001830885768 -0.05225435638 0.9656875667 0.2200450056 0.137940998
-0.0117540226 -0.005305128574 -0.0670824585 0.5717613237 0.563150271 0.5966160918
-0.01875986195 -0.006134704351 -0.05124070168 0.9190610209 0.3627243184 0.1541360073
-0.018289711 -0.008039237022 -0.04902780533 0.8861657187 0.4424275698 0.1377249597
-0.01775947952 -0.009314167023 -0.04801906204 0.8601788494 0.491827056 0.134901794
-0.01643121147 -0.01191887474 -0.04549201202 0.8044235423 0.5860444124 0.09723534028
-0.01948683929 0.02374680519 -0.05397142029 0.8884383436 -0.001900193823 -0.4589920467
0.003314636469 0.02780125141 -0.08092638397 -0.1602838616 -0.008037403586 0.9870382383
-0.006619336843 -0.01204878807 -0.06319862556 -0.3189075503 -0.7712041984 -0.5509465116
-0.01490503359 -0.01390288496 -0.04394903564 0.7178525477 0.6918271247 0.07786494288
-0.01283640766 -0.01611117744 -0.03865016174 -0.6330170604 -0.7740882078 -0.008766292532
-0.01549170303 0.0137731967 -0.07342349625 0.7468625125 0.1300183692 0.6521438577
-0.01770733833 0.05971524811 -0.07109475708 0.8466864035 -0.02669383268 0.5314222177
-0.01960999107 0.05970665741 -0.05447660828 0.9554394572 -0.001438173923 -0.2951836296
0.01297429514 0.05178363419 -0.07654325104 0.5643550691 0.008822228528 -0.8254850237
-0.01959438324 0.05592511749 -0.05440766525 0.9556246763 -0.001426541469 -0.2945835078
-0.02047386169 0.01186770344 -0.06086397934 0.9935308736 0.03694676521 0.1073840758
-0.01956202888 0.04592032623 -0.05425424957 0.9553988973 -0.001437508052 -0.295314884
-0.0205736599 0.03574094009 -0.06119139671 0.9999153754 -0.01068515237 0.007420882123
-0.02045747566 0.04216357422 -0.05849713326 0.9992293503 0.0005106342862 -0.03924849983
-0.01955747223 0.04405620193 -0.05423043251 0.955495345 -0.00143323744 -0.2950026975
-0.01267613745 0.03205251884 -0.07680410957 0.6049445912 0.00517347597 0.7962507625
-0.01955083847 0.04095613861 -0.0541938858 0.9556387042 -0.001427202972 -0.2945379943
-0.01954553604 0.03786499405 -0.05416170502 0.9810188618 -0.000346693885 -0.1939120226
-0.01951685905 0.02986783791 -0.0540580864 0.944934797 4.945599594e-07 -0.3272586583
-0.01949515533 0.02558116817 -0.05399542618 0.9448109951 -4.958002169e-06 -0.3276159085
-0.01956719208 0.01884840202 -0.05410380554 0.884058493 -0.001840059757 -0.4673726512
-0.02054468441 0.009645323753 -0.05592285538 0.9987695293 -0.0220267694 -0.04443251891
-0.01035790968 0.02395349407 -0.07836888123 0.5063066065 -0.0006964423832 0.8623532543
-0.02057410812 0.007833966255 -0.05597536469 0.9999825102 0.005047544129 -0.003082473129
-0.0142056253 0.05559579563 -0.07546827316 0.6968913881 -0.006908701624 0.7171434047
-0.02055544281 0.006026273966 -0.05593788147 0.9988512107 0.028578903 0.03846433625
0.01120218277 0.002996346474 -0.07350631714 -0.5555911565 0.3880872689 0.7353276403
-0.02042333794 0.003618999839 -0.05568664551 0.992192668 0.09656993005 0.07891741367
-0.007362008095 -0.01399633789 -0.0597246933 -0.373429657 -0.8105065281 -0.4512532096
-0.01943772888 -0.003038872242 -0.05382789993 0.9409026946 0.2889088139 0.1767309157
-0.0160486002 0.03223519516 -0.07345447159 0.7901005105 0.0088298339 0.6129137112
-0.006372477889 -0.00233375442 -0.07293828201 0.2955458237 0.5461915658 0.7837904309
-0.01794836998 -0.007992898464 -0.05102469635 0.8719876707 0.4565595665 0.1766093553
-0.01399268913 -0.0115998373 -0.05531142807 0.6757945863 0.6681550185 0.3112403386
-0.008649600744 0.04011585522 -0.07927572441 0.4230529285 0.005734790229 0.9060868236
-0.0108335743 -0.01750955391 -0.03763048172 -0.517856276 -0.8554483082 -0.005750607975
-0.01012919855 -0.01545331907 -0.05347567368 0.4974232213 0.8136603342 0.3008770503
-0.01958612823 0.03988446236 -0.06683507156 0.9546639647 -0.007586239673 0.2975889171
-0.0009820837975 0.03396051407 -0.08116168213 -0.06772686063 -0.0164871203 -0.9975676655
-0.02046481133 0.04583419037 -0.05854579926 0.9993771229 0.0007997654014 -0.03528068395
-0.02046105576 0.04399699783 -0.05852088928 0.9993023431 -0.0002670829643 -0.0373464285
-0.01279477755 0.03572458903 -0.07670857239 0.6033484439 -0.008716080114 0.7974300504
-0.0204529314 0.03972377777 -0.05846698952 0.9991184452 0.0005829514385 -0.04197609661
-0.006594562769 0.0102961278 -0.07870975494 0.3318604406 0.2392732325 0.9124784754
-0.02044491386 0.02759705067 -0.05836324883 0.9987288969 -0.001626995346 -0.05037800546
-0.02044969749 0.0378973465 -0.05844552231 0.9990386397 -0.0003808467543 -0.04383664442
-0.02044663334 0.03607414246 -0.05842519379 0.9989634505 0.0003275359483 -0.04551831772
-0.01700299263 0.01383063555 -0.07144258499 0.8261903697 0.122147763 0.5499903609
-0.02043881989 0.0300150938 -0.05836705017 0.9987591323 -0.0009040254566 -0.04979335677
-0.01282289314 -0.0158461132 -0.04408502197 0.6360638681 0.7655124557 0.09702286245
-0.01835159969 0.01390682554 -0.06914278412 0.8811112906 0.1018896898 0.4618023221
-0.02045060539 0.02157083321 -0.05834154701 0.9987931922 -0.00456492985 -0.04890113191
-0.02048717976 0.01796028233 -0.05839420319 0.9994520487 -0.01010933078 -0.03151830947
0.001792400062 0.0161419096 -0.08082521057 -0.09291029446 0.1067798079 0.9899321946
-0.02053582191 0.01615401459 -0.05847819519 0.997072701 0.003550297132 -0.07637685693
-0.01094665813 0.05601833344 -0.07800262451 0.5092925622 0.006590975084 0.8605682106
0.005986418724 0.05598781586 -0.08030887604 -0.2743884663 0.01212783574 0.961542451
-0.02054983616 0.01435444927 -0.05849837685 0.9979060512 -0.009085355869 -0.06403881065
-0.02017564774 0.003595852613 -0.05777907372 0.9765673245 0.1393313745 0.164021428
-0.01788436604 0.03008730984 -0.07081667328 0.8560538768 0.0003410060232 0.5168864902
-0.01977227592 0.0006011861563 -0.05702506638 0.9628404324 0.2086607842 0.1714613044
-0.01231342697 -0.01151126862 -0.05853858185 -0.6031056093 -0.6927831952 -0.3953670048
0.009443346024 -0.001802691102 -0.07178495789 -0.4332666931 0.5194483556 0.7365143437
-0.0190510006 -0.003022685051 -0.05568027878 0.9218490377 0.323162118 0.2139172673
-0.01874366379 -0.004241839886 -0.05510781479 0.9152629912 0.3469866966 0.2046799681
-0.01296639347 0.01371561623 -0.07591400909 0.6314477043 0.1475202636 0.7612565721
-0.01816955566 -0.005455406189 -0.05531883049 0.8819271536 0.4052891437 0.2407181043
-0.01431532693 0.04612565136 -0.07537547493 0.7047765374 0.005148388775 0.7094106895
0.01532019854 0.02412747192 -0.07433476257 0.750061138 -6.173084657e-07 -0.6613684974
-0.01452266741 -0.013771276 -0.04725034904 0.7081626732 0.6921293492 0.1395083948
-0.0175607872 -0.007950087547 -0.05290566254 0.8421075715 0.4925407582 0.2196780359
-0.007768119812 -0.0190648365 -0.03466424561 0.4432299667 0.8963949724 -0.004821837481
-0.01579480267 -0.01177759457 -0.04961862946 0.7640519561 0.6208806939 0.1753047985
-0.008191989899 -0.001746701241 -0.07253150177 0.4044169647 0.5183626169 0.7534899575
-0.02056301594 0.04420452118 -0.06125648499 0.9998514561 0.007800478711 0.01536939707
-0.02054608536 0.05766845894 -0.06139596558 0.9994650528 -0.01097667938 0.03080780377
-0.02054841042 0.05581860352 -0.06137417221 0.9996190631 -0.0009178995222 0.02758416642
-0.01698525429 0.05776495743 -0.072153862 0.8393688772 -0.004737149562 0.5435415784
-0.02056072426 0.04602758026 -0.06127275848 0.9998460514 -0.0009880037403 0.01751848692
-0.0172597332 -0.004185952663 -0.05994093323 0.8407919306 0.4248027288 0.3355764757
-0.02056606579 0.04177905273 -0.0612360363 0.9998632188 -0.01025633905 0.01297502313
-0.02057819557 0.03213383102 -0.06116902161 0.9999525112 0.008203107196 0.00526159268
-0.004729789734 -0.01531957769 -0.05891419983 -0.2507631605 -0.8590721908 -0.4462205826
0.01280921745 -0.004295253754 -0.06697411346 -0.5712025265 0.5314670554 0.625516141
-0.01786072159 0.03593476868 -0.07086120224 0.8526409729 -0.004591411744 0.5224770716
-0.02058121109 0.0297349329 -0.06115592957 0.9999272884 -0.01157452729 0.00338351977
-0.004871560693 0.0103079741 -0.07923378944 0.2557930139 0.2442391829 0.9353700634
-0.0205834713 0.02793845367 -0.06114701843 0.9999893875 -0.002453581666 0.003899342491
-0.0149111112 -0.009486593246 -0.05737431971 -0.7222299417 -0.6029553088 -0.3388639947
-0.02059098053 0.02196613503 -0.06112333298 0.9999924849 0.001191830051 0.003689133142
-0.009965511799 0.05422143745 -0.07857001877 0.4884294163 0.006942709331 0.872575787
-0.01921251774 0.01398164463 -0.06711661911 0.9292138903 0.08464997217 0.3597164555
-0.02042176247 0.0100900116 -0.06076280594 0.9871719055 0.06868134326 0.144133626
-0.02007996941 0.0317335844 -0.06519893646 0.9672666924 -0.003472859039 0.2537382215
-0.01250422923 0.03416885122 -0.07693595378 0.6040007875 0.007890585755 0.7969446577
-0.02030187321 0.008315825939 -0.06053735733 0.9835746026 0.08949654079 0.1567525765
-0.002711384058 -0.004111279964 -0.07268146515 0.1209369035 0.596470942 0.7934712854
-0.01987213262 0.006124562899 -0.06139776866 0.9667542979 0.1411955644 0.2131899154
-0.02002234268 0.0539096756 -0.06539418793 0.9645565271 0.0009491443082 0.2638746014
-0.0195977211 0.03632236862 -0.06680852509 0.9591266998 -0.0001979392153 0.2829769154
-0.0195859623 0.00179135251 -0.05920715332 0.954321298 0.2003744294 0.2216324622
-0.01908720144 -0.0001991331577 -0.05912118276 0.9206977927 0.2829877437 0.2687629278
-0.01472757244 -0.01234391069 -0.05155291367 0.7242973516 0.650138415 0.2295939629
-0.01461420345 -0.01302561474 -0.05004751968 -0.6881186219 -0.6969869652 -0.2017471994
-0.0136892662 -0.01436543655 -0.04834400177 -0.6837989305 -0.7070742061 -0.180180714
-0.01236564064 -0.01570410681 -0.04722171402 -0.5975646895 -0.7854391105 -0.1612508777
-0.01103713703 -0.01719684219 -0.04345721817 -0.5185182691 -0.8527638853 -0.06271013178
-0.008255772591 -0.01884342003 -0.03832793427 0.4533737721 0.8913184713 0.001898816919
-0.02034058571 0.05605623436 -0.06352014732 0.9857106768 0.01102980252 0.1680857076
-0.02035289383 0.05178169632 -0.06347777557 0.9857904183 -0.004160018932 0.1679283939
0.001812071025 0.03004319668 -0.08109796906 -0.1145204621 0.005964017178 0.9934029868
-0.02036292076 0.0481367569 -0.06344475937 0.9881784311 0.004920348429 0.1532291701
-0.01961668777 0.0298218174 -0.06676734161 0.9592117792 0.005309366179 0.2826385911
-0.008858957291 0.01994150352 -0.07915526962 0.4316680303 0.02732373329 0.9016186141
-0.02036775017 0.04632055473 -0.06342941284 0.9884184905 0.007457263455 0.1515693795
-0.02037858772 0.04209666061 -0.06339634323 0.9885670203 -0.002676242452 0.1507583636
-0.01856195641 0.05976793162 -0.06940385183 0.897768726 -0.01830961303 0.4400864377
-0.02038302994 0.04029258919 -0.06338345718 0.9886660741 0.008034609804 0.1499161064
-0.02040978622 0.02834162426 -0.06331580162 0.9870227944 0.005902930978 0.1604716759
-0.02008672428 0.01992981339 -0.06511421585 0.9680254832 0.01869790545 0.250154057
-0.02041454124 0.02596521854 -0.06330609703 0.9889547039 0.001224839399 0.148213
-0.02041910076 0.02359259701 -0.06329765892 0.9869691644 -0.003922612166 0.1608616845
-0.02042217445 0.02181534576 -0.0632917099 0.9889104193 -0.002300866948 0.1484954162
-0.01518113105 -0.0001959101756 -0.06748658498 0.7358058299 0.4117983356 0.5375982808
-0.0204212141 0.02004067421 -0.06327939415 0.986912298 0.01869424477 0.1601706627
-0.008481661797 0.05007555771 -0.07934235764 -0.4143001257 0.001926461293 -0.9101382832
-0.02040036297 0.01767930794 -0.06322855949 0.9878212798 0.01616843322 0.1547504476
-0.01076158047 -0.002923383474 -0.07000240326 0.5303004908 0.5212159254 0.6686668442
-0.0203038826 0.01414738131 -0.06303617287 0.9872376268 0.04684685262 0.1522078862
0.005724537373 0.04991618347 -0.08037286377 -0.2764866952 -0.00866605276 0.9609786714
-0.02010236359 0.01003255844 -0.06265364838 0.969486423 0.09905597958 0.2242409163
-0.01997402859 0.008268971682 -0.06241457367 0.9662630409 0.1214053563 0.2271485754
-0.007911915302 0.01199035263 -0.07864477539 0.3709482197 0.196380325 0.9076520183
-0.01943385029 0.003557498336 -0.06141955566 0.9484954564 0.196446344 0.2485260613
-0.01914851379 0.001782741785 -0.06089676666 0.930910506 0.257060629 0.2594715067
-0.01779792786 -0.004202904701 -0.0584308815 0.8630233542 0.4060843921 0.3004765492
-0.01630154991 -0.007863151789 -0.0569614296 0.7842413242 0.5310451703 0.3208684662
-0.01676621056 -5.978494883e-07 -0.06513110924 0.8208777997 0.3611468689 0.4424167459
-0.01522454739 -0.01036717558 -0.0550100708 0.7417648103 0.605139793 0.2891207311
-0.01487508011 -0.01166527748 -0.05310618591 0.7117291339 0.652209649 0.2608911914
-0.01325583363 -0.01429376125 -0.05015638351 -0.6572733196 -0.7232759382 -0.2118105299
-0.01080132008 -0.01708568764 -0.04568244553 -0.5117747065 -0.8497431012 -0.1265832209
-0.0200060091 0.05817409325 -0.0654395256 0.9656930135 0.0009939975082 0.259684454
-0.02001548004 0.05573429489 -0.06541317749 0.9741748792 -0.008312203175 0.225641778
-0.020028965 0.05209007454 -0.06537596512 0.9661059476 0.009717038627 0.2579629374
-0.02004362679 0.0478601799 -0.06533598328 0.9650932589 -0.003646621064 0.2618810872
-0.02004954147 0.04605443573 -0.06532003021 0.9666753068 0.006805790234 0.2559150884
-0.02005643845 0.04365262032 -0.06529853439 0.9755699444 -0.005181449936 0.2196279493
-0.02006915188 0.03767612648 -0.06524472427 0.9669617743 -0.002801764429 0.2549060165
-0.01777113724 0.05190359879 -0.07101473236 0.8498753099 -0.004655149728 0.5269632693
-0.02007260323 0.03588989258 -0.06523011017 0.9659295714 -0.003224611828 0.2587849783
0.003329883456 0.01619299603 -0.08065983963 -0.1689453373 0.09791899307 0.9807493787
-0.02008285904 0.02995648003 -0.06518670654 0.9661995267 -0.006062645931 0.2577241139
0.003242007136 0.02430080414 -0.08094313812 -0.1716597789 0.003596257393 0.9851497283
-0.02008519936 0.02818213463 -0.06517461395 0.9663908162 0.007252110774 0.2569750909
-0.02009164524 0.02228272057 -0.06513893127 0.9663271615 0.01078517465 0.2570904449
-0.02002047539 0.01582513237 -0.06497094727 0.9733606623 0.03632326709 0.2263838364
-0.0160839448 0.02585893059 -0.07341805649 0.7912710897 -0.003703564085 0.6114542879
-0.0199492321 0.01407139349 -0.06483378601 0.9706966698 0.06720859805 0.2307183991
-0.01981349182 0.01173543596 -0.0645786705 0.9628531048 0.09473748846 0.2528610425
-0.01823437309 0.007964208603 -0.067337883 0.8954195243 0.1889935795 0.4031194642
-0.0133723278 -6.203055382e-07 -0.06980182266 0.6479426918 0.4411815676 0.6209098909
-0.01902832031 0.004130180359 -0.06313940048 0.9219348581 0.2329853391 0.3094413502
-0.002534189999 0.05207974243 -0.08100792694 0.122812258 0.001955777332 0.9924279945
-0.004816524506 0.001736713886 -0.07592528534 0.2296950956 0.4515180074 0.8621900324
-0.01789041328 -0.001785355806 -0.06107928467 0.8693758454 0.3549018632 0.3438463419
-0.01729401588 -0.002977096081 -0.06123118591 0.8440581266 0.3917955143 0.3661449904
-0.01357712936 -0.01291335964 -0.05330351639 -0.655982654 -0.6991338646 -0.2844267866
-0.01271034908 -0.01423482513 -0.05174119186 -0.6223040832 -0.7370954278 -0.2634918563
-0.01269577384 0.02974287605 -0.07679087448 0.6063632435 -0.00958342343 0.7951300365
-0.0009453575909 0.03571041679 -0.08116211319 0.06744809909 -0.007657982904 0.9976933944
-0.0116864233 -0.01559013748 -0.04989524078 -0.5717935878 -0.7894564258 -0.223182985
-0.01036538601 -0.0170006485 -0.04751260757 0.4749785527 0.8586164023 0.1928036518
-0.01951074409 0.05974124146 -0.06704233551 0.9525618364 -0.0318356621 0.3026754672
-0.01951873016 0.05791453552 -0.06701971054 0.9547202909 -0.01663658785 0.2970393747
-0.01955065727 0.0500512619 -0.06693023682 0.9570120126 -0.009185981042 0.2899027864
0.005072010517 0.03026640034 -0.08053776169 -0.2192501406 0.004054282706 0.9756602578
-0.01957222366 0.04405644989 -0.06687101746 0.9540542801 0.001959364461 0.2996274213
-0.01959204865 0.03810167694 -0.06682139587 0.9549761052 0.00145409467 0.2966791602
-0.00701599288 0.04013603783 -0.07994593811 0.3626766772 0.003095803015 0.9319098904
-0.01960495567 0.03395433235 -0.06679244232 0.9554127661 -0.003273353008 0.2952553667
-0.006154583454 -0.01015645742 -0.06589429092 -0.2820937658 -0.7310792585 -0.6212457043
-0.01962133503 0.02805510521 -0.06675783157 0.9568071471 0.001101394453 0.2907212929
-0.01718964863 0.02768596935 -0.07190031052 0.8422697272 -0.007716842443 0.5390010733
-0.01962720871 0.02570284557 -0.06674620819 0.9559889598 -0.007204483855 0.293314173
-0.01963137245 0.02394100952 -0.06673828125 0.9562747025 0.005330440424 0.2924214079
-0.01963413525 0.01983867836 -0.06671179962 0.9543604678 0.01356316773 0.2983490203
-0.01116163731 0.04188294983 -0.07788579559 0.5197483241 -0.001173637888 0.8543186186
-0.01961605072 0.01808575249 -0.06666769409 0.9558150884 0.02554478673 0.2928565873
-0.01441280961 0.03560546875 -0.07529041862 0.7028469311 -0.009911017495 0.711272074
0.01229235363 0.001809936523 -0.07197179413 -0.5812416456 0.4102803611 0.7027290906
-0.01930952406 0.01630457783 -0.06730223846 0.930904375 0.06077514795 0.3601713842
-0.01899079259 0.01184760729 -0.06710933685 0.9178992689 0.1237823573 0.3770130768
0.003790189743 0.04431676483 -0.08081167603 -0.1957176265 0.008428340284 0.9806240736
-0.01930355072 0.01110213089 -0.06607247162 0.9361977648 0.1257441813 0.328210521
-0.0192013855 0.009940258026 -0.06588529205 0.9362715956 0.1318772551 0.3255823842
-0.01819840336 0.004106634378 -0.0652780304 0.8818806997 0.2604869255 0.3929796346
-0.01799848938 0.002937663078 -0.0649204216 0.874870419 0.2860723577 0.3908508105
-0.0009906225801 0.006352671146 -0.07860266876 0.06794202533 0.3419794272 0.9372480742
-0.01772214317 -5.450844765e-07 -0.06322017097 0.860945269 0.3415194424 0.377011557
-0.01053493214 0.008591456413 -0.07631361389 0.5043937217 0.2760467771 0.8181596118
-0.01678086344 -0.002171436628 -0.06315591939 0.8089609857 0.4078011737 0.4234150757
-0.004343148768 0.0182760458 -0.08062013435 0.2068472541 0.05674219362 0.9767264391
-0.008835885048 0.01823093128 -0.07909498787 0.4296671431 0.05433297591 0.9013512489
-0.01263567877 -0.01284680605 -0.05539725113 -0.6254112917 -0.7091515302 -0.3255223855
