# .PCD v0.7 - Point Cloud Data file format
VERSION 0.7
FIELDS x y z normal_x normal_y normal_z
SIZE 4 4 4 4 4 4
TYPE F F F F F F
COUNT 1 1 1 1 1 1
WIDTH 558
HEIGHT 1
VIEWPOINT 0 0 0 1 0 0 0
POINTS 558
DATA ascii
0.01406280708 0.004240521431 -0.07160756683 0.6288842189 -0.3471750833 -0.6956824712
-0.01964774704 -0.006182778835 -0.01316773129 0.9490996597 0.3148397394 -0.009261452133
-0.01498668242 -0.01404019165 -0.007984096289 -0.7008003317 -0.7131709602 0.01631185227
-0.01313708019 0.01585406399 -0.01547942829 0.6429577104 -0.7658720829 -0.006733139386
-0.02044765472 0.03668187714 -0.05843196996 0.9951678745 -0.01556632084 -0.09694633139
-0.01841433907 -0.009190226555 -0.00360487318 0.9029253107 0.4296492339 0.01128800352
-0.02050169945 0.001404853076 -0.004854924917 0.9968045176 -0.07987961947 1.098139255e-05
-0.01910546303 -0.007588706493 -0.01197177029 0.9360047828 0.3519715428 -0.003328598705
-0.0165578537 0.004075229009 -0.06831579336 0.802604728 0.3006366523 0.5152118534
-0.01996033669 0.01575449848 -0.05483534241 0.9838784176 -0.06457459276 -0.1667734429
-0.02049881458 -0.001404883951 -0.004848350286 0.9985438179 0.05375630086 -0.00452811534
-0.02027392578 -0.003517709732 -0.004333881855 0.9855873604 0.1689786575 -0.007985510072
-0.01932439804 -0.007106686115 -0.03431439972 0.9466863374 0.3221523634 -0.001683232645
-0.01976079082 -0.005652058601 -0.003160514951 0.9571633957 0.2880900144 -0.0290237398
-0.005396334569 0.03378724861 -0.08045509593 0.2356860194 -0.01446900415 0.9717215384
-0.01883490181 0.01221815586 -0.06762801361 0.9087078573 0.1276821303 0.3974258469
-0.01900212479 -0.007816222191 -0.001425957084 0.9243006335 0.3810483393 -0.0216910588
-0.01665912819 -0.012064744 -0.003142636538 0.8275409333 0.5613508665 -0.00782357569
-0.01937927564 0.001390680353 -0.05965784709 0.9409556362 0.2353839961 0.243304059
0.003213250399 -0.002958277941 -0.07341349411 -0.1521543699 0.5662015614 0.8101017464
-0.01756029701 0.01067402458 -0.001676244259 0.848538936 -0.5260397433 -0.05713022458
-0.01912719218 0.02501095581 -0.06823730977 0.9337092954 -0.000607601818 0.3580315384
-0.01773874664 -0.01036038494 -0.01229855824 0.8667958889 0.4980712897 -0.02428739095
-0.01675540733 0.01194213009 -0.006789024353 0.8278120236 -0.5609802585 -0.005329459895
-0.01842025566 0.00918981266 -0.003618198633 0.8977304102 -0.440522304 0.004495573997
0.002762396097 0.06038924789 -0.08099327087 0.09159980383 0.02239272069 -0.9955440934
-0.02014073658 0.004106825829 -0.01425546932 0.969184177 -0.2457836635 0.01650520562
-0.01466706196 0.05207063103 -0.07499259694 0.710692325 0.0122522469 0.7033962622
-0.01719169617 -0.01125441885 -0.00604668951 0.8276255125 0.5610593032 0.01576290791
-0.01332757568 0.0156905489 -0.01902444458 0.6673245409 -0.7447634212 0.002324548567
-0.01984718068 0.03107132435 -0.06598453395 0.9714891656 0.0008249186507 0.2370825185
-0.01903745842 0.007738841534 -0.005012601376 0.9195762942 -0.3928278694 -0.008105810738
-0.01191120911 -0.01678448868 -0.02532441521 -0.6305707646 -0.7761275161 0.002566992567
0.01592046261 0.01633094215 -0.07335205841 0.6617826559 -0.07314796329 -0.7461186848
-0.01297329998 0.006330046654 -0.07366516113 0.608016038 0.3148180379 0.7288388715
-0.01960024643 0.006304109097 -0.006283707619 0.9595662026 -0.2814600291 0.003599277301
-0.002449588974 0.05506202952 -0.08101732 0.08979811211 -0.004036807236 0.9959518077
-0.01995466805 0.004889583588 -0.007084769249 0.9625559061 -0.271076426 0.001923270586
-0.02051941013 0.001364854276 -0.01509084368 0.9962620032 -0.08569757756 0.01086030478
-0.01959199429 0.05529676247 -0.05439687347 0.9788824723 0.0001323873758 -0.2044237947
-0.02044702435 0.02518390942 -0.05835330009 0.9944101323 0.004069507575 -0.1055079518
-0.007742374897 -0.01015839481 -0.06504199982 -0.3737545391 -0.716086602 -0.5895146503
-0.0116795489 -0.01683256404 -0.04195284526 -0.576691466 -0.8152167462 -0.05337236945
-0.02056834793 0.03996422068 -0.0612217509 0.9965868085 -0.0006483422791 0.0825488512
-0.01720391242 0.02189101569 -0.07185324224 0.8277416714 -0.0006531815621 0.5611089901
-0.02012261295 0.004163117051 -0.009170474052 0.9679007655 -0.2513247576 -0.001993596839
0.003314636469 0.02780125141 -0.08092638397 -0.2083325851 -0.01759073139 0.9778998416
-0.02050771999 0.001391256928 -0.008334235191 0.9955945187 -0.09374260956 -0.001969127562
-0.01976236963 0.05804431438 -0.06622961807 0.9584667552 -0.001891121833 0.2851980063
-0.0197834568 -0.005596610785 -0.006697752714 0.9653109395 0.2610111481 -0.006926080416
-0.02047548485 0.003710784078 -0.04786546898 0.9971182505 -0.07386900246 -0.01727903428
-0.02043074354 -0.002088703076 -0.008160282771 0.9955033444 0.09437512491 0.008150284776
-0.01440653006 0.03386907895 -0.0752429835 0.7084319273 0.004461049961 0.7057650483
-0.01262707615 0.01627264214 -0.03544828415 -0.6720113972 0.7403301691 0.01766133586
-0.01983160686 -0.005459876537 -0.01521900558 0.9671342506 0.2542661437 -0.0002635277171
-0.01875216007 -0.008418886423 -0.006094536066 0.9172405185 0.3981585807 -0.01181422595
-0.00544006598 0.03089448214 -0.08044529724 0.2821336143 -0.005574458373 0.9593589261
-0.01755753899 -0.01067424679 -0.001670030355 0.8557462853 0.5157509031 -0.04122258014
-0.008639382362 -0.008313262224 -0.0665138677 -0.4439711692 -0.6598691125 -0.606186733
-0.01560079384 0.01548544598 -0.07362067413 0.7637388916 0.09711442566 0.6381784185
-0.01542041302 0.01361115837 -0.0003791836798 0.7316650983 -0.6814190145 -0.01828415935
0.009442305565 0.06028504944 -0.07880440903 0.497725643 0.0348669556 -0.8666334172
-0.01665505791 0.01206511211 -0.00313357234 0.8258306541 -0.5633113007 -0.02615548312
-0.0172707653 -0.01114191675 -0.009607288837 0.8397391807 0.5429441416 -0.007054614494
-0.0180524931 0.009832513332 -0.006251814842 0.8842925549 -0.4668824792 0.006886792452
-0.01907203293 0.007663011551 -0.008527414322 0.923784584 -0.382694764 0.01291355748
-0.01962252998 0.006242925167 -0.009755999565 0.9550780427 -0.2960408846 0.01362816756
0.006092610121 0.03388700104 -0.08023327827 -0.2548080053 -0.00605775918 0.9669726904
-0.01940247726 0.006819956303 -0.0159248147 0.9389642705 -0.3432939505 -0.02225673658
-0.01205883757 -0.01622627544 -0.04533898163 -0.5784808567 -0.8098870606 -0.0971743149
-0.01877110672 -0.008435027122 -0.03318896103 0.9095245245 0.4155839844 -0.007422351017
-0.01912486649 -0.00426476717 -0.05323882294 0.9300502864 0.3252059105 0.1710192405
-0.02043918896 0.03122494411 -0.05837580681 0.9940576759 0.006729016428 -0.1086464783
-0.02051362228 0.001377926826 -0.01174550676 0.9952894047 -0.09693733159 -0.001467859708
-0.01975470352 0.05987529945 -0.06625120163 0.9584667552 -0.001891121833 0.2851980063
0.004632762432 0.002934082508 -0.07660303497 -0.2332761801 0.4091565194 0.8821412395
-0.0204361159 -0.002068684757 -0.01157245954 0.994262258 0.1069646903 -0.00105704648
-0.01980409908 -0.005542337656 -0.01016142321 0.9597607922 0.2808182797 0.0005617672757
-0.01807320817 0.013126194 -0.06942743047 0.8694448278 0.1157682601 0.480274298
-0.01879520988 -0.008336236477 -0.009602043629 0.9072996973 0.4203387794 -0.01107113026
-0.01526623249 0.01375470829 -0.01514670086 0.7317881026 -0.6814980352 0.006826483128
-0.01871744804 0.03999097061 -0.06912640533 0.9244161223 -0.01224235923 0.3811888738
-0.006000542959 0.00326896739 -0.07633356476 0.3060556881 0.4159383268 0.8563441038
-0.01469363832 -0.01433800507 -0.000510615468 0.7151713326 0.6989432173 -0.002888594183
-0.007386868477 0.01922628212 -0.006807468414 -0.4250439518 0.9051474193 0.006766716592
-0.01396707726 0.01506482315 -0.0006425035596 -0.6981962473 0.7157943523 0.01266670498
-0.01967530187 -0.00182145383 -0.05427538681 0.9616172713 0.2300258562 0.1496005651
-0.002997060895 0.0309703908 -0.0809497757 0.1606949493 0.01210211738 0.9869299225
-0.0177590313 0.01035879612 -0.01234268284 0.8602129349 -0.5099272574 -0.002810485902
-0.01857316208 -0.004855028868 -0.05479033661 0.8875633068 0.398285238 0.2315172684
-0.01399175008 -0.01342917093 -0.05063586426 -0.6846881863 -0.7016468794 -0.1972149697
-0.01553440475 0.01347111988 -0.004097154617 0.7698790424 -0.6381619009 0.005970629222
-0.01810864735 0.009735442638 -0.009773142338 0.8944594025 -0.4469500697 -0.0133421337
-0.01937515068 0.006885809183 -0.01256654882 0.9366730749 -0.3501836693 0.003866343369
-0.01933448029 -0.006922448635 -0.04289099121 0.9353364351 0.3506361669 0.04690449381
0.009440532684 0.01295717049 -0.07811841202 -0.4498966893 0.1752193438 0.8757232157
-0.01919966507 -0.006870388508 -0.0453833046 0.9330823678 0.3522352672 0.07271596346
-0.02044080098 -0.002049068848 -0.01491742579 0.991575579 0.1295275275 -0.0007005452847
-0.01368653011 0.01537464905 -0.02587770081 0.6451273753 -0.7640460586 -0.00665507092
-0.005808654414 0.04308785248 -0.08031588321 0.2841954454 -0.001187794374 0.9587656325
-0.02001088142 -0.004750321388 -0.01725123215 0.965914252 0.2587818458 0.006450890119
-0.01484172344 -0.01418751287 -0.004287116528 0.7220766718 0.691569558 -0.01835283335
-0.01217277336 0.01656328773 -0.0001724494398 0.628719583 -0.7774567092 -0.01651518069
-0.01804778481 0.01425707626 -0.04857711029 0.9293602678 -0.2703435697 -0.2514037528
-0.01860242081 -0.008836858749 -0.01743707275 0.8965526046 0.4428754921 0.007397676593
-0.02052362061 0.001352039248 -0.01836907005 0.9989743571 -0.04493783318 -0.005552034433
-0.01414861679 0.0149039011 -0.004476017475 0.6720804347 -0.7404771851 0.001194875711
-0.01952180862 0.006477595568 -0.03324365044 0.9541269327 -0.2983900156 -0.02460070846
-0.01819494724 0.009589879036 -0.01493072224 0.8893210926 -0.4572203182 -0.007587812128
-0.02015139866 0.004068093538 -0.01755757523 0.9696571665 -0.2442738044 0.009761554972
-0.01951008701 0.01225904036 -0.05135977745 0.960579438 -0.1485964153 -0.2349601
-0.02044521205 -0.002029830635 -0.01819813347 0.9918899333 0.1269671532 0.005805359863
-0.01978475253 0.01579008627 -0.06575251261 0.965354654 0.04321621203 0.257337815
-0.01956209819 0.04592083867 -0.05425447591 0.9785935291 -0.000495107264 -0.2058019912
-0.01856671333 -0.008921914101 -0.01410288143 0.8936763493 0.4486584566 0.006940613705
-0.01283640766 -0.01611117744 -0.03865016174 -0.58623026 -0.8097187054 -0.02626214915
-0.008842458725 -0.01079721427 -0.06337781334 -0.4140174918 -0.7349546628 -0.5370578741
-0.01305393314 0.04019485092 -0.07649970627 0.5756677909 0.008837562819 0.8176359165
-0.02054527664 0.001257676333 -0.04249657059 0.997795598 -0.06510603593 -0.01285101986
-0.01217329693 -0.01656322479 -0.0001735876501 -0.6451008994 -0.7638459823 -0.01959961445
-0.0195546751 0.0428151741 -0.05421534157 0.9785183977 -0.0005381339582 -0.206158812
-0.0124457016 0.01637720871 -0.004178589344 0.6435109104 -0.7654356679 -0.001395163446
-0.01777025223 0.01189941692 -0.04534698868 0.8975353588 -0.3812135733 -0.2215998448
-0.01432626915 0.01474642467 -0.008227437019 0.6813606114 -0.7319437767 0.002454587494
-0.01556177902 0.01348762131 -0.03830712891 0.7624473618 -0.6469874181 -0.009016719555
-0.01575539207 0.01319963646 -0.01130491352 0.7678063415 -0.6405834472 0.01123695582
-0.01695000648 0.01170364666 -0.01387758827 0.8293362122 -0.5586355831 0.01130188095
-0.01957073021 0.04903546333 -0.05429756737 0.9786948661 -0.000449165017 -0.2053196465
-0.0204529314 0.03972377777 -0.05846698952 0.9952919478 0.0008669910356 -0.09691845494
-0.01824537945 0.009497785568 -0.01827481079 0.8959589413 -0.4441222015 -0.003611881899
-0.01917173767 0.007444326401 -0.01866374207 0.9264139087 -0.3762839784 -0.01294748729
-0.01609864235 -0.01280985451 -0.02164049721 0.7992194009 0.6010121231 -0.005725124988
-0.01944487953 0.006720332384 -0.02084256458 0.9452530738 -0.3257862065 0.01897298351
-0.01992517757 -0.005145097494 -0.03553647041 0.9707305947 0.2401160905 0.005135724584
-0.020159132 0.004030165911 -0.02079119587 0.9701150646 -0.2424817517 0.008908506601
-0.009888306618 -0.0114427166 -0.06159906387 -0.4729202889 -0.7312522188 -0.4915451077
0.002731983423 0.01306838875 -0.08024934692 0.1152482897 -0.188945242 -0.9752012752
-0.02052676868 0.00133947137 -0.02158333302 0.9946986381 -0.1024234335 0.009168405654
-0.02044940694 -0.002010957658 -0.02141664759 0.9919701958 0.1260647213 0.01013985597
-0.0198559866 -0.005386113882 -0.02013793278 0.9661678794 0.2577926239 0.007911498474
-0.02007978058 0.01037183189 -0.05244213486 0.9788914752 -0.135531519 -0.1529793682
-0.01917102242 -0.007444366932 -0.01866220474 0.9364595775 0.3507676187 -0.002353166385
-0.01737223339 -0.01098186874 -0.01478718948 0.8560114052 0.5169527553 0.00207916129
-0.02021036339 0.007132306814 -0.06036608505 0.9751153524 0.1166320267 0.1885391732
-0.01512861776 -0.01389593697 -0.011604177 0.744342277 0.6677195457 -0.01025587124
0.006200432062 -0.004792069674 -0.07115835953 -0.2870977415 0.6072513368 0.7408243386
0.000339951319 0.004062304338 -0.07766598002 0.003651922493 0.4030519273 0.9151698243
-0.007366474628 -0.01922903061 -0.006765541553 0.4552659227 0.8902118095 -0.01599605613
-0.009020247353 0.04889959251 -0.07906298065 0.4620567347 -0.002343385578 0.8868472712
-0.01127674389 -0.01715892506 -0.003365589857 0.5356761318 0.8439875125 -0.02713227908
-0.01009596825 0.0179420414 -0.002527155876 -0.5131217705 0.8579950781 0.02346262109
-0.01273024082 0.01619321442 -0.008132475853 0.6537723459 -0.7566911427 -0.0004841222886
-0.00854956913 -0.01865112877 -0.04157455063 0.4262204529 0.9026152931 0.06018104556
-0.02057970428 0.0309338274 -0.06116229248 0.9968021208 -0.01295426822 0.07885251319
-0.01366551463 -0.0009745414654 -0.06876483409 0.678856873 0.4365691361 0.5903903246
-0.002947614749 0.03387088712 -0.0809570516 0.1610352526 0.00681054176 0.9869251562
-0.01450016403 0.01459227943 -0.01189951038 0.708965977 -0.7050876232 0.01478807573
-0.01702984428 0.01158925247 -0.01728450966 0.8307737636 -0.5565048358 0.01083150159
-0.01840219641 -0.008066668272 -0.04790489388 0.8827594145 0.451804849 0.1288727845
-0.01134089163 0.02224386978 -0.07774934302 0.5474364695 0.02007262134 0.8366064796
-0.01829483986 0.009407464504 -0.02155456161 0.8864408666 -0.4627509117 -0.00917517247
-0.01882593651 0.04286250153 -0.06888889771 0.9243786171 -0.01247645888 0.381272226
-0.01787523413 -0.004821094155 -0.05731435776 0.8599623839 0.424011456 0.2840404609
-0.01946697998 0.006657813311 -0.02403482628 0.9577882391 -0.2872035155 0.01248318053
-0.02017044544 0.003992814541 -0.02397223949 0.980571376 -0.1961593541 0.001133337365
-0.02052985764 0.001327137947 -0.0247376852 0.9947801296 -0.1016184132 0.009283952616
0.00891258049 0.02822941113 -0.07917103195 -0.3852746144 0.01326501877 0.9227066223
0.0006022601649 -0.01085432291 -0.06649057579 0.0642227093 -0.7655324621 -0.6401839525
-0.02045352427 -0.001992436926 -0.0245751222 0.9922660414 0.1241288411 0.0003659156073
-0.01898161125 0.008203782082 -0.04219713211 0.9357351242 -0.350333666 -0.04081788561
-0.0198710165 -0.005336079836 -0.02333448029 0.9590560705 0.2830413144 0.00995328756
0.00549722755 0.01599093437 -0.08012531281 -0.2480585241 0.1208920962 0.9611722373
-0.01920286369 -0.007374263763 -0.021911623 0.9384071996 0.3454098365 -0.009163661034
-0.01863744354 -0.008753430367 -0.02070749092 0.9045025531 0.4264653691 -0.001555772289
-0.01744205284 -0.01087527323 -0.01816226482 0.8530461305 0.5217959072 0.006428875227
-0.01286697419 0.0549087321 -0.07662345123 0.623681632 0.002152317786 0.7816755014
-0.01526762915 -0.01375464964 -0.01514986753 0.7443379847 0.6677729501 -0.006344419518
-0.01926476288 -0.007237985134 -0.02822842598 0.9416807723 0.3364016438 0.008441391091
-0.01963787651 0.00707668066 -0.06302446175 0.9576406057 0.1537373112 0.2434939619
-0.01045740414 0.01773280525 -0.006631259918 0.5479156337 -0.8364566535 0.01134571447
-0.01864105415 0.03696224785 -0.06930077744 0.9086752458 0.001396852044 0.4175013131
-0.01294254589 0.01602104568 -0.01185926056 0.63234819 -0.7745601742 -0.01386734422
-0.00361490941 -0.01982749748 -0.04591893768 -0.2225167409 -0.9599743296 -0.1701046342
-0.0153917284 0.01361740017 -0.01859817314 0.7443605492 -0.6674091694 0.02218948841
-0.006507265329 -0.01672577572 -0.05465282249 -0.3428848674 -0.8753870847 -0.3407747344
-0.01709841919 0.01147793484 -0.02060438919 0.8216352936 -0.569875611 -0.01253922863
-0.01795079867 0.0100021588 -0.02446813838 0.8656246354 -0.5006708553 -0.004762901246
-0.0185181249 0.03076571846 -0.06959087626 0.9093411848 -0.005959180944 0.4160085309
-0.01298595428 0.04604621887 -0.07654383469 0.578684664 0.001103818562 0.8155506369
-0.01421844848 0.01317149512 -0.07465159607 0.6845547472 0.1570219394 0.7118489366
-0.01948576069 0.006596619368 -0.02716162014 0.9551799252 -0.295831298 -0.01073096963
-0.02018044376 0.00395619607 -0.02709193897 0.9900928053 -0.1403978449 -0.002163794734
-0.01479439926 -0.01427283812 -0.03539462852 0.7275687009 0.6860340169 0.001055044779
-0.02053288937 0.001315032095 -0.02783390331 0.9950651838 -0.09921382247 -0.001377495583
0.01168354034 -0.008033298492 -0.06424847412 0.4768135318 -0.6475654337 -0.59439706
-0.02045756531 -0.001974257946 -0.02767533684 0.9961551953 0.08755562451 -0.002973116029
-0.01988576508 -0.005286977053 -0.02647153854 0.9598457864 0.2803488301 0.01002994591
-0.0113017149 0.01715716553 -0.01799733162 0.5927207299 -0.8053213213 -0.01181972075
0.005325728893 0.0133787384 -0.07981791687 -0.2343112506 0.1811414685 0.9551366427
-0.01923410416 -0.007305483341 -0.02509975243 0.9390836871 0.3436337628 -0.006137230642
-0.01867180252 -0.008671579361 -0.02391606712 0.8955658375 0.4448816626 -0.006491299079
-0.002580330372 -0.005136304855 -0.07186078971 0.1405564037 0.6194693914 0.7723351413
-0.01750644398 -0.01077110147 -0.02146323776 0.8443137535 0.5358323827 0.004235948301
-0.02044277477 0.03364726067 -0.05839959908 0.9950455599 -0.01559361947 -0.09818947409
-0.002689466453 0.00702472229 -0.07863872833 0.1535273702 0.3350352492 0.9296132144
-0.0154038105 -0.01361623192 -0.01862356853 0.747338562 0.66443763 -0.002776595944
-0.0129469223 -0.01602053452 -0.01186846161 -0.5974935886 -0.8016867274 0.01731481215
-0.0204645319 0.01916442299 -0.05835682678 0.996101057 -0.01272934677 -0.08729632301
-0.01735764046 -0.007680939388 -0.05407368469 0.8407457188 0.483321647 0.2440221751
0.01130161858 0.02488911724 -0.07781504059 -0.5457407381 0.005525860235 0.8379358637
-0.01047730255 -0.01773027802 -0.006673092842 -0.5605245955 -0.8275404196 -0.03144887535
-0.01711599943 0.03995152198 -0.07196695794 0.8284520773 0.005617409183 0.5600317852
0.01518637784 0.01867085393 -0.07439852397 -0.664026164 0.06449246569 0.7449227983
-0.02056334877 0.003676607847 -0.05071885681 0.999453191 -0.03264499488 -0.00525579209
-0.006349555969 0.01954079437 -0.001363461256 0.3984142805 -0.9169185964 -0.02294228854
-0.01074510098 0.01753665733 -0.0105042181 0.5444698351 -0.8387468667 -0.007502824204
-0.0155147233 0.01348282671 -0.021980937 0.7478088528 -0.6638617453 0.008336837569
0.008783880234 -0.01111974001 -0.06299462891 0.3775839168 -0.7437880722 -0.5515520732
-0.01630266953 -0.0005880160928 -0.06550910187 0.810823018 0.3797882407 0.4453391131
-0.01797425079 0.009926080704 -0.02707155514 0.8645705585 -0.5025085956 -0.001691373156
-0.01123859199 0.01596723382 -0.07750378418 0.5503563688 0.1006250552 0.8288440539
-0.01950395012 0.006536562204 -0.03023049164 0.9541452344 -0.2984123903 -0.0235990897
-0.02019025898 0.003920249343 -0.03015445232 0.9856990598 -0.1685072006 0.00163919247
-0.02053586674 0.001303147107 -0.03087369537 0.994825107 -0.1010621401 -0.01046184957
-0.02048438454 0.05445612717 -0.05867566299 0.9958824003 -0.01373538124 -0.08960794679
-0.002505703831 -0.01093006153 -0.06618672333 -0.1143512031 -0.7672982412 -0.6310128457
-0.02046153323 -0.001956410766 -0.03071900431 0.9946733165 0.1002101825 -0.02414358757
-0.01990024281 -0.005238777876 -0.02955086899 0.96924491 0.2459944847 -0.007142686613
-0.01870552254 -0.008591259003 -0.02706466103 0.8963154097 0.443416228 -0.0008573447422
-0.01979733467 0.04895817884 -0.06613248062 0.9731102604 -0.004229983159 0.2303009518
-0.01757206917 -0.01066873646 -0.02470617867 0.8528916927 0.5219095476 -0.01364494598
-0.01956264114 0.006362531662 -0.03912140083 0.9565963502 -0.2903220178 -0.02522991966
0.01305565405 0.01076625347 -0.07513748169 -0.6030496956 0.2343422744 0.7625055824
-0.01312956142 -0.01585493469 -0.01546379852 -0.6113207293 -0.7913810074 0.001751294901
-0.008800720374 0.02796863524 -0.07920708593 -0.4186873645 0.003050313079 -0.9081253143
-0.006348095894 -0.01954099464 -0.001360425949 -0.4455501174 -0.8946738151 0.03230878379
-0.01966577021 -0.004743655841 -0.0480919927 0.9495929019 0.298883998 0.09456043779
-0.02032762718 0.06035573959 -0.06356659317 0.9851970692 -0.03342744512 0.1681348887
-0.01102646542 0.01734482765 -0.01429193401 0.5708909514 -0.8210060412 -0.0057098061
0.01215482187 0.01308875227 -0.07640861893 -0.6107944749 0.1490151729 0.7776403974
-0.01617177773 0.01268851948 -0.02487470055 0.7718246261 -0.6358295219 -0.002750570726
-0.01485131795 0.04592018563 -0.07480900683 0.709363826 0.006488634206 0.7048126418
-0.01840901883 -0.009059503873 -0.04199748866 0.9099050247 0.413140533 0.03725246379
-0.01803800074 0.009847132683 -0.02971413358 0.8675782041 -0.4972903179 -0.003224814411
-0.01126955795 0.03086706988 -0.0777894427 0.5442713652 -0.01612586575 0.8387542176
-0.01173364842 0.009591405749 -0.07579698563 0.5863991731 0.2342200425 0.7754205191
-0.02019989586 0.003884954572 -0.03316145325 0.9827317266 -0.1850310476 0.001365599588
-0.01463481274 0.02485894032 -0.07502326965 0.7082449716 -0.01345813617 0.7058384651
-0.02053733158 0.001291498393 -0.03385570335 0.9948997525 -0.1003397194 -0.01031616383
-0.008941821098 -0.01852008629 -0.01941831589 -0.4647005072 -0.885383382 -0.0122354179
-0.0144281565 0.03097140813 -0.07522452641 0.7077181299 0.0166888051 0.7062977647
-0.02046542803 -0.001938885729 -0.0337077713 0.9947875121 0.09918183176 -0.0236805839
-0.01402691555 0.01507171631 -0.03245157242 0.6931453013 -0.7207975137 -0.00073177381
-0.01991396809 -0.005191472769 -0.03257315826 0.9697911651 0.2438360215 -0.007006469233
-0.01929485512 -0.007171731472 -0.03129941177 0.940588533 0.3395040595 -0.005495926475
-0.01172293663 -0.0168919735 -0.03652515411 -0.5704480899 -0.8211940487 0.01514302591
-0.01469965755 0.04911091105 -0.07496378242 0.7108937479 0.01457316686 0.703148421
0.01204040368 0.03999529775 -0.07729227956 0.5238328697 0.003333424324 -0.8518145414
-0.01873861694 -0.008512422562 -0.03015505409 0.9022120308 0.4312912844 -0.001131119078
-0.02030524254 0.009134860039 -0.05286994934 0.9898067548 -0.08826357085 -0.1117681988
-0.0176356678 -0.0105683713 -0.02788604736 0.8565394632 0.5158504869 -0.01544095609
-0.01620384407 -0.01268547916 -0.02494062233 0.7812086104 0.6242261906 -0.007400683079
-0.01422540855 -0.01484305239 -0.02241574764 0.7196645184 0.6943177616 -0.00241388889
-0.01439671246 0.01621061484 -0.07497164663 0.6937703338 0.07736401869 0.7160290026
-0.008813564936 0.05958222453 -0.07915276082 -0.4415432432 0.01957189025 -0.8970264798
-0.01947921371 0.02191418743 -0.05394939804 0.9774364821 -0.007071068711 -0.2111111635
0.009223026276 -0.006693618774 -0.06782843781 0.4397648897 -0.6350708862 -0.6350526052
-0.01330843925 -0.01569274616 -0.01898510361 -0.6323504349 -0.77458145 -0.01251018613
-0.002835565964 0.03969833692 -0.08097365061 0.1036581023 -0.01413300472 0.9945125721
-0.01703571468 0.05178082911 -0.072084198 0.8231351062 -0.01482382055 0.5676520512
-0.01107017517 -0.01733937073 -0.01438179398 -0.5636411783 -0.826019604 -0.0004857180597
-0.01883434105 -0.008284394264 -0.03909383392 0.91250075 0.4088226114 0.01436849576
-0.02045866903 0.04277471542 -0.05850505193 0.9954193833 0.0008407515765 -0.09560096442
-0.007971196651 0.01897788429 -0.01122450447 -0.4928868626 0.8700933969 -0.00014634659
-0.01627148247 0.01256684685 -0.02810473633 0.7729897745 -0.6343868784 -0.00633221401
-0.01960999107 0.05970665741 -0.05447660828 0.9870116104 0.0006965732201 -0.1606474266
-0.01579480267 -0.01177759457 -0.04961862946 0.7618639887 0.6258538988 0.1669435836
-0.0177414093 0.01041754007 -0.03256803036 0.8549199566 -0.5187260036 -0.005933040074
-0.02052265835 0.007204033375 -0.05715470409 0.9976185135 0.0355678714 0.05909507682
-0.01878751564 0.008433973312 -0.03322232437 0.9178244138 -0.3963367164 -0.02270578415
-0.01953934669 0.00641968751 -0.03620270729 0.9546190864 -0.297572115 -0.01237886208
-0.02046481133 0.04583419037 -0.05854579926 0.995559662 0.0008224607323 -0.0941290763
-0.01165452017 0.001241426493 -0.0721153401 0.5785616115 0.4130835098 0.7032982835
-0.02020935917 0.003850293159 -0.03611454773 0.9809516296 -0.1942428831 0.001898094943
-0.01415504241 -0.01062886477 -0.05685021591 0.7005315317 0.6322651862 0.3309022626
-0.02053843498 0.001280062169 -0.03678394127 0.9950104235 -0.09977056069 -0.0003037676631
-0.01471424457 -0.007799901417 -0.06030867604 0.7131543825 0.5731972436 0.4035538955
-0.02046925418 -0.001921673437 -0.03664322027 0.9949669918 0.1000129755 -0.006171709083
-0.00885144035 0.05778924815 -0.0791373202 0.4511635997 -0.01862735108 0.8922468426
-0.01913371277 0.02208914852 -0.06822244263 0.9337841057 0.01392364479 0.3575659044
-0.01731814702 -0.01105477778 -0.03317649078 0.8446162094 0.5349894533 0.02024212681
-0.01116861629 -0.004406388283 -0.06840175438 0.5283677466 0.5574118715 0.6404057541
-0.0168599062 -0.01179957771 -0.03078591156 0.8396923758 0.5430432889 0.004549775003
0.0005535691917 0.05796288605 -0.08114271545 0.0813213984 0.003444036403 -0.9966819798
-0.01854072253 0.02492405065 -0.06956328837 0.9110974499 0.001131195814 0.4121894676
-0.00247073559 0.01888867187 -0.08094426303 0.1461099683 0.04600218478 0.9881981968
-0.007190532525 0.02797996585 -0.07989418538 0.3489238091 0.002962340163 0.9371464133
-0.01630701256 -0.01256350803 -0.02817697525 0.8139020775 0.5809983387 0.002082961854
-0.01437733221 -0.01469570065 -0.0257678175 -0.6995332205 -0.7141981236 -0.02396484076
-0.020517519 0.01259209347 -0.05758078512 0.9995190911 -0.01633133442 -0.02636046379
-0.01135664368 -0.01715036964 -0.0181090126 -0.5955362514 -0.8033011162 0.006624955334
-0.01465644145 0.04306979179 -0.07501896286 0.7081903866 -0.007275632169 0.7059840236
-0.00795773077 -0.01897968483 -0.01119712543 0.4931944168 0.8699182196 -0.001248340764
-0.02034416771 0.05483249664 -0.0635076313 0.9894861047 0.0155562057 0.1437889186
-0.008465723991 0.01874575424 -0.01537807369 -0.5116563438 0.8591901293 0.0003279434356
-0.002658808385 0.02199919973 -0.08098361533 0.1534162261 0.01691787819 0.9880168253
-0.01547570674 -0.008665619532 -0.05755644226 0.760691736 0.5492972779 0.3458620871
-0.005425151825 0.05967282232 -0.08040382385 -0.2333049842 0.05583646851 -0.970799193
-0.01158727646 0.01697154236 -0.02165581703 0.6062794598 -0.7951738676 -0.01112370962
-0.015221488 0.0138776989 -0.02896476746 0.7507517954 -0.6605274667 -0.008672228194
0.006173117161 0.05966866684 -0.08024653625 0.2657754713 0.03587814045 -0.963367094
-0.01636928749 0.01244749165 -0.03127323532 0.7894552389 -0.6137832685 0.00552494889
-0.01880300903 -0.008359031677 -0.03616802597 0.9137666693 0.4062233241 -0.003617329037
-0.005545377334 0.02226130867 -0.08041861089 0.2705380586 0.01705328402 0.9625582291
-0.01779603767 0.01032229567 -0.03558996201 0.8575634197 -0.5143514717 0.005248315766
-0.02042173131 0.02181567828 -0.06329103343 0.9920829284 0.008544716939 0.1252934593
-0.01124060133 0.03375561312 -0.07780608622 0.5490200075 -0.0006046329867 0.8358089888
-0.02041009776 -0.001872996151 -0.04500639343 0.9918201941 0.1239147062 0.03062430682
-0.01882189178 0.00835782814 -0.03620600128 0.9203473076 -0.3904825461 -0.02200487631
-0.02021865463 0.00381624651 -0.03901528168 0.9818704426 -0.1894841859 -0.005116375795
-0.0205395174 0.001268827289 -0.03966063309 0.9955855826 -0.09374727981 -0.004560176257
-0.0115470225 0.04892987315 -0.07761907069 0.5863729399 0.002500150737 0.81003736
-0.02047289276 -0.001904765666 -0.0395266304 0.9948995954 0.1008632145 -0.001186180136
-0.0147894156 -0.01385699487 -0.04507626915 -0.6966531799 -0.7089111756 -0.1100876559
-0.01935340881 -0.007042813778 -0.03727502441 0.9471450168 0.3206277276 0.01068538384
-0.02052128029 0.05978448105 -0.06009494209 0.995039448 -0.07011053784 -0.0705762664
0.01148058287 0.01600052516 -0.07738260396 -0.565475805 0.09681739203 0.8190625779
0.0002589216195 0.03388742495 -0.08115403748 -0.01396354715 0.004174548584 0.9998937906
-0.0173850193 -0.01095310974 -0.0362063179 0.8431512799 0.5374789857 0.01456911676
-0.01500053406 -0.01401033211 -0.04139907074 0.7228722712 0.6891522897 0.05024739929
-0.01418460464 0.01492550087 -0.03562785339 0.7120128081 -0.7021138985 -0.008592707408
-0.02033940582 0.004444946098 -0.05706407623 0.9851141237 0.1148155224 0.1279357614
-0.01451913595 -0.01455198479 -0.02903955936 0.7084178593 0.7056901118 0.01206659458
-0.0002207193524 0.03692118073 -0.08117486763 0.04754964461 0.01078723241 0.9988106262
-0.0001508618196 0.03985327721 -0.08117410787 0.04879745754 -0.001921638829 0.9988068459
-0.0166962719 -0.007046506087 -0.05725851949 0.8228260329 0.4799063172 0.3043801016
-0.01163691902 -0.0169654541 -0.02175564575 -0.599113057 -0.8006262968 0.007815225888
-0.008460586548 -0.01874643517 -0.01536774254 -0.5148737271 -0.8571432003 0.01451134774
-0.01185523129 -0.01085619974 -0.06017291641 -0.5712314145 -0.6966207004 -0.4340671271
-0.01696550878 0.06017386882 -0.07218282318 0.8184300865 -0.03510987424 0.5735324667
-0.008948290825 0.01851923752 -0.01943118477 0.4647212335 -0.885372351 0.01224643558
0.009905260086 -0.004857774019 -0.06899247742 -0.4676944018 0.5845630432 0.662984159
-0.02037707233 0.04269903755 -0.06340085793 0.9919600065 0.0004318533149 0.1265510136
-0.01290897369 0.05194192505 -0.07659506989 0.5795924973 -0.001125247895 0.8149056822
-0.01186967945 0.01678953552 -0.02524180794 0.6311841917 -0.7755918292 -0.007989403341
-0.005686341286 0.04896437581 -0.08034394243 0.2513842529 -0.001883667791 0.9678855352
-0.01958965365 0.01305930646 -0.06579032135 0.9573391095 0.08009923974 0.2776435505
-0.01385841465 0.01522167683 -0.02919730949 0.6591793771 -0.75193714 -0.008549050814
-0.01990931168 0.02188902206 -0.06577377167 0.9706959354 0.006562298932 0.2402214336
-0.01534127235 0.01374476624 -0.032146595 0.7526831147 -0.6583357293 -0.007886466914
-0.01837147236 -0.008762245655 -0.04514066315 0.8947410319 0.4366111711 0.0938571847
-0.01646525192 0.01233038521 -0.03438205719 0.7995075235 -0.6006341465 0.005132438919
-0.01784930515 0.01022880411 -0.03855640793 0.8589602337 -0.5119890608 0.007383673789
-0.008648756981 -0.01470106363 -0.05708828259 -0.4332122978 -0.8026314169 -0.4100120896
-0.01885565376 0.008283047676 -0.03913622665 0.9240020101 -0.3818945537 -0.01941224153
0.01410061741 0.0006100292802 -0.06942967987 0.6120649089 -0.437788282 -0.6585726743
-0.01965332508 0.006302804708 -0.04212200356 0.9610685655 -0.2703210114 -0.05721680934
-0.00866847282 0.009723011653 -0.07767630259 0.4238710325 0.2280861536 0.8765329739
-0.02023566055 0.003782504082 -0.04188080788 0.9848140409 -0.1723484171 -0.02091238723
-0.01489149094 -0.01122455311 -0.05398517736 0.7230346107 0.631611658 0.2797993302
-0.0204561704 -0.001888507307 -0.04231934611 0.9929330684 0.11722931 0.01847188779
0.008984007835 0.0158603557 -0.07879673258 -0.4076814301 0.1208183706 0.905096002
-0.02058946323 0.01898856831 -0.06110518837 0.9960711467 0.006631345497 0.08830796135
-0.01985651143 -0.005252720515 -0.04205816269 0.9638820825 0.2644467244 0.03161108946
-0.01937891388 -0.006980239868 -0.04017690277 0.9398092236 0.3411550291 0.01928391279
-0.01744624647 -0.01085369078 -0.03917236582 0.8474290371 0.5309084986 0.0004395544256
-0.01585976028 0.0005853439569 -0.06709993744 0.7746386072 0.3839263361 0.5025291999
-0.01465810061 -0.01441106224 -0.03224778938 0.7094258713 0.7044889607 0.02025431555
-0.01432705307 0.01478341389 -0.03871985245 0.7470619578 -0.6646667633 -0.01079467168
-0.02049873352 0.003436076641 -0.05409916051 0.9960568077 0.06747585087 0.05760074175
-0.02051996422 0.05792356014 -0.06006718922 0.9964576526 -0.03737905755 -0.07533228133
0.006960037231 0.0151809063 -0.07957717133 -0.3593325422 0.1244883524 0.9248690579
-0.005461857915 -0.0046966573 -0.0715045414 0.2208233861 0.6079383093 0.7626585371
-0.01977463786 0.05500337919 -0.06619527435 0.9713472862 0.006118594099 0.2375858002
0.005697226524 -0.0116322031 -0.06428392029 0.2558338652 -0.7712214986 -0.5828948735
-0.00940542984 0.01829993629 -0.02336021233 0.477239224 -0.8787252323 0.00920266893
-0.01214609432 0.01661138916 -0.0287517662 0.639367253 -0.7689010615 -0.0008206154015
-0.01545831013 0.01361440182 -0.03526716614 0.7539123854 -0.6569694625 -0.002690793762
-0.01655942726 0.01221545887 -0.0374329834 0.7914518439 -0.6112192039 -0.003881189917
-0.01801051617 0.01012815285 -0.04168171692 0.8796781399 -0.47101751 -0.06564202555
-0.01966983604 0.006872421741 -0.04492768097 0.9625802624 -0.2554865044 -0.09036528353
-0.02034665585 0.003746573329 -0.04488180733 0.9864798293 -0.1567542543 -0.0478084741
-0.02056430721 0.001246638 -0.04530976486 0.9989405509 -0.04470314573 -0.01092724155
-0.01705244637 -0.01138151455 -0.04259023476 0.8452979263 0.5330770551 0.03605924537
-0.01980874443 -0.004992764473 -0.04519828606 0.9585199273 0.2796932319 0.0548748123
-0.02041445541 0.01885922909 -0.06326047707 0.9931839951 0.01557162589 0.1155122343
-0.01910283756 0.03381217384 -0.06829284286 0.9371676058 -0.0142239228 0.348589384
-0.009411581993 -0.01829913521 -0.02337231445 -0.4270299033 -0.9042212827 0.005416046195
-0.009812137604 0.01809088516 -0.02712010193 0.5111273977 -0.8595048891 0.0003589624458
0.003440832376 -0.004757473946 -0.07201236725 -0.172753088 0.6202527637 0.7651423918
-0.02056454182 0.04299101257 -0.06124607468 0.9964131979 -0.0006105899247 0.08461894703
-0.01241304684 0.01643741226 -0.03218106461 0.645039225 -0.7639403404 -0.01787608654
0.009157851219 0.006509002209 -0.07639514923 -0.4233075289 0.3220365281 0.8468194675
-0.01666565323 0.01210139847 -0.04045456314 0.8079243523 -0.5866507444 -0.05566996478
-0.0187135849 0.009405030251 -0.044438797 0.9133843023 -0.380529517 -0.1446596107
-0.02005009524 0.006803674698 -0.04793687566 0.9810741907 -0.1586861902 -0.1109600172
-0.02056722832 0.001235855997 -0.04804354477 0.9998518903 0.0005900885154 0.01720026771
-0.005293832302 -0.01989043999 -0.0213313427 0.3611287765 0.9324970621 -0.005935990043
-0.008304659843 -0.01845792484 -0.04510663605 -0.3963134557 -0.9122719492 -0.103419222
-0.02023785019 -0.002163150281 -0.0480760746 0.9847679588 0.1559461001 0.07689526103
-0.01492811298 -0.0141372304 -0.03848193932 0.7268903664 0.686595988 0.01470865224
-0.01892773247 0.000595243156 -0.06049293137 0.9106922888 0.2808439244 0.3029294395
-0.01145906734 -0.01706788349 -0.03319554901 -0.5555870178 -0.8311073931 0.02415712577
-0.00985187149 -0.01808575821 -0.02719744492 -0.5108803929 -0.8595294746 -0.01450194422
-0.005259314537 0.01989518547 -0.02126486969 -0.360012588 0.932913537 0.007954181176
-0.01020969582 0.01788653946 -0.03079540634 -0.5832549825 0.8122816072 0.003495122824
-0.01580634403 0.01334894466 -0.04156666183 0.7822870213 -0.6182281084 -0.07629562424
-0.01901911736 0.01054513931 -0.04775048447 0.9465074292 -0.2594638271 -0.1918390182
-0.01935592842 -0.001003587365 -0.05709422429 0.9445534685 0.255161596 0.2066671359
0.01121020508 0.02190527725 -0.07787025706 -0.5299918255 0.02582817752 0.8476093264
-0.01965472031 0.009258483887 -0.04897312927 0.963268817 -0.2092401239 -0.1683203991
-0.02038023281 0.006137203932 -0.05036761284 0.9910577545 -0.110929408 -0.07415654832
0.002767678797 0.03713424778 -0.0809741497 -0.112392893 0.01417345306 0.9935627564
-0.02051573277 0.001225713342 -0.05062644196 0.9970683211 0.06225559557 0.04448599552
-0.02008538055 -0.001591036391 -0.05138760071 0.9771543677 0.1836899441 0.1068987659
-0.01984041166 0.03403060722 -0.06600436974 0.9717859395 0.001072666805 0.2358621147
-0.01691471577 -0.01129725552 -0.04506044388 0.8342208832 0.5447124547 0.08581293477
-0.0128368845 0.01611112213 -0.03865107346 -0.6876090173 0.7258800784 0.01708657475
-0.006328605175 0.01958201408 -0.0262570076 -0.3775521722 0.9259300402 0.01038835426
0.01424082375 0.009037008286 -0.07348483276 0.6518453409 -0.2596665161 -0.7125103171
0.00507621479 -0.01423059654 -0.06072861099 0.23406694 -0.8344755008 -0.4988620111
-0.01050819302 0.01769817924 -0.03421715927 -0.5963574074 0.802715112 0.002508301562
-0.0204109834 0.02774735959 -0.0633133227 0.9904744718 0.01292240055 0.1370887748
-0.01980777597 0.04595252419 -0.06610399628 0.9739635853 -0.01347255642 0.2263038329
-0.02051761882 0.006687357267 -0.05327178574 0.9971873006 -0.0521395475 -0.05384194516
0.01140608501 0.02788281504 -0.07775164541 -0.6073113353 -0.01545806949 0.7943135339
-0.0116864233 -0.01559013748 -0.04989524078 -0.5692828527 -0.795285413 -0.2084181985
-0.02027857399 0.001212440982 -0.05411389542 0.9829264605 0.1464948618 0.1113320653
-0.01928648567 -0.00490983057 -0.05092420769 0.9342624767 0.3307493015 0.1332611128
-0.01791651382 -0.007995791149 -0.05096292419 0.865443025 0.470089586 0.1732747862
-0.0167244517 -0.01099635347 -0.0478341217 0.820949791 0.5557685804 0.1310065866
-0.01690488134 0.05500371225 -0.07227428872 0.8023047523 0.01410199497 0.5967480357
-0.0190510006 -0.003022685051 -0.05568027878 0.9187461308 0.325500617 0.2235059182
-0.002534189999 0.05207974243 -0.08100792694 0.08695872941 0.001273637465 0.9962111007
-0.005619103352 0.05192074267 -0.08035912196 0.2883824427 -0.001794770562 0.9575136268
-0.01873337221 0.0491609211 -0.06907777786 0.9230223812 0.004813362245 0.3847161491
-0.01548219166 0.003831620216 -0.06971172638 0.7532099203 0.3158570688 0.5769827797
-0.01544681327 0.01320266628 -0.07334387207 0.7606072055 0.1582403266 0.6296321767
-0.006282756329 -0.01958826256 -0.02616965103 0.3785482806 0.9254872628 -0.01321081816
-0.01960197449 0.05781394958 -0.05444143677 0.9842971035 -0.008999392896 -0.1762901672
-0.01958075015 0.05216102346 -0.05434521103 0.9788322731 -0.0001371690774 -0.2046640232
-0.01954862213 0.03971906789 -0.05418070094 0.9784632854 -0.000525981161 -0.2064202571
-0.02050394154 0.01305304337 -0.06092325211 0.9943977865 0.04206734942 0.0969710284
-0.01954376221 0.03663072777 -0.0541499691 0.9783777191 -2.521633643e-06 -0.2068261078
-0.02040858014 0.01009081554 -0.06073858515 0.98747987 0.06837058482 0.142158255
-0.01953982735 0.03416610718 -0.05412661171 0.9782887107 4.752922625e-05 -0.2072467041
-0.01120257388 0.03723230362 -0.07782813348 0.5390361789 0.02084713681 0.8420245809
-0.0205596784 0.01601849238 -0.06103713481 0.9945374861 0.02212280762 0.1020086763
0.005754065514 -0.001185904682 -0.07392840576 -0.2771340883 0.5163777804 0.8102781528
-0.01952378591 0.03109484673 -0.05407808685 0.9779843822 0.000606249414 -0.2086772166
-0.01646311188 -0.0104842701 -0.05086255646 0.8072347504 0.5564444703 0.1968288829
-0.01949238332 0.02496971385 -0.05398742421 0.9769410752 -7.12870952e-05 -0.2135090875
-0.01960229429 0.01884435272 -0.05417007573 0.9801331462 -0.04494437755 -0.1931813101
-0.01815138721 -0.001790800999 -0.06031566556 0.8762927076 0.3443983662 0.336898881
0.01269640827 0.0486485405 -0.07677025604 -0.5220834021 -0.01040998225 0.8528309056
-0.02028471279 0.01329359007 -0.05544040108 0.9921635824 -0.06444934265 -0.107040684
0.005929905653 0.02798458624 -0.08028387833 -0.2421426009 0.002433247072 0.9702376205
0.0006173048671 -0.01341538596 -0.06309173679 0.05506873948 -0.8208473212 -0.5684866834
-0.02055801163 0.009955363464 -0.0574805542 0.9998717325 0.000958461416 -0.01598749349
-0.018789217 -0.005497594833 -0.05260705948 0.9076745144 0.3836639946 0.1700850236
-0.007119242191 -0.01931170273 -0.03063204956 0.4442937219 0.8958713729 -0.004191887897
-0.02052913094 0.05557388306 -0.0604802564 0.9972079472 0.00583592624 0.07444630246
0.01229235363 0.001809936523 -0.07197179413 -0.5600557616 0.4268240377 0.7100413965
-0.02047843838 0.05198395538 -0.05863620758 0.9959074711 0.001716490433 -0.09036239583
-0.02047141902 0.04890416082 -0.0585896403 0.9956623263 0.01591439548 -0.09166931849
0.00767285037 0.04959321785 -0.07967351532 -0.3903396026 0.02792594256 0.9202473235
0.002683464766 -0.01833403778 -0.05278701782 -0.02052740574 0.9342858239 0.3559334556
-0.01707771216 0.04584513643 -0.07202030945 0.8258046026 -0.0004280956892 0.5639561818
0.007093900681 -0.009133773804 -0.06660661316 0.3604650528 -0.6941812662 -0.6230387752
-0.02044304721 0.02820145988 -0.05836350505 0.9938262714 0.007924658564 -0.1106640959
0.01070071507 0.008902196884 -0.07631892395 -0.4959557947 0.2798041654 0.822032529
-0.01129580212 0.02798639255 -0.07777451494 0.5460299806 0.0004616483091 0.8377655085
-0.02035930061 0.01591249084 -0.0631451149 0.9938724679 0.03040391132 0.1062690913
-0.0204499855 0.02217266401 -0.05834333038 0.994704991 -0.000326351978 -0.1027709807
-0.01772675269 0.004262419122 -0.06631787763 0.858141984 0.2697755604 0.4368220259
-0.01911175855 0.03087183762 -0.06827249908 0.9327576338 -0.009046305107 0.3603905673
-0.02052736092 0.01615539042 -0.05846251551 0.9969067743 -0.03884507654 -0.0683223498
-0.01987259102 0.001200993538 -0.05721238708 0.9583267655 0.2057033856 0.1982320048
-0.014350245 -0.01373015594 -0.04825200462 -0.6969154698 -0.6985902168 -0.162112729
-0.002613656839 0.04911222903 -0.08099919637 0.09091465518 0.0005078227371 0.995858558
-0.007768119812 -0.0190648365 -0.03466424561 -0.4756039207 -0.8795668822 0.01276754868
-0.00882861948 0.02509579992 -0.07919406128 0.4201926947 0.007366305926 0.9074050016
-0.02055304527 0.05213363012 -0.06133340963 0.995757387 -0.001415400318 0.09200664539
-0.01122263797 0.006889292081 -0.07522808584 0.5721018209 0.2909785908 0.7668317718
-0.02055689144 0.0490749588 -0.0613018856 0.9962767444 -0.006952623416 0.08593200566
-0.01096667337 -0.01019787741 -0.06224019241 -0.5138492991 -0.6955554982 -0.502156795
-0.02035287666 0.05178233592 -0.06347788747 0.9908676219 -0.00623428059 0.134694059
-0.007222050428 0.02510563374 -0.07988317871 0.3455842402 0.01781518704 0.9382186057
-0.02056072299 0.04602813466 -0.0612728831 0.9962189094 -0.0006135271157 0.08687639589
-0.008691754818 0.00403026406 -0.07552639686 0.4532760104 0.3698863455 0.8110024351
-0.02057214451 0.03694581795 -0.06119958687 0.9967439619 -0.0006968824915 0.08062870941
-0.02057592901 0.03393626912 -0.06117987442 0.9967337372 -0.01149355232 0.07993594505
-0.01478984314 0.03971397315 -0.07488100603 0.7076344805 -0.0128840402 0.7064612116
-0.02058347003 0.0279387881 -0.06114713923 0.9967447147 -0.003540671621 0.08054462909
-0.02058722973 0.02494960308 -0.06113409424 0.9968990896 -0.003474915302 0.07861380422
0.0007254404426 -0.01678558254 -0.05713531876 0.009126500157 -0.912110611 -0.4098425798
-0.02059081586 0.02196642558 -0.0611231486 0.9966960505 0.0003370039895 0.08122111419
-0.01972319756 0.003924171543 -0.06045898438 0.9596206661 0.1879261584 0.20931301
-0.01876620579 -0.002404156864 -0.05769393539 0.9113181851 0.3243931496 0.2535118339
-0.01568778038 -0.01107600737 -0.05202423286 0.7545901062 0.6169775491 0.2234557577
-0.008255772591 -0.01884342003 -0.03832793427 -0.4403202351 -0.8969430732 -0.04013992914
-0.01431465931 0.02208340969 -0.07534569016 0.7081441598 -0.001764909578 0.7060656726
-0.02033509954 0.0578962059 -0.06353962962 0.994091971 0.01112477026 0.1079694066
-0.01445541668 0.001164143662 -0.06933748372 0.705452257 0.385284071 0.5948893155
-0.02036127663 0.04874333 -0.06345009613 0.9910272638 -0.002321101256 0.1336397202
-0.02036932564 0.04571628825 -0.06342451731 0.9913385137 -0.002372673466 0.1313100213
-0.02039158344 0.03669385529 -0.06335978889 0.9917473762 -0.001226572137 0.1282015499
-0.02039835421 0.03370442454 -0.06334234619 0.9905149372 -0.000117989609 0.1374050406
0.003149895 0.004317767477 -0.07750925751 -0.126749139 0.3949880018 0.9099006178
-0.02040483475 0.03072216129 -0.06332677269 0.9906441329 -0.002990230771 0.1364377528
-0.0201208903 0.01275416819 -0.06351210276 0.980622878 0.07791421069 0.1797446714
-0.02041684532 0.02477845669 -0.06330171967 0.9905465875 0.01293893598 0.1365651561
-0.0198330663 0.03699809329 -0.06602633413 0.9724640303 0.001407114867 0.2330487712
-0.01989128749 0.01000783698 -0.06349268786 0.9648593001 0.1004018799 0.2428291448
-0.01942936897 0.005315713167 -0.06264217377 0.9473237492 0.1857074313 0.2609414958
-0.01608400345 -0.00912526989 -0.05530809784 0.792097273 0.5402182074 0.2841587557
-3.576374054e-05 0.04906308746 -0.08116366882 0.03402751097 0.009659824944 0.9993742123
-0.0112721839 -0.01633091831 -0.04785327911 -0.5528711098 -0.8179403458 -0.1590821379
-0.01978631878 0.05197436619 -0.06616281128 0.9707017124 0.006434578046 0.2402015441
-0.01175647044 -0.01416513324 -0.0538418541 -0.561531267 -0.7659992762 -0.3129340905
-0.01981698863 0.0429583168 -0.06607656225 0.9739402926 -0.0115690965 0.226509299
-0.019825212 0.03997340107 -0.06605017662 0.9738215307 0.001319299538 0.2273101095
-0.005350221316 -0.01818289185 -0.05143756104 -0.2450962366 -0.9291382668 -0.2768210901
-0.01985326719 0.02811861992 -0.06596622276 0.9714250138 0.0104522165 0.2371164137
0.006294598579 0.03983279037 -0.08016230011 -0.2966123072 -0.01580993443 0.9548671034
-0.01187262074 -0.005709563096 -0.06651114909 0.6011459492 0.5548238129 0.5751470111
-0.01985859776 0.02517269548 -0.06594967779 0.9714940388 0.009533008059 0.2368722322
-0.01980626183 0.0190549778 -0.06605147858 0.9695940388 0.02027007389 0.2438780925
-0.01825106859 0.001181704789 -0.06295191097 0.8753351993 0.3234028699 0.3594424468
-0.01676738167 -0.004783369303 -0.06028599072 0.8202776968 0.4390587156 0.3665677896
-0.01850244665 0.0157908386 -0.06912160492 0.8825870595 0.08380395518 0.462619692
-0.01357712936 -0.01291335964 -0.05330351639 -0.6565835484 -0.7004624888 -0.2797326328
-0.01726640129 0.03093935667 -0.07174473027 0.8258978615 0.0004757008282 0.5638195599
-0.00820794638 0.01596010272 -0.07914925003 -0.4087446841 -0.1261999039 -0.9038812795
-0.01192328024 -0.01488072586 -0.05160606575 -0.5926664654 -0.7644945779 -0.2535636037
-0.01925246811 0.01052119446 -0.06597888184 0.9355781098 0.1308496071 0.3279816776
-0.01875406122 0.009621511698 -0.06687804604 0.9121497262 0.158379845 0.3780194462
-0.01698299376 -0.001777923564 -0.06311125692 0.8366156 0.3854260144 0.3892571454
-0.0171926651 0.02478697014 -0.07186618974 0.8276671783 -0.01150572939 0.5611012922
-0.008754273653 -0.0176235714 -0.04851612473 -0.4528157301 -0.8668235179 -0.2087460262
-0.01869753933 0.05516400433 -0.06913755035 0.9220390617 0.01546470018 0.3867878124
-0.01866483498 0.06000295639 -0.0691894455 0.9241565425 -0.05165783729 0.3785051555
-0.01861649857 0.05792330246 -0.069296698 0.9048737949 -0.01338639911 0.425469411
-0.01871646531 0.05215654246 -0.06910773722 0.9226100691 -0.0003746281941 0.3857337424
-0.002598358904 0.003880981343 -0.07740529306 0.09892115625 0.4076316316 0.9077725804
-0.01874886195 0.04617764664 -0.06904918798 0.9234472645 0.01589213863 0.3833961262
-0.01909508419 0.03617012787 -0.06831052399 0.9329332064 -0.01678027858 0.359658247
-0.01911991119 0.02793802834 -0.06825391388 0.9339152711 -0.001680033829 0.3574904809
-0.01911602465 0.01917594147 -0.06816819255 0.930186414 0.03837622833 0.3650760198
-0.01684623375 0.001289525151 -0.06598444672 0.8340045574 0.3246185011 0.4461605395
-0.01497262335 -0.005148102045 -0.0631804657 0.7242505093 0.5126251419 0.4611688017
-0.01267207813 -0.01152684879 -0.05793925667 -0.6092441366 -0.6936394325 -0.384299258
-0.01136153769 -0.01311927748 -0.05687394047 -0.5658539177 -0.7382728106 -0.3671002601
-0.008919353008 -0.01683632374 -0.05135094452 -0.4317046555 -0.8562695165 -0.2836081901
-0.002301189542 0.05986444092 -0.08102852631 -0.1015104331 0.02303532704 -0.9945677482
-0.004337312222 -0.02004415703 -0.04198156738 0.2877774447 0.9539166986 0.08501220202
-0.008649600744 0.04011585522 -0.07927572441 0.4688026658 0.009167925042 0.883255348
-0.01850544739 0.03369657516 -0.06960749817 0.9098631462 -0.01393971974 0.4146742569
