# .PCD v0.7 - Point Cloud Data file format
VERSION 0.7
FIELDS x y z normal_x normal_y normal_z
SIZE 4 4 4 4 4 4
TYPE F F F F F F
COUNT 1 1 1 1 1 1
WIDTH 553
HEIGHT 1
VIEWPOINT 0 0 0 1 0 0 0
POINTS 553
DATA ascii
-0.0200158329 0.004621600628 -0.004818229675 0.9717910446 -0.2358426356 -0.0006457086785
-0.004078550816 0.02016084671 -0.002820123792 0.1952746495 -0.9807481862 -0.0008980778802
-0.0183448747 0.05426265589 -0.05133933258 0.8921615893 -0.01048203201 -0.4515947582
-0.01611260223 0.02838405037 -0.07343380737 0.7931624668 0.005918412795 0.608981341
-0.006234582901 0.01957533455 -0.0007012236118 -0.3265767859 0.9449034545 0.02247364284
-0.01951737595 0.01204592896 -0.06572701263 0.9508361854 0.09426440755 0.2949996101
-0.00623848629 0.01957706833 -0.002804934263 0.3228961539 -0.9464338679 -0.001003774774
-0.02048183918 0.002532231629 -0.04511902618 0.9961309568 -0.07971717375 -0.03699039264
-0.01946179962 -0.006723579407 -0.02458527184 0.9515349792 0.3073842553 0.009803216471
-0.0172632122 -0.01120515633 -0.0127875948 0.8328973205 0.5532759193 0.01295417356
-0.008126582146 0.01888779831 -0.0006980663538 -0.4139069383 0.9100514167 0.02207861652
-0.01615936565 0.01269445419 -0.01307747984 0.7828069189 -0.622264258 -0.0007217765539
-0.01998687363 -0.001655589223 -0.05257536697 0.9710186896 0.2031593925 0.1258926748
-0.009764908791 0.01809881783 -0.000695517838 -0.4745485927 0.8798098043 0.02717243687
-0.01946811867 -0.006720048904 -0.03094165802 0.9513342323 0.3081608793 -0.0002256364607
-0.01806851959 0.009802271843 -0.004808895111 0.8797632208 -0.4754104204 -0.001267907014
-0.02002552605 -0.004809660435 -0.03715800476 0.9796762251 0.2005851016 -0.0003330963777
-0.009781785011 0.01810648727 -0.02859082031 0.4787370887 -0.8779494414 0.003946923519
-0.02041822433 0.002498695254 -0.0186417532 0.9917543651 -0.1280635726 0.004795896223
-0.01640186119 0.0485127182 -0.07300954437 0.7894836881 0.0004515337479 0.6137713763
-0.01739237595 0.01100075722 -0.02893915462 0.8487088153 -0.5288602848 -0.0003820591411
0.00762640063 0.06019934718 -0.07669129181 -0.3499912912 0.535578969 0.7685449005
0.01179363155 0.05651643753 -0.07290844727 -0.6809250549 0.0125928806 0.7322448286
-0.01119905472 0.01722715759 -0.0006934627891 -0.5512918461 0.8323354282 0.0574023981
-0.02032573509 -0.003054074764 -0.0426806488 0.9880527732 0.1520697983 0.025029857
-0.01679792531 0.02623244158 -0.04872054927 0.8027490615 0.005576790046 -0.5962909053
-0.01253278351 0.01631783676 -0.0006916543245 -0.5919306248 0.8059886304 0.0006805451914
-0.01053187561 0.006054480553 -0.07537909698 0.569722012 0.2894878332 0.769164237
-0.01488840008 -0.01421174765 -0.002871321797 0.7859982145 0.6182274063 -0.001296469912
-0.001423918962 0.0205467205 -0.02704142284 0.0558416371 -0.9982421528 -0.01985738945
-0.0200414238 0.04843501282 -0.06534210205 0.9691615926 0.001120986752 0.2464235193
-0.00545172596 0.03875792694 -0.04075279617 -0.3339449225 0.01039425455 0.9425352769
-0.01786824799 0.01046812487 -0.06905844498 0.8671557699 0.1668604492 0.4692530886
-0.01920708752 0.007298736572 -0.002748743296 0.9353302169 -0.3537750903 -0.0007555603106
-0.01861244011 -0.008812992096 -0.02330257607 0.8985502188 0.4386981485 -0.01230604711
-0.0200158329 0.004621600628 -0.0006882660985 0.9718298671 -0.2356828803 -0.0005378165124
-0.01853263855 0.05203749084 -0.0694903183 0.903093679 -0.001283561916 0.4294416833
0.008751198769 0.0588950119 -0.04595819473 0.7096121343 0.7008208859 0.07280593866
-0.008165914536 0.01890546608 -0.03857371902 0.4459430278 -0.8928112718 -0.06342593168
-0.01422643661 0.01482426596 -0.0006896942854 -0.6886911563 0.7244114026 0.03053868214
-0.01971195793 0.01365723228 -0.05285834122 0.9517887496 -0.1534100612 -0.2656379665
-0.01615379858 0.01269176102 -0.0006879087389 0.7845780313 -0.6195168197 -0.02522346071
-0.01910547638 0.02626631737 -0.05297167969 0.9355872079 -0.01424587176 -0.352808208
-0.01737503052 0.0109922266 -0.000687138021 0.849343858 -0.5278387964 -0.001102677255
-0.02059024048 0.0002442609668 -0.03262020874 0.9998930401 0.01042454577 0.01025851753
-0.01806349373 0.009799773216 -0.0006869449615 0.8768996619 -0.4801219678 -0.02301909907
-0.01870050812 0.008582289696 -0.0006868897676 0.907133218 -0.4208423193 -0.001033003424
-0.01739237595 0.01100075722 -0.03518715668 0.8494927941 -0.5275682134 -0.005811454121
-0.01615472627 0.01269220996 -0.002751703799 0.7827842036 -0.6222923099 -0.001082399204
-0.001423918962 0.0205467205 -0.03707844353 0.05594833916 -0.9984096764 -0.006921078342
-0.004080022812 0.02016149139 -0.004935429096 0.195122771 -0.980778649 -0.0005881922951
-0.01050944519 0.03631638718 -0.07826521301 0.5696307143 0.02146158484 0.8216205022
-0.009504826546 0.05313953018 -0.04235506821 -0.4410464069 -0.004841606486 0.8974712395
0.01702062225 0.05645490646 -0.05902589417 0.9931656707 -0.07818276733 0.08665682514
0.002528808117 0.02039816284 -0.005026597977 -0.03757638424 -0.9992928227 -0.001367445927
-0.01488190556 -0.01421548843 -0.0007178276777 0.785550886 0.61879571 -0.001294173176
-0.02059024048 0.0002442609668 -0.01869517517 0.9999254215 0.009134052421 0.008106823592
-0.0192047348 0.007297540665 -0.0006871724725 0.9352247295 -0.354053887 -0.0007419078727
-0.001826191068 0.06060000229 -0.07905738449 0.4344753835 -0.07811604144 -0.8972898223
-0.01119905472 0.01722715759 -0.006935750246 0.5518853678 -0.8339195062 -0.0008933115654
-0.02025196075 0.04014229774 -0.05706043816 0.9844846678 -0.004532625905 -0.1754120699
-0.01739237595 0.01100075722 -0.01926271152 0.8489368692 -0.5284102443 -0.009423680623
-0.0195849247 0.0524037323 -0.05435992432 0.9471136437 0.003476136589 -0.3208795139
-0.02056956196 0.02447729778 -0.06093288803 0.9993165055 0.003665912656 0.03678427595
-0.01969968796 0.006006727695 -0.0006874921918 0.9589447374 -0.2827653269 -0.02165087628
-0.01829942513 0.02049147034 -0.05118857574 0.8876711259 -0.009679945316 -0.4603762275
-0.02059024048 0.0002442609668 -0.02286273956 0.999965935 0.008250591787 -0.0002377193823
-0.01119905472 0.01722715759 -0.00277393043 0.5515925066 -0.8341136075 -0.0004430993956
-0.01281736279 0.02845266533 -0.0445210228 -0.6462682869 0.007385127025 0.763074545
-0.01542153168 0.06060000229 -0.04924797058 0.6223338974 -0.6387116618 -0.4524908101
-0.02046109581 0.020004776 -0.06272213745 0.9940167066 0.003486403925 0.1091724875
-0.004082968235 0.02016278458 -0.009167450905 0.1941940621 -0.9809230932 -0.008862928463
-0.02040141296 0.002489803314 -0.0006896791756 0.9921099613 -0.1151823613 -0.04950604298
-0.0161701467 0.01269965982 -0.0289717226 0.7831439479 -0.6218404198 -0.0002217269565
-0.02050089455 -0.001377193809 -0.004854613781 0.9982649445 0.05887851482 -0.0006489754959
-0.02037614632 -0.00302648735 -0.006955355644 0.9896537084 0.1434754365 -0.0005801201841
-0.01255447149 0.04642710495 -0.0768872757 -0.6616865326 -0.005765332964 -0.7497584235
-0.02058298111 0.0002403703034 -0.0006916319132 0.9999808628 0.006120237003 -0.000903730551
-0.001423918962 0.0205467205 -0.01919171524 0.05507705195 -0.9983067024 -0.01871486622
-0.01401966381 0.03262258816 -0.04551084328 -0.6788075287 -0.005441019949 0.7342960808
-0.006242390156 0.01957880211 -0.004908808708 0.3226519672 -0.946517155 -0.0009916466956
0.006904528618 0.05798231506 -0.07618287659 -0.3941290433 0.05439002017 0.9174442887
-0.01725795937 -0.01120815086 -0.01065480518 0.8322415599 0.5542262908 0.01439460462
-0.01969968796 0.006006727695 -0.03103687859 0.9576364314 -0.2879799721 -3.017253091e-05
-0.01592127132 0.04058164978 -0.04753533745 0.7762028364 0.002933452697 -0.6304764481
-0.02049723053 -0.001379178405 -0.0006934725642 0.9963633236 0.058700426 -0.06176072611
-0.01542153168 0.06060000229 -0.05125594521 0.5820754031 -0.8067270816 -0.1018805231
-0.01952258492 -0.005087758541 -0.04861401367 0.949056312 0.2958439059 0.1084827174
-0.02037367439 -0.003027839422 -0.0006954291463 0.9884863166 0.1490919339 -0.02581467074
-0.001423918962 0.0205467205 -0.007100980043 0.05191048703 -0.9985114564 -0.01673836524
-0.01996644211 -0.004842330456 -0.0006981155872 0.9762841611 0.2152044028 -0.02358605001
-0.01968836212 0.0524397316 -0.06647954559 0.9598541059 0.007246576464 0.280406103
-0.01819347572 -0.005822677612 -0.05460981369 0.8852983167 0.4083119084 0.222549491
-0.02056829357 0.007990513086 -0.05668066597 0.9998668435 0.01083080106 0.01220610373
-0.01121354198 0.01723381805 -0.03130484962 0.5402610247 -0.8414843689 -0.004699168151
-0.01942105675 -0.006746339798 -0.0007011735439 0.9533220388 0.3013996687 -0.01831201871
0.00253635323 0.02039493179 -0.002872270584 -0.03816679285 -0.9992704495 -0.001365512184
-0.001422471464 0.02054609299 -0.002840023756 0.04999225353 -0.9987494384 -0.0005778108008
-0.01493741798 -0.01418351555 -0.02661223602 0.7861106369 0.6180858084 2.329549906e-14
-0.020029603 0.004628749847 -0.02898701572 0.9716879971 -0.2362674068 -0.0003856416206
-0.01867499542 -0.005556425571 -0.05307455063 0.8988809654 0.39158119 0.1966651512
-0.008129843712 0.01888926315 -0.002792311311 0.4105355624 -0.911843599 -0.001342763082
-0.01133079815 0.0544472599 -0.04341143608 -0.5736307154 0.008119474605 0.8190737918
-0.01424637604 0.01483368397 -0.01864198399 0.6920781678 -0.721722912 0.01199366344
-0.009768139362 0.01810028553 -0.002782117367 0.4798990959 -0.8773234478 -0.0006524489145
-0.01253278351 0.01631783676 -0.002766696215 0.5919340568 -0.8059860997 -0.0006924017787
0.01703597164 0.05418980408 -0.05914440536 0.9976854578 -0.01048219549 0.06718519855
-0.0200158329 0.004621600628 -0.002753143072 0.9718165596 -0.2357375827 -0.000605399185
-0.01871684647 0.008590503693 -0.03308994675 0.9083366596 -0.4182354155 -0.001910510408
-0.0203759594 -0.003026589632 -0.00486833477 0.9896115986 0.1437643956 -0.0008261430349
-0.01422933459 0.0148256371 -0.002758825541 -0.6918735127 0.7220184791 0.0005985603921
-0.01811580849 -0.004263475418 -0.05738307571 0.8795580069 0.3863383794 0.2777055438
-0.01617469883 0.01270185804 -0.03522619247 0.7830592901 -0.6218462908 -0.01119548271
-0.01493741798 -0.01418351555 -0.03312503052 0.7861106369 0.6180858084 2.176037128e-14
-0.02042542124 0.002502512425 -0.02904546165 0.9930069953 -0.1180553385 -0.0002103526457
-0.01402384949 -0.01140275669 -0.05568865585 0.6854594733 0.6580026653 0.3117335447
-0.001423918962 0.0205467205 -0.004970260143 0.05041683716 -0.9987282422 -0.0002021231881
-0.02004166508 0.004635013342 -0.03873237038 0.9715999544 -0.2365554497 0.005920115491
-0.01960408401 0.03132508087 -0.0668041153 0.9574488071 -0.004951454221 0.2885606779
-0.004480848789 0.04642316628 -0.0405315876 -0.2958269849 0.007727259934 0.9552102829
-0.01754573822 0.03190444565 -0.07138384247 0.8609078028 -0.007130734888 0.5087110257
-0.00626844883 0.01959037018 -0.01895275116 0.32166718 -0.9468523716 -0.0009009732722
-0.01737755013 0.01099346542 -0.002748604059 0.8492560215 -0.5279800953 -0.001108573552
-0.01806600761 0.00980102253 -0.002747831702 0.8798184852 -0.4753080717 -0.001292334344
-0.01809792519 0.009816895008 -0.02892926407 0.879116752 -0.4766064796 -9.942078562e-07
-0.01986362839 0.0385765419 -0.05519638824 0.9642862648 0.003551749307 -0.2648384121
0.002480968237 0.02041865826 -0.01868594551 0.03259860372 0.9994675642 0.001385333769
-0.009771370888 0.01810175323 -0.004868887424 0.4802751635 -0.8771174712 -0.0008420523185
-0.01616726208 0.01269826674 -0.02481466246 0.7830078904 -0.6220117178 -0.0002579916077
-0.02046942139 0.007940265179 -0.0588223114 0.9917201953 0.07101933322 0.1069920958
-0.01870286369 0.008583474159 -0.002747612715 0.907221991 -0.420650895 -0.001040935418
-0.02059024048 0.0002442609668 -0.01730748749 0.999973509 0.003682740889 -0.00627842996
-0.01969968796 0.006006727695 -0.002750047445 0.9576353486 -0.2879829495 -0.0005999625958
-0.01825084114 0.02195536232 -0.05109539413 0.8843840547 -0.01367452025 -0.4665595903
-0.01808865547 0.009812285423 -0.02132588387 0.8723272824 -0.4888393515 -0.009011144416
-0.02040332842 0.002490816891 -0.002758774102 0.9930483916 -0.1177037519 -0.0008477257832
-0.02058584881 0.0002419071421 -0.002766575813 0.9999799701 0.00625543423 -0.0009638059904
0.0167497139 0.05803533936 -0.05741627502 0.976973755 -0.1136894049 0.1805463962
-0.006969389677 0.05442026138 -0.04126293564 0.3244290852 0.01239839428 -0.9458287628
-0.02037614632 -0.00302648735 -0.03279986191 0.9903260376 0.1386885192 0.004453526345
-0.01579920578 -0.000731025815 -0.06618151855 0.7544940113 0.4266642429 0.498694707
-0.02049906349 -0.001378186166 -0.002773949742 0.9982722823 0.0587512286 -0.0008622394216
-0.009274739265 0.01787605286 -0.07888076019 -0.5456255505 -0.04979467758 -0.8365484138
-0.01934090042 0.03836862564 -0.06765341187 0.9407856921 -0.01397601142 0.3387136735
-0.01946811867 -0.006720048904 -0.03874414062 0.9506782838 0.3099084786 0.01294355684
-0.01739237595 0.01100075722 -0.03657918549 0.8487925714 -0.5286626423 0.008184208425
-0.02037481594 -0.003027214646 -0.0027817837 0.9895857409 0.1439413207 -0.0009786111986
0.002430379868 0.02044032955 -0.03313006401 0.02773361346 0.9996144669 0.001328286951
-0.01996983624 -0.004840454102 -0.002792505264 0.9756430974 0.21936124 -0.001092164271
-0.01583214188 0.02010681915 -0.04739285469 0.7655998333 -0.05495675926 -0.6409654046
-0.01253278351 0.01631783676 -0.004841948986 0.5918939688 -0.8060153209 -0.0009122185195
-0.01974890709 0.007574094057 -0.04698230171 0.9677429171 -0.2274560124 -0.1083393227
-0.01540081406 -0.004139406681 -0.06364619446 0.7381430925 0.4787962535 0.4752882521
-0.02003907394 0.004633667469 -0.03663844681 0.9713251822 -0.2376048639 0.008445063613
-0.01809112676 0.0564577802 -0.05081546656 0.8773819729 0.006023694957 -0.4797547173
-0.01942464542 -0.006744335413 -0.002804735422 0.9525294533 0.3044446333 -0.001051614851
-0.01969968796 0.006006727695 -0.01100438023 0.9580413476 -0.2866295728 -0.000514045049
-0.0200158329 0.004621600628 -0.0172237072 0.9719052286 -0.2352485588 -0.007638201895
0.002508680105 0.02040678596 -0.01077357292 -0.03560252499 -0.9993650835 -0.001374800932
-0.01724503326 -0.01121552086 -0.002840482593 0.8306894845 0.5567359786 -0.0001742730184
-0.01793653393 0.0385214386 -0.07071841812 0.8713284315 0.00868638508 0.4906233903
-0.01929695892 0.005799841404 -0.06348789597 0.9332442289 0.1928129556 0.303114456
-0.01615565395 0.01269265842 -0.004815696478 0.782820347 -0.6222468805 -0.001060220169
-0.01208393383 0.04126271439 -0.04393849945 -0.6079874148 9.104194988e-05 0.7939466576
-0.01871684647 0.008590503693 -0.03100788116 0.9085170377 -0.4178478071 -4.876133463e-05
-0.02037614632 -0.00302648735 -0.01461408615 0.9890255282 0.1476684629 0.00474654033
-0.01119905472 0.01722715759 -0.004854609013 0.551780104 -0.8339893295 -0.0007177085252
-0.01121749353 0.02851718521 -0.04333397484 -0.5634425031 -0.007619529714 0.8261201417
-0.01889941406 -0.003834641099 -0.05506270218 0.9260002377 0.3216157709 0.1977039598
-0.02019678307 0.02650359058 -0.0566851635 0.97797818 0.002029212983 -0.2086972971
-0.01943182373 -0.006740325451 -0.007012598276 0.9523785596 0.3049170155 -0.0008323908972
-0.01294275713 0.05219315529 -0.04464678955 -0.6340940447 0.009576330205 0.773196635
-0.01942650032 0.06051125336 -0.06731407166 0.9421829401 -0.03291617809 0.333478384
-0.02004995537 0.004639317513 -0.04082842255 0.9724166936 -0.2327542364 -0.01520656187
-0.01738006973 0.01099470425 -0.004810246944 0.8490802801 -0.5282626915 -0.001098488093
-0.01870522118 0.008584658623 -0.004808514118 0.9073994663 -0.4202679525 -0.001027931339
-0.01920944023 0.007299932957 -0.004810492992 0.9355409572 -0.3532174623 -0.0007360009137
-0.02059024048 0.0002442609668 -0.0152272501 0.9999150332 0.007776815958 -0.010461718
-0.0195125618 0.03630451965 -0.05404739952 0.9439347439 -0.003085686734 -0.3301176727
-0.01969968796 0.006006727695 -0.004812811852 0.9577269666 -0.2876781601 -0.0005775646479
-0.02040609741 0.002492277682 -0.004828040838 0.9929996118 -0.1181151229 -0.0007673345002
-0.02058871651 0.0002434441149 -0.004841692924 0.9999781636 0.006552523842 -0.0008583389593
-0.02055942059 0.002572943807 -0.05074784851 0.9996677929 0.01473203145 0.02114878283
-0.02003476238 0.004631429195 -0.03315592957 0.9715676563 -0.2366398359 -0.007607717163
-0.02013239956 0.008535886049 -0.05107133484 0.9811982382 -0.1471595905 -0.1248762274
-0.01760176277 -0.006149861813 -0.05617407227 0.8550510787 0.4474901809 0.2619927306
-0.01997323036 -0.004838577271 -0.00488706255 0.9757454925 0.2189056911 -0.001016013487
-0.01121818256 0.01723595238 -0.03480912781 0.5394879171 -0.8419730462 0.005846091123
-0.0194282341 -0.006742330551 -0.004908463001 0.9524661717 0.3046431345 -0.0008673314426
-0.01725445938 -0.0112101469 -0.009233457565 0.8315248401 0.5552536787 -0.01611808148
-0.01861244011 -0.008812992096 -0.004934811115 0.8976426425 0.4407236648 -0.0005810500351
-0.01389850712 0.03475556183 -0.04540897369 -0.6789538875 -0.01365332738 0.7340539526
-0.02043047905 0.002505194843 -0.03671289635 0.9919031741 -0.1269218897 0.004350535204
-0.009781785011 0.01810648727 -0.02299045372 0.4824157878 -0.8759423475 -0.0001072445134
-0.02007311249 0.01833576965 -0.06504832458 0.9757875704 0.01057699217 0.2184645158
-0.01724503326 -0.01121552086 -0.00497108078 0.8309054045 0.5564136495 -0.0002439379723
-0.01872929192 -0.007132796288 -0.04886988068 0.9032983989 0.4094020859 0.1282261072
-0.01810385704 0.0098198452 -0.03935326004 0.8772943957 -0.4795160516 -0.02046703428
-0.01998341751 -0.004832943916 -0.01117374325 0.9759146045 0.2180078852 -0.00795278364
-0.0148948946 -0.01420800686 -0.005024947166 0.7864468217 0.6176566275 -0.001298943066
0.002521261573 0.0204013958 -0.007181284428 -0.03683880207 -0.9993202812 -0.001370495767
-0.02021874428 0.05262432861 -0.0569132576 0.9791363756 0.0005036894469 -0.2032036028
-0.004081495523 0.02016213799 -0.00705118084 0.1943102921 -0.9809030485 -0.008527593176
-0.02010626984 0.03440717316 -0.06505799866 0.975506623 -0.004732796341 0.2199191423
-0.02044143677 -0.001409396887 -0.04680568695 0.9873186513 0.1538561479 0.0391173432
-0.006246294498 0.01958053589 -0.007013088703 0.3224076067 -0.9466004312 -0.0009791673557
-0.005706319571 0.03664730644 -0.04081945801 -0.3431613815 0.01029986274 0.9392199844
-0.02046022415 0.04442618561 -0.06283330154 0.9934191701 0.003370517354 0.1144857724
-0.006258015633 0.01958573914 -0.01332980061 0.3229089141 -0.9463646685 -0.01112418131
-0.008136367321 0.01889219284 -0.006981556654 0.4111719212 -0.9115568638 -0.001317291834
-0.00977460289 0.01810322285 -0.006956069469 0.4805562545 -0.8769633749 -0.0009619566032
-0.01809664154 0.04842438316 -0.0508157692 0.878712957 0.005068483472 -0.477323632
-0.01253682423 0.01631971645 -0.0069175632 0.5918222859 -0.8060677801 -0.001056349909
-0.0157697773 0.04406950378 -0.04736436462 0.7581451467 0.003350741486 -0.6520772264
-0.006300847054 0.0196047554 -0.03874466705 0.3716728459 -0.8865932538 -0.2753392415
-0.01871684647 0.008590503693 -0.02132483673 0.9080841484 -0.4186578285 -0.01043082546
-0.01580513 -0.008766388893 -0.05666871643 0.7736784364 0.5556160101 0.3044873173
-0.0130389576 0.01655322456 -0.04236696625 0.6371738548 -0.675007364 -0.3719872811
-0.01945490837 -0.003530642033 -0.05280052567 0.9463392119 0.2844639105 0.1533700742
-0.01423513198 0.01482837892 -0.006897846818 -0.6918761227 0.7220153924 0.001097253711
-0.02026780128 0.006298573494 -0.04910630798 0.9859803942 -0.1383538383 -0.09327849557
-0.009780888557 0.01810608006 -0.01113222837 0.481195775 -0.8765630228 -0.009375131224
-0.008415678978 0.02957909584 -0.07938745117 -0.2327934426 0.08949195356 -0.9683999191
-0.01615658116 0.01269310713 -0.006880132675 0.7828564632 -0.6222014786 -0.001038352902
-0.001423918962 0.0205467205 -0.03276941299 0.05656984722 -0.9981756807 0.02109888365
-0.01738259029 0.01099594402 -0.006872306585 0.8489043635 -0.52854536 -0.00108818659
-0.01493741798 -0.01418351555 -0.0287807045 0.7861106369 0.6180858084 -8.465450563e-15
-0.01807103252 0.00980352211 -0.006870375872 0.879707883 -0.4755128769 -0.0012427681
-0.01870757866 0.00858584404 -0.006869835138 0.9075768071 -0.4198848769 -0.00101456536
0.002575063944 0.04172171402 -0.04017060852 0 0 1
-0.008165914536 0.01890546608 -0.03503780937 0.4285945215 -0.9034959446 -0.001346939991
-0.01921179485 0.007301129103 -0.006872661829 0.935751381 -0.3526596658 -0.0007163520406
-0.0125879488 0.03056651402 -0.07688007355 0.662238634 0.002936269673 0.7492872413
-0.01871229458 0.008588215351 -0.01099427509 0.9079311583 -0.4191181683 -0.0009863329538
-0.01969968796 0.006006727695 -0.006876034975 0.9578201789 -0.2873677023 -0.0005555710485
-0.01081898117 0.03424720764 -0.04308402443 -0.5429579343 0.01625651384 0.8396025294
0.01690786839 0.05422854424 -0.06285447025 0.9941109177 0.0008558378585 -0.1083639741
-0.0119561615 0.04264820099 -0.07735569763 -0.6350492481 -0.004838005897 -0.7724565011
-0.0200158329 0.004621600628 -0.006883774757 0.97175186 -0.2360040796 -0.0006301181199
-0.02058050346 0.03029807854 -0.06115509033 0.9991156508 -0.005978507886 0.04161939158
-0.02021451696 0.04618863805 -0.0568823115 0.9845491139 -0.007633344895 -0.174942203
-0.02040880728 0.002493707895 -0.006897723198 0.9929645492 -0.1184110289 -0.00048187238
-0.02059024048 0.0002442609668 -0.006917258978 0.9999759331 0.006911870146 -0.0005993629945
0.001013305932 0.04005344391 -0.04005801773 -0.1191598017 0.04461092991 -0.9918723741
0.002458244324 0.02042839241 -0.02517411995 -0.03056475942 -0.9995318183 -0.001392700276
-0.02037614632 -0.00302648735 -0.0208925972 0.9900841063 0.1404754751 -0.0003214738535
-0.02050272751 -0.001376201212 -0.006935709953 0.9982617656 0.05893518282 -0.0003026395876
-0.0172921505 -0.01118865585 -0.02489773941 0.8330473634 0.5531905116 0.003513988862
-0.01997662449 -0.004836699724 -0.006982028961 0.9758581152 0.2184034798 -0.000926868622
-0.0168919309 0.04635952759 -0.04887412135 0.8114062796 -0.01525254986 -0.5842835007
-0.02057277298 0.006455240726 -0.05468517685 0.9999561484 -0.008618260479 -0.003664262732
-0.01922593784 0.007308316708 -0.01926340199 0.9363300974 -0.3509616319 -0.01057740927
0.01746741422 0.05982708995 -0.0609183108 0.9811788397 -0.1929989098 -0.006285324518
-0.01954646587 0.05444313431 -0.05424513435 0.9534528932 -0.000431784199 -0.3015416954
-0.01861244011 -0.008812992096 -0.007050334215 0.8973725126 0.4411573877 -0.0101357238
-0.0172492094 -0.01121314049 -0.007102043629 0.8316664747 0.5550890902 -0.01438668934
0.01517061901 0.05625231361 -0.05281537056 0.8880868833 0.006763255092 0.4596258762
-0.01888270442 0.0484769427 -0.05247784805 0.9175009195 0.01411501127 -0.397483118
-0.014506917 0.04430688286 -0.07519791794 0.7003768816 0.00230670026 0.7137695026
-0.01490139103 -0.01420426559 -0.007178942204 0.7866017231 0.6174593428 -0.001299738497
-0.02000953102 -0.004818504333 -0.02728815651 0.9795017407 0.201341857 -0.006147888605
0.002513713598 0.02040463066 -0.009336421967 -0.03609807271 -0.999347309 -0.001373038678
-0.01997421646 0.05253922272 -0.05562263107 0.9755432425 0.006112674619 -0.2197225914
0.01588176441 0.05679095459 -0.05437535095 0.9346929948 -0.001140456507 0.3554542234
-0.02042831135 0.002504045129 -0.03322305107 0.9928292432 -0.1184786552 -0.01590289706
-0.001423918962 0.0205467205 -0.009232240677 0.05144568015 -0.9985034628 -0.01855200023
-0.01862768618 0.04838484065 -0.06929643504 0.9097211738 -0.001651589124 0.4152163993
-0.02024698067 0.03231553555 -0.05693542671 0.9826883043 -0.00597153316 -0.1851702931
-0.0200158329 0.004621600628 -0.01308452988 0.9717690601 -0.2359336979 -0.0004289379403
-0.006250199795 0.01958226967 -0.009117853165 0.3222253297 -0.9466584597 -0.002932155882
-0.0148483572 -0.01423480988 -0.0411331749 0.7769814255 0.6273722361 0.05199944018
-0.009781785011 0.01810648727 -0.03914180183 0.485198068 -0.8658993237 -0.1216601663
-0.008139630318 0.01889365959 -0.00907687664 0.4114968549 -0.9114102632 -0.001292489474
-0.02056570816 0.01028196955 -0.05860857582 0.9992060501 0.02693077537 0.02935988385
-0.009961497307 0.02047142506 -0.04252441216 -0.4904271636 0.2583710405 0.8323013893
-0.009777835846 0.01810469246 -0.009043740273 0.4807446255 -0.8768602337 -0.0008576774377
0.002465825081 0.02042514515 -0.02300966072 -0.03133050002 -0.999508113 -0.001389906347
-0.01807354736 0.009804772377 -0.008932347298 0.8796525212 -0.4756153481 -0.001217573283
-0.01638997269 -0.00520795393 -0.06065033722 0.8071948703 0.4609875172 0.3686827231
0.01826274872 0.06060000229 -0.06876120758 -0.4982053279 0.8171637846 0.2898875651
-0.01871684647 0.008590503693 -0.01925581551 0.9081121392 -0.4186210262 -0.009422259923
-0.0195577507 0.03418064117 -0.05418343353 0.9478188975 -0.006038183036 -0.3187520635
-0.01615750837 0.01269355631 -0.008945081234 0.7828849744 -0.6221656648 -0.001001156866
-0.01119905472 0.01722715759 -0.009017419815 0.5519066687 -0.8339055482 -0.0007521239497
-0.01253956032 0.01632098961 -0.008993691444 0.5917227889 -0.806140962 -0.000943627832
-0.0205112896 -0.001371564448 -0.01665778065 0.9981549283 0.05987389186 0.01009238553
-0.01423803186 0.01482975054 -0.008968052387 -0.6919946339 0.7219020339 0.0009381752379
-0.02006533623 0.006194565773 -0.04703403091 0.9770791169 -0.1909922318 -0.09401258766
-0.003772783518 0.02156511497 -0.04035886002 -0.3552110989 0.5366665735 0.7653849124
-0.02051496601 -0.001369573295 -0.02083267593 0.9982383166 0.05915051872 0.004634590002
-0.01738511086 0.0109971838 -0.008934857368 0.848728315 -0.528828031 -0.001077473629
-0.02037614632 -0.00302648735 -0.02858858299 0.989463565 0.1447262457 0.004020857105
-0.02050945282 -0.001372558951 -0.01457246113 0.9972412208 0.07395048033 0.006424491279
-0.01870993614 0.008587029457 -0.008931648254 0.9077540364 -0.419501619 -0.001000568732
-0.01921414948 0.007302325726 -0.008935323715 0.9359615124 -0.3521016364 -0.0006964101675
-0.02059024048 0.0002442609668 -0.01107035494 0.9999705329 0.006898947556 -0.003367165261
-0.01969968796 0.006006727695 -0.008939782143 0.9579133055 -0.2870571599 -0.0005349119836
-0.01622068405 0.01195894432 -0.07213085937 0.7970599269 0.1578276997 0.5829115629
-0.004086899281 0.02016450882 -0.01481515884 0.1928869923 -0.9812203801 0.001083433846
-0.0200118103 -0.004817244053 -0.02869462395 0.9796723748 0.2006011456 0.001103807822
-0.008148338318 0.01889756966 -0.01466854191 0.4190671731 -0.9079547922 -0.0008943118191
-0.0200158329 0.004621600628 -0.00894984436 0.971735487 -0.2360717203 -0.0005349087597
-0.009223410606 0.02842483902 -0.0421925087 -0.4347144266 -0.00258175221 0.9005646572
-0.01234134293 0.01825841077 -0.04329271317 0.6344022815 -0.4575731374 -0.6230253358
-0.0204115181 0.002495138526 -0.008967895508 0.9929427791 -0.1185942381 -0.0002099728359
-0.02059024048 0.0002442609668 -0.008993378639 0.9999738982 0.007213694837 -0.0004068777332
-0.01617303848 0.01270105577 -0.03313871098 0.7830344116 -0.6219031381 -0.009674554677
-0.02050456047 -0.001375208497 -0.009017310143 0.99826213 0.05892962545 -0.0001380751019
-0.02037614632 -0.00302648735 -0.009042909622 0.9897114537 0.1430769923 -0.0004611968492
-0.01826514244 0.04219020081 -0.05115701294 0.8836379982 -0.00402450354 -0.4681534913
-0.01998002052 -0.004834822178 -0.009077482224 0.975980635 0.2178554188 -0.0009036342093
-0.02054320526 0.007977763176 -0.05456916809 0.99899889 -0.02121165935 -0.03938633454
-0.01884738922 0.06032654572 -0.06880929565 0.6936245407 -0.6268563597 0.3548747678
-0.01542153168 0.06060000229 -0.0688661499 -0.2770173168 0.8632135605 -0.4220471007
-0.01411776638 0.01604213937 -0.04320013809 0.6966595716 -0.5447869644 -0.4667682558
-0.02056700516 0.02227096558 -0.06111465549 0.9995610846 -0.01033967387 0.02776201036
-0.01122376537 0.01723851871 -0.03902507782 0.5588790711 -0.8212555848 -0.1148627365
-0.01779701805 0.005029306412 -0.06671297455 0.8730690447 0.242231284 0.4231718898
-0.01943541336 -0.006738319874 -0.009117219925 0.9523106765 0.3051175221 -0.00277004532
0.00241899395 0.0204452076 -0.03675802612 -0.02645905279 -0.9996494093 -0.0009884730529
-0.0172921505 -0.01118865585 -0.02918709946 0.8337855403 0.5518356527 -0.01670584364
-0.01861244011 -0.008812992096 -0.009166394234 0.8976331007 0.4406220833 -0.01034390001
-0.01490788841 -0.01420052338 -0.009333396912 0.7866811707 0.6173581176 -0.001300145665
-0.006862540245 0.02593234444 -0.04120024872 -0.3286853659 -0.00263184583 0.9444358123
-0.001423918962 0.0205467205 -0.02918714333 0.05638917295 -0.9982468759 -0.01798432544
-0.001423918962 0.0205467205 -0.01065353298 0.05269366849 -0.9984407434 0.01842441922
-0.01969968796 0.006006727695 -0.03520745468 0.9608266494 -0.2771153818 -0.004383481695
-0.0203477993 0.002461031556 -0.05504113388 0.9876502609 0.1211129357 0.09939124219
-0.0142536819 0.01483712006 -0.02904582644 -0.6921309496 0.7217719504 1.400554947e-05
-0.01932702255 0.01042809486 -0.04894652557 0.9399863072 -0.2569218864 -0.2245370497
-0.01947080612 0.01505040455 -0.05279227066 0.952790186 -0.1289212288 -0.2749003059
-0.00408395052 0.02016321564 -0.01057873344 0.1928566816 -0.9811645255 0.0110668084
-0.02037614632 -0.00302648735 -0.0167054739 0.9897998537 0.1420527955 0.0108283357
-0.01924100876 0.007315976143 -0.04076324844 0.9376142055 -0.3472329049 -0.01757587701
-0.01683485031 0.006093146086 -0.06896724319 0.8180680541 0.2557715156 0.5151170651
-0.006254106998 0.01958400345 -0.01122342396 0.3228571305 -0.9463779823 -0.01148859681
-0.01119905472 0.01722715759 -0.01109994888 0.551755191 -0.8339807672 -0.006503011858
-0.009781785011 0.01810648727 -0.03069544601 0.4829064823 -0.8756130472 0.01015485046
-0.01254229736 0.01632226086 -0.01107063246 0.5920478222 -0.8058929453 -0.003992109448
-0.01424074364 0.01483103299 -0.01103907323 -0.6920808839 0.7218195073 0.0008056147588
-0.01615843701 0.01269400501 -0.01101086688 0.7828671971 -0.6221882179 -0.0008793143823
-0.01699879074 0.03600438309 -0.04900530243 0.8139499832 -0.01098374261 -0.5808311133
-0.02052467442 -0.001364314973 -0.03480850792 0.9973780962 0.07219424906 0.004992364255
-0.006282830477 0.01959675598 -0.02670340919 0.3214179536 -0.9468883879 0.009637420022
-0.01738763142 0.01099842405 -0.01099821854 0.848552136 -0.529110702 -0.001066578744
-0.009055321693 0.03058507442 -0.04210271263 -0.4273606958 -0.01241956351 0.9039959016
-0.0180760622 0.009806022644 -0.01099512863 0.8795971527 -0.4757178043 -0.001191479038
-0.0192165041 0.007303522587 -0.01099879885 0.9361713477 -0.3515433832 -0.0006764003951
-0.006356469631 0.04201810455 -0.08018544769 0 0 1
-0.0200158329 0.004621600628 -0.01101676702 0.9717411645 -0.236048546 -0.0004395390439
-0.02056479359 0.01407208395 -0.05899641037 0.9999709812 -0.006969383793 -0.003076444349
-0.02027059364 0.03016531372 -0.05708884048 0.9849540196 -0.008336184442 -0.1726154317
-0.006300847054 0.0196047554 -0.03732289124 0.3179664529 -0.9466207204 -0.05297684895
-0.02041296482 0.002495905608 -0.01103892827 0.9929280533 -0.118717634 -6.585285402e-05
-0.02050639439 -0.001374215305 -0.01109973907 0.9982580157 0.05857852282 -0.007034960575
-0.009417146683 0.05451712799 -0.04230670166 -0.4352336743 0.003298155153 0.9003114855
-0.02037614632 -0.00302648735 -0.01113132477 0.9897014032 0.1428530531 -0.009172657516
-0.02021120453 0.004723044395 -0.04500811005 0.9777593578 -0.1971243813 -0.0716143601
-0.01678732872 0.0301329174 -0.04870789337 0.8250916419 -0.009593144106 -0.5649174755
-0.0194390049 -0.006736313343 -0.01122265053 0.9525998842 0.3040348104 -0.01078400307
-0.01861244011 -0.008812992096 -0.01057754898 0.897256949 0.4413190718 0.01294002724
-0.01491222095 -0.01419802761 -0.01077009773 0.7867342612 0.6172904593 -0.001300423303
0.002501127362 0.02041002178 -0.01293005276 0.03485651216 0.9993913781 0.001377295119
0.01646492958 0.0520979538 -0.06514124298 0.9566741082 -0.01093844897 -0.2909553249
-0.01119905472 0.01722715759 -0.01457289314 0.5397986554 -0.8417735856 0.005885771997
-0.001423918962 0.0205467205 -0.01278630972 0.05385564812 -0.9984152013 0.01632957166
-0.01810385704 0.0098198452 -0.0351743927 0.8734379096 -0.486935502 -0.0001870470614
-0.004085424662 0.02016386223 -0.01269647121 0.1925152209 -0.9812407324 0.01022324894
-0.02046427345 0.01251165581 -0.06125851059 0.9920993949 0.04875286155 0.1155938973
0.01826274872 0.06060000229 -0.05457907867 0.4268498471 -0.8925905347 0.1451941645
-0.01861244011 -0.008812992096 -0.01269511461 0.8974337884 0.4409944734 0.01168203371
-0.01997846889 0.03220259285 -0.05561899948 0.9731826176 -0.01173050883 -0.2297346033
-0.01491872311 -0.01419428301 -0.01292591 0.7868137624 0.6171891211 -0.001300825781
-0.008146160126 0.01889659119 -0.01326995087 0.4237975523 -0.9057292389 -0.0070838184
-0.01691941261 0.003013820887 -0.06707141876 0.8209155557 0.3159703469 0.4756683616
-0.02043890381 0.004841275215 -0.04918699265 0.9912706126 -0.1160543211 -0.06256170721
-0.01944499397 -0.006732967377 -0.014733675 0.9521859468 0.3054677052 0.005603905002
-0.009781785011 0.01810648727 -0.01322162342 0.4815751345 -0.8763685605 -0.007970944745
-0.009288243294 0.05657803154 -0.04223565865 -0.4349706841 -0.002644847547 0.9004407303
-0.01119905472 0.01722715759 -0.01318332386 0.5414542741 -0.8407262433 -0.002579300275
-0.009781785011 0.01810648727 -0.0328024292 0.4826625698 -0.8757964246 0.004179264476
-0.01254503632 0.01632353592 -0.01314838219 0.5919521172 -0.8059589218 -0.004786150587
-0.02042109871 0.002500219941 -0.02279717445 0.9929248227 -0.1187437757 -0.0004606476739
-0.02002143383 -0.004811923027 -0.04070035362 0.9792389772 0.2024149477 0.01091853943
-0.01424249172 0.01483185673 -0.01311094427 -0.6921616232 0.7217422085 0.0006868526185
-0.006210646152 0.03240265846 -0.04095952415 -0.366959865 0.001516092677 0.9302355395
0.01689136314 0.05196603203 -0.06297693062 0.9894432775 -0.02167441376 -0.1432906847
-0.01739015388 0.01099966526 -0.01306238556 0.8483982364 -0.5293575619 -0.001002037741
0.01612568665 0.0582165184 -0.05508678627 0.9010088461 -0.3320703169 0.2791278629
-0.01950874901 0.05647516251 -0.05413271332 0.9459644808 -0.005788269097 -0.3242185945
-0.01969968796 0.006006727695 -0.01513650179 0.9581847906 -0.2860538011 -0.007424958975
-0.01807857704 0.009807273865 -0.01305871582 0.8795356917 -0.475831659 -0.001095138864
-0.01871465492 0.008589401245 -0.01305770874 0.9080952572 -0.4187626615 -0.0009149888617
-0.01170037556 0.04824709702 -0.0436478157 -0.5887232774 0.002207242231 0.8083316341
-0.01929742241 0.01421098709 -0.06699120331 0.9345411586 0.07609400472 0.347624115
-0.02059024048 0.0002442609668 -0.0312229538 0.9999738485 0.004379467934 -0.005755215226
-0.01921886063 0.007304719925 -0.01306308174 0.9363763321 -0.350997104 -0.0006306452815
-0.02003734779 0.004632771492 -0.03524437714 0.9714612253 -0.2370144695 -0.009339641062
-0.01949476242 0.008981585503 -0.06458901978 0.9488252872 0.1334800893 0.2862055908
-0.006290697575 0.01960024929 -0.0309431448 0.3220466743 -0.9467236986 -0.0004219586759
-0.01969968796 0.006006727695 -0.01306981754 0.958161664 -0.2862272027 -0.0004626119718
-0.02041439819 0.002496665835 -0.01311078453 0.99291314 -0.1188423133 -3.209892771e-05
-0.02059024048 0.0002442609668 -0.01314817524 0.9999661482 0.006922337918 -0.004447895889
-0.0205082283 -0.001373221636 -0.01318299007 0.9973794436 0.0722889127 -0.002925504912
-0.02037614632 -0.00302648735 -0.01322058868 0.9897973762 0.1422589794 -0.007970998312
-0.009781785011 0.01810648727 -0.03702539825 0.4846765189 -0.8745568495 -0.01545926961
-0.01998681641 -0.004831064701 -0.01327081108 0.9786883391 0.2052568256 -0.006226587952
-0.02043205929 0.05269857025 -0.06292082024 0.9929011557 0.001886006314 0.1189274488
-0.01999588776 -0.004826048374 -0.01886893654 0.9765572917 0.2152559499 -0.0008555538808
-0.01944259834 -0.006734306335 -0.01332888889 0.9525714039 0.3041326362 -0.01053850363
0.00249357152 0.02041325951 -0.01508742237 -0.03410727782 -0.9994172247 -0.001380052544
-0.01726846695 -0.01120215988 -0.01492128944 0.8323011011 0.5543235424 -0.0005360206734
-0.008154877663 0.01890050697 -0.01886776161 0.4243332232 -0.9054698677 0.008101501359
-0.01137091446 0.02635273552 -0.04343132782 -0.5699448821 0.001081183551 0.8216822149
-0.001423918962 0.0205467205 -0.01492006111 0.05226746562 -0.9986331215 -2.613225919e-05
-0.006260622025 0.0195868969 -0.01473467827 0.322247486 -0.9466432564 0.004806540616
-0.009781785011 0.01810648727 -0.01461522961 0.4769382126 -0.878921947 0.005113940866
-0.0170558567 0.01439540323 -0.0466584053 0.8418036483 -0.3517445499 -0.409441558
-0.009781785011 0.01810648727 -0.01879960823 0.4817087186 -0.876329419 0.001860053899
-0.01254777622 0.01632480907 -0.01522734165 0.5909978581 -0.8065962864 -0.01113384303
-0.006487754345 0.06060000229 -0.07721154022 0 1 -0
0.015949193 0.05074492645 -0.06662580109 0.9442243503 -0.02532118131 -0.3283279062
-0.01424394798 0.01483254147 -0.01518405318 0.6923076084 -0.7214109238 -0.0166269172
-0.01351622105 0.01372200775 -0.07543225098 0.654759521 0.1337916179 0.7439017225
-0.01616055131 0.01269502687 -0.01514531112 0.7827574015 -0.622249078 -0.00984557
-0.004373226643 0.02029013824 -0.04035377884 0.1955528797 -0.8097769567 -0.5531910625
-0.01739210606 0.01100062466 -0.01512778854 0.848318414 -0.5294859096 -0.0007347976814
-0.01700890541 0.01081214905 -0.07063768005 0.8470818672 0.1650598342 0.5051807215
-0.01808109474 0.009808525562 -0.01512350655 0.8794640303 -0.4759647204 -0.0007773589822
-0.02002209091 -0.004811560154 -0.03503803444 0.9796969022 0.2004829981 -0.0007397579189
-0.01871653748 0.008590348244 -0.01512237597 0.9082082161 -0.4185180897 -0.0006668543253
-0.01983399391 0.03997816086 -0.05510711288 0.9651606101 -0.007908278134 -0.2615386317
-0.01255457258 0.01632796955 -0.02077779865 0.5897241835 -0.8075651752 0.007992195142
-0.01922121811 0.007305918217 -0.01512857151 0.9361033613 -0.3516912665 -0.00487339883
-0.02048325729 0.01852868271 -0.05864512253 0.9946753386 0.00292857787 -0.1030164755
-0.01312008953 0.04874817657 -0.04478820801 -0.6465464941 0.01067112788 0.7627999463
-0.0200158329 0.004621600628 -0.01515354013 0.9719467819 -0.2350787091 -0.007579817396
0.01141723347 0.05810832977 -0.04346734238 0.5230036678 -0.5817714777 -0.6229037736
-0.02041583204 0.00249742651 -0.01518386722 0.9927366385 -0.119298691 -0.0155495604
-0.01998908234 -0.004829811573 -0.01466948318 0.9777759889 0.2096504653 -0.0008932301643
-0.02026137161 0.01241185951 -0.06271703339 0.9818848912 0.07891486057 0.1722628956
-0.01861244011 -0.008812992096 -0.01481364822 0.8980635191 0.4398649016 0.0008854672918
-0.0001051153913 0.03823140335 -0.04000560379 -0.1189445281 0.04447787357 -0.9919041879
-0.01492522717 -0.0141905365 -0.01508262062 0.7868904185 0.6170914449 -0.001271943887
0.002488531828 0.02041541672 -0.01652635384 -0.03335462067 -0.9994426233 -0.001382726719
-0.01861244011 -0.008812992096 -0.03324776077 0.8983916436 0.4390922141 -0.00951221493
-0.001423918962 0.0205467205 -0.01705523682 0.0545834324 -0.998295789 -0.02064380027
-0.004088374615 0.02016515636 -0.01693523598 0.1924470875 -0.9813072334 -0.0004819552588
-0.01488883018 0.05447411346 -0.07474000549 0.7502145866 0.005827706035 0.6611687469
-0.01969968796 0.006006727695 -0.02687704277 0.9579012172 -0.2870979639 -0.0001315225734
-0.006264534473 0.01958863354 -0.01684309673 0.3223772017 -0.946590352 0.006296451122
-0.02052176984 0.002812994162 -0.04697178141 0.9961521434 -0.08364398673 -0.02616468365
-0.01888949585 0.006363290787 -0.0649437561 0.925477779 0.195363234 0.3245367272
-0.00815160656 0.01889903831 -0.01676753235 0.4181098092 -0.9083558924 0.008588374174
-0.0194545536 -0.006727627039 -0.04088179588 0.9494649198 0.3128979574 0.02472315487
-0.009781785011 0.01810648727 -0.01670678139 0.4813430524 -0.8764670137 0.01069765383
0.01700537491 0.05796111298 -0.05894771957 0.9811791814 -0.1317778964 0.1411453149
-0.01861244011 -0.008812992096 -0.03895764923 0.8980421013 0.4398907383 0.004064803626
-0.01119905472 0.01722715759 -0.01665838623 0.5499769105 -0.8351272292 0.009375976061
-0.01811255455 0.009824170113 -0.0407479248 0.8811575114 -0.4725037884 -0.01736692276
-0.01999248409 -0.004827930689 -0.01676859283 0.9753317244 0.2207331307 0.00221637797
-0.01008050537 0.01824224472 -0.04121876144 0.5176552942 -0.7181014687 -0.4651486611
-0.01944859028 -0.006730958462 -0.01684195805 0.9521560444 0.30553601 0.006827423954
-0.01616821162 0.04044021352 -0.07327788289 0.7940759852 -0.001171956252 0.6078173707
-0.0187891407 0.04027467918 -0.06899662781 0.9262837444 0.001110232158 0.3768251482
-0.0172921505 -0.01118865585 -0.03707838821 0.8333827556 0.5524437918 -0.01670447551
-0.008164705753 0.01890492344 -0.02517897701 0.4276850341 -0.903894905 -0.007714427366
-0.01866829936 0.01817392921 -0.06911530304 0.9115764749 0.03872131382 0.4093030542
-0.01861244011 -0.008812992096 -0.01693359566 0.8981984224 0.4395894358 -0.0008496397632
0.01826274872 0.06060000229 -0.05161977005 -0.417196495 0.9083309256 -0.02969872318
-0.01449634361 0.008025915146 -0.07288130188 0.7072785209 0.255334368 0.6592127535
-0.01727372551 -0.01119916153 -0.01705631828 0.8334631561 0.5522569963 -0.01874506683
-0.01898702621 0.04433638636 -0.0527121137 0.9221897203 -0.001719892683 -0.3867339676
-0.01095414448 0.01863928032 -0.04250389862 0.615267059 -0.5005779094 -0.6089894931
-0.0205174284 0.04235189438 -0.05889489365 0.9936075715 0.001557522327 -0.1128785538
-0.01492956543 -0.01418803787 -0.01652111816 0.7869599701 0.6170027445 -0.001272298819
-0.02048955965 0.03241757393 -0.05894326115 0.9951432141 0.001365473798 -0.09842824195
0.01506466103 0.06001331329 -0.05262983322 0.6707085725 -0.4407934566 0.5965325971
-0.01255051804 0.01632608414 -0.01730742836 0.5942597248 -0.8042453634 -0.006691403123
-0.01256300354 0.03275735474 -0.04431872177 -0.6353255501 -0.005083788578 0.772227687
-0.02042833233 0.01850284767 -0.06285765648 0.9930304957 0.01238565631 0.117205077
-0.01424540424 0.01483322668 -0.01725830173 0.6921563411 -0.7215014368 -0.01884876929
-0.01616198683 0.0126957202 -0.01721426868 0.7830022788 -0.6219327459 -0.01034847447
-0.01739237595 0.01100075722 -0.01719442177 0.8483408715 -0.5294474458 -0.001779858411
-0.01946540928 -0.006721562624 -0.02670166683 0.9513949794 0.3078022285 0.01026554095
-0.01808361244 0.00980977726 -0.01718941879 0.8727210878 -0.4881822299 0.006001112113
-0.01871684647 0.008590503693 -0.01718826675 0.908236785 -0.4184522877 -0.001904034687
-0.0192235775 0.007307116985 -0.01719518471 0.9361999034 -0.3514189539 -0.005870233156
-0.01425517273 0.01483782148 -0.03881242275 0.6923638983 -0.7215179208 -0.006642460566
-0.004102885962 0.02017152309 -0.03681575394 0.1998389955 -0.9766109787 -0.0793433811
-0.01969968796 0.006006727695 -0.01720434189 0.9615837023 -0.2744780277 -0.004312283381
-0.02020755005 0.02431467819 -0.06449746704 0.982666812 -0.001695405863 0.1853727657
-0.01923316765 0.007311990738 -0.03657955933 0.9366241492 -0.3502092324 0.009417888358
-0.01162309456 0.04963267899 -0.04359279633 -0.5935686368 0.003769860313 0.8047745409
-0.02041726685 0.002498187542 -0.01725809002 0.9916444181 -0.1285286693 -0.0110330984
-0.0193951416 0.04051116562 -0.06746636581 0.9417249809 0.002147292411 0.3363769454
-0.008161426544 0.01890345001 -0.02307328033 0.4254517541 -0.9049546773 0.006916429545
-0.01452589321 0.02250954819 -0.04602868462 -0.6971527779 -0.01645500289 0.7167337282
-0.01493566179 -0.01418452692 -0.01868009472 0.7868708402 0.6171170138 -0.0009339231393
-0.004089850903 0.02016580391 -0.01905658722 0.1919898437 -0.9813952719 -0.001794491154
-0.01493818951 0.0322728157 -0.07475595093 0.7181235802 -0.01044734372 0.6958371768
-0.01119905472 0.01722715759 -0.01874515152 0.539440801 -0.8420070728 -0.005264179397
-0.01540243816 0.05233816147 -0.0469833107 0.739700573 0.002876460787 -0.6729300025
-0.01255234623 0.01632693481 -0.01869499397 0.5896456115 -0.8076180091 0.008438260464
0.01570660655 0.05634314982 -0.06724752808 0.9222873755 -0.008056347654 -0.3864208745
-0.01616294527 0.01269618273 -0.01859441948 0.789099306 -0.6142478253 0.004679145994
-0.02001523304 -0.004815351725 -0.03080651093 0.9808333584 0.1946658817 0.008433128842
-0.018086133 0.009811031342 -0.01925693226 0.872509587 -0.4885171143 -0.008834568177
-0.0197328968 0.001355278373 -0.05808242416 0.9604685169 0.2044782762 0.1889149612
-0.01926127815 0.01039540195 -0.06592914581 0.9394879199 0.1237433855 0.3194526928
-0.01322993994 0.04667085648 -0.04487581062 -0.6625674206 -0.0001020225508 0.7490022715
-0.02043047905 0.002505194843 -0.03881143475 0.9930999814 -0.1166869281 0.0116870751
-0.01969968796 0.006006727695 -0.01858375931 0.9618844996 -0.273367231 0.006968966728
-0.0200158329 0.004621600628 -0.0186046772 0.9720896814 -0.2343934477 0.01006791693
-0.02051312637 -0.001370569348 -0.01874434853 0.9982185323 0.05953367053 0.003937486596
-0.02052352333 -0.00136493814 -0.03270479202 0.9973560346 0.07258001133 0.003616942145
-0.02037614632 -0.00302648735 -0.01879813766 0.9900194208 0.1409168696 0.001995549218
-0.01945218849 -0.006728948116 -0.01895147896 0.9518639136 0.3065200035 -0.0007598474394
-0.01861244011 -0.008812992096 -0.01905483437 0.8983040159 0.4393692327 -0.002138298996
-0.01727898788 -0.01119616127 -0.01919257927 0.8338415739 0.5517339951 -0.0172577034
-0.01809819984 0.04024178569 -0.05084974035 0.8743577268 -0.005773464613 -0.4852475994
-0.008165914536 0.01890546608 -0.03292010117 0.4329765274 -0.9014040052 0.001464986144
0.002473399878 0.0204218998 -0.02084686661 -0.03209253038 -0.9994839395 -0.001387131837
-0.01678999901 -0.01147496319 -0.04509255219 0.8458954211 0.5238868976 0.1000172738
-0.001423918962 0.0205467205 -0.02061699295 0.05306662391 -0.9983801581 0.02051812111
-0.02055751228 0.004902860641 -0.05481154251 0.9993883318 0.03164728225 0.01487990963
-0.01424929428 0.0148350563 -0.0227974577 -0.692110894 0.7217911694 0.0001347561982
-0.004091328859 0.02016645241 -0.02117973709 0.1917729886 -0.9813808361 -0.01071333087
-0.01835197449 0.01652427642 -0.05052678299 0.8951578961 -0.1572639139 -0.4170856057
-0.006272366762 0.01959211063 -0.02106415367 0.3216612233 -0.9468163711 -0.008533281671
-0.01421638584 0.02609313583 -0.07550092316 0.6945900553 -0.006445423658 0.7193768912
-0.01973665142 0.03639526749 -0.06635163498 0.9636213646 0.003550571618 0.2672475616
-0.02054652977 0.006441759586 -0.05327900696 0.9972192627 -0.06366308604 -0.03873956085
-0.01810046005 0.009818155289 -0.03100810623 0.8792167407 -0.4764220003 2.371792883e-05
-0.00815815115 0.01890197754 -0.02096973991 0.4250059192 -0.9051545074 0.008080000584
-0.01601523209 -0.01191670418 -0.04812682343 0.7952166929 0.582535432 0.1681751522
-0.02042397881 0.002501747429 -0.02696036243 0.9929784252 -0.1182953345 -0.0002469481507
-0.009781785011 0.01810648727 -0.0208942318 0.4820216816 -0.876159254 -0.0002451283206
-0.01600995064 0.03847644806 -0.04764147568 0.7729551394 0.01123553452 -0.6343611867
-0.0162054019 0.01271670246 -0.04080477905 0.7947824392 -0.5983116573 -0.1017056298
-0.01119905472 0.01722715759 -0.02083370686 0.5394098255 -0.8420346481 -0.003832952593
-0.02037614632 -0.00302648735 -0.03069304371 0.9902133044 0.1391720345 0.01042864383
-0.01424783468 0.01483436966 -0.0207189374 0.6921539314 -0.7216685148 0.01083928109
-0.02052160931 -0.001365974724 -0.02920518017 0.9968609605 0.0782195489 -0.01224448997
-0.0161643827 0.01269687676 -0.02066607523 0.7890163051 -0.6143456858 0.005713897345
-0.01969968796 0.006006727695 -0.02065433311 0.9583777404 -0.2853765022 0.008506394558
-0.02001756287 0.004622498751 -0.02067745018 0.9720955638 -0.2344191055 0.008825977686
-0.01926551247 0.01645689964 -0.05272074509 0.9374327632 -0.1208193222 -0.3265310181
-0.02041966105 0.0024994573 -0.02071868086 0.9928218992 -0.1191436154 0.01046304722
-0.01857964706 0.01005644321 -0.06752255249 0.8993663764 0.157377866 0.4078876418
-0.01739237595 0.01100075722 -0.02686154747 0.848638775 -0.52897266 -0.000393126752
0.016505723 0.05435009384 -0.06501956177 0.9647778716 -0.002171497512 -0.2630569198
-0.01619309235 0.01802000618 -0.04747555542 0.7891421985 -0.214987446 -0.5753564014
