# .PCD v0.7 - Point Cloud Data file format
VERSION 0.7
FIELDS x y z normal_x normal_y normal_z
SIZE 4 4 4 4 4 4
TYPE F F F F F F
COUNT 1 1 1 1 1 1
WIDTH 558
HEIGHT 1
VIEWPOINT 0 0 0 1 0 0 0
POINTS 558
DATA ascii
-0.0191759119 0.05019541931 -0.06812177277 0.9335839204 -0.00467182667 0.3583283936
-0.01859960238 -0.003468870719 -0.05675843048 0.8955040797 0.3578551794 0.2645980231
-0.02017232609 -0.003933834374 -0.002787144482 0.9736603655 0.2274410707 -0.01600162814
-0.01979741096 0.04765358067 -0.06613456345 0.9599521796 0.01389864757 0.2798189422
-0.01520739333 0.03238248444 -0.04673727544 0.7229678266 0.003011755041 -0.6908751342
-0.01861244011 -0.008812992096 -0.005639945269 0.9220854058 0.386983208 -0.001581489181
-0.01725270939 -0.01121114492 -0.008522942543 0.8483979888 0.5293510626 0.002881848076
-0.01942464542 -0.006744335413 -0.002804735422 0.927824602 0.3728143726 -0.01228623175
-0.01724503326 -0.01121552086 -0.002840482593 0.8523258748 0.5227214563 -0.01740351406
-0.01921414948 0.007302325726 -0.008935432275 0.9247401574 -0.380598438 -0.0006857960414
-0.01475031106 0.0143105375 -0.03599017207 0.7121578912 -0.7019706758 -0.008264885722
-0.01223965645 0.03844123332 -0.04406197993 -0.603570247 0.01415378496 0.7971841866
-0.01488840008 -0.01421174765 -0.002871321797 0.786089507 0.6181118904 -0.0009888817042
-0.002752216339 0.02035421371 -0.005660550237 -0.1204115598 0.9926617636 -0.01112112594
-0.001702014625 0.0321056757 -0.04009379005 -0.1851389836 0.01651396522 0.9825735828
-0.01659167814 0.03512057304 -0.04843427944 0.7926566308 0.0006920352546 -0.6096679315
-0.008134192467 0.01889121628 -0.005584967375 0.3950831601 -0.9185475589 0.01340442621
-0.009772448063 0.01810224342 -0.005564578533 0.4530140654 -0.8914978857 0.003126721113
-0.01525745893 0.06020656395 -0.04762179661 0.6474124427 -0.5622110514 -0.5145637597
-0.01186670136 0.016772861 -0.005541031599 0.5754824288 -0.8177492491 0.01030241468
0.002440525532 0.02043598366 -0.03023324108 0.0287574401 0.9995857522 0.001154812911
-0.01838768196 0.00919387126 -0.005495801687 0.9057612621 -0.4237733804 0.003557829773
-0.01985776043 0.005314164162 -0.005503609419 0.9696987127 -0.2440731659 0.01061585394
-0.01656056595 0.04787091827 -0.04839182663 0.794838837 0.01305235679 -0.6066801951
-0.02054549217 -0.0005665052012 -0.005540889621 0.9999986163 0.0006284778273 0.001540259975
-0.01974717522 0.00834129715 -0.0483324585 0.9650486259 -0.2106509466 -0.1559080768
-0.01187524343 0.01677683353 -0.01802533197 0.5745870209 -0.8184433892 -0.0004172740397
-0.01724624634 -0.01121482944 -0.005681370258 0.8530290358 0.5218584014 0.002296293836
-0.01986121416 0.005315957308 -0.02343066502 0.9699265078 -0.2431574366 0.0108180593
-0.008138542652 0.01889317036 -0.008378391266 0.3947685048 -0.9187073298 0.01160473289
-0.002757623911 0.02035658646 -0.02125488138 -0.1436558852 0.9892914186 0.02579681459
-0.01186930752 0.01677407328 -0.00900566721 0.5763464129 -0.8171962678 -0.003882307694
-0.01509649086 0.02647511482 -0.07455348969 0.7263525207 0.01636093924 0.6871275976
-0.01839174175 0.009195900917 -0.008932106098 0.9083622748 -0.4181833471 -0.00081608538
-0.01985776043 0.005314164162 -0.008944926818 0.9698544818 -0.2436837652 -0.000711804069
-0.01471213698 0.03868373299 -0.07493828773 0.7067763911 0.009015308326 0.7073795708
-0.02041123867 0.002494991839 -0.008968013684 0.9894990636 -0.1445386084 -0.0004402313533
-0.02054740047 -0.0005654737254 -0.009005456686 0.9999874252 -0.005002838131 -0.000348035992
-0.01957603741 0.02329434633 -0.05425929642 0.955063622 -0.0067749367 -0.2963234351
-0.02021724319 -0.003750071621 -0.008777395725 0.978535675 0.2058395111 0.009900930106
-0.0194342165 -0.0067389884 -0.008415634394 0.9278180318 0.3729705123 0.00683349967
-0.01490572262 -0.01420177078 -0.008615202427 0.7866427716 0.6174071373 -0.0012556727
-0.01277441072 0.02917211819 -0.04448684692 -0.6298623711 -0.003250988016 0.7766999578
-0.01832166595 0.05361388397 -0.05129023895 0.89565471 0.02221670787 -0.4441948428
0.002506162763 0.02040786457 -0.01149233007 -0.01653104939 0.9998621387 0.001558176401
-0.01946059704 -0.006724251032 -0.02388042831 0.928282201 0.3718514607 0.004318159946
-0.01015587997 0.04341526794 -0.0427150116 -0.4842113657 0.01314148861 0.8748523616
-0.003020527554 0.02031687622 -0.01174008789 0.1419770923 -0.9898658443 -0.002848763969
-0.006255409877 0.01958458201 -0.01192554951 0.2988371366 -0.9543009382 0.00246678582
-0.01985776043 0.005314164162 -0.01514502096 0.9698538098 -0.2432634811 -0.01436893923
-0.01966368599 0.05950690308 -0.05473052597 0.8090322971 -0.4884323858 -0.3269564907
-0.02021304169 0.02956153564 -0.05686818314 0.9757745519 -0.006814725726 -0.2186723195
-0.02055707359 -0.0005602347553 -0.03336263752 0.9998851394 -0.006713729776 -0.01358800369
0.01508264565 0.0532778101 -0.06855530548 0.8979851345 0.024398283 -0.4393488613
-0.008143983205 0.01889561399 -0.01187198925 0.4005327676 -0.9162820052 -0.0008882301389
-0.01963871336 0.02036480856 -0.05446401501 0.959199034 0.0003663514902 -0.2827314609
-0.01756396294 0.008524263064 -0.06882765452 0.857509922 0.1919773487 0.4773064333
-0.02014118881 -0.004109985447 -0.01213329639 0.9761112437 0.2169456805 0.01189166253
-0.01932702255 0.01042809486 -0.04894652557 0.9446831681 -0.2481215287 -0.2144980629
0.01826274872 0.06060000229 -0.06575689316 0.8796380681 -0.4155791309 -0.2313673598
-0.01944020271 -0.006735644341 -0.01192472998 0.932296358 0.3616431027 0.006145497678
-0.0184061203 0.009203069846 -0.02685261186 0.9083575778 -0.418194243 -0.000293269901
-0.003314225435 0.05608456993 -0.04027924919 0.177743766 -0.2263225197 -0.9576979016
-0.01007415676 0.0197626667 -0.07850892639 -0.587103648 -0.04804358388 -0.8080848474
-0.01725971031 -0.01120715284 -0.01136566401 0.8485184481 0.5291636803 0.001497549289
-0.01491438818 -0.01419677973 -0.01148863173 0.7867503738 0.6172700794 -0.001224139355
0.01261544495 0.0595319397 -0.07229788208 0.7163501984 -0.3451071347 -0.6064185509
-0.01757113075 -0.000582720974 -0.06294018173 0.8465512421 0.3571503697 0.3947082568
-0.009781785011 0.01810648727 -0.01252507257 -0.4492114688 0.8933764176 0.009361235647
-0.002756638885 0.02035615444 -0.01841440105 0.1470517592 -0.9888479079 -0.02357106611
-0.01412053728 0.05675273323 -0.04561133385 -0.658702846 0.145639053 0.7381733041
-0.01473847898 0.01430491177 -0.01793780454 0.7118650118 -0.7023160783 -0.0005754051531
-0.01187158895 0.01677513409 -0.01247225881 0.5758990887 -0.8174066481 -0.01366057181
-0.01473444112 0.01430299695 -0.01241171424 0.7117900556 -0.7022768098 -0.01273574033
-0.003418028831 0.02371042538 -0.04029382896 -0.4741614537 0.2438898914 0.8459838277
-0.01699405766 0.01157106328 -0.01237833762 0.8406641451 -0.5414070929 -0.01273400244
-0.01839580345 0.00919793129 -0.01237030387 0.9085766903 -0.4175802063 -0.01073168833
-0.01938243723 0.03195186853 -0.0536802187 0.932336091 -0.006831764852 -0.3615283396
-0.0192180748 0.007304320812 -0.0123749156 0.9322802202 -0.3616444069 -0.008180098035
-0.01795842028 0.02033432579 -0.05055535221 0.8818156351 -0.02621002413 -0.4708653951
-0.01985776043 0.005314164162 -0.01238823271 0.9698786771 -0.2432978107 -0.01189651336
-0.0204139204 0.002496412396 -0.01242009282 0.9871740836 -0.1596031921 -0.003761628106
-0.02054892874 -0.0005646459758 -0.01247199702 0.999912492 -0.006042211029 -0.01176860214
-0.008942405224 0.03202001762 -0.04204415703 -0.4626541581 0.006553190163 0.886514628
-0.008165856838 0.01890544033 -0.02658396816 0.4173442458 -0.9086763736 0.01144677562
0.00946365118 0.05426387978 -0.07478440094 0.5859563753 -0.0507939902 -0.8087490938
0.002496090412 0.02041217995 -0.01436822033 -0.003902907171 0.9999912374 0.001514049977
-0.002489307737 0.02039392204 -0.01516085052 -0.12300099 0.9923295716 -0.01236032961
-0.01726846759 -0.01120215956 -0.01492146746 0.8527886922 0.522248668 -0.002788418078
-0.01492305899 -0.01419178534 -0.01436363745 0.7868629084 0.6171266403 -0.00121376727
-0.01482023096 -0.01259804583 -0.05052816582 0.7241041831 0.6595941332 0.2015160326
0.01486649847 0.05932606443 -0.06889870453 0.7820546984 -0.4655497518 -0.414311329
-0.006261925936 0.01958747578 -0.01543738556 0.2991667519 -0.9541451174 -0.01031258534
-0.008149427414 0.01889805889 -0.01536810637 0.390723167 -0.9203913974 -0.01466568922
-0.01818060048 0.04426667341 -0.05104438782 0.8758166119 -0.0176101549 -0.4823226563
-0.02055383015 -0.0005619915128 -0.02358897257 0.9999197396 -0.006195718991 0.0110511247
-0.009781785011 0.01810648727 -0.01531231165 0.4494043336 -0.8932706845 -0.01016017331
-0.01678061724 0.05350077248 -0.04872847462 0.8304838896 -0.006038769983 -0.5570099123
0.002470875382 0.02042298126 -0.02156766415 -0.00184359968 -0.9999759251 -0.006689576718
-0.01187341547 0.01677598333 -0.01524764872 0.5757596635 -0.8174960591 -0.01417755758
0.002416131496 0.02044643307 -0.03893965912 0.06128883591 0.9978863762 0.02159765749
-0.01111210728 0.02324690437 -0.077925354 -0.6109209263 -0.03422491286 -0.7909515012
-0.01385706043 0.03546326065 -0.04537592125 -0.6814325864 0.008294468306 0.7318338828
-0.01473632002 0.01430388689 -0.01517362785 0.7117346926 -0.7022994024 -0.01446640057
-0.01699607229 0.01157205033 -0.01513281679 0.840512747 -0.5416014665 -0.01435874584
-0.02054660416 0.002566289186 -0.04792616971 0.9959734594 -0.081894331 -0.03647172552
-0.01839881611 0.009199436903 -0.01512294126 0.9086556209 -0.4173730025 -0.01203077022
-0.02005551529 -0.00399808383 -0.04490411568 0.9686892942 0.2447546048 0.04166814977
-0.02041583204 0.00249742651 -0.01518386722 0.985967311 -0.1664743814 -0.0124395312
-0.02055015278 -0.0005639832616 -0.01524735904 0.9998382574 -0.0039670403 -0.01754199338
-0.02018318129 -0.003927836061 -0.01534010077 0.9755662524 0.2196853783 -0.002970133374
-0.01416192818 0.02039757843 -0.04564473114 -0.6987443418 0.1367011012 0.7021888306
0.01826274872 0.06060000229 -0.06876120758 0.8296052034 -0.5141704513 -0.2176785555
0.01619313669 0.05066829109 -0.06592498779 0.9609157683 -0.03513127592 -0.274602767
-0.01944619274 -0.006732297897 -0.01543633747 0.9309542201 0.3651303701 -0.00201318782
-0.01440440035 0.04990114784 -0.04590359688 -0.7004433884 0.01390335258 0.7135725306
0.002483489434 0.02041757774 -0.01796608162 0.008608408629 -0.9999627612 0.0006095258653
-0.01493362967 -0.01418569724 -0.01796043587 0.786823573 0.6171772477 -0.0009538677633
-0.01493741798 -0.01418351555 -0.0215615015 0.78651718 0.6175682778 -0.0003845734255
-0.01098446846 0.0598980217 -0.04322041893 0.5337039446 -0.3338169256 -0.776998301
-0.008153787136 0.01890001774 -0.01816757774 0.3938936729 -0.9191276539 -0.007220130481
-0.005196749449 0.04086054802 -0.04068848228 0.2726377382 -0.01549511085 -0.9619919777
-0.009781785011 0.01810648727 -0.01810188866 -0.4485143341 0.8937682939 0.003623385296
-0.0169968257 0.01157241774 -0.01788964701 0.8417547591 -0.5398599897 -0.0003420491916
0.002575063944 0.04172171402 -0.04017060852 -0.119096212 0.04453122135 -0.9918835933
-0.01677204514 0.02053640652 -0.04862709808 0.8241079697 -0.03752963617 -0.5651880932
-0.01985862541 0.005314613223 -0.02066589165 0.9698096563 -0.243489733 0.01349001312
-0.01922436428 0.007307516813 -0.01788447475 0.9361085366 -0.351710878 -0.0005157984642
-0.01985776043 0.005314164162 -0.0179041214 0.9701633686 -0.2424515289 -0.0005424680604
-0.01941673279 -0.006748755455 -0.04231321716 0.9265768934 0.3743906699 0.03587320527
-0.01942419767 0.05028374958 -0.05384523964 0.9290122129 -0.003012795265 -0.3700367972
-0.01994677544 0.02050715065 -0.06558361435 0.9740572544 0.02595986904 0.2248078074
-0.02041774559 0.002498441398 -0.01794992161 0.985629252 -0.1689222075 -0.0005152404649
-0.01601523209 -0.01191670418 -0.04812682343 0.7823875957 0.6050590018 0.1475576311
-0.0205513773 -0.0005633200705 -0.01802502441 0.9999720168 -0.007475318189 -0.0002918842932
-0.0201854496 -0.003926581621 -0.01813459349 0.9735652795 0.2280248677 -0.01324032793
-0.01872002506 0.05689300919 -0.06908513641 0.8750439297 -0.1825918142 0.4482837833
-0.01933278338 0.05641506449 -0.06762521108 0.9258794784 -0.148196378 0.3475414005
0.01501817608 0.05103740311 -0.06868054199 0.9000101737 -0.02845722215 -0.4349389311
-0.01945098877 -0.006729618311 -0.01824819756 0.9281416426 0.3720370603 -0.01189609
-0.01484841251 -0.006051585674 -0.06244946671 0.744003344 0.5171926599 0.4230493785
-0.006272366762 0.01959211063 -0.02106415367 0.2899865286 -0.9570274187 0.002516561636
-0.00815815115 0.01890197754 -0.02096973991 0.3925696376 -0.9197151272 0.0036282966
-0.009781785011 0.01810648727 -0.0208942318 -0.4373997723 0.8992630697 -0.002714896595
-0.02054929161 -0.0007217561007 -0.03015284348 0.9993010033 0.03738065144 0.0004379392441
-0.01187681365 0.01677756357 -0.02080575275 0.5744245361 -0.8185567284 -0.001155292876
-0.01474064048 0.01430593761 -0.02070467981 0.7122158452 -0.7018303023 0.01352097138
-0.01717641926 -0.006385051489 -0.05698676682 0.8363083287 0.4597194942 0.2987413027
-0.01699744463 0.01157271862 -0.02064920521 0.8404631265 -0.5417013649 0.0134671525
-0.01858703423 0.05342943319 -0.06937275696 0.9152486406 -0.009821198852 0.4027697481
-0.0184023304 0.009201185465 -0.02063557243 0.9086272637 -0.4174709544 0.01070036689
-0.02041966105 0.0024994573 -0.02071868086 0.9859661005 -0.1665494596 0.01149461338
-0.02055260324 -0.0005626561642 -0.02080541897 0.9999727638 -0.007256319942 -0.001348166123
-0.01933053398 0.01347169304 -0.05153027725 0.9464113544 -0.1900452522 -0.261128992
-0.008162519455 0.01890394115 -0.02377502632 -0.4277665031 0.9038714721 -0.005672801829
-0.01011398411 0.01978055573 -0.04254348755 0.654099101 -0.4231150917 -0.6269991907
0.01623552775 0.05292388725 -0.06580012894 0.9649288225 -0.01413185424 -0.2621309944
-0.02018772078 -0.003925326228 -0.02093181181 0.9732287417 0.2298382118 -0.0004611535026
-0.009120703697 0.05931698227 -0.04214342117 -0.3562932401 0.3976326846 0.8455432427
-0.01945579052 -0.00672693634 -0.02106275082 0.928242266 0.3719518036 0.004260437167
-0.01861244011 -0.008812992096 -0.02117789555 0.929411131 0.3689995611 -0.005854359822
-0.02054840851 -0.0005648932531 -0.04179100609 0.9999666545 0.0020810525 0.007896780195
-0.02054664755 0.02373287535 -0.0596081543 0.9991948212 -0.002557047741 -0.04003961509
-0.01728425312 -0.0111931591 -0.02133058548 0.8531980309 0.521354538 -0.01557452507
-0.01372548523 0.04727278519 -0.04531874466 -0.6559503885 0.01286834083 0.7546943048
0.002460771799 0.02042730999 -0.02445248985 0.0303002098 0.9995400371 0.001269434756
-0.001423918962 0.0205467205 -0.02418387222 0.07609804433 -0.9970292939 -0.01190272241
-0.005185448289 0.01988087463 -0.02394765949 0.2840654666 -0.9587856175 0.006078682695
-0.009781785011 0.01810648727 -0.02368977165 0.4303670892 -0.9026157808 0.008301859928
-0.01699806452 0.01157302046 -0.02341191101 0.8404660248 -0.5417430717 0.01145885821
-0.001423918962 0.0205467205 -0.03564074516 0.01422546353 -0.9888720296 -0.1480869518
-0.02026452986 0.05943199476 -0.059822052 0.9925036864 -0.1210652841 -0.0167221268
-0.01187701178 0.0167776556 -0.02358943892 0.5757853549 -0.8175198104 0.01151454149
-0.01474280405 0.01430696456 -0.0234746809 0.713321031 -0.7007630036 0.01021369052
-0.01840401316 0.009202022076 -0.02339636517 0.9085230666 -0.4177290384 0.009396165664
-0.001423918962 0.0205467205 -0.03276941299 0.07570602823 -0.9969574455 0.01855934166
-0.01923066616 0.007310719252 -0.02340472031 0.9322480947 -0.3617454117 0.007331241889
-0.02042157841 0.002500474334 -0.0234905715 0.9857781453 -0.1678463194 0.008310308632
-0.01707753897 0.011611835 -0.0414647131 0.8604068517 -0.5020800542 -0.08726779933
-0.01890624809 0.04102706909 -0.05248073959 0.9157163937 -0.01989036018 -0.4013326051
-0.02018999338 -0.003924069285 -0.02373218679 0.9758401175 0.2184062509 0.005897010495
-0.01273857689 0.05630198288 -0.04448396301 -0.6330549976 0.1216125603 0.7644944442
-0.01861244011 -0.008812992096 -0.02401138783 0.9294255529 0.3689646346 -0.005765422639
-0.01729083633 -0.01118940544 -0.02418394566 0.8545875006 0.5193072547 -0.0004232119419
-0.01746397924 0.02382144499 -0.07143969345 0.8593185141 -0.005502047826 0.5114112033
-0.01493741798 -0.01418351555 -0.02444631863 0.7862797275 0.6178706675 -0.0001687050483
-0.01963116608 0.03819954987 -0.0544455101 0.9624384751 -0.01483660565 -0.2710941844
-0.02055601645 0.01482011271 -0.06034064102 0.9973928277 0.0234586887 0.06824395382
0.002450655699 0.02043164349 -0.02734086609 0.02977928251 0.9995558175 0.001167067244
-0.01822724819 0.005250320196 -0.06589136505 0.8814429822 0.2331953784 0.4107044979
-0.001423918962 0.0205467205 -0.02704142284 0.06864446671 -0.9976278449 -0.005159481973
-0.005189052939 0.01988247013 -0.02677697134 0.2773910306 -0.960755142 0.001942467208
-0.01493741798 -0.01418351555 -0.03602752304 0.7841239953 0.6205929374 0.003737110333
0.002430379868 0.02044032955 -0.03313006401 0.02782983637 0.9996121504 0.001024167347
-0.009781785011 0.01810648727 -0.02648893929 0.4186465243 -0.9080542982 0.01313313469
-0.01201410065 0.01668844376 -0.02678755226 0.5756371799 -0.8176461105 0.009832349124
-0.009424147129 0.03221453762 -0.07890161133 -0.5130383482 -0.02357341895 -0.8580419263
-0.02047956657 -0.000602097325 -0.04745261097 0.9920259272 0.1194743984 0.04013013711
-0.01474551264 0.01430825022 -0.02694244109 0.7122868877 -0.7018884356 0.0001164097224
-0.01841035175 0.009205174446 -0.03587024117 0.9083380684 -0.4182305421 -0.002273162741
-0.01986894941 0.005319973588 -0.03592264175 0.9702261314 -0.2421954458 -0.001618614295
-0.01699884065 0.01157339764 -0.02687058067 0.8397515179 -0.5429708716 -0.0001441180615
-0.01923312251 0.00731196785 -0.02686216927 0.9313076518 -0.3640158079 -0.01259163855
-0.01986335754 0.005317070166 -0.0268919735 0.9692913274 -0.2459104026 -0.001548060283
-0.02042397912 0.002501747529 -0.02696070417 0.9877729998 -0.1556083761 0.009514948343
-0.008165914536 0.01890546608 -0.02939724922 0.4181545568 -0.9082993755 0.01179029489
-0.02056208954 -0.0004002117753 -0.02678729095 0.9999246767 -0.007884743692 0.009405938336
-0.01101764584 0.06060000229 -0.07542082977 -0.5075292712 0.4526714805 -0.7331456674
-0.02002708864 0.01153617787 -0.06354743099 0.9680208055 0.08283444408 0.2367998627
-0.02019226933 -0.003922810793 -0.02653615046 0.9754723067 0.2200742198 0.004595273846
0.01709267807 0.05038570023 -0.06085167694 0.9974442701 -0.01229470127 -0.0703830117
-0.005878750324 0.0352374897 -0.04086460876 -0.2664215732 -0.005444785149 0.9638412212
-0.01861244011 -0.008812992096 -0.02684855747 0.918329973 0.3958052484 -0.002875080609
-0.01495716953 0.007478993654 -0.07211251068 0.7479084991 0.2516845908 0.6142375304
-0.0172921505 -0.01118865585 -0.02704138279 0.8545081911 0.5194379035 -0.0001252313619
-0.01493741798 -0.01418351555 -0.02733487988 0.7861406582 0.6180476238 -1.6303596e-05
-0.01985035992 -0.004111086667 -0.04778605556 0.958351679 0.2759114487 0.0737219906
-0.001423918962 0.0205467205 -0.02990312099 0.07185759834 -0.9974148774 -0.0002187250239
-0.005192663193 0.01988406801 -0.02961032104 0.2704750439 -0.9627061373 0.006335915036
-0.02050445938 0.0116207016 -0.06019965286 0.9931098771 0.04543078137 0.1080222941
-0.009781785011 0.01810648727 -0.02999390411 0.418758713 -0.9080974158 -0.0004729337327
-0.01174900112 0.01687104111 -0.03015316353 0.5767379726 -0.8169256635 -0.00240233653
-0.02023086815 -0.003742537785 -0.02975429306 0.979074745 0.2035009627 -4.399878068e-05
-0.01946811867 -0.006720048904 -0.02952712727 0.9288156626 0.3702522755 0.01465324018
-0.004746775309 0.04434095128 -0.0405892779 -0.3500237095 0.01381126597 0.9366390189
-0.01503539991 0.0359349041 -0.04655828667 0.7347819057 0.002477430873 -0.6782989115
-0.0172921505 -0.01118865585 -0.02990307617 0.8544628852 0.5195124263 0.0001295422884
0.01237717032 0.05634207535 -0.07229776001 0.7498986127 -0.1163360098 -0.6512434288
-0.01493741798 -0.01418351555 -0.03022763252 0.7861106369 0.6180858084 3.32893435e-15
-0.01474822601 0.01430953821 -0.03041616853 0.7123104576 -0.701763709 -0.01189574333
-0.01699961805 0.01157377601 -0.03033524656 0.8404299983 -0.5417973898 -0.01153283401
-0.0008108486533 0.03551107025 -0.04004321671 -0.1358043048 0.04209534551 0.9898409835
6.734604637e-07 0.03819204585 -0.04001996613 -0.09614668448 0.05205428593 0.9940051139
-0.01840823078 0.009204119444 -0.03031481743 0.9083870985 -0.4180059536 -0.01019323699
0.002973055124 0.06060000229 -0.08022566223 0.02731104302 -0.5765411643 -0.8166115311
-0.01091940928 0.03282137299 -0.04314482689 -0.5355067493 -0.012485045 0.8444386568
-0.01137541771 0.05376324463 -0.04343607712 0.5568909548 -0.006901056986 -0.8305569456
-0.01502570248 -0.009201818943 -0.05756044388 0.7754778166 0.5391720257 0.3285234888
-0.01923316765 0.007311990738 -0.03032582855 0.9358315423 -0.3520722437 -0.0162622138
-0.01691773701 0.03811894798 -0.04889163971 0.8209968168 -0.009657458464 -0.5708510842
-0.02007576148 0.05937043063 -0.0571930116 0.9865887437 -0.07599551334 -0.144455297
-0.01986550474 0.005318184972 -0.03035924864 0.9582508632 -0.2857620579 -0.009763679374
-0.02042638397 0.002503022909 -0.03043681335 0.9872541126 -0.1591057302 -0.003831947446
-0.00519627893 0.01988566828 -0.0324481492 0.2696555916 -0.9629271122 0.007565610707
-0.0152308801 0.05642633057 -0.04680575434 -0.6908489866 0.1375518151 0.7097937559
-0.01542153168 0.06060000229 -0.0688661499 0.7947469504 -0.446700457 0.4108965643
-0.008165914536 0.01890546608 -0.03292052333 0.4197960523 -0.9076142447 -0.002767180591
-0.01188564706 0.01678162575 -0.0333626833 0.5761717406 -0.8172209798 -0.01326633097
-0.01501838636 0.03303220367 -0.07466807556 0.7390014007 0.01330084312 0.6735725776
-0.01895518398 0.02004881096 -0.05250985146 0.9150093637 -0.05589456876 -0.3995418145
-0.01861244011 -0.008812992096 -0.03253569317 0.9168238001 0.3991111931 0.01201562351
-0.01285909939 0.01799034309 -0.04371257019 0.6819324711 -0.3762881449 -0.6271964101
-0.0172921505 -0.01118865585 -0.0327693634 0.8544855512 0.5194730499 0.001480947055
-0.01867605464 0.03237628619 -0.06923092397 0.906033573 -0.002731534022 0.423197003
-0.01493741798 -0.01418351555 -0.03312503052 0.7861106369 0.6180858084 -1.554312234e-15
-0.009781785011 0.01810648727 -0.03350559044 0.4280464856 -0.9037535501 -0.002393074684
-0.01474943892 0.01431011788 -0.03320060412 0.7112582299 -0.7027538328 -0.01577279049
-0.02049269943 0.01191852322 -0.05679607468 0.9934450198 -0.03629922152 -0.1083944606
-0.0170002408 0.01157407904 -0.03311234283 0.8404508361 -0.5417267496 -0.01321063296
-0.008165914536 0.01890546608 -0.03928221321 0.5181756633 -0.765976017 -0.3804927375
-0.006790561199 0.0266549511 -0.04117256927 -0.3385060882 -0.004087334488 0.9409553241
0.01477452469 0.05637023799 -0.06905468877 0.8651207994 -0.1227094052 -0.4863212974
-0.01840992212 0.009204960585 -0.03308991718 0.9083503407 -0.4180551767 -0.01138102594
-0.01050944519 0.03631638718 -0.07826521301 -0.6064463754 -0.01185844502 -0.7950359559
-0.01469256544 0.02997871113 -0.0750250206 0.7224490737 0.02159066231 0.6910869549
-0.01923316765 0.007311990738 -0.0331021347 0.9357556849 -0.3521812014 -0.01815762954
-0.01986722517 0.005319078445 -0.03313841057 0.9699338572 -0.2429899931 -0.01357114369
-0.01909606171 0.01787621307 -0.06810939026 0.9281966654 0.05959921186 0.3672858345
-0.02042831135 0.002504045129 -0.03322305107 0.986298877 -0.1643837115 -0.01387518034
0.00242087698 0.02044440079 -0.03603186798 0.05206736713 0.9985176833 0.01585639985
-0.005420090103 0.01983076782 -0.03569729691 0.2962033983 -0.954859771 -0.02250254668
-0.01946811867 -0.006720048904 -0.03590253448 0.9279014943 0.3728087582 0.003527974695
-0.01558974266 -0.007262392044 -0.05950086594 0.7910400261 0.5080458578 0.3408006506
-0.01861244011 -0.008812992096 -0.03538654709 0.924892286 0.3802074823 0.004065669812
-0.0172921505 -0.01118865585 -0.03564069176 0.84896541 0.5284365257 -0.00354554911
-0.008165914536 0.01890546608 -0.03645118523 0.4399811183 -0.8939536951 -0.08522562184
-0.009781785011 0.01810648727 -0.03632089424 0.42477463 -0.9051692571 -0.01533394286
-0.003635549545 0.053332901 -0.04034862137 0.2945971714 -0.0001411352113 -0.9556215185
0.01238485718 0.05979641724 -0.04811146673 0.7252806376 -0.2161575511 0.6536389752
-0.01799212483 0.04729316766 -0.05070432663 0.8708699315 -0.01210236669 -0.4913645237
-0.004306953192 0.04780871773 -0.04049389458 0.3262616376 -0.01206580552 -0.9452024969
-0.01188750529 0.01678248024 -0.03616574669 0.5740899494 -0.8175538081 -0.04501667342
-0.01700124645 0.01157456803 -0.03589447498 0.8421248961 -0.5392713121 -0.003480122339
-0.01923316765 0.007311990738 -0.03588353729 0.9359322004 -0.3521748389 -0.001949140537
-0.02043011904 0.002505003899 -0.03601438141 0.9856732299 -0.1686661841 -4.72062228e-05
-0.02055784178 -0.0005598190427 -0.03616582966 0.9998701243 -0.00405930032 -0.01559668358
-0.019424359 -0.0009071387251 -0.05689195887 0.938104426 0.2824005523 0.2005243476
-0.01661479473 0.01138554668 -0.07138426971 0.8057794918 0.1548606573 0.571609646
-0.0202002635 -0.003918390632 -0.03638458729 0.9756037059 0.2194913635 -0.004577162228
-0.002206873814 0.02088618533 -0.03913133494 -0.02468900509 0.6075394529 0.7939057036
-0.005040836143 0.01997061958 -0.03915051651 0.3985453438 -0.697143744 -0.5959464818
-0.01915107346 0.03257564545 -0.06818286133 0.9285153542 0.03426996749 0.3697090834
-0.01860952314 -0.008814638138 -0.03895856984 0.9279808787 0.3726085023 0.00379378524
-0.0172921505 -0.01118865585 -0.03851751518 0.8480860965 0.5297532448 0.01055805648
-0.01989557028 0.005333720326 -0.04150460339 0.9746479735 -0.2228158392 -0.0203575441
-0.01493741798 -0.01418351555 -0.03893556976 0.7839058467 0.6208482547 0.006250455239
-0.01681210232 0.04092476463 -0.04874362564 0.8180903607 -0.007964758076 -0.5750345418
-0.01979728699 -0.003343272328 -0.05059132004 0.957183035 0.2673344541 0.1110537133
-0.009781785011 0.01810648727 -0.03914180183 -0.5247547595 0.7979870879 0.296393404
-0.0118893671 0.01678333616 -0.03897435474 0.6022635257 -0.7737951304 -0.1962644689
-0.01860678673 0.04185130437 -0.0693677063 0.9114873048 -0.00313314436 0.4113162731
-0.01475118478 0.01431095791 -0.03878527514 0.7208838222 -0.6900954725 -0.06399026241
-0.006210646152 0.03240265846 -0.04095952415 -0.3115377658 0.003153481628 0.9502285389
-0.01700255156 0.01157520318 -0.0386820879 0.8438317898 -0.5366042883 0.001936042445
-0.01841035175 0.009205174446 -0.03865614986 0.9095609225 -0.4153736264 -0.01279370209
-0.02037429619 0.01473232937 -0.0568705794 0.9908090523 -0.03069268257 -0.1317398235
-0.01151836109 0.001803892732 -0.07264279938 -0.6504137541 -0.3714031644 -0.6625870795
-0.01818391991 0.05671565533 -0.05100851154 0.85122797 -0.2247333131 -0.4742424285
-0.01573805285 0.04476292229 -0.04733141899 0.7591662875 0.01952733233 -0.6506037436
-0.01923316765 0.007311990738 -0.03867047882 0.9379407602 -0.3467773362 -0.003550979361
-0.01987099934 0.005321036339 -0.03871233559 0.9701688578 -0.2421769153 0.01107831691
-0.01047612429 0.05276004791 -0.07827597046 0.594842691 0.01047905376 0.8037738254
-0.0125933466 0.0007675639987 -0.07105290985 0.6632242729 0.3963510178 0.6348538686
-0.02043047905 0.002505194843 -0.03881143475 0.9859546573 -0.1669913041 -0.002705216279
-0.02020170879 -0.003917591333 -0.03921024132 0.9787365393 0.2050708317 -0.004554181994
-0.01844778061 0.009223868608 -0.04144244194 0.9171947133 -0.3963785977 -0.04047054563
-0.006506604195 0.02953901768 -0.04106326294 -0.3303117435 -0.002698311826 0.943868037
-0.01858540726 0.01987760353 -0.06944480515 0.9136305087 0.01513794069 0.4062636291
-0.01870720863 -0.0007649912834 -0.05987114716 0.9031315182 0.3209847789 0.2851705324
0.001463698268 0.04063325882 -0.04008603287 -0.1193220687 0.04470157919 -0.9918487852
-0.01173959589 0.0475527153 -0.04367573738 -0.5895590047 0.01035519781 0.8076589316
-0.002366599798 0.02935476017 -0.04014445114 0.2079888137 -0.01596080895 -0.9780009744
-0.002930807352 0.02655424118 -0.04021212769 0.2794251168 -0.06823240956 -0.9577400182
-0.01722413158 -0.01122743893 -0.04141035271 0.837833079 0.5443299373 0.04172111185
-0.01478530598 -0.01427112484 -0.04187212372 0.7698521305 0.6367836066 0.04282914337
-0.01542153168 0.06060000229 -0.05125594521 0.6107211356 -0.6299954974 -0.4797138396
0.002973055124 0.06060000229 -0.0408864975 -0.03497357971 0.9766987516 0.2117460679
-0.01239319992 -0.01398184109 -0.05317708588 0.6848451903 0.6790897425 0.2642426666
0.01307652378 0.05464097977 -0.04964207458 0.8189029656 -0.05732663567 0.5710618091
-0.002571428895 0.0594078598 -0.04024365234 0.2217696119 -0.5391646191 -0.8124775399
-0.005536205292 0.03805477524 -0.0407749157 -0.2424041006 0.01080554637 0.9701151953
-0.007008832455 0.02448404121 -0.04125627136 -0.4076520327 0.05590713664 0.9114242768
-0.008805330118 0.02324450302 -0.04204396693 -0.458651264 0.1856722902 0.8690021972
-0.008357753396 0.02051836109 -0.04165398979 -0.6335946661 0.3863141355 0.6703127538
-0.02023593426 0.0235924964 -0.05689856625 0.9870314259 0.005809553115 -0.1604219854
-0.01401966381 0.03262258816 -0.04551084328 -0.6839633211 0.001970505493 0.729513737
-0.01008050537 0.01824224472 -0.04121876144 0.5397170542 -0.7597265369 -0.362658366
-0.02041092968 0.002494407833 -0.0543188448 0.9908770917 0.09824017901 0.09225755421
-0.0120030447 0.01729337807 -0.04188805847 0.6030522161 -0.695626761 -0.3904246842
-0.0149042031 0.01438356606 -0.0415639108 0.7564132965 -0.6297482335 -0.1767939117
-0.01926327133 0.00732728982 -0.04145889664 0.943989308 -0.3288869685 -0.02678709439
-0.02043133259 0.002505667061 -0.04161438942 0.9885612093 -0.1506857031 -0.006368227559
-0.02016781235 -0.003936233819 -0.04204728413 0.9738793427 0.2264702294 0.01643961647
-0.01131954813 0.02707486248 -0.04339873314 -0.5504520191 -0.01813535904 0.834669805
-0.01852564621 -0.008861977577 -0.04255177116 0.9105518943 0.4098138791 0.0542939438
0.007916366577 0.06060000229 -0.04292383575 0.006255763256 0.8622716552 -0.5064074032
0.01221388006 0.05935416603 -0.04424660492 0.4205891413 -0.5875171054 0.6913236761
-0.001826191068 0.06060000229 -0.04236458969 -0.08536033581 0.7237635 0.6847481355
-0.00702538681 0.05373121643 -0.04128441238 0.3572639243 -0.005169408486 -0.9339891678
-0.01794553693 0.01127282672 -0.04487488217 0.8649854398 -0.4497642467 -0.2225136207
-0.006519232273 0.06014262517 -0.04154397837 0.1660155178 -0.4439529131 -0.8805365744
-0.006803664207 0.05648424911 -0.04119939041 -0.2972535706 0.1509699591 0.9427875615
-0.01680255127 -0.003380223513 -0.06187434387 0.8152176263 0.4334932723 0.3840622405
-0.01813282871 0.03574526596 -0.05089577484 0.8710040175 0.01047657478 -0.491164171
-0.008687021414 0.05333579254 -0.04199660238 -0.4217424326 -0.03580565686 0.9060084301
-0.008735989189 0.05033497391 -0.04203052139 -0.4128773912 0.007470581367 0.9107559773
-0.008733409166 0.04720186615 -0.04203417015 -0.4392265487 0.02575641226 0.8980070412
-0.008374802907 0.03840434265 -0.04180172857 -0.4366264643 -0.006338786328 0.8996205592
-0.01540081406 -0.004139406681 -0.06364619446 0.7499144624 0.4851715475 0.4497075367
-0.008704261303 0.03487286568 -0.04193182755 -0.4499972799 0.007953755944 0.8929945049
-0.009167131424 0.0291455164 -0.04216244316 -0.4729866856 -0.003179740372 0.8810638368
-0.01947832489 0.04753710747 -0.0540043993 0.9571229342 -0.004181038743 -0.2896518735
-0.00939526844 0.02625548649 -0.04228431511 -0.4803623752 0.004201705706 0.8770600516
-0.01905097771 0.03611742973 -0.05277245712 0.9262807961 0.01466661356 -0.3765485058
-0.01689806366 -0.01141334915 -0.04435148239 0.8365271808 0.5440788676 0.06481096751
-0.009288243294 0.05657803154 -0.04223565865 -0.5009188587 0.05201335448 0.8639299208
-0.01960284376 0.01132701492 -0.05094503403 0.9601995274 -0.1833851192 -0.2106816688
-0.01394581842 -0.01475463343 -0.04492663383 0.7358365284 0.6704438131 0.09512989524
-0.01530330531 0.01508015347 -0.04404317347 0.7742434414 -0.5073810436 -0.3783008988
0.006975498676 0.05869017601 -0.07615106583 -0.3551212314 0.2641482366 0.8967243836
0.008432454109 0.05996262614 -0.0453961525 -0.118833838 0.6855340673 -0.7182768001
-0.02019678307 0.02650359058 -0.0566851635 0.9843846546 -0.004897768724 -0.1759626766
-0.01285847282 0.03214557171 -0.07666942215 0.5884268361 0.004861105939 0.8085358546
-0.02047472763 0.02075129128 -0.06265587807 0.9936062964 0.01334644476 0.1121088766
0.002973055124 0.06060000229 -0.0436925621 0.0133642294 0.993115278 -0.1163762948
0.006686906815 0.05585520935 -0.07628038406 -0.3551212314 0.2641482366 0.8967243836
-0.01951238871 0.02620153666 -0.0540605011 0.9581785076 -0.001911068177 -0.2861648046
-0.01030420303 0.0413116684 -0.04279719734 -0.515670304 0.007080395808 0.8567578453
-0.01415348935 0.04133065891 -0.04570185375 -0.6746998197 0.002883189078 0.7380866077
-0.01229840374 0.02897139072 -0.07709804916 0.5728614384 -0.01378484474 0.8195363021
-0.01050657654 0.0384961319 -0.04290942001 -0.5207657735 0.004933228599 0.8536853474
-0.01241809559 -0.01563453484 -0.04737994003 0.7059208932 0.6921543525 0.1503264608
-0.01071453762 0.03566735458 -0.04302484894 -0.5286396007 -0.002057423482 0.8488438841
-0.01115113115 0.03874373627 -0.07789348221 0.6304512953 0.01736455803 0.7760345588
-0.01111679125 0.02995567417 -0.04327007484 -0.5428405733 -0.01034807787 0.8397720103
-0.02046899319 0.002525478184 -0.04441793442 0.991705406 -0.1263955595 -0.02333559921
-0.01245732371 0.02582558568 -0.04424939982 -0.6221926364 -0.004085547523 0.7828535185
-0.0121140906 0.0231855011 -0.04397640737 -0.5881672392 0.04029599395 0.8077348152
-0.01197626781 0.01986096668 -0.04371648026 -0.6404791918 0.336854823 0.6901559484
-0.01475551764 0.01709980424 -0.04515872129 0.6984044927 -0.3888466033 -0.6008572907
0.01560326791 0.05311789894 -0.05376770115 0.9054690193 -0.02293542841 0.4237921911
-0.01660928488 0.01405389833 -0.04522218227 0.8252332864 -0.4485859421 -0.3431627538
-0.0189805088 0.008723054409 -0.04420477486 0.9254638108 -0.3632614392 -0.1075074962
-0.01944790316 0.007805629849 -0.04525432491 0.9547112904 -0.2635738712 -0.1380404518
-0.02005282275 0.005414903482 -0.04498316447 0.9707093912 -0.2256609073 -0.08246473682
-0.01900022221 0.05969897461 -0.0527077198 0.8248068102 -0.4181120421 -0.3806258611
-0.01934071477 0.03836678823 -0.06765403239 0.945097144 -0.0202722614 0.32616012
-0.02050314665 0.02371319485 -0.06240008259 0.9959116482 -0.00220099542 0.0903058389
-0.02053508377 -0.0005721320175 -0.04461460209 0.9972366398 0.07078335368 0.02255661885
-0.01402482382 0.02353029633 -0.04556901677 0.7082335976 -0.02236434075 -0.7056238428
-0.01921839619 -0.006859556913 -0.0452019825 0.9164296852 0.3941709856 0.06917995509
-0.01822328949 -0.009032625675 -0.0454735508 0.8990679201 0.4267296833 0.09787059027
0.008874749184 0.05739159012 -0.04603629684 0.4205891413 -0.5875171054 0.6913236761
-0.0111987168 0.05649570592 -0.04333853658 -0.5588563763 0.1380639382 0.8176905892
-0.0124020745 0.0531739006 -0.04422350947 -0.6010972029 -0.001968257809 0.7991734972
-0.01660104704 0.05892799664 -0.04847848415 0.716305207 -0.4386074 -0.5427065497
-0.01229757118 0.050570158 -0.04413444233 -0.5985590498 -0.003843241359 0.8010694685
-0.01189562321 0.044767519 -0.04378957367 -0.5915806667 -0.003848561464 0.8062366299
-0.01401005793 0.05947020531 -0.04550117874 0.6438023532 -0.3215389821 -0.69435669
-0.02056678438 0.03245005131 -0.06030102444 0.9998800914 0.005004414174 0.01465464892
-0.01204589176 0.04196508789 -0.04390836143 -0.5947774964 -0.007097251286 0.8038590416
-0.02021215185 0.05941490428 -0.06251085981 0.9929621101 -0.0759612724 0.09086326517
-0.01243970299 0.03489592171 -0.04422076416 -0.6183094642 0.02314260577 0.7855939322
-0.01260483885 0.03204190063 -0.04435198021 -0.6218229952 0.007997332556 0.7831169806
-0.01416151619 0.02975561619 -0.0456535244 -0.6869665973 -0.004288375817 0.7266763407
-0.01804206657 0.03856329918 -0.0507346096 0.8726404725 0.01499156775 -0.4881330338
-0.01646582413 -0.01165979481 -0.04659640884 0.8033480452 0.5847033547 0.1129331891
0.01135775137 0.05590570831 -0.04788607597 0.7262054437 -0.1840992422 0.6623693249
-0.01181267571 0.05981315136 -0.04479399109 0.6031744167 -0.3267446119 -0.7276115595
-0.01401317644 0.04412436008 -0.04557479286 -0.6756504162 -0.009916639445 0.7371554622
-0.01669223785 -0.009896739006 -0.05152595711 0.8300063031 0.5182899356 0.2060705689
-0.01996496582 0.008450613499 -0.06241497421 0.9702646297 0.123318949 0.2082762232
-0.01430435419 0.02687043476 -0.04580059052 -0.6900920858 -0.006434897602 0.7236929634
-0.01739561844 0.05895700582 -0.07151090495 0.8221988608 -0.2763800607 0.4975973225
-0.01883982849 -0.007071044922 -0.04813263893 0.901227198 0.4174218439 0.116398204
0.01664908171 0.05279687691 -0.05691695976 0.9858946001 -0.01229169202 0.1669154034
-0.01858282216 0.0597909317 -0.06936044566 0.8306333135 -0.3948178692 0.3926412468
-0.01768630123 -0.009335697174 -0.04844878387 0.8705025376 0.4709686906 0.1428769557
0.01298546839 0.05690226746 -0.04953010178 0.8265285098 -0.1656493771 0.5379692429
-0.01425991027 0.0533364296 -0.04575483195 -0.6980487743 0.007968168214 0.7160058778
-0.01737645578 0.03830006409 -0.07155998993 0.8350691908 -0.003015536496 0.5501366677
-0.01538483381 0.02880589485 -0.04692208862 0.7366677908 -0.006594282358 -0.6762226568
-0.01553121281 0.02592461872 -0.04707467461 0.7419145487 -0.007809784847 -0.6704489612
-0.01566904163 0.02302005959 -0.04723344612 0.7522774749 -0.009569431162 -0.6587769172
-0.01678334808 0.01754193687 -0.04812252617 0.8316526488 -0.1545516021 -0.5333551106
-0.01785153453 0.01427098465 -0.04819024277 0.8684840982 -0.3184689824 -0.379885349
-0.02004735184 0.002302377999 -0.05723779488 0.9740543408 0.1775403465 0.1403480195
-0.0188668588 0.01121741803 -0.04802219772 0.9276855503 -0.2819176314 -0.2447896421
-0.02029863977 0.005541703224 -0.0484530592 0.9811887371 -0.174568283 -0.08242922266
0.01826274872 0.06060000229 -0.05161977005 0.7653052272 -0.6016027196 0.228871311
0.01416397524 0.05952824974 -0.05105007362 -0.725089391 0.2451554925 -0.6435403325
0.01428197718 0.05651662636 -0.05119986534 0.7319320128 -0.2294861323 0.6415696717
-0.01812868245 -0.006396276156 -0.05370222346 0.8780399325 0.4216609162 0.2263800978
0.0143558445 0.05425131607 -0.05131274796 0.8241852057 -0.0142997905 0.5661397908
-0.0153733654 0.05302130318 -0.04695320511 0.7470792824 -0.008014944359 -0.6646866228
0.01826274872 0.06060000229 -0.05680441475 0.934528011 -0.3481190993 0.07396275658
-0.01549139929 0.0502821331 -0.04707549667 0.7459639185 0.002779402064 -0.6659805606
-0.01996754599 0.03790901279 -0.06549193764 0.974250323 -0.0220275432 0.2243904977
-0.01561294746 0.04752948761 -0.04720155144 0.7519451988 0.01512783877 -0.659052021
-0.02054878473 0.002567274481 -0.05145741081 0.99942674 0.008853319522 0.03267736327
-0.01589222431 0.04128078334 -0.04750063324 0.7768693879 -0.006196387327 -0.6296312881
-0.01604007244 0.03777207947 -0.04767752838 0.7786684173 -0.01154587546 -0.62732941
-0.01670396948 0.03227735138 -0.04858881664 0.8059550564 0.006050659095 -0.5919458055
-0.01681534815 0.02941501236 -0.04874836063 0.8118835502 -0.005053376933 -0.5837975371
-0.01663253975 0.02345034504 -0.04845959473 0.8121590907 -0.006688998056 -0.5833976934
-0.0203216526 -0.0005297968611 -0.05073192825 0.9862011132 0.1518798782 0.0658776664
-0.01928351498 -0.003624438524 -0.05355091286 0.9238272506 0.3351689544 0.1849458922
-0.01933432961 -0.00519185257 -0.05007917404 0.9389035371 0.3213800874 0.1231867989
-0.01944713545 0.02908682871 -0.05386764812 0.9304295279 -0.0024513761 -0.3664626643
-0.01848050753 -0.006736860752 -0.05127323023 0.8865631383 0.4244207796 0.1840456566
0.0154645226 0.05915375423 -0.05346584511 0.8348771187 -0.4144680816 0.3622104444
0.015532722 0.05614461517 -0.05361414146 0.8415441272 -0.2877652296 0.4571593317
-0.02054961853 0.02941731339 -0.06012649765 0.9995382997 0.001895662202 -0.03032480606
-0.0166894722 0.05622099018 -0.04860150051 0.8059989975 -0.1040325885 -0.5827030432
-0.01672994614 0.05094707235 -0.04864785258 0.8244903539 0.01430122991 -0.5656952635
-0.01827306557 0.01718813534 -0.05058547668 0.8920907077 -0.1167906745 -0.4365021277
-0.01807822282 0.02630291421 -0.05082835388 0.8695486084 -0.00942355458 -0.4937574448
-0.01817746258 0.02315631199 -0.05102425257 0.8750901468 -0.02989673508 -0.4830356304
-0.01887239011 0.01425812753 -0.05060898209 0.9147100403 -0.2119606189 -0.3440613873
-0.02013239956 0.008535886049 -0.05107133484 0.9824762127 -0.1399963624 -0.1230508428
-0.0204830265 0.005636830211 -0.05123545551 0.9934276102 -0.1033566313 -0.04918323022
-0.01812450854 0.05028336207 -0.05092840513 0.8661531109 0.003432334842 -0.4997669532
-0.01813612061 0.04157557907 -0.05094240875 0.8783554862 -0.006958572806 -0.4779573393
-0.01829714928 0.03250634804 -0.05121385193 0.8715517025 0.002717422764 -0.4902960794
-0.01833402634 0.02933524132 -0.05127813911 0.8957703388 0.00812797094 -0.4444428379
-0.02012939978 0.01158726764 -0.05365049648 0.9789151956 -0.09705814998 -0.1797352369
-0.01994113016 -0.0008922541807 -0.05394895077 0.9644354607 0.2255231751 0.1378533267
-0.02023153381 0.03502931747 -0.05701565857 0.9886187717 0.002911761827 -0.1504142478
0.01656233215 0.05883762646 -0.05660678005 0.9191114016 -0.3836374292 0.08975831083
-0.0184683876 0.002254952669 -0.06324433517 0.8979479275 0.2717054479 0.3462162172
-0.01811465359 0.05941439724 -0.05087601948 0.8225268845 -0.3167325136 -0.4723664246
-0.01959189351 0.01736096954 -0.05399802208 0.9539307496 -0.07448512112 -0.290633948
-0.01975240278 0.01443165445 -0.05349381638 0.9585841039 -0.1075204011 -0.2637344861
-0.02043409729 0.008688230157 -0.05382658863 0.9919019404 -0.0899818205 -0.08963153763
-0.02056399393 0.00567849052 -0.05404217434 0.9998646782 -0.009244181559 0.01360773584
-0.01675378418 -0.008236420631 -0.05502207565 0.8321177676 0.4866117979 0.2660619833
-0.01402384949 -0.01140275669 -0.05568865585 0.7253788016 0.6223982564 0.2940170143
-0.01896816444 0.03892931175 -0.05260393906 0.915762882 -0.000361407155 -0.4017190727
-0.01952679348 0.03488233852 -0.05413990307 0.9478403634 -0.009721636024 -0.3185971364
0.01745116742 0.05933235741 -0.05970072683 0.9876016234 -0.1492848365 -0.04854967629
0.01706228256 0.05568968105 -0.05981734562 0.9982421889 -0.05239798404 -0.02769446964
0.0170701642 0.05266763973 -0.05997677422 0.9995719534 0.01891404056 -0.02231969956
-0.02028663015 0.01468970656 -0.06321798515 0.9803449098 0.04143664871 0.1928908033
-0.01542153168 0.06060000229 -0.05326793671 0.6835133192 -0.6553914337 -0.3213590065
-0.01906836128 0.05700841522 -0.05284514809 0.8912886879 -0.1927256188 -0.4104403863
-0.01950892677 0.05620171661 -0.05414812622 0.9627896879 -0.01747371506 -0.2696862736
-0.01953404713 0.04477444458 -0.054168396 0.9573643724 0.007564283332 -0.2887840718
-0.01963990669 0.04159181519 -0.054491259 0.9574067976 0.004674272916 -0.2887046504
0.01277938906 0.05348832639 -0.07181692632 0.7457569911 0.009410505107 -0.6661515988
-0.01938932705 0.01122066545 -0.06582807922 0.950260447 0.1094032597 0.2916093442
-0.02056438541 0.008753932595 -0.05661899757 0.9999450537 0.004701005354 0.009369643106
-0.02046593857 0.005627674699 -0.05689223289 0.994042914 0.07101885266 0.08267410486
-0.02021626377 0.03230261834 -0.05694169807 0.9821148277 -0.006707800823 -0.1881634146
-0.02027732515 0.02066008234 -0.05711755276 0.9881481861 -0.006233368409 -0.153376359
-0.02035170603 0.01772026348 -0.05733592892 0.9906129675 -0.02924654094 -0.1335312266
-0.01789216105 -0.003322935661 -0.05926751709 0.8649125663 0.3888084509 0.3174180858
0.0170366106 0.0556973362 -0.06205044556 0.998086764 -0.0246548523 -0.05670052693
-0.0151333499 0.002874316216 -0.06961294937 0.7471276179 0.3421792089 0.5698365657
-0.02056240129 0.03530789185 -0.06008368587 0.9999251446 0.003521081207 0.01171781386
0.01701597118 0.05268428993 -0.06221025658 0.9966493458 0.002005246389 -0.08176833398
-0.02019397449 0.0532990818 -0.05687544568 0.976306802 -0.015268612 -0.2158515642
0.01700003052 0.05041480637 -0.0623335228 0.9974917012 -0.01581249991 -0.06899471659
-0.02021277122 0.05589466934 -0.05697800293 0.9874847564 -0.0338051877 -0.1540489048
-0.02022792943 0.05056938299 -0.05704279073 0.9846579319 0.006793147143 -0.1743634429
-0.02015987921 0.04778603935 -0.05656263542 0.9852278776 0.00343867256 -0.1712139152
-0.02024357748 0.0408422823 -0.05701361084 0.9846317519 -0.00744217863 -0.1744847478
-0.01638997269 -0.00520795393 -0.06065033722 0.8058891959 0.4579440062 0.3752730887
-0.02027432203 0.03803186512 -0.05720430851 0.9863000559 -0.02654785739 -0.1628109671
-0.02043955469 0.008690671444 -0.05947201061 0.9929650383 0.06235480975 0.1006593781
-0.02008844805 0.005432511449 -0.05981301308 0.975845216 0.1420162815 0.1660044887
-0.0195227979 0.002286521633 -0.05994506709 0.94972481 0.2264948396 0.2161547432
-0.0136240387 -0.008349312782 -0.06138900757 0.7238121472 0.5450777936 0.4230675768
0.01682256126 0.05876272583 -0.06334079933 0.9372988705 -0.3055317278 -0.1676937404
0.01680064011 0.05576752663 -0.06349840927 0.9741444003 -0.07555254154 -0.2129190008
0.01677782536 0.05275739861 -0.06366150665 0.9740118937 -0.0002247662557 -0.2264967557
0.016760149 0.05049016571 -0.06378730011 0.9696434779 -0.02293085872 -0.2434454796
-0.02053779449 0.026799757 -0.05978171082 0.9971094679 0.005899051385 -0.07574899501
-0.01182518911 0.04188186455 -0.07745429993 0.5771572863 -0.0195983178 0.8163978031
-0.02056110668 0.02079127121 -0.05984333038 0.9995513818 -0.01038069377 -0.0280940624
-0.02057018042 0.01782355404 -0.06008612347 0.999342617 0.01337018075 0.03369825092
-0.0188133316 0.0008675698042 -0.06114834213 0.9164492715 0.2724691516 0.2930551044
0.01634060192 0.05890153122 -0.06548116684 0.9536570545 -0.2371767277 -0.1851632316
0.01629044342 0.05591930389 -0.06563822365 0.9650483606 -0.1336308017 -0.2254428322
-0.02052597332 0.04791974322 -0.05985894012 0.9972228467 0.01495245999 -0.07295901554
-0.0171561861 0.02663313103 -0.07195032883 0.851235915 0.004170069749 0.5247666411
-0.02053746939 0.04462809658 -0.05991759634 0.9972609046 -0.01321799939 -0.07277343428
-0.02054953957 0.04096165276 -0.05966810989 0.9958381568 -0.00968491362 -0.09062321994
-0.014506917 0.04430688286 -0.07519791794 0.7264733872 0.001028741746 0.6871938296
-0.02055810308 0.03814544106 -0.05987244129 0.9993403923 -0.01244752799 -0.03411509059
-0.01947935677 0.005376547654 -0.06253993098 0.9504621925 0.1795947359 0.2537072161
-0.01203449106 -0.006779558897 -0.06521630478 -0.6609614136 -0.5459192665 -0.5148807282
-0.008415678978 0.02957909584 -0.07938745117 0.5033131973 0.007856533003 0.8640683424
-0.02054800224 0.05614324379 -0.05997661495 0.9983946018 -0.0401101761 -0.03999241007
-0.01242738438 0.01166214085 -0.07587715912 0.6059770395 0.1795230253 0.7749601996
-0.02055142403 0.05342259789 -0.06015447807 0.9996236176 -0.01896736893 0.01982074764
-0.02055486584 0.05068555832 -0.06033800793 0.9995574209 0.01710017336 0.02434227569
-0.02039897461 0.02644711227 -0.06316581268 0.9906395947 0.006418155352 0.1363524871
-0.02045177507 0.03526246643 -0.06285391998 0.9935628727 -0.005586744122 0.1131441836
-0.02040686417 0.01774623251 -0.06292744923 0.9905087013 0.02368617272 0.1353937879
-0.01878469276 0.003982345581 -0.06374725342 0.9142918503 0.2240338471 0.3374599943
-0.01459193802 -0.002970659614 -0.06588466644 0.7309878299 0.4747493017 0.4901733297
0.009623798847 0.05642994595 -0.0746737175 -0.5048273127 0.3047282259 0.8076447813
-0.02049399185 0.04093995667 -0.06240685463 0.9967956786 0.0002447514986 0.07998946981
-0.02047373343 0.03811165428 -0.06262703323 0.9949789729 -0.02036750812 0.09798983681
-0.01986077785 0.05043884373 -0.0659120121 0.9705873192 0.001853357439 0.2407422293
-0.02042431593 0.03239009666 -0.06308847523 0.9860353825 -0.004852499175 0.1664652448
-0.02039086676 0.02949349594 -0.06333094692 0.9880936477 -0.002811495574 0.1538279521
-0.01930813789 0.008118416548 -0.06470338821 0.9399141674 0.1612861123 0.3009121929
