# .PCD v0.7 - Point Cloud Data file format
VERSION 0.7
FIELDS x y z normal_x normal_y normal_z
SIZE 4 4 4 4 4 4
TYPE F F F F F F
COUNT 1 1 1 1 1 1
WIDTH 552
HEIGHT 1
VIEWPOINT 0 0 0 1 0 0 0
POINTS 552
DATA ascii
-0.01860929108 0.008814768791 -0.000704927206 0.9242277981 -0.3815045998 -0.01603800583
-0.008952629328 -0.01849641752 -0.005574786305 -0.4407447954 -0.8976214516 0.004444653139
-0.0147446305 -0.01430788708 -0.02624826368 0.712373536 0.7018003595 -0.0004478201828
-0.02043464041 0.01223891306 -0.05626777935 0.9909810962 -0.06972231534 -0.1144345475
-0.02054012394 0.0005693936497 -0.0006925521791 0.9996418763 0.0009963674881 -0.02674184868
-0.0163412056 0.05095525551 -0.07309851074 0.7960465745 0.01149636028 0.6051261727
-0.01867266703 0.006360646486 -0.06548431778 0.8913588391 0.2207182252 0.3959329299
-0.0189162248 0.002765307983 -0.06242765808 0.9059160408 0.2583591561 0.3355095728
-0.02040165234 -0.002489927649 -0.0006896785796 0.9876633341 0.155784911 -0.0158808082
-0.01985863113 -0.005314614296 -0.0006878770292 0.9707749757 0.235734286 -0.04500325573
-0.005511343241 -0.01925423431 -0.04671862411 -0.2357272932 -0.9565593452 -0.1715425963
-0.01920471191 -0.007297529697 -0.0006871724725 0.9349451778 0.3522611699 -0.04230345931
-0.01321820545 -0.01358024406 -0.05243191528 -0.6232725713 -0.736203692 -0.2636957067
-0.01838157177 -0.009190817833 -0.0006869184077 0.9040624906 0.4272282646 -0.01212530004
-0.01698417091 -0.01156621313 -0.0006873537898 0.8345789556 0.5506082521 -0.01756472637
-0.0201700964 0.003935067773 -0.01673788595 0.9735671873 -0.2280460772 0.01272472102
-0.01927385044 0.01250410175 -0.05064983749 0.9475781535 -0.2014087839 -0.2480527055
-0.008945658684 -0.01849326801 -0.0006967923045 -0.4471644594 -0.894450864 0.00126416489
-0.006234413147 -0.01957526016 -0.0007012240291 0.2920442042 0.9563350818 -0.01154963957
-0.01961971283 -0.005191318989 -0.04716229916 0.9565448018 0.2795080527 0.08304992799
-0.02051969433 0.06014540672 -0.06165693283 0.9978601197 -0.0488122097 0.0435034437
-0.01152465487 0.04505706978 -0.04352895927 -0.5687188804 -0.0009465044968 0.8225314214
-0.01489575005 0.01420751476 -0.002871243119 0.7860689531 -0.6181367201 -0.00161132105
-0.01944381332 0.006733627796 -0.03236018276 0.9282432555 -0.3719341382 0.005427281831
-0.002746704936 -0.02035181808 -0.0007075078487 0.08536462131 0.9950054242 -0.05174057568
0.002542716026 -0.02039220619 -0.0007180637121 0.007951387299 0.9999662979 -0.002044131197
-0.01187001729 -0.0167743926 -0.00277027148 -0.5891624731 -0.8078062941 0.01834588387
-0.01725167656 0.01121173286 -0.002840411544 0.8525795382 -0.5222810936 -0.01818214409
-0.01240646267 -0.01549610472 -0.0481580143 -0.6004386479 -0.7786067158 -0.1823321478
-0.017758255 0.0393499438 -0.0709527359 0.8636144909 -0.006879671958 0.5041058234
-0.01187411642 -0.01677628803 -0.005540888548 -0.5859941031 -0.8102815321 0.007399314405
-0.01725832176 0.01120794439 -0.005681126595 0.8533795337 -0.5212864719 0.001945687783
-0.01861301041 0.008812669754 -0.002819748878 0.9290210355 -0.3697917556 -0.01318988744
-0.01187792873 -0.01677804995 -0.008312279701 -0.5899274982 -0.8074555623 0.001030382382
-0.01942477989 0.006744260311 -0.002804734111 0.9281428379 -0.3720126295 -0.01254894354
-0.01726496792 0.01120415449 -0.008522573709 0.8542762649 -0.5198188456 -0.0006564279083
0.002672044635 -0.02033680153 -0.04188967133 0.02492738188 -0.9979361913 -0.05917756177
-0.01548856544 0.01802660942 -0.07400997162 0.7665290185 0.05872217994 0.6395193268
-0.0201700964 0.003935067773 -0.002787168622 0.9737549946 -0.2270678575 -0.01553700592
-0.01988104248 -0.005326245308 -0.03871094799 0.9694673262 0.2451567434 -0.005592365508
-0.02040548038 -0.002491947889 -0.00551793015 0.9869063581 0.1612522389 -0.003681824408
-0.02054252481 0.0005680979043 -0.002770262003 0.9997910176 0.004736567843 -0.01988683276
-0.008948646069 -0.01849461746 -0.002787217796 -0.4472550484 -0.8943021627 0.01365882465
-0.01400378704 0.03353618622 -0.04549293137 -0.6702338887 0.006681557262 0.7421198631
-0.02040380001 -0.00249105981 -0.002758770108 0.9859330582 0.1665011206 -0.01460758409
-0.01923916245 -0.007315037251 -0.03171269131 0.9321541948 0.3619922287 0.007084037171
-0.0198608408 -0.005315755844 -0.002751563787 0.969438668 0.2446236608 -0.01865297816
-0.01920700264 -0.00729869318 -0.002748744249 0.9355821047 0.3524222161 -0.02201605945
-0.001430114627 -0.02054940796 -0.017054883 -0.07097580883 -0.9974779721 0.0003601604148
-0.01188742566 -0.0167824173 -0.02080498743 -0.5899052766 -0.8073437602 0.01441587602
-0.0147293663 -0.01430061229 -0.008272258123 0.7128523819 0.7013134524 -0.0009608487198
-0.01491625404 0.01419570446 -0.01436398602 0.7863175912 -0.6178225034 -4.205837068e-15
-0.02004690488 0.03604858526 -0.05599919383 0.9681816703 -0.01410976258 -0.2498502911
-0.01838271761 -0.009191393852 -0.002747739971 0.9078905517 0.4190016832 -0.01312766274
-0.0205457263 0.0005663700514 -0.005540884614 0.9999811077 -0.001776826654 -0.00588447463
-0.01945844078 0.05903346634 -0.06721316528 0.9500326548 -0.06006586611 0.3063169055
-0.006242335081 -0.01957877636 -0.005610225916 0.287176786 0.9578716833 -0.003366297482
-0.01924090004 -0.00731592083 -0.03866941261 0.9361149053 0.3516747575 -0.003707968892
-0.00677663517 0.02490145779 -0.04116581345 -0.3273328089 -0.001164192064 0.944908396
-0.01472416019 -0.01429813035 -0.002756908655 0.7125730728 0.7013952694 -0.01686096258
-0.01942969894 0.006741512299 -0.0056098001 0.9307746957 -0.3655865101 -0.002229249744
-0.006237807989 -0.01957676792 -0.002804941058 -0.2852665317 -0.9583564349 0.01326460163
-0.008971138239 -0.01850480413 -0.02653669643 -0.4168188358 -0.9088650711 0.01504462254
-0.01701394622 -0.01158079036 -0.03519711304 0.8400973713 0.5424356178 8.584279074e-05
-0.01470896578 -0.01429091819 -0.0415926857 0.707434158 0.7057151025 0.03876991336
-0.002751013815 -0.02035370064 -0.002830067813 -0.09850505376 -0.9944607848 0.03666744956
-0.003232565403 0.05445994568 -0.04026413345 0.2480575396 0.01845834246 -0.968569433
0.002531625867 -0.02039695644 -0.0028722229 -0.008322937127 -0.9999635568 0.001900976789
-0.01944381332 0.006733627796 -0.01684224796 0.92903671 -0.3696645286 0.01545728515
-0.01491175985 0.01419829321 -0.00574261117 0.7861668743 -0.6180129657 -0.00127278215
0.002502046824 -0.02040962791 -0.008617594004 -0.01400004541 0.999891055 -0.004677274445
-0.02026036453 -0.002415547132 -0.0472693615 0.9795765988 0.190251092 0.06507080003
-0.005188318372 -0.01988210154 -0.0197097497 -0.2622266353 -0.9649112219 -0.01354715812
-0.008496046448 -0.01844316292 -0.04452066803 -0.4074758962 -0.9081744988 -0.09582522523
-0.0169891386 -0.01156862926 -0.008250010967 0.8421443937 0.5392513993 -0.0008651856427
-0.01861724186 0.008810281754 -0.005639847517 0.9269255662 -0.3752329633 -0.003036096466
-0.0201700964 0.003935067773 -0.005574761868 0.9750959386 -0.2217508824 -0.003802202331
0.002672131538 0.04423784637 -0.04018086243 -0.09372935293 -0.06130999733 -0.9937081526
-0.01905773735 0.01840731621 -0.05261174774 0.9211412082 -0.04850460045 -0.3861944826
-0.01918714142 0.03898347473 -0.06809642792 0.9201643052 -0.007994381553 0.3914508159
-0.008970961571 -0.0185047245 -0.03497553349 -0.4172067248 -0.9086842981 -0.01521167622
-0.0153357892 0.03356102753 -0.07431674576 0.7631424619 0.005772122586 0.6462045075
-0.02040660286 -0.002492543161 -0.008277913213 0.9856128593 0.1690175255 -0.0006062747301
-0.01986261368 -0.005316676378 -0.005503513217 0.9696356786 0.2445526349 -0.0008121741484
-0.02046008301 0.003775196791 -0.04768179607 0.9901396941 -0.1240623258 -0.06505325087
-0.02010864957 0.05791782633 -0.06488418325 0.9782220074 -0.005880470072 0.2074780091
-0.003907289743 0.05782867432 -0.04041712952 -0.2867934872 -0.001821093999 0.957990699
-0.0192100544 -0.00730024457 -0.005497849226 0.9357523824 0.3526521107 -0.001991881023
-0.01099537722 -0.01662508011 -0.04733410899 -0.5462118401 -0.8236521494 -0.1524787282
-0.01838424587 -0.009192162037 -0.005495869637 0.9058365559 0.4236001477 -0.004800930931
-0.01986784697 -0.005319393277 -0.01376586723 0.9695550828 0.2446078013 0.01140021912
-0.01698733187 -0.01156775045 -0.005499343753 0.8377631765 0.5460145464 -0.004579875396
-0.01375059366 -0.002160704792 -0.06774577332 0.6636186169 0.4672404376 0.5842060465
-0.0204657526 0.03025267363 -0.05864858627 0.9919157949 7.232132111e-05 -0.126897796
-0.01472676277 -0.01429937108 -0.005514188528 0.7155523633 0.6985285171 -0.006536521303
-0.01491625404 0.01419570446 -0.01148856163 0.7863279652 -0.6178092811 -0.000153159155
-0.002756759584 -0.0203562088 -0.005660460711 -0.09335818398 -0.995484353 0.01718000238
-0.01491625404 0.01419570446 -0.00861488986 0.7862652817 -0.617888684 -0.0006936015399
0.002516837955 -0.02040329075 -0.005744611502 0.003929802397 0.9999870706 -0.003227264012
-0.01518486834 0.02157558393 -0.04672893906 0.7414308449 -0.01938769987 -0.6707491479
-0.0168041811 0.01310834217 -0.04447603607 0.8347495772 -0.4891621146 -0.2528113307
-0.01861775398 0.00880999279 -0.008460832119 0.9303009976 -0.3667967755 -0.000423446161
-0.0194346199 0.006738763571 -0.008415622234 0.9277726828 -0.3731448666 -0.000870455211
-0.01741849454 0.0216328729 -0.07153447215 0.8497849022 0.02132032706 0.5266982662
-0.02053094959 0.03896755505 -0.05948598099 0.9957074314 -0.007448656196 -0.09225632035
-0.0201700964 0.003935067773 -0.008363204598 0.9733926774 -0.229143263 -0.0002462205142
-0.02054892921 0.0005646416955 -0.008312287927 0.9999810594 0.006105631745 -0.0007760009116
-0.01986435699 -0.005317581534 -0.008256266832 0.9698639067 0.2436461641 -0.0007410857136
-0.001430114627 -0.02054940796 -0.01136414576 -0.06842461502 -0.9976222265 0.008244109185
-0.01955664539 0.01894213867 -0.05405387688 0.9575161475 -0.02784787966 -0.2870319195
-0.01921310806 -0.007301796198 -0.008247732401 0.9357607706 0.3526349354 -0.0006185405196
-0.01909042358 0.04083465576 -0.06832115173 0.9150514445 -0.006491854297 0.4032848989
-0.01838520622 -0.009192645073 -0.00824482429 0.9078824753 0.4192241306 -0.0007344212353
-0.008956613541 -0.01849821758 -0.008363127708 -0.4282795137 -0.9036363597 -0.004241186258
-0.01990484715 0.03939100552 -0.0657241478 0.9605561704 0.006730313233 0.27800458
-0.002317069888 -0.02042171224 -0.008266488711 -0.07719101272 -0.9970051757 -0.004714565851
-0.005226198673 -0.01861562411 -0.04991298421 -0.2647182115 -0.929197813 -0.2579063645
-0.01726821899 0.01120230198 -0.01136532688 0.854228889 -0.5198970134 -0.0003173190921
-0.01861775398 0.00880999279 -0.01128311539 0.9297538724 -0.3681411824 -0.005459532726
-0.0188659544 0.03302585793 -0.05238213539 0.9056452901 -0.00629855571 -0.4239893121
-0.01372272253 -0.01382023811 -0.05021112633 -0.6607088037 -0.7234165503 -0.2003306551
-0.01856659698 -0.005734454155 -0.05306573257 0.8883127902 0.4069903352 0.2127422238
-0.01943954182 0.006736013651 -0.01122262907 0.9278311107 -0.3730001369 -0.0005726092103
-0.01922059536 -0.007305601597 -0.04146528053 0.9342696725 0.3556716909 0.02525524384
-0.01942283058 0.02719245974 -0.05379596329 0.9413849615 -0.01133862558 -0.3371435745
-0.0201700964 0.003935067773 -0.01115292168 0.9733718523 -0.2292317589 -0.0001943837125
-0.018442626 0.01545340109 -0.05026364708 0.9243381344 -0.1522174899 -0.349898341
-0.02055213308 0.0005629125983 -0.01108489442 0.9998787827 0.00490678777 0.014776447
-0.02040772581 -0.002493138641 -0.01103913569 0.9859257591 0.166826242 0.01092714853
-0.01986610174 -0.005318487167 -0.01101024485 0.9694915105 0.244724378 0.01400677915
-0.009824186325 0.02740260887 -0.04251344681 -0.5028619232 -0.002988927269 0.8643615867
-0.004409702778 0.06037622452 -0.04053547668 0.2961293966 0.0009558333625 -0.9551473535
-0.01947605515 0.01567181349 -0.05305845642 0.9665535454 -0.07567272682 -0.245046694
-0.01667250506 0.003451411724 -0.06775472768 0.8205747799 0.3034186317 0.4843492175
-0.01921616268 -0.007303348541 -0.0109988122 0.9356764265 0.3523914758 0.0181623988
-0.009246704817 -0.008567137003 -0.06578294182 -0.4740534943 -0.6596399417 -0.5832224549
0.001386634469 -0.0193281517 -0.04982683563 0.03820350095 -0.9761407515 -0.2137515517
-0.007986506462 0.05212472153 -0.07954650116 -0.4996181999 0.01225213882 -0.8661590728
-0.01838520622 -0.009192645073 -0.01099505377 0.9078959875 0.4190767793 0.009976420325
-0.016992589 -0.01157031679 -0.01100183535 0.8409061465 0.5410175322 0.0132997219
-0.01473197095 -0.01430185413 -0.01103153817 0.7130213065 0.7010279648 0.0126652701
-0.01188020968 -0.01677909946 -0.01108492374 -0.589853923 -0.8073917891 -0.01381478876
-0.001430114627 -0.02054940796 -0.01990394115 -0.07206630754 -0.9972487655 -0.01735934808
-0.01716294861 -0.00858163619 -0.0529180603 0.840869495 0.496159151 0.2162512179
-0.02011220741 0.01860745859 -0.05614593029 0.9781954033 -0.002338291622 -0.2076735068
-0.02020794344 0.0119627614 -0.06284173679 0.9797133754 0.05602496391 0.1924133713
-0.0205486865 0.03019922876 -0.06162814999 0.9992442244 -0.01136273317 0.03717348943
-0.008960599422 -0.0185000186 -0.01115266776 -0.4194212461 -0.9077913087 -0.0008707600169
-0.005177672505 -0.01987739515 -0.01125367618 -0.2664675547 -0.9638424831 -0.001646230017
-0.02055169678 0.04252834511 -0.05983698463 0.999895182 -0.002655153482 -0.01423288973
0.002487250447 -0.02041596603 -0.01149160862 -0.01973494234 0.9997868911 -0.006058419301
-0.00824982357 0.03903107834 -0.07945968628 0.461807772 -0.02751057478 0.8865532979
-0.01726821899 0.01120230198 -0.01420990658 0.8541664576 -0.5199996743 -3.708925471e-05
-0.0193864727 0.04879748726 -0.05369906616 0.9429876444 0.01703085797 -0.3323917153
-0.02015360403 0.03922267532 -0.05653097153 0.9777002003 -0.007953266211 -0.2098548638
-0.01861775398 0.00880999279 -0.01410711908 0.9297423432 -0.3681726075 -0.005301547724
-0.01838957262 -0.009194816589 -0.03170395613 0.9078203756 0.4192725753 0.008524857056
-0.02000117493 0.03055221128 -0.0557525177 0.9780372285 0.02026918903 -0.2074423765
-0.01932741547 -0.004264148235 -0.05221360016 0.9348622909 0.3183281651 0.1571613068
-0.01944352436 0.006733788967 -0.01403129768 0.9278287419 -0.3730063717 -0.0002691869849
-0.01160982323 -0.01665407753 -0.04465402412 -0.5731637024 -0.8133215841 -0.09995684646
-0.01467165565 0.05120281601 -0.07500728607 0.7404597746 -0.02077124668 0.6717796347
-0.0201700964 0.003935067773 -0.01394433999 0.9737711568 -0.2271658876 0.01286054385
-0.02055533934 0.0005611825138 -0.01385912752 0.999930865 0.004670966099 0.01079107384
-0.01952643967 0.05426431084 -0.05417934418 0.9572427855 0.005335016609 -0.2892365593
-0.0201905365 0.02443754482 -0.05665789986 0.9818208909 -0.0164357521 -0.189096812
-0.01183419895 -0.01675778389 -0.0417972908 -0.5812953912 -0.8123719822 -0.0463403782
-0.01915530396 -0.007272419453 -0.04357415009 0.9271894093 0.3698920008 0.05915832188
-0.02040884924 -0.002493734539 -0.0138020196 0.9871691179 0.1596629791 0.0022058529
-0.01491625404 0.01419570446 -0.02589202499 0.7863175912 -0.6178225034 -5.641320744e-15
-0.01921921825 -0.007304901838 -0.01375151014 0.9320315413 0.3623108218 0.00693357126
-0.01491625404 0.01419570446 -0.02012185192 0.7863175912 -0.6178225034 -6.024694632e-15
-0.02056908846 0.0005537295863 -0.0417879076 0.9997608146 0.01474519595 -0.01615217666
-0.008621910691 -0.01139502382 -0.06272047615 -0.4404186738 -0.734656931 -0.5160528901
-0.01838520622 -0.009192645073 -0.01374695969 0.9079515708 0.4189856782 0.00865716723
-0.01189790916 -0.01678723717 -0.03827077293 -0.5898721781 -0.8074806274 -0.005084267327
-0.01699622059 -0.01157209301 -0.01375526285 0.8410231002 0.540881787 0.01127108738
-0.002503183246 -0.01714253139 -0.05598419952 -0.1151496199 -0.9120256661 -0.3936365702
-0.01960700655 0.005841441154 -0.06235635185 0.9541746078 0.1654841105 0.2493307583
-0.01473457702 -0.01430309661 -0.01379245027 0.7128783647 0.7012039602 0.01083712649
-0.01923300743 -0.007311909437 -0.02616998768 0.9359296967 0.3521866611 -0.0003982736118
-0.01188226938 -0.01678004694 -0.01385922432 -0.5896031339 -0.8076091388 -0.01164574646
-0.01839416647 -0.009197100878 -0.03865836811 0.9074814299 0.4200873114 0.00202613547
-0.01526157532 -0.00560624094 -0.0622033783 0.7298605497 0.5183351238 0.4456818117
-0.008963519812 -0.01850134087 -0.01394388437 -0.4170892571 -0.9087485577 -0.01458116994
-0.005183143377 -0.019879807 -0.01407005191 -0.2626570676 -0.9648885638 0.001150779455
-0.006368849516 0.02168844986 -0.04101115036 0.3047922088 -0.01631946303 -0.9522790476
-0.001430114627 -0.02054940796 -0.01420843029 -0.06955785178 -0.9974085384 0.01838240609
-0.01957526207 0.04229888916 -0.06686431122 0.9531483956 0.02529269508 0.3014438847
0.002472446561 -0.02042230892 -0.01436709499 -0.03263034795 0.9994660489 -0.001696311233
-0.002269992352 -0.01936731911 -0.04931606674 -0.1145770713 -0.964858573 -0.2364741611
-0.01188949203 -0.01678336716 -0.02358841705 -0.5894195383 -0.807681504 0.0153360983
-0.02015318489 0.030454319 -0.06472632504 0.9781397821 0.01221801297 0.2075892262
-0.01491625404 0.01419570446 -0.0172416029 0.7863175912 -0.6178225034 -1.488392742e-15
-0.01726821899 0.01120230198 -0.01705665588 0.854137428 -0.5200473457 0.0001109692616
-0.008658891678 0.03967070389 -0.04191544533 -0.4305613322 -0.01535178224 0.9024307519
-0.01683630753 0.02142283249 -0.0487317009 0.8189615445 -0.01549216449 -0.5736392433
-0.01833347766 -0.008397723913 -0.04711624273 0.8777458441 0.4647564662 0.1164631284
-0.01861775398 0.00880999279 -0.01693327522 0.9262406636 -0.3769221301 0.002817972636
-0.02055926609 0.0005590633278 -0.01732999388 0.9999858627 0.003784978025 -0.003734757027
-0.01942984072 0.04480959066 -0.05384415817 0.940787635 -0.01243954646 -0.3387681854
-0.02002643728 0.01534647989 -0.0646779213 0.9708251525 0.05086948115 0.2343305765
-0.0204102548 -0.002494480014 -0.01725874074 0.9895110521 0.1444561286 -0.0005520177245
-0.01500196266 0.05946636772 -0.0465644989 0.7380306439 -0.06488494286 -0.6716403151
-0.006127584934 0.04223184967 -0.08026537323 -0.4058119157 0.03922343174 -0.9131145664
-0.01987002977 -0.005320527077 -0.01721348619 0.9696200108 0.2446160254 -0.0001867614474
-0.01419513988 0.05719284058 -0.04569086838 -0.6768318991 0.01238878822 0.736033354
-0.01922304217 -0.007306845188 -0.01719543139 0.9246246163 0.3808793953 -0.0004529329099
-0.01816386795 0.01232522249 -0.04715703583 0.8811288661 -0.3768259315 -0.2856818837
-0.01838520622 -0.009192645073 -0.01718997828 0.9079409387 0.4190975341 -0.0007132158574
-0.001430114627 -0.02054940796 -0.03276873398 -0.07344515173 -0.9970665838 0.02154152012
-0.01700076358 -0.01157431539 -0.01720008198 0.8403546573 0.5420365673 -0.0006401443202
-0.0201104393 0.03366787593 -0.05627229818 0.9805622223 0.01583461685 -0.1955683847
-0.00324893117 0.005732069492 -0.07814189911 0.2204173471 0.4081130797 0.8859231949
-0.01473782168 -0.01430464363 -0.01724666405 0.7127114512 0.701456789 -0.0008720227482
-0.0153004535 0.0422015597 -0.07432274373 0.7434138724 0.001028039829 0.6688308886
-0.01188484621 -0.01678123124 -0.01733020401 -0.5895804545 -0.8077042202 0.002963156762
-0.01928754807 0.01331330109 -0.06681186676 0.9384580733 0.08737423758 0.3341589251
-0.01491625404 0.01419570446 -0.03167807388 0.7863175912 -0.6178225034 3.663735981e-15
-0.02041447306 -0.002496717036 -0.03183079195 0.986056062 0.1661941714 0.008540496498
-0.01485808611 0.03036274719 -0.07480082321 0.7209959804 -0.003911885748 0.6929282022
-0.008965447187 -0.01850221729 -0.01673722887 -0.4165029374 -0.9090333755 -0.01355084261
-0.005186048269 -0.01988109303 -0.01688861799 -0.2631313024 -0.9646465968 -0.01479395229
-0.009094154739 -0.01840742874 -0.0410429924 -0.4336063094 -0.9006006909 -0.03006599489
-0.01842760544 -0.008752666378 -0.04441306915 0.8913302631 0.4470018725 0.07562861932
0.002457632899 -0.02042865467 -0.01724449062 -0.03136386596 0.9995070034 -0.00143457355
-0.01726821899 0.01120230198 -0.0327721386 0.853207198 -0.5211962537 -0.01979753583
-0.005979292393 -0.0174094766 -0.0532512792 -0.2661747586 -0.912562446 -0.3104525407
-0.01726821899 0.01120230198 -0.01990600967 0.8531192231 -0.5215352626 0.01373175167
0.002439697981 -0.02043633842 -0.02878597069 -0.02920588469 0.9995734172 9.934761347e-15
-0.01043367863 0.02015974998 -0.07831193542 -0.5597975606 -0.01809590696 -0.8284317892
-0.01899034882 0.04269998932 -0.06854933929 0.9277900818 -0.005138181864 0.3730672369
-0.01861775398 0.00880999279 -0.0197620182 0.9261712023 -0.3770978624 0.002026364633
-0.01944381332 0.006733627796 -0.01965578461 0.9287772831 -0.3703726199 0.01403142439
-0.01988087972 -0.005326160749 -0.03522481155 0.9696803484 0.2443536862 -0.003361239746
-0.0201700964 0.003935067773 -0.02023362573 0.9758207974 -0.2182443543 0.01196550082
-0.008226560116 0.0363471508 -0.04174208641 -0.4009195627 -0.01323991295 0.9160175811
-0.008967859745 -0.0185033137 -0.02023266093 -0.4175845273 -0.9086380798 5.057742398e-05
0.002443106532 -0.02043487835 -0.020124259 -0.03037586535 0.999538083 -0.0009630414026
-0.008602677345 -0.01294062519 -0.06041007614 -0.4260717318 -0.7713631211 -0.4727174789
-0.01708855867 0.01542184043 -0.04751693344 0.8468308544 -0.3254415302 -0.420672455
-0.02056226635 0.0005574405491 -0.02080469847 0.9998796173 0.004833577133 -0.01474406356
-0.00897107935 -0.01850477791 -0.02934498692 -0.4164327549 -0.9091665179 -5.801390042e-05
-0.02041161823 -0.002495203048 -0.02071927834 0.9872215472 0.1593247963 -0.003037439209
-0.01987221575 -0.005321661949 -0.02066488934 0.9695858416 0.2444351048 -0.0124408735
-0.01986785278 0.009074124336 -0.05001538162 0.9678107968 -0.1911682502 -0.1636977754
-0.01922687054 -0.007308790922 -0.02064309692 0.9320795027 0.3621735549 -0.007623440987
-0.001430114627 -0.02054940796 -0.02990250111 -0.07419434921 -0.9970303367 0.02063265235
-0.01838520622 -0.009192645073 -0.02063682747 0.9079187829 0.4190307848 -0.009832853834
-0.003519699812 -0.004177546501 -0.07249223328 0.2122678275 0.5839073258 0.7835780779
-0.01700464725 -0.01157621694 -0.02064867973 0.8410565349 0.5407964615 -0.01277076072
0.002439697981 -0.02043633842 -0.0353081398 0.02920588469 -0.9995734172 -1.554208098e-14
-0.01428555044 0.01566734123 -0.07498728943 0.6977176399 0.1067729668 0.7083711093
-0.01474094375 -0.01430613311 -0.02070465628 0.7122935035 0.7017716445 -0.01243076359
-0.01491625404 0.01419570446 -0.02300517845 0.7863175912 -0.6178225034 -9.131150697e-16
-0.01837289381 -0.009186465979 -0.04145357227 0.9053432457 0.4236427666 0.02967176642
-0.01551755905 0.04508142471 -0.07410723114 0.7442398831 -0.006224831263 0.6678834089
-0.01726821899 0.01120230198 -0.02275840664 0.8484445642 -0.529277709 0.002632155769
-0.01892068672 0.03038079834 -0.06870818329 0.9275316461 0.003636524623 0.3737269339
-0.01861775398 0.00880999279 -0.02330243238 0.9250842061 -0.3796491603 -0.00925887341
-0.01342512989 -0.01059908009 -0.05834524155 -0.6327088565 -0.6702355078 -0.3878967221
-0.005191883087 -0.01988368416 -0.03244863653 -0.2627070001 -0.9648756447 -0.0001497183842
-0.01944381332 0.006733627796 -0.02317716789 0.9289688787 -0.370157824 -8.759772029e-05
-0.01228922796 -0.01236864328 -0.05695479584 -0.5797969561 -0.7265524705 -0.3687234699
-0.005190959533 -0.01988327376 -0.02324059041 -0.2625573838 -0.9649163473 0.0002508305374
-0.02056199551 0.02761087513 -0.05987397575 0.9997387396 -0.0226146542 -0.003321132992
-0.001430114627 -0.02054940796 -0.02275604248 -0.0714843654 -0.9973138306 -0.01597212451
-0.01167281413 0.03681258678 -0.0437049551 -0.5804503215 -0.02027551926 0.8140431976
0.002439697981 -0.02043633842 -0.02300767994 0.02964866136 -0.9995602875 0.0004342724292
-0.01858184242 0.02544042969 -0.05178294373 0.9008282771 0.001594878843 -0.4341726288
-0.02017158365 0.003934245348 -0.02373374748 0.9753588136 -0.2206149156 -0.002060014327
-0.02056435442 0.0005563098788 -0.02358808279 0.9998522093 0.004170661403 -0.01667828094
-0.01367010593 0.05757346344 -0.07597838593 0.633205377 -0.01775512389 0.7737801407
-0.0001879009455 -0.01216490936 -0.06488874054 0.01811806149 0.7970900265 0.6035886227
-0.02041237831 -0.002495606124 -0.02349134636 0.9860229747 0.1662120163 -0.01150038889
-0.01899723434 0.03645199966 -0.05265884781 0.9171302397 -0.0192408618 -0.3981229869
-0.01149459553 0.05723552322 -0.04361449146 0.5735770602 -0.005991225196 -0.8191296974
-0.01987396669 -0.005322571039 -0.02342959738 0.9694946391 0.2446453314 -0.01512635564
0.002804070711 -0.01871359634 -0.05153536224 0.1332971348 -0.9526042225 -0.2734539616
-0.01791900126 0.03924195353 -0.05051285553 0.8606549817 -0.007339465225 -0.5091356742
-0.0192299366 -0.007310349226 -0.02340478039 0.9358802262 0.3518207215 -0.01871849485
-0.01202742958 0.05119185638 -0.04391144943 -0.5735708738 0.01352237171 0.8190443201
-0.001430114627 -0.02054940796 -0.03851677322 -0.07888268751 -0.996590598 -0.02418060366
-0.009252753258 0.02170902061 -0.04220818329 -0.4967946075 0.06571697124 0.8653764485
-0.01737432194 0.01114180565 -0.04138799858 0.8659226281 -0.4880261389 -0.1095832554
-0.01876945877 0.03047784805 -0.05217868042 0.9052480118 0.00827569743 -0.4248029542
-0.01838520622 -0.009192645073 -0.02339792776 0.9078904257 0.4190604048 -0.01110639872
-0.01700647593 -0.01157711625 -0.02341121435 0.8409898303 0.5408546428 -0.01457260159
-0.01474324179 -0.01430722872 -0.02347464275 0.7121968509 0.7018403986 -0.01398929742
-0.01996246338 0.0119423336 -0.0531179306 0.9710111132 -0.1401617901 -0.1936287443
-0.008970275164 -0.01850441217 -0.0237325511 -0.4178023707 -0.9084327678 0.01382336345
-0.01726821899 0.01120230198 -0.02632906405 0.8525189942 -0.5226854036 -0.003366512973
-0.01997787237 0.008849649072 -0.06257973289 0.9772874602 0.09766787654 0.1880696839
-0.001430114627 -0.02054940796 -0.02632632828 -0.07213661698 -0.9973938235 0.001367252981
-0.01048910904 0.01256650209 -0.07741889572 0.582225952 0.1638152698 0.7963526218
0.002439697981 -0.02043633842 -0.02589484024 -0.02926819313 0.9995715921 -7.202087831e-05
-0.01861775398 0.00880999279 -0.02684805012 0.9289230222 -0.3700111713 -0.01391948041
-0.01434388232 0.01286861658 -0.07440774155 0.7005543459 0.145202449 0.6986700632
-0.01944381332 0.006733627796 -0.02670372581 0.9318055189 -0.3629554631 -0.001344156823
-0.02017507601 0.003932314157 -0.02653778267 0.9783191947 -0.2067614291 -0.01188548425
-0.0147486265 -0.01430977821 -0.03529274029 0.7126798805 0.7014864781 -0.002027056438
-0.02056644487 0.000555177778 -0.02637503815 0.9999832634 0.005774495961 -0.0003578416506
-0.02041307545 -0.002495975912 -0.02626700211 0.9856865273 0.1685882689 -0.0002557457905
-0.01987571955 -0.005323481321 -0.02619785976 0.9697973511 0.2439115432 -0.0005069217625
-0.02004102182 0.04833394051 -0.06513940239 0.9694001662 -0.009847531841 0.2452882874
-0.01838520622 -0.009192645073 -0.02616261148 0.9078021919 0.4193979605 -0.0007288198677
-0.02038219738 0.009426835537 -0.05386334229 0.9861136196 -0.1134922426 -0.1212412477
-0.0170083065 -0.01157801676 -0.02617729855 0.8423165245 0.5389830469 -0.0003843771689
-0.01538964701 0.04516913986 -0.04696463776 0.7327247396 0.003496643093 -0.6805161493
-0.01189156103 -0.01678431845 -0.02637541962 -0.5897829808 -0.8075616782 0.0004140973796
-0.005191748023 -0.01988362408 -0.02677673006 -0.2628732006 -0.9647293127 0.01396544351
-0.02007470449 0.0216964283 -0.06507235718 0.9770434728 0.01843862943 0.2122405927
-0.01491625404 0.01419570446 -0.02878284073 0.7863175912 -0.6178225034 -5.495603972e-15
-0.01726821899 0.01120230198 -0.02990560818 0.8536097077 -0.5205495878 -0.01945748082
-0.018391867 -0.009195957343 -0.03517723401 0.9078869347 0.4192150771 -0.0001814251196
-0.01861775398 0.00880999279 -0.02968928432 0.9254234695 -0.378835031 -0.008684555376
-0.01093871117 0.01564885044 -0.07768233871 -0.6038071166 -0.1066108408 -0.7899690466
-0.01944381332 0.006733627796 -0.02952968597 0.9281458584 -0.3720617234 -0.01073962532
-0.02017734432 0.003931059837 -0.0293459444 0.9750744061 -0.2217735702 -0.006810737881
-0.01641820908 0.03286253929 -0.04817338753 0.811694591 -0.007118394527 -0.5840387139
-0.02056853771 0.0005540440381 -0.02916599607 0.9999820636 0.005985443417 -0.0002168096557
-0.02007389641 0.05417695618 -0.05616942724 0.976443698 -0.005833063191 -0.2156934864
-0.002450336039 -0.01162915134 -0.065276577 -0.1451828961 -0.7741810488 -0.6160889793
-0.02041377354 -0.002496346176 -0.0290466733 0.9859829454 0.1664970636 0.0107869923
-0.01987747526 -0.005324392915 -0.02897010422 0.9693746232 0.2451482693 0.01466853843
-0.01923608208 -0.007313472033 -0.02893914795 0.9358274209 0.3519809601 0.01834235554
-0.01509861851 0.04812448692 -0.07455296707 0.7488417003 -0.01625692256 0.6625494852
-0.01189758778 -0.01678708935 -0.0347622242 -0.5885272271 -0.8083674037 -0.01333580414
-0.003502540231 0.03038065434 -0.04030932045 -0.2839569127 -0.01114996889 0.9587722096
-0.01838774109 -0.009193905592 -0.02893104696 0.9078373115 0.4192090448 0.009756667214
-0.01701014042 -0.01157891846 -0.02894736195 0.8409628856 0.5409139668 0.0139106301
-0.01491625404 0.01419570446 -0.03530430094 0.7880880831 -0.615548026 -0.004219126486
-0.02037975216 0.003818953931 -0.0562728548 0.9858755699 0.1298245314 0.1058061992
-0.01474588664 -0.01430848153 -0.02902589703 0.7127659742 0.7012802137 0.0130662893
-0.01189363289 -0.01678527069 -0.02916642809 -0.5896673297 -0.8076461552 0.0003579675736
-0.005191815615 -0.01988365364 -0.02961040974 -0.2618796394 -0.9649810733 0.01518494781
-0.008160856247 0.059630867 -0.04173433304 0.3996986642 -0.04301977483 -0.9156365419
-0.01919101906 0.05923272324 -0.05311734009 0.9284554648 -0.04373487978 -0.3688600143
-0.01562401819 -0.01243554735 -0.04791670609 0.7640690425 0.6277352499 0.1488185283
0.002439697981 -0.02043633842 -0.03168151951 -0.02920588469 0.9995734172 -1.301736496e-14
-0.01861775398 0.00880999279 -0.03253507805 0.9254251535 -0.3789295984 0.0008029986342
-0.01266714478 0.009698244572 -0.07513855362 0.6361002749 0.2305218995 0.7363668203
-0.01145810413 0.02988147736 -0.07771890259 0.5825212169 0.01227995025 0.8127227293
-0.01485789108 0.02432518959 -0.07485756683 0.7493120711 -0.01749251922 0.6619859756
-0.02017961693 0.00392980361 -0.03215856695 0.9750122089 -0.2220502292 -0.006699859422
-0.02057063484 0.0005529085398 -0.03196139193 0.9998875256 0.005240320491 0.01405258365
-0.01987923336 -0.005325305939 -0.03174676418 0.9695215201 0.2447113071 0.01201658231
-0.01701197672 -0.01157982159 -0.03172183466 0.8409208901 0.5410263395 0.01193970715
-0.01474714502 -0.01430907694 -0.03180796401 0.7125197604 0.7015659547 0.01099101143
-0.01491625404 0.01419570446 -0.0389384594 0.7778232768 -0.6250783031 -0.06533042987
-0.001497400165 -0.01902833557 -0.05090005493 -0.1174523469 -0.9573073693 -0.2641354706
-0.02054361343 0.003728931367 -0.05337419033 0.9981329891 0.04833982232 0.03733359928
-0.02053924751 0.05728302097 -0.05978801346 0.9984585569 -0.0244471052 -0.04982819661
-0.01189570808 -0.01678622484 -0.03196187496 -0.5893238451 -0.8077644837 -0.01462683764
-0.008971020699 -0.01850475121 -0.03215778589 -0.4162514975 -0.9092495132 -0.0001161429715
-0.01726821899 0.01120230198 -0.03564370918 0.8541611613 -0.5199749133 -0.005899156924
-0.01076833534 0.03206876755 -0.07811792755 -0.601911043 0.01390624884 -0.7984420534
-0.02035634375 -0.002466124356 -0.0444359045 0.9837820055 0.1767808415 0.030356214
-0.02051146984 0.02170872164 -0.06227733803 0.9956740801 0.02521467667 0.08942788358
-0.01861775398 0.00880999279 -0.03538587952 0.925375741 -0.3790509493 -0.0003403705538
-0.01944381332 0.006733627796 -0.03519565964 0.9281224523 -0.3722434177 0.004852986814
-0.01995783615 0.04565128517 -0.05563580894 0.9727912892 -0.005518261848 -0.2316174786
-0.01202415943 0.000326226145 -0.07127467346 0.5602475143 0.4495429891 0.6957253938
-0.02018189287 0.003928544998 -0.03497609138 0.9751393768 -0.2215226399 0.005560205771
-0.02057132435 0.0005525349379 -0.03476184082 0.9999035755 0.004440601777 0.01315753695
-0.02041534901 -0.002497181614 -0.03531814257 0.9877542384 0.1558364733 0.007520513541
-0.01924090004 -0.00731592083 -0.03518699773 0.9315257595 0.3634583852 -0.01256032161
-0.02044518089 0.06020143318 -0.05853059578 0.9937096518 -0.04341875808 -0.1032276092
-0.0008736950159 0.04753760529 -0.04004999924 0.1316202824 0.06523701115 -0.9891512693
-0.005191950917 -0.01988371372 -0.03529185486 -0.2608811168 -0.9653695031 -0.001662918319
-0.001430114627 -0.02054940796 -0.03564000511 -0.07033639354 -0.9975164352 -0.003708532486
-0.01876245117 0.04831814194 -0.05219818878 0.9027189066 -0.006455314753 -0.4301824085
-0.002249465644 0.05132801437 -0.04015758896 -0.2047982528 -0.03294843162 0.978249496
-0.006983393669 0.0509336586 -0.04126590347 -0.3349326429 -0.006239281876 0.9422214156
-0.001420130014 0.04905312347 -0.04009274292 0.1978652375 0.04371668797 -0.9792538991
-0.01815362453 0.06000569344 -0.05096177101 0.8751276804 -0.06383346544 -0.4796632483
-0.004296902657 0.03434588242 -0.04047217941 0.3030874715 0.01389776662 -0.9528613943
0.0002471386194 0.04546747398 -0.04002799606 -0.09395783256 -0.06163092902 -0.9936667219
-0.01552333689 0.03697434235 -0.04708602524 0.7459476775 -0.01076028245 -0.6659176216
-0.007801243067 0.05700460243 -0.04159128761 -0.3917027867 0.009590784967 0.9200418163
-0.007446760654 0.05439213943 -0.04145027161 -0.3888621739 0.006547987647 0.9212726706
-0.009025688171 0.05203114827 -0.04218529383 -0.4897522058 -0.004821381806 0.8718483418
-0.02036903381 0.0067518212 -0.05101284663 0.9887979873 -0.121195813 -0.08712126765
-0.006642714977 0.04835797501 -0.04113032913 -0.2995477364 0.03006021911 0.953607643
-0.005768742085 0.04246657944 -0.04083580399 0.3544797899 0.009157394842 -0.9350188344
-0.005336122751 0.04000832176 -0.04072252464 0.3353089786 0.01086330299 -0.9420455815
-0.01510624361 0.03020816135 -0.04662731171 0.7300082249 -0.01570791114 -0.6832578233
-0.0047435956 0.03676271439 -0.04057761765 0.3153864726 0.009240714974 -0.9489183221
-0.003180684805 -0.01821947956 -0.05289162254 -0.1786525581 -0.931421672 -0.3170755941
-0.01019536018 0.05435933304 -0.04275574493 -0.5215491957 -0.005769687889 0.8532017037
-0.00907890447 0.009208656947 -0.07732717641 -0.4598437281 -0.2866047333 -0.8404769316
-0.00400329113 0.03274029922 -0.04040284729 0.2989160162 0.01834705109 -0.9541030348
-0.0202237072 0.00374647069 -0.04103678894 0.9799551924 -0.1988995309 -0.01126043498
-0.002791238427 0.02727837372 -0.04019415855 0.2307048095 0.01959386931 -0.9728264856
-0.007077580452 0.02733061218 -0.04128547287 -0.3698112166 2.763905348e-05 0.929106917
-0.001919578731 0.02428954697 -0.04010480309 0.213213851 0.005658838873 -0.9769891664
-0.01806432406 0.03677519989 -0.05079422506 0.8814050112 0.01828710262 -0.4720071907
-0.01726821899 0.01120230198 -0.03852077484 0.8548387962 -0.5184634824 -0.02112462994
-0.008678232193 -0.01504120636 -0.05637215678 -0.4343789178 -0.8158962994 -0.3816126104
-0.01861775398 0.00880999279 -0.03824213409 0.9202190568 -0.3909991101 -0.01779279286
-0.01944381332 0.006733627796 -0.03803655815 0.9291003451 -0.3698245242 -0.001539515631
-0.005671456019 -0.01103966935 -0.06499021784 -0.2499760084 -0.7610703129 -0.5985682702
-0.01482013035 0.03952138519 -0.04634587097 0.7323167527 -0.01361274441 -0.6808280744
-0.02018417311 0.003927284241 -0.03779896259 0.9750490151 -0.2218946812 0.006493729126
-0.02057132435 0.0005525349379 -0.0382703921 0.9999725327 0.007003100713 -0.002427020797
-0.008970902443 -0.0185046978 -0.03779867458 -0.4243575125 -0.9054027946 -0.01290275357
-0.005192018747 -0.01988374424 -0.03814051056 -0.2680478629 -0.9633696915 -0.008317489445
0.002439697981 -0.02043633842 -0.03894269562 0.01090362747 -0.9995985426 -0.0261508033
-0.01174179602 0.05993046379 -0.04378379631 0.5807886702 -0.01914561407 -0.8138291996
-0.001565092981 -0.008833605289 -0.0686702652 -0.1500658643 -0.7204426045 -0.6770839608
-0.01766638517 0.03031842327 -0.05006582069 0.8557849842 -0.008376815236 -0.5172638493
-0.01175628567 -0.009268669764 -0.06259346644 -0.595809364 -0.6452211157 -0.4782268432
-0.009586522102 0.04821956253 -0.04239416695 -0.4978316414 0.0116884504 0.8671949244
-0.00932144165 0.04562296677 -0.04224487686 -0.4816319753 0.008563606405 0.8763317323
-0.01675162506 0.05913449097 -0.04869985199 0.8232657052 -0.02718355207 -0.5670049675
-0.009050133705 0.0430519619 -0.04209994125 -0.4595294106 -0.00897379757 0.8881172174
-0.007800718069 0.03304888344 -0.04157288933 -0.390479185 0.01103445544 0.9205456245
-0.002682266414 -0.02032378721 -0.04126507854 -0.09151368976 -0.9947281091 -0.0462734655
-0.01352750905 -0.008063444614 -0.06190450668 0.6473629985 0.6049300116 0.463660252
-0.008253384431 0.02952996953 -0.0418058904 -0.3963079559 0.02792629697 0.9176928277
0.005469791889 -0.01913825989 -0.04744408798 0.1370408075 -0.97211459 -0.1902972435
-0.008219478846 -0.01662920094 -0.05296725273 -0.41623543 -0.8605821389 -0.2935071533
-0.0128965044 0.04872613907 -0.07661054993 0.637898479 0.003415225131 0.7701128922
-0.02041622686 -0.002497647196 -0.03881341553 0.9872122614 0.1594108858 0.0003470564118
-0.01454246632 -0.01421174796 -0.04442675463 -0.69765609 -0.7105504933 -0.0916186474
-0.01701424122 -0.01158093548 -0.03868048954 0.839908395 0.5427281323 0.0002497001476
-0.01890722275 -0.0009173671603 -0.05897200012 0.9160393092 0.2958716635 0.2707987124
-0.01474948835 -0.01431018448 -0.03878550529 0.7114976976 0.7026788166 0.003675188671
-0.0122351408 0.05386361122 -0.04408248711 -0.5769942032 0.03369511848 0.8160528957
-0.02021311235 0.04276157665 -0.05685665703 0.9856446406 0.005336400168 -0.1687488233
-0.01182613802 0.04853968048 -0.04374324989 -0.5581381637 0.0005646614233 0.829747836
-0.01652274799 0.05456479645 -0.04835287476 0.8131745235 0.01662517714 -0.5817824316
-0.01244008732 0.04231101354 -0.04426347097 -0.6023773292 0.005057225167 0.7981954509
-0.01945609665 0.05776974869 -0.05399235535 0.9562889355 -0.004329963947 -0.2923913872
-0.01163397121 0.03982972082 -0.04366357295 -0.5921480901 -0.01931331569 0.8055976882
-0.01401030684 0.05448601913 -0.04550568199 -0.6751814056 0.005273181784 0.7376328783
-0.011388448 0.03344077206 -0.04350361443 -0.5691568845 -0.004831379351 0.8222147521
-0.01015601635 0.03069322014 -0.04269423294 -0.5236783857 0.01354286889 0.8518083934
-0.009576630592 0.0249539423 -0.04238120079 -0.4941381689 1.015962242e-05 0.8693833849
-0.01944014454 0.04239154625 -0.05388022423 0.9416654712 -0.02301676338 -0.3357623696
-0.01045995712 0.01844902992 -0.04187182617 0.5177330689 -0.2546218174 -0.8167742647
-0.01506786919 0.01410838127 -0.04110150909 0.8310513698 -0.5428206321 -0.1212410083
-0.01864350796 0.008795456886 -0.04110046005 0.904678151 -0.4204548024 -0.06910283853
-0.01946509171 0.006721739769 -0.04088018608 0.9358277985 -0.3518165287 -0.02124762675
-0.02011810303 0.06044736862 -0.05624554443 0.9744406381 -0.07431947319 -0.2119954215
-0.006229498625 -0.01957307816 -0.04089036179 -0.2783089342 -0.9599521691 -0.03218648986
-0.01656269646 -0.004395222187 -0.06121802521 0.8102745026 0.4500594749 0.3753687513
-0.01372471189 0.05093807411 -0.04527037811 -0.6452967515 0.009232463453 0.76387621
-0.001994683623 -0.01613329315 -0.05833973312 -0.0963518226 -0.8970282973 -0.4313427409
-0.01350871658 0.04830237961 -0.04509812927 -0.6490705137 -0.01628741937 0.7605538694
-0.01329676819 0.04568720627 -0.04492910576 -0.6309696625 -0.01877613099 0.7755802614
-0.02045257092 0.0545232563 -0.0626356163 0.9899998747 0.01456801516 0.1403140087
-0.01213959455 0.03033090878 -0.04396619415 -0.5981237282 0.02647967525 0.8009661869
-0.01187136936 0.02701669598 -0.04376954842 -0.5913733244 0.01803485067 0.8061962139
-0.01331325102 0.02441240406 -0.04492408943 -0.6449960096 0.004652831616 0.7641717731
-0.0178087225 0.03371413326 -0.05032301235 0.8613904945 0.008659258578 -0.5078695041
-0.0171294384 0.0121009624 -0.07078889084 0.8475294698 0.1439015661 0.5108680231
-0.0008775741458 -0.02030984211 -0.04437104988 -0.05234041193 -0.99241643 -0.1112209995
-0.01166918564 0.02455092621 -0.04362561035 -0.5652023245 0.008837701223 0.8249049808
-0.01198291175 0.02151323509 -0.04388225937 -0.639708368 0.1013302468 0.7619090399
-0.01139964867 0.01959211159 -0.0433267746 -0.5667395799 0.146293656 0.8108047945
-0.01936058744 0.008930768013 -0.04700296402 0.9463822286 -0.2771303595 -0.1660103647
-0.01307960415 0.01692496681 -0.04296480942 0.730336405 -0.5009658108 -0.4643726864
-0.01570588303 0.01374091339 -0.04246414948 0.8178376557 -0.531407448 -0.2207887976
-0.01483954201 -0.01159555225 -0.0531861702 0.7106869103 0.6515363931 0.2653760427
-0.02040184832 -0.002490084678 -0.04161881638 0.9854091331 0.1701753077 0.003033967719
-0.01985785294 -0.005314296484 -0.04151025486 0.9691589824 0.2460796137 0.01325483562
-0.01698266268 -0.01156549692 -0.04147880077 0.8375878348 0.5455294915 0.02905499719
-0.02056697607 0.0005548319072 -0.04460950089 0.9993421795 0.03383648092 -0.01304993268
-0.01901247883 0.0546385746 -0.05272595978 0.9174956516 -0.005935449349 -0.3977015209
-0.01551590443 0.05718500137 -0.04711430168 0.7405366262 -0.034564349 -0.6711265238
-0.01534057999 0.05447360229 -0.04692047882 0.7427379111 0.005734880853 -0.6695576947
-0.01516863346 0.05178545952 -0.04673033714 0.7410805789 0.007596438438 -0.6713731226
-0.01494379139 0.04823152161 -0.04648163414 0.7315038565 -0.01042377974 -0.6817576203
-0.02012792206 0.03365645981 -0.06481670125 0.9795685442 0.00863626336 0.2009250661
-0.01522910666 0.04255232906 -0.04678235435 0.7326310366 0.01592543492 -0.6804396702
-0.02007572412 -0.002318156451 -0.05012801552 0.9707202788 0.2208553187 0.09447258075
-0.01416762543 0.03608452988 -0.04565981674 -0.687947169 0.01736005716 0.7255531139
-0.01083250427 0.01823228836 -0.07800480652 -0.5795672809 -0.07236098735 -0.8117053988
-0.01380592442 0.03103063488 -0.04533514214 -0.6675411336 -0.00266795912 0.7445681412
-0.01943421745 0.003541965246 -0.0614451561 0.939800165 0.2107028673 0.2690352236
-0.01313816357 0.02195573044 -0.04477403259 -0.6591534471 0.07032777828 0.7487127198
-0.01940558243 0.03354626465 -0.06745500946 0.947216612 -0.009669155574 0.3204484316
-0.02051787663 0.01836306 -0.06194614506 0.9962567737 0.0184499356 0.08445141105
-0.01421439934 0.01793806076 -0.04511013603 0.6868732203 -0.3854870441 -0.6161208632
-0.01978007269 -0.005274154186 -0.04432511234 0.9658697292 0.2545149335 0.04814368876
-0.01536296463 0.01559655094 -0.04481478119 0.7414655419 -0.4951499683 -0.4528303866
-0.01831985283 0.01006223488 -0.04385272471 0.8801936771 -0.4604636974 -0.1150316224
-0.0196604557 0.006612599134 -0.04370247269 0.9492418362 -0.3082265397 -0.06274023127
-0.02027380714 0.004036803722 -0.04445303955 0.9861986772 -0.1616044575 -0.03600233926
-0.006015739202 -0.01947817421 -0.04377595329 -0.2691348282 -0.9588820723 -0.09006450822
-0.003741287112 -0.02001286793 -0.04402980614 -0.2052067763 -0.9701114357 -0.1295144058
-0.01901457787 0.02859441376 -0.06849408722 0.923581482 0.006917541985 0.383339789
0.003616350174 -0.01993226528 -0.04495355606 0.1084441426 -0.9834502817 -0.1451392823
-0.01684576035 0.01889592552 -0.04853900337 0.8461092303 -0.09240676244 -0.5249382446
-0.01665920258 0.05729857254 -0.04855976486 0.8253816167 0.001140747568 -0.5645740744
-0.02054559517 0.02506511259 -0.05963092899 0.9986357098 0.005442722933 -0.0519335711
-0.01634422398 0.05095266533 -0.04808236504 0.8076566741 -0.00112224402 -0.5896519629
-0.01620238876 0.04827502441 -0.04788518906 0.806196402 -0.007697940562 -0.5915979236
-0.01610590172 0.046504673 -0.04775634003 0.7994823338 0.0007672227111 -0.600689112
-0.01531352758 0.03357485199 -0.04685380173 0.7360552817 -0.007684445674 -0.6768778114
-0.01140308781 -0.01456715736 -0.05349166412 -0.5743547435 -0.7675796123 -0.2844963398
-0.02013759422 0.04311365255 -0.06481189092 0.9792263319 0.003619904541 0.2027379767
-0.01489396715 0.02687794113 -0.04640765381 0.7325820186 -0.0001605711817 -0.6806787497
-0.0175195624 0.03360933685 -0.07135752614 0.8512558351 0.01792347813 0.5244447085
-0.01555794017 0.02446614583 -0.04714317576 0.7490940049 2.026823215e-05 -0.6624637133
-0.02050293493 0.05169271469 -0.05922571468 0.9936755401 -0.001772862836 -0.1122754559
-0.01517511892 0.01904975319 -0.04654771423 0.7550363812 -0.1460404735 -0.6392122052
-0.01909678078 0.008539633751 -0.04461470032 0.938483673 -0.3213394473 -0.1264490214
-0.01684499025 -0.01149815559 -0.04430079269 0.8300236134 0.5530517699 0.07207316463
-0.01802756405 0.05724478817 -0.05073840809 0.8610268089 -0.01000793574 -0.5084610855
-0.01721640205 -0.002383800268 -0.06200731659 0.8377211777 0.3916909757 0.3805278019
-0.01774376043 0.05399527613 -0.05023611196 0.8662040038 -0.006659859815 -0.4996461448
0.001107667804 -0.01315763092 -0.06354162216 -0.04762016777 0.8278653805 0.5589018083
-0.02056599617 0.009861932119 -0.05700718943 0.9999520568 -0.009682584084 0.00145999492
-0.01049633121 -0.00127886498 -0.07141023254 0.5246090879 0.4849872816 0.6996946774
-0.01790102514 0.05139359665 -0.05051342138 0.8593984585 -0.0006628872203 -0.5113060239
-0.01762284327 0.04820205879 -0.05002096558 0.8579788594 -0.002465367085 -0.5136790815
-0.01732974752 0.04505052567 -0.04954035568 0.8587107538 -0.01225360708 -0.5123140545
-0.01792120781 0.0423498764 -0.0505673996 0.8577490821 0.00420050546 -0.5140514254
-0.01676381016 0.03971904564 -0.04866981888 0.839034559 0.01171642245 -0.5439519595
-0.01659642792 0.03626907921 -0.0484174099 0.8259202336 -0.006486592241 -0.5637496713
-0.0161527853 0.02781689167 -0.04781895065 0.7867222939 0.024567804 -0.6168180082
-0.01867266083 0.01040154457 -0.04623373413 0.9024505886 -0.3679822235 -0.223991112
-0.01944759115 -0.001725889285 -0.05571575546 0.9456663542 0.2686288572 0.1831766459
-0.02004370753 0.006398494403 -0.0472110316 0.9751109963 -0.1851579608 -0.1219634146
-0.003085513353 -0.01972513866 -0.04701300812 -0.1693352427 -0.969962497 -0.1746377107
0.000147860609 -0.01986524582 -0.04743481445 0.007135915402 -0.986855701 -0.1614462884
-0.0147233088 0.0005050729252 -0.06856068993 0.716984913 0.4019018026 0.569567885
-0.0204663868 0.05702181498 -0.06263978195 0.9960042896 -0.0180328582 0.08746582848
-0.01739579328 0.02732383601 -0.04961304855 0.8434724995 -0.007003209913 -0.5371267053
-0.01763419151 0.02432558746 -0.05003762817 0.8586267022 -0.002963027986 -0.5125928274
-0.02052602386 0.006931106925 -0.05363696194 0.9987088034 -0.03909716084 -0.0324366769
-0.02054883146 0.0005644927435 -0.04744078159 0.9993355738 0.0341525087 0.01272859661
-0.01761195691 0.05409070587 -0.07115177917 0.8606723688 0.007805785503 0.5090993452
-0.01673740323 -0.01119002724 -0.04690954208 0.8150263026 0.5685396825 0.1117799424
-0.01426812148 -0.01408088899 -0.04693587208 -0.695555913 -0.7050577079 -0.1381868315
-0.01902232742 0.05556965637 -0.06846177673 0.9221618403 -0.002738679657 0.3867945707
-0.008415419737 -0.01799804815 -0.04759715271 -0.4078956213 -0.8949241463 -0.1809196907
-0.0120826149 -0.006302851836 -0.06571289317 0.5994313266 0.5699058288 0.5620404175
-0.01886835384 0.05101255608 -0.05242183685 0.9064967034 -0.01054189662 -0.4220812661
-0.01865863705 0.04564823914 -0.05197891045 0.9068874839 0.01626098322 -0.4210589888
-0.01807767916 0.02151392889 -0.05079065228 0.8615067951 -0.001393287796 -0.5077441292
-0.01768093586 -0.008840527534 -0.04999347782 0.8623004063 0.4785170048 0.1657090384
-0.01876514244 0.01279881096 -0.04929015541 0.9340177321 -0.2194131158 -0.2819020409
-0.01809557581 0.01815043402 -0.05052111149 0.8793345427 -0.1622553276 -0.4477096947
-0.007000121117 -0.01838178062 -0.04872097015 -0.3011860126 -0.929883062 -0.2111977196
-0.01945573616 0.05151764679 -0.05393680573 0.9475389738 0.003668803739 -0.3196191999
-0.01945497513 0.03999268087 -0.0539166069 0.9416193523 0.005309799254 -0.3366374927
-0.01909348297 0.03904650497 -0.05287131882 0.9174262779 -0.004331031494 -0.3978822272
-0.02013613548 0.02719785728 -0.05647131729 0.9768324211 -0.02350810007 -0.2127105788
-0.01867489147 0.02795089531 -0.0519792347 0.9031905443 0.002247672713 -0.4292339556
