# .PCD v0.7 - Point Cloud Data file format
VERSION 0.7
FIELDS x y z normal_x normal_y normal_z
SIZE 4 4 4 4 4 4
TYPE F F F F F F
COUNT 1 1 1 1 1 1
WIDTH 549
HEIGHT 1
VIEWPOINT 0 0 0 1 0 0 0
POINTS 549
DATA ascii
-0.01920471191 -0.007297529697 -0.0006871724725 0.9345013371 0.3552846809 -0.02190996357
-0.006787292957 -0.0009868952036 -0.07366970825 0.3375990767 0.4994894874 0.7978327615
-0.006236676216 -0.01957626534 -0.002103682518 0.3234754257 0.9462300255 -0.003519633907
-0.02057389259 0.007705962658 -0.05585450363 0.9997121807 -0.009529587723 -0.02201687382
-0.02053091812 0.05823435593 -0.06223734665 0.9947085464 -0.001392418585 0.1027276445
-0.01996531105 0.004842956066 -0.01397127962 0.9774189012 -0.2113102139 0.0005338488173
-0.01957006645 0.01314893723 -0.05211138535 0.9502107094 -0.1718148461 -0.2599601247
-0.0002781079412 0.04605818939 -0.04001482391 -0.09392365566 -0.06158600467 -0.9936727383
-0.0142404542 -0.01483089972 -0.04021532822 0.6913057306 0.7223584722 0.01716462902
-0.01870048714 -0.008582279205 -0.0006868898273 0.9069038056 0.421030908 -0.01607675146
-0.0180626564 -0.009799356461 -0.0006869469881 0.8694959428 0.4932814056 -0.02550020267
-0.0179058857 -0.008182808876 -0.05071401978 0.8675705392 0.4664321408 0.1725178759
-0.01934550667 0.03010817146 -0.05356336975 0.9397164011 0.007587091676 -0.3418706211
-0.01234062862 -0.003809145927 -0.06785142517 0.599278281 0.5344999933 0.5959658539
-0.016181777 -0.01270528889 -0.03452922249 0.7830288154 0.621837149 -0.01358065835
-0.01445450974 0.05135593987 -0.04599783516 0.6951854493 -0.01527011906 -0.7186682229
-0.006271760464 -0.01959184074 -0.02458748627 -0.3257497059 -0.9454070277 0.009627101837
-0.01737419128 -0.01099181366 -0.0006871400476 0.8499536404 0.5265925553 -0.01670598233
-0.009766804695 -0.01809967804 -0.002086566448 0.4792297799 0.8776809904 -0.00385968447
0.002439697981 -0.02043633842 -0.03821482086 0.03206901059 -0.9994660341 -0.006263007637
-0.0180626564 -0.009799356461 -0.002060867071 0.8736126768 0.4864724622 -0.01205962257
-0.0197024231 -0.006008132458 -0.01444728279 0.9600564639 0.2797397404 0.00610440639
-0.01726821899 0.01120230198 -0.01420990658 0.8326306849 -0.5536534407 0.01392875222
-0.01922840309 -0.007309569836 -0.02202352524 0.9334978159 0.3584905412 0.008146143708
-0.01615439463 -0.01269204998 -0.0006879073083 0.7923789991 0.6091137016 -0.0334068899
0.002439697981 -0.02043633842 -0.03023316479 -0.02920588469 0.9995734172 -1.285950513e-14
-0.004081717014 -0.02016223526 -0.002115037441 -0.1949858357 -0.9808053538 0.001175531414
-0.0197024231 -0.006008132458 -0.03799416351 0.9563221938 0.2921538713 0.009694181085
-0.01429353809 -0.01255986118 -0.05234445572 0.709569201 0.6646166538 0.2340859938
-0.01487010145 0.005232540607 -0.07123013306 0.7124407504 0.3025719539 0.6331495794
-0.01739756775 -0.01100331116 -0.02616922474 0.8524960621 0.5227333792 -0.0005276444855
-0.01422599268 -0.01482405615 -0.0006896953583 0.6883979573 0.723778036 -0.04747217055
-0.02037488174 0.00302717948 -0.02019427872 0.9892880593 -0.1459764481 -0.0001107431173
-0.01861548996 0.008811270237 -0.004229721904 0.8980510257 -0.4398088966 0.008514088007
-0.02056859779 0.03805377197 -0.06014800262 0.9986920679 0.006682667826 -0.05069019128
-0.01479168081 0.0356763134 -0.046315485 0.7141711957 0.006176435073 -0.6999438226
-0.01738933563 -0.01099926186 -0.01995259285 0.8524386039 0.5227819085 0.006892218566
-0.01253380394 -0.01631831169 -0.0006916518211 0.5908514148 0.8063739266 -0.02560656446
-0.00812849617 -0.01888865662 -0.002094211817 0.4193294276 0.9077514592 -0.01225232306
-0.01495764542 0.04914466476 -0.07470296478 0.7233298451 -0.02080658535 0.6901891199
-0.02053618717 0.001358079851 -0.02640889549 0.9970797472 -0.07589388755 -0.008490908624
-0.009764822006 -0.01809877777 -0.0006955180764 0.4736254236 0.88017113 -0.03126883643
-0.02029623413 -0.002434471965 -0.04655786133 0.9888646928 0.1405005041 0.049053314
0.002443106532 -0.02043487835 -0.020124259 -0.02966609789 0.9995586893 -0.001532729712
-0.01120008278 -0.01722763062 -0.0006934603453 0.5391663957 0.8414344382 -0.03588431366
-0.006252526283 -0.01958330154 -0.0119255228 -0.3250028181 -0.9456618133 -0.009843940545
-0.0007911861539 -0.0060645051 -0.07133242798 -0.1280131198 -0.6499532493 -0.7491150879
-0.02040485811 -0.002491618156 -0.004138272583 0.9930803161 0.1170733621 0.00923653677
-0.008126495361 -0.01888775826 -0.0006980665326 0.4264950456 0.9041174339 -0.02595461095
-0.004078297615 -0.02016073418 -0.0007050116658 0.1946814275 0.9805204231 -0.02605459177
-0.01884839249 0.05948801613 -0.05239918709 0.9268020837 -0.02449192363 -0.3747506416
-0.001430114627 -0.02054940796 -0.02204260254 -0.05570501084 -0.9982984291 -0.01723943974
-0.001415112257 -0.02054290199 -0.0007100040317 0.04585596565 0.9973674215 -0.0561734533
-0.01958775139 0.02143353081 -0.05426276016 0.9528654054 -0.02151059057 -0.3026298294
-0.0204030838 -0.002490682423 -0.002069051385 0.9921721608 0.123887156 -0.01569636551
-0.02021432495 0.02555583 -0.06445393244 0.9783692329 0.005822121156 0.2067843006
-0.01870775604 -0.008585933685 -0.02616118526 0.9074433213 0.4201740543 -0.000618626121
-0.009769777775 -0.01810103035 -0.004173286319 -0.4793904016 -0.8775683433 -0.007658045849
0.002542716026 -0.02039220619 -0.0007180637121 -0.03805188365 0.9992737478 -0.002007739938
-0.01489174747 0.01420981979 -0.002153435946 0.785877313 -0.6183778029 -0.002396180372
-0.0097816782 -0.01810643864 -0.01252507496 -0.4801938044 -0.8770752392 0.01236668756
-0.01870504856 0.05580178261 -0.05208918762 0.9086354695 0.002758459592 -0.4175810994
-0.0187043066 -0.008584199429 -0.004121529579 0.9068212284 0.4214753547 0.005812486515
-0.008142288208 -0.01889485359 -0.03999394608 -0.4139242214 -0.9100209218 -0.02299262593
-0.01065206623 0.01330576611 -0.07747016144 0.5811559863 0.171465293 0.7955233327
-0.01944381332 0.006733627796 -0.03236018276 0.9523967451 -0.3047643666 -0.007689005571
-0.01725001526 0.01121267986 -0.002130290508 0.8308792477 -0.5564374806 -0.004123817007
-0.01861177063 0.008813369751 -0.002114789724 0.8981238099 -0.4397408741 -0.001259217511
-0.01410602665 -0.007831820011 -0.06134140778 0.6696304321 0.5934343581 0.4465766977
-0.02059670258 -0.0002477242947 -0.03611829185 0.9999977002 -0.0009789837097 0.001908190475
-0.01870775604 -0.008585933685 -0.02201575565 0.9071051798 0.4208622007 0.005933035088
-0.01818514824 0.05150106049 -0.05100382423 0.8839619865 0.001253961065 -0.4675570918
-0.01942354965 0.006744947433 -0.002103528738 0.9526838009 -0.3039516912 -0.00263530743
-0.02051220894 0.001371065855 -0.01040522861 0.9971776458 -0.07450873865 0.009229869909
-0.02019091129 0.009535899162 -0.05245637321 0.9854158461 -0.1114210804 -0.1286116368
-0.02037488174 0.00302717948 -0.002086304903 0.9895386882 -0.1442372693 -0.002965577581
-0.02003676224 -0.004632467985 -0.01653231287 0.9720780386 0.2344952125 -0.008733963947
-0.02049973679 0.001377820969 -0.002080425262 0.99714679 -0.07233605074 -0.02158181888
-0.01816270351 0.01727655697 -0.05044335175 0.8877772186 -0.1442514475 -0.4370848087
-0.01844392204 -0.008453295708 -0.04639441299 0.894515321 0.4377138775 0.09082346577
-0.02037488174 0.00302717948 -0.004172808409 0.9894701156 -0.1445053564 0.008190991911
-0.02016109848 0.02958477211 -0.05638849258 0.9793737789 0.01279525363 -0.2016513888
-0.02058371162 -0.0002407613248 -0.002074916601 0.9999812202 -0.006071284004 -0.0008359208864
-0.01491625404 0.01419570446 -0.02805960655 0.7863175912 -0.6178225034 4.268008823e-15
-0.001430114627 -0.02054940796 -0.01207497978 -0.05273778241 -0.9984547972 -0.01751411768
-0.0192062397 -0.007298305511 -0.002061532497 0.9348959035 0.3549209804 -0.0008644580441
-0.009799427986 -0.01811450386 -0.02858908272 -0.4807112575 -0.8767973362 0.01196320351
-0.004088432789 -0.02016518211 -0.04039265442 -0.1918725965 -0.9810842031 -0.02566501767
-0.01431415176 0.02810097313 -0.07540547943 0.6919589128 0.01496216203 0.7217818207
-0.01870201492 -0.008583046913 -0.002060684443 0.9067554351 0.4216565303 -0.0005927210848
-0.0008736950159 0.04753760529 -0.04004999924 -0.09475482552 -0.06198856714 -0.9935687901
-0.02003414345 -0.00463110733 -0.01446273994 0.9713430543 0.2376612268 -0.003132440855
-0.01939452934 0.03181018829 -0.05370490265 0.9430549438 0.0005133033623 -0.3326366028
-0.02050285435 0.001376132727 -0.004160999775 0.9981913528 -0.05959735935 0.007885300697
-0.02041255283 -0.002495698512 -0.02418479252 0.9930726284 0.1175019966 -0.0001886938788
-0.01737419128 -0.01099181366 -0.002061446428 0.84958691 0.5274482401 -0.0006605864849
-0.01870775604 -0.008585933685 -0.03448058701 0.9081407757 0.4186108142 -0.006731854212
-0.0200210619 -0.004624315262 -0.004129766345 0.9719652348 0.235007971 0.007405129502
-0.0161562047 -0.01269292498 -0.002063734889 0.7880522151 0.6154495515 -0.01398412703
-0.01439685822 0.02978464603 -0.04592729378 -0.692739311 0.008254472837 0.7211408397
-0.01253584576 -0.01631926155 -0.002074967146 0.5921258223 0.8058446038 -0.001218624234
-0.01120213985 -0.01722857666 -0.002080392599 0.5413181019 0.8405809788 -0.01995822194
-0.01121139717 -0.01723283195 -0.008323123217 -0.5516061786 -0.8341040841 0.001000278007
-0.02048155403 0.002968801737 -0.05403656006 0.993490238 0.09590381442 0.06147849447
-0.006423043728 -0.01503144264 -0.05843048477 -0.3208727526 -0.8323315216 -0.4519567621
-0.00141743803 -0.02054391098 -0.002130022526 0.04984604859 0.9987464713 -0.004566997478
-0.02052053452 0.001366557002 -0.01596191216 0.9953761987 -0.09603468747 0.001887269782
0.002535322666 -0.02039537239 -0.002154165983 0.03756400424 -0.9992922017 0.002010292371
-0.01499206161 0.01415204287 -0.04038388252 0.8066871387 -0.5846137537 -0.08650213481
-0.01789465714 0.04709272385 -0.07079728699 0.8714363678 -0.01000411263 0.4904065402
-0.0173820343 -0.01099567127 -0.01443962193 0.8511007427 0.5250019733 -0.0006736787224
-0.02059670258 -0.0002477242947 -0.0263411808 0.9999728163 -0.005596981434 -0.004800041313
-0.01490375471 0.01420290422 -0.004306885481 0.7862529286 -0.6179013306 -0.002068305034
-0.01861775398 0.00880999279 -0.02613827705 0.8981128396 -0.4397611698 0.001854947033
-0.01942723942 0.006742886305 -0.004207199335 0.9529752863 -0.3029838284 0.006237269321
-0.02052353668 0.02310400645 -0.06216630046 0.9986266668 -0.004722862917 0.052177342
-0.02010793686 0.00796894455 -0.05018520737 0.9783370189 -0.1547388681 -0.1375229439
-0.01996531105 0.004842956066 -0.004188962817 0.9754389813 -0.220169377 0.006651255223
-0.01495806885 0.05537772624 -0.0465119311 0.7145339814 0.006534043755 -0.6995702221
-0.02058539677 -0.0002416646779 -0.004150004506 0.9999463701 -0.00707137559 0.00756654482
-0.02036001778 0.04537030029 -0.05785053635 0.9901653541 0.00187913826 -0.1398893865
-0.01737419128 -0.01099181366 -0.004123088837 0.8499043551 0.526904421 0.005858186847
-0.01615891957 -0.01269423819 -0.004127624631 0.7832237239 0.6216697116 0.009347090396
-0.01073689556 0.05969987869 -0.04307715607 0.5063712329 -0.02206743907 -0.8620331795
-0.01326428127 0.01183145142 -0.07525756073 0.6281622855 0.1840882557 0.7559918367
-0.01870775604 -0.008585933685 -0.01994587898 0.9070304638 0.4210012989 0.00732421184
-0.01422860575 -0.01482529211 -0.004138382494 -0.6919677901 -0.7218648625 -0.00957589614
-0.01253890896 -0.01632068634 -0.004150085092 -0.5918008683 -0.8060422137 -0.008226907152
-0.02002367592 -0.004625672817 -0.006195007801 0.9718423242 0.2356310091 -0.0007241467892
-0.008131497383 -0.01889000511 -0.004188577533 -0.4104646269 -0.9118542162 -0.006377968255
-0.01899034882 0.04269998932 -0.06854933929 0.9178970566 -0.01188763216 0.3966404891
-0.0201297226 0.02788562775 -0.05623787689 0.9756472568 0.002518843572 -0.2193309959
0.002439697981 -0.02043633842 -0.0280626564 0.02920588469 -0.9995734172 -2.952773403e-14
-0.02059214211 -0.0002452803105 -0.0124554081 0.9999265524 -0.007343795772 -0.009641500093
-0.01457984924 0.002977138877 -0.07031256866 0.7073036066 0.3495574019 0.6144357012
-0.006240071535 -0.01957777214 -0.004207514167 -0.3242185996 -0.9459666589 -0.005420335211
-0.01491625404 0.01419570446 -0.02228392792 0.7863175912 -0.6178225034 4.248131641e-15
-0.004086846352 -0.02016448593 -0.00423019886 -0.194784422 -0.9808202291 -0.007120893746
-0.01794159412 -0.009739154816 -0.04427180672 0.8706819358 0.4863704325 0.07318995169
-0.01865387408 0.02144331423 -0.05193685023 0.9124173934 -0.01519885675 -0.4089785996
-0.02037488174 0.00302717948 -0.01252414894 0.9895857375 -0.1432108052 -0.01451666212
-0.02019173431 0.04914390564 -0.05670215607 0.9829156159 -0.00786243144 -0.1838887549
-0.001420926809 -0.02054542351 -0.004260195374 -0.0517463057 -0.9985377012 -0.01564542189
-0.005802800655 -0.01629818535 -0.05625402451 -0.3004203603 -0.8724970136 -0.3853525247
-0.0184507637 0.01134373665 -0.06823566818 0.8926179605 0.1375445476 0.4293188489
0.002524232149 -0.0204001236 -0.004308370233 0.03682944807 -0.9993195358 0.002014237859
-0.009786642075 -0.01810869408 -0.01600912666 -0.4802495467 -0.8770792385 -0.009611565797
-0.004111634254 -0.02017536163 -0.02047032356 -0.1924184802 -0.9812704678 0.009132221458
-0.001430114627 -0.02054940796 -0.01065331173 -0.05274455096 -0.9983288303 0.0236126866
-0.01808191109 0.04879803085 -0.05078569794 0.882045196 -0.001642249469 -0.4711619417
-0.01648853302 0.02332827759 -0.07290829468 0.8173988564 0.01078588246 0.5759711576
-0.0149157629 0.0141959877 -0.006460501671 0.7865560937 -0.617518192 -0.000891106413
-0.01491625404 0.01419570446 -0.01220717812 0.7863175912 -0.6178225034 -9.133770943e-15
-0.01725998306 0.01120699692 -0.006391376495 0.8316226868 -0.5553406274 -0.0007031355365
-0.0180626564 -0.009799356461 -0.010307868 0.8793903996 0.4761010649 -0.0005486159936
-0.02056815052 0.01750191784 -0.06038186073 0.9994872098 0.004641348399 0.03168241422
-0.01806955719 -0.009802788258 -0.03031820488 0.879896676 0.4751644521 -0.0007635214031
-0.01861775398 0.00880999279 -0.006344959259 0.89828347 -0.4394153433 -0.0009816540029
-0.01867681313 -0.00857037735 -0.04215288544 0.9072080424 0.4192365768 0.03484624103
-0.01452900314 0.01943323708 -0.04591643906 0.7447350274 -0.1969978215 -0.6376218293
-0.01943092918 0.006740825176 -0.006311141014 0.9529534452 -0.303116157 -0.0005715333485
-0.01996531105 0.004842956066 -0.006283863068 0.9757512418 -0.2188819124 -0.0004717266518
-0.01959831619 0.05703265762 -0.05442578888 0.9569955944 -0.007215381138 -0.2900127076
-0.006250260353 -0.01958229637 -0.01052153301 -0.3246748606 -0.9457824542 0.009043462414
-0.02052609444 0.02935053825 -0.06229569626 0.9950791424 -0.00521415806 0.09894600979
-0.0197024231 -0.006008132458 -0.03659992981 0.9606232295 0.2777589985 -0.007276654496
-0.02037488174 0.00302717948 -0.006259629726 0.9895034 -0.1445089011 -0.0004460213958
-0.02050597191 0.001374444246 -0.006241849899 0.998230123 -0.05946606666 -0.0006390579818
-0.009991733551 0.02904319763 -0.04260295105 -0.4804687557 0.0003122217747 0.8770117886
-0.01249244595 0.03806837845 -0.07695114136 0.6563399889 -0.003804840786 0.7544556595
-0.0165561018 -0.006728839874 -0.05814663506 0.8074643884 0.4938496729 0.3226666423
-0.01726821899 0.01120230198 -0.01848097992 0.8325528913 -0.5536613716 -0.01774172246
-0.01921539879 -0.007302960396 -0.01031085968 0.9344477 0.3561001346 -0.000436042879
-0.02058708191 -0.0002425681651 -0.006225386143 0.9999800865 -0.006278496695 -0.0006379743127
-0.02057587242 0.0258950119 -0.06044992447 0.9997251797 0.001893376844 -0.02336621789
-0.01953409576 0.006683190584 -0.04229532242 0.957400715 -0.2813121977 -0.0651714533
-0.02008761787 0.04194754791 -0.05603575897 0.9712952132 -0.002988514248 -0.2378585244
-0.02040576077 -0.002492096663 -0.006207803965 0.9931080661 0.1171996117 -0.0007874690464
-0.0197024231 -0.006008132458 -0.006188155174 0.9575062898 0.2884112231 -0.0008193642583
-0.01964253998 0.04045957565 -0.06664948273 0.9493270657 -0.001458912091 0.3142864838
-0.008512033463 -0.01599183178 -0.05440609741 -0.4074335962 -0.8484507019 -0.33783024
-0.01921081734 -0.007300632477 -0.006185203075 0.9347061581 0.3554208228 -0.0006609287316
-0.01424469137 -0.01483290291 -0.02626699543 0.6913095144 0.7225587477 0.0001070076456
-0.01870660019 -0.008585351944 -0.006182659149 0.9065616986 0.4220731317 -0.0003975827413
-0.0180626564 -0.009799356461 -0.006183307648 0.8794358852 0.4760171159 -0.0004786488988
-0.02055713081 0.04888384628 -0.06047893524 0.9999851322 -0.0008101436586 -0.005392495994
-0.01950267792 0.05334516907 -0.0540978508 0.9436142273 -0.001413549189 -0.3310440936
-0.02041138077 -0.002495076954 -0.02002667904 0.9918923353 0.1269760885 0.005164118876
-0.01737419128 -0.01099181366 -0.006185045719 0.8497896625 0.5271216195 -0.0005724732949
-0.0119564991 -0.009884681702 -0.06153791046 -0.5816322102 -0.6633336107 -0.4708423229
-0.01616163445 -0.01269555187 -0.00619179368 0.7833350148 0.6215993858 -0.0006769078768
-0.01889871979 0.05754919815 -0.0687118988 0.9199720946 -0.01154192078 0.3918138961
-0.01922610474 -0.007308401585 -0.01995308304 0.9336061124 0.358161713 0.00999070698
-0.0180626564 -0.009799356461 -0.008245273829 0.8793705185 0.4761378768 -0.0004620761522
-0.0204989624 -0.0001953382641 -0.0481007576 0.9975481803 0.06518233911 0.02547333154
-0.01726821899 0.01120230198 -0.01634466362 0.8316927694 -0.5552360972 0.0001169809231
-0.01423017359 -0.01482603359 -0.00620795536 0.6922132115 0.7216922328 -0.001091304042
-0.01971826935 0.02473196411 -0.06644745636 0.9563819731 -0.007971143756 0.2920102436
-0.005479328156 0.04082614136 -0.04076002121 -0.3390663613 -0.01354742637 0.9406649084
-0.01998446274 0.05864152145 -0.06550854492 0.966897588 -0.03260097135 0.2530735684
-0.02059670258 -0.0002477242947 -0.03822143936 0.9999684066 0.0009147491901 -0.007896139782
-0.01254197216 -0.01632211113 -0.00622548008 -0.5924759271 -0.8055873216 0.001158883823
-0.01375531197 0.04445903778 -0.07592566681 -0.6577459367 -0.000129777051 -0.7532398462
-0.01120831013 -0.01723141289 -0.006241757393 -0.5514301021 -0.8342201899 0.001231780021
-0.01998776436 0.00483054018 -0.03433589935 0.9777820291 -0.2095186678 0.006650667414
-0.009772751808 -0.01810238075 -0.006260286331 -0.4792280721 -0.8776896192 0.00117777549
-0.02056851578 0.03983052063 -0.060325737 0.9999332267 0.005912255354 0.009929119543
-0.001430114627 -0.02054940796 -0.03205156708 -0.05438905471 -0.99832354 -0.01979748019
-0.0180626564 -0.009799356461 -0.01443596554 0.8795808714 0.4757490982 -0.0005349574054
-0.008134498596 -0.01889135361 -0.006283224106 -0.4102547294 -0.9119702004 0.001187686538
-0.02038528188 0.05771224085 -0.05802951813 0.9893055582 -0.003954238186 -0.1458042405
-0.006243466854 -0.01957927895 -0.006311623096 -0.3240654563 -0.9460337296 0.001327593157
0.002453927994 -0.02043024254 -0.01796411324 -0.03040895422 0.9995354824 -0.002028551171
-0.004091976166 -0.0201667366 -0.006345617294 -0.1949349804 -0.9808154755 0.00116470156
-0.0174030714 -0.01100601721 -0.03032436848 0.8524018424 0.5228869437 -0.0005858588156
-0.02048835754 0.03283798218 -0.06265739059 0.994173865 -0.01303141374 0.1069977025
-0.01228157266 0.02532568169 -0.04410710271 -0.5928416535 0.004633728511 0.8053057199
-0.01424186969 -0.01483156729 -0.02210501862 -0.6913426018 -0.7224549902 -0.01020755179
-0.001424416065 -0.02054693604 -0.006390648365 -0.05051076956 -0.9987230823 0.0009311955581
-0.01870775604 -0.008585933685 -0.01030674458 0.906574977 0.4220445466 -0.0004602582715
-0.02054594612 0.00135279417 -0.03831835937 0.9965892216 -0.08250073212 -0.001884850021
-0.008305522203 -0.01435201502 -0.05817285156 -0.3939201587 -0.8161155811 -0.4228265211
-0.01967608452 0.05321945572 -0.06651795959 0.9478807506 -0.002886422164 0.318612227
-0.004111634254 -0.02017536163 -0.02613925171 -0.1921081414 -0.981372315 -0.001685658115
-0.01653275299 0.04529552841 -0.04837838173 0.7989122479 -0.01120260082 -0.6013432646
0.002513140678 -0.0204048748 -0.006462762356 0.03609185838 -0.9993464385 0.002018310763
-0.006121719837 -0.01952522659 -0.04304542923 -0.3048987207 -0.9497051995 -0.07139190602
-0.001430114627 -0.02054940796 -0.01634296417 -0.05254423973 -0.9986185946 -7.305117887e-05
-0.0176662693 -0.008062346458 -0.05217250061 0.8534421468 0.48199792 0.1982788625
-0.01491625404 0.01419570446 -0.007896656513 0.7865127037 -0.6175734565 -0.0008903711321
-0.02058755302 0.001330259562 -0.04819868851 0.998901923 0.04466079298 0.01415491958
-0.01499934578 0.04911553192 -0.04654309464 0.7401762349 0.0003213744823 -0.6724128479
-0.0180626564 -0.009799356461 -0.016501863 0.8797498032 0.4753703583 -0.00795652249
-0.01726496792 0.01120415449 -0.008522573709 0.8327912354 -0.553287971 -0.01819833439
-0.02008144093 0.02535585213 -0.0560159874 0.9713575555 -0.0007724378516 -0.2376213433
-0.02040744495 -0.002492989719 -0.01034864187 0.9930836071 0.1174071088 -0.0007212275355
-0.01870775604 -0.008585933685 -0.01856699562 0.9068810288 0.4213077883 -0.008157645223
-0.01861775398 0.00880999279 -0.008460832119 0.8980736414 -0.4397315739 -0.009993874248
-0.01944352436 0.006733788967 -0.01403129768 0.9530103355 -0.3027718968 0.01002391806
-0.0142364502 -0.01482900286 -0.01449319124 -0.6914139485 -0.7223775612 0.0108356322
-0.02059495068 -0.0002467855588 -0.04032853699 0.9999556377 0.002371802476 -0.009115766863
-0.009843948364 0.02221391869 -0.07867389679 0.5396155855 -0.01797225062 0.8417196791
-0.0128774821 0.04750630442 -0.04459038925 0.6610088286 -0.0001000727401 -0.750378117
-0.02047080612 0.05264332962 -0.0624327755 0.9980958081 -0.001427817676 0.06166619092
-0.01861775398 0.00880999279 -0.03040014267 0.8980799789 -0.4398302003 -0.001321493201
-0.01997413635 0.004838075638 -0.02588577271 0.9777230494 -0.2098300527 -0.005384022017
-0.0194346199 0.006738763571 -0.008415622234 0.9531974445 -0.3022584438 -0.007380036706
-0.01919517899 0.02505806541 -0.06807507324 0.9315497695 -0.002047358759 0.3636080792
-0.01996531105 0.004842956066 -0.008379361868 0.9758839598 -0.2182368624 -0.004813401777
-0.01733277893 0.05117866898 -0.04953261566 0.8625131787 0.003205650658 -0.5060244465
-0.02037488174 0.00302717948 -0.008347047329 0.9894960283 -0.1445584237 -0.0006871710005
-0.00627203083 -0.01959196091 -0.03023748016 -0.3247840522 -0.9457881872 -0.0001560138129
-0.02050909042 0.001372755289 -0.008323242903 0.9982145367 -0.05972753026 -0.0006006322177
0.00249464941 -0.02041279697 -0.01005444479 -0.03447754166 0.9994034178 -0.002026734977
-0.01810368538 0.03090510178 -0.05080608368 0.8777574345 -0.006546027958 -0.4790605762
-0.02058876801 -0.0002434718981 -0.008301332951 0.9999797923 -0.006327105909 -0.0006186575755
-0.009413768291 0.02332851601 -0.04229419899 -0.4623083561 0.02262869245 0.8864304407
-0.01861432648 0.008811926842 -0.04038847351 0.8994143382 -0.4364264893 -0.02420263998
-0.02040660286 -0.002492543161 -0.008277913213 0.9930958472 0.1173033451 -0.0007507187882
-0.02002629089 -0.004627030611 -0.00826079607 0.9718721774 0.2355079015 -0.0007065324066
-0.0197024231 -0.006008132458 -0.008251737595 0.9574928998 0.2884561227 -0.0006419079189
-0.01740943718 -0.0110091486 -0.03657698059 0.8525235286 0.5226264859 -0.008073997014
-0.01921310806 -0.007301796198 -0.008247732401 0.9345881152 0.3557313411 -0.0005175802589
-0.01870775604 -0.008585933685 -0.008244374752 0.9065372553 0.4221256378 -0.0003880861182
-0.01829307747 0.0360341568 -0.05120647812 0.890261377 0.001707405353 -0.4554467756
-0.01130017471 -0.004861919403 -0.06794681549 0.5310865925 0.5662524064 0.6303215398
-0.01737419128 -0.01099181366 -0.008247591257 0.850012076 0.5267628939 -0.0005694537419
-0.02053932571 0.001356379628 -0.02850410652 0.9971373689 -0.07531812037 -0.00665193554
-0.01721782684 -0.003168769121 -0.06121432114 0.8342281423 0.4146563449 0.3634879947
-0.01616435075 -0.01269686532 -0.008256508589 0.7834693909 0.6214297824 -0.0008596307454
-0.01423174167 -0.01482677555 -0.008278093934 0.692178582 0.7217257781 -0.0008436918032
-0.0125444603 -0.01632326794 -0.008301436186 -0.5926958567 -0.8054257526 0.0009891858752
-0.00813750124 -0.0188927021 -0.008378421068 -0.4106052916 -0.9117754998 0.008290503256
-0.006246863127 -0.01958078671 -0.008416279078 -0.3245895283 -0.9458216872 0.007935625707
-0.004097107649 -0.02016898823 -0.00846155858 -0.1943805628 -0.9808779349 0.00973003419
-0.02059670258 -0.0002477242947 -0.03052422237 0.9999173358 -0.00597246757 -0.01138644955
-0.001427906334 -0.02054844952 -0.008521654367 -0.05327259766 -0.9983483113 0.02150998924
-0.01765808201 0.05751633263 -0.05002538681 0.8626030057 -0.007514385325 -0.5058256504
-0.009658525467 0.02576814842 -0.04242494965 -0.4819393094 0.007930794944 0.8761687078
-0.01491625404 0.01419570446 -0.03385250854 0.7863175912 -0.6178225034 -3.268986793e-14
0.002505745173 -0.02040804291 -0.007899240017 -0.0353512731 0.9993729025 -0.002022181916
-0.01491625404 0.01419570446 -0.01005153418 0.7863163243 -0.6178241151 -2.999706485e-05
-0.01922901917 0.05168050003 -0.06797998047 0.9398332807 0.009500597449 0.3415013076
-0.01861775398 0.00880999279 -0.01057734966 0.8980174362 -0.4397876786 -0.01230780326
-0.01870254803 -0.008583315372 -0.04005346107 0.9084220182 0.4178134457 0.01419019011
-0.01881257629 0.005480351448 -0.06464170074 0.917501171 0.2073766881 0.3393913823
-0.004111634254 -0.02017536163 -0.02826917839 -0.1920695189 -0.9813813192 -7.894221705e-05
-0.01295093632 0.04136592484 -0.04465331268 -0.629005512 0.005157557874 0.7773837311
-0.02052365971 0.001364864171 -0.01804799652 0.9977895393 -0.06586746997 0.008804074341
-0.02041605091 -0.002497553945 -0.03811340141 0.9920932519 0.125270181 -0.007639460003
-0.01943831062 0.006736701488 -0.01052069569 0.9532798827 -0.3019817726 -0.008029592968
-0.01431345367 -0.008712038994 -0.05978993416 0.6917524571 0.6025853966 0.3979565024
-0.01996531105 0.004842956066 -0.01047549915 0.976006287 -0.2176762842 -0.005363127415
-0.01617794752 -0.01270344305 -0.01859343624 0.7904636844 0.6124806073 -0.005888075328
-0.01689092827 -0.01075412273 -0.04785569 0.8199867248 0.5558986905 0.1363760134
-0.02037488174 0.00302717948 -0.01043510056 0.9894750343 -0.1447025712 -0.0005677030739
-0.0205904541 -0.0002443758994 -0.01037788963 0.9999795138 -0.006372517524 -0.0006025417049
-0.020553545 0.009329140663 -0.05816904068 0.9989519931 0.02780895995 0.03635350446
-0.02002890778 -0.004628388882 -0.01032717991 0.971903113 0.2353802424 -0.000693046421
-0.0197024231 -0.006008132458 -0.01031594944 0.9574411947 0.2886279024 -0.0005409823501
-0.01291052055 0.03601131439 -0.07662127686 -0.6268180529 -0.02754062179 -0.7786787802
-0.01737656593 -0.01099298191 -0.01031067848 0.8503337696 0.5262433233 -0.0006670774206
-0.02043964195 0.04350496101 -0.05842222023 0.9946447748 -0.000886833422 -0.1033488532
-0.02059670258 -0.0002477242947 -0.03401792908 0.9999975276 -0.001038956865 0.001966050021
-0.01831052685 0.003359617114 -0.06452516937 0.8968803899 0.2488095321 0.3656492621
0.002472446561 -0.02042230892 -0.01436709499 0.03263363341 -0.9994653065 0.002036459944
-0.02051533031 0.001369375706 -0.01248815441 0.9970655086 -0.07598854164 -0.009279718484
-0.0180626564 -0.009799356461 -0.02408994484 0.8798848143 0.4751868117 -0.0004555961464
-0.02037488174 0.00302717948 -0.01810055447 0.9894167403 -0.1447557264 0.01001467404
-0.01998435211 0.00483242774 -0.03221960068 0.977809136 -0.209363334 0.007502528137
-0.02043494733 -0.002247592092 -0.01818612607 0.9930826266 0.1174163244 0.0005508981109
-0.01616706705 -0.01269817972 -0.01032181692 0.7835292115 0.6213540229 -0.001073735962
-0.01698026848 0.0440783844 -0.07216117859 0.8268319014 0.00184426391 0.5624460911
-0.01861775398 0.00880999279 -0.03253507805 0.8979967338 -0.4398450005 -0.01175761797
-0.02050129223 0.002957999825 -0.04619715309 0.9967621931 -0.0797242002 -0.01044903704
-0.0129534359 -0.006477311134 -0.064564785 0.6279733835 0.5811967111 0.5175517487
-0.0142333107 -0.01482751751 -0.01034884357 0.6920588689 0.7218408074 -0.0006088369594
-0.01649952364 0.01493532228 -0.04609462738 0.8215511523 -0.3675604757 -0.4358359793
-0.0152395916 0.04710430908 -0.07440296936 0.7325415367 -0.009489148534 0.680656193
-0.01491625404 0.01419570446 -0.03603019714 0.7863175912 -0.6178225034 7.191469642e-14
-0.0197016716 0.02559374905 -0.05460836411 0.9585355811 0.001925212298 -0.2849663721
-0.01254490566 -0.01632347488 -0.01037806511 -0.5929513409 -0.8052378669 0.0008276444836
-0.02051809978 0.02086475086 -0.06219238091 0.9958747586 -0.0003964808551 0.09073757743
-0.01121448421 -0.01723425102 -0.01040508461 0.5413174174 0.8407827987 0.007729097332
-0.008140503883 -0.0188940506 -0.01047421837 -0.4109540244 -0.9116122987 0.008933461597
-0.01813955688 -0.003647366762 -0.05814572906 0.874329297 0.3892468433 0.2898882118
-0.009789623737 -0.01811004925 -0.01810139751 -0.4806305077 -0.8768762601 -0.009074115516
-0.004102240086 -0.02017123985 -0.01057807922 -0.1941286069 -0.9809008328 0.01215072933
-0.02021223545 0.04186209106 -0.06440978432 0.9843380859 0.01309786159 0.1758038072
-0.01861775398 0.00880999279 -0.02826812458 0.8981003357 -0.439790605 0.0001033784086
-0.01726821899 0.01120230198 -0.01207623482 0.8322550791 -0.5541815094 0.01530809752
-0.01861775398 0.00880999279 -0.01198888111 0.8982300018 -0.4393690356 0.01173517954
-0.02015573025 -0.0007957759835 -0.05235935402 0.9793136888 0.1773406316 0.09744228693
-0.01944077301 0.006735325813 -0.01192456245 0.9530156262 -0.3027106484 0.01129068886
-0.01456322384 0.001386551142 -0.06941358948 0.7177598396 0.3776776125 0.5849619079
0.002439697981 -0.02043633842 -0.03603411484 -0.02920588469 0.9995734172 -4.782632623e-15
-0.0197024231 -0.006008132458 -0.01238114357 0.9573701914 0.2888633763 -0.0005161286174
-0.01996531105 0.004842956066 -0.01187343788 0.9774164447 -0.2113217541 -0.0004581378308
-0.02040828753 -0.002493436545 -0.01242034364 0.9930684578 0.1169931237 -0.01129810347
-0.02003152561 -0.004629747868 -0.01239450455 0.971934062 0.2352524546 -0.000679554953
-0.02004113388 -0.004634737015 -0.01998455429 0.9727952821 0.2315485905 0.007388457319
-0.01921769047 -0.007304125071 -0.01237493277 0.9342959255 0.356498176 -0.0004172168775
-0.02049044466 0.005350640416 -0.05638640881 0.9959765711 0.05462664636 0.07103942032
-0.01870775604 -0.008585933685 -0.01237009621 0.9066749234 0.4218297818 -0.0004674742222
-0.004111634254 -0.02017536163 -0.03610058594 -0.1921295861 -0.98132831 -0.008998345149
-0.0180626564 -0.009799356461 -0.01237144566 0.8794818955 0.4759320222 -0.0005529650853
-0.01737930012 -0.01099432564 -0.01237469673 0.8507159532 0.5256252477 -0.000682535312
-0.002710164309 -0.01801058006 -0.05370277023 -0.1285453242 -0.9389001741 -0.3192844541
-0.02054538727 0.05822357559 -0.06066622543 0.9999227918 -0.01173360035 -0.00409061818
-0.01072038031 -0.006935459137 -0.06639244461 -0.5340540411 -0.6055916657 -0.5899534012
-0.01924090004 -0.00731592083 -0.03449122047 0.9334075566 0.3587269302 -0.008082253792
-0.01616978526 -0.01269949484 -0.01238806581 0.7835159089 0.6213707917 -0.001076887857
-0.02037488174 0.00302717948 -0.02438729095 0.9893051888 -0.1458598253 -0.0003933802442
-0.0180626564 -0.009799356461 -0.02201815701 0.8799138044 0.4750850236 0.006776217719
-0.009660692215 -0.01033121395 -0.06335652542 -0.4606701912 -0.7088904146 -0.5340948932
-0.004110360622 -0.02017480278 -0.01410770178 -0.1939688132 -0.9809755995 -0.007935529469
-0.01423487997 -0.01482825994 -0.01242055368 -0.6912622537 -0.7225065072 0.0118677572
-0.01985275364 0.000151011087 -0.0560458889 0.9661622505 0.2062533989 0.1548871887
-0.01820586014 0.02910843658 -0.07021116638 0.8977323213 -0.00664590539 0.4404912159
-0.01254490566 -0.01632347488 -0.01245569515 -0.5926629097 -0.8053854327 0.01024598662
-0.01121757317 -0.01723567104 -0.01248798704 -0.5402271253 -0.8414729778 0.008825009913
-0.008142506599 -0.01889495087 -0.01187190533 -0.4209818335 -0.9070576176 -0.004557879681
-0.0041056633 -0.02017274284 -0.01198956966 -0.1944422234 -0.9808623325 -0.01006511223
-0.01123115253 -0.01724191475 -0.04043257523 -0.5338234878 -0.8453214432 -0.02154394141
-0.01386936665 -0.01388999557 -0.0494764328 -0.6715145468 -0.7126346019 -0.2030274308
-0.006266138077 -0.01958934593 -0.02036044312 -0.3250646554 -0.9456892847 0.002178695103
-0.02009638596 0.05291476059 -0.05630351448 0.9782797195 -0.00527489541 -0.2072220207
0.002483550549 -0.02041755104 -0.01221027565 0.03374222038 -0.9994285063 0.002030616416
-0.01491625404 0.01419570446 -0.01436398602 0.7863175912 -0.6178225034 5.517395519e-15
-0.01861775398 0.00880999279 -0.01410711908 0.8981199892 -0.4396553285 0.00914751672
-0.01683632708 -0.008418341279 -0.05440036488 0.8167878225 0.5176952875 0.2546551439
-0.016181777 -0.01270528889 -0.02827688885 0.7830265687 0.6219881519 -0.0003626628682
-0.01739207745 -0.01100061083 -0.02202294922 0.8526448354 0.5224610905 0.005585114953
-0.02053305054 0.001359778404 -0.0243156662 0.9971574583 -0.07472774569 0.009631581387
-0.006255926132 -0.01958481121 -0.01403240204 -0.3251291567 -0.9456280835 -0.0088633656
-0.001430114627 -0.02054940796 -0.01420843029 -0.05394772113 -0.9984211686 -0.0156465157
-0.01434219456 -0.01411491585 -0.04657063293 -0.6946906088 -0.7074595564 -0.1300228215
-0.02037488174 0.00302717948 -0.01461415195 0.9895231955 -0.1436261592 -0.01467555868
-0.01807230568 -0.00980415535 -0.03239897919 0.8799449258 0.4750752633 -0.0006495066812
-0.01945573616 0.05151764679 -0.05393680573 0.9476810061 0.001171062895 -0.3192167591
-0.02051845169 0.001367684841 -0.01457199097 0.9970556712 -0.0763084177 -0.007550758913
-0.01491625404 0.01419570446 -0.03240246964 0.7863175912 -0.6178225034 -1.332963161e-14
-0.02059383011 -0.0002461851388 -0.01453385353 0.9999385719 -0.005063219697 -0.009859824325
-0.009799427986 -0.01811450386 -0.03209794807 -0.4799379624 -0.8771932856 -0.01383805939
-0.02046056557 0.01922876358 -0.05835427475 0.9964237187 -0.01681199289 -0.08280778825
-0.005696932793 0.006088949203 -0.07767588043 -0.2012646273 -0.1088467604 -0.9734705607
-0.0204091301 -0.00249388355 -0.01449298143 0.9930203697 0.117519822 -0.009981820374
-0.01944381332 0.006733627796 -0.01824866772 0.9530397774 -0.3028451332 8.939387285e-05
-0.01944381332 0.006733627796 -0.0359051857 0.952269929 -0.3051080707 0.009541886451
-0.01921998215 -0.007305290222 -0.01443991947 0.9341439373 0.3568962672 -0.0003986735379
-0.016977211 0.001692220211 -0.06606069946 0.8200707136 0.3438293159 0.4574553817
-0.01663851357 0.03712680054 -0.04847964478 0.8065417651 0.001004946638 -0.5911762608
-0.01405766582 -0.01499874338 -0.01818621826 -0.690726858 -0.7231156103 0.0004709606009
-0.02040655708 0.03289149094 -0.0581593132 0.9912030084 -0.004291778806 -0.1322806742
-0.007146811962 0.006961036682 -0.07747323608 -0.2032145363 -0.111588853 -0.9727547379
-0.01870775604 -0.008585933685 -0.01443439198 0.9067830058 0.4215974058 -0.000455782418
-0.0197024231 -0.006008132458 -0.01996369171 0.9569160677 0.2902682618 0.007481682508
0.004929166794 -0.013023036 -0.06271016312 0 0 1
-0.01617250443 -0.01270080996 -0.01445522404 0.7850805181 0.6193759813 -0.004687638699
-0.01254490566 -0.01632347488 -0.01453427505 -0.5948899726 -0.8037409845 0.01031262524
-0.008143112183 -0.01889522362 -0.02026979828 -0.4104181416 -0.9118971667 0.0007116394424
-0.01973415947 0.008179901123 -0.063284935 0.9586863175 0.131482334 0.2522557044
-0.01122066307 -0.01723709297 -0.01457180309 -0.5403147731 -0.8414317947 0.007244369882
-0.01450299168 0.007320923328 -0.07251714834 0.7071083151 0.2535158341 0.6600966237
-0.01491625404 0.01419570446 -0.01652189064 0.7863175912 -0.6178225034 4.076561751e-15
-0.02054676819 0.001352349162 -0.04043041992 0.9966676266 -0.08021213771 -0.01482076469
-0.01188192749 0.007675019264 -0.07507219696 -0.5980647894 -0.2601220983 -0.7580600251
-0.01861775398 0.00880999279 -0.0162264328 0.8981030438 -0.4397850846 4.520756108e-05
-0.01613213587 0.009397823811 -0.07143004608 0.7915745687 0.2147476647 0.5720953965
-0.016181777 -0.01270528889 -0.02619808626 0.7832663265 0.6216861887 -0.0003802297812
-0.01739482117 -0.0110019598 -0.02409495544 0.8524556691 0.5227994168 -0.0003194110547
-0.01996531105 0.004842956066 -0.01817062855 0.9759555661 -0.2179695542 8.075826233e-05
-0.01963983917 -0.004426370144 -0.04932758331 0.9547000864 0.2795557828 0.1019622938
-0.01944381332 0.006733627796 -0.01613920593 0.9530389855 -0.3028476325 6.065098852e-05
-0.01453253746 0.02111989021 -0.04603552628 0.7233980092 -0.07608377235 -0.6862263328
-0.01489027309 -0.008997187138 -0.05823369789 0.7221611496 0.5868222877 0.3662279025
-0.02041499805 -0.002496995628 -0.03392189789 0.9919519586 0.1265557001 0.003868669419
-0.01996531105 0.004842956066 -0.01607018661 0.978205908 -0.2074571418 -0.008644995255
-0.01856340218 -0.006198057652 -0.05217965508 0.9007354561 0.3955320449 0.179527267
-0.01617955256 -0.01270421934 -0.01997417068 0.7887371343 0.6147299527 0.0009045850961
-0.01705762672 -0.01083611298 -0.04642095947 0.8277698001 0.5497065716 0.1123380755
-0.02037488174 0.00302717948 -0.01600821304 0.9893975892 -0.1448501033 0.01052891577
-0.004720932007 -0.001554336667 -0.0740254364 0.234528799 0.5208461925 0.8208017338
-0.006259327888 -0.01958632088 -0.01614030838 -0.3252510772 -0.9456276173 0.0003824497155
-0.02059495735 -0.0002467886508 -0.01592019081 0.9999205532 -0.007153369006 0.01037866436
-0.016141119 0.02696201324 -0.07339198303 0.7818870997 0.002942668108 0.6234131086
-0.02038556226 -0.002741367936 -0.01633135541 0.9887273948 0.149670471 -0.004109597597
-0.0197024231 -0.006008132458 -0.01651480007 0.9555402381 0.2947457787 -0.008232815226
-0.008143024445 -0.01889518356 -0.02237329578 -0.4104754676 -0.9118465968 0.006758285697
-0.02004638672 -0.004637464523 -0.02413356781 0.9721368254 0.2344134708 -0.0005633408989
-0.01922227669 -0.007306456327 -0.01650624561 0.9339121292 0.3573893895 -0.008997732079
-0.01424327993 -0.01483223486 -0.02418486023 0.6912003127 0.7226632187 8.952420616e-06
-0.01648708153 0.04746353658 -0.04830052948 0.804349683 -0.00129658568 -0.5941547831
-0.02056675625 0.0327867012 -0.06038049889 0.9999886302 -0.004521403182 -0.001515355545
-0.01870775604 -0.008585933685 -0.01650006342 0.9068231278 0.4214553201 -0.006872270142
-0.01738477039 -0.01099701691 -0.01650588131 0.8518206248 0.5237902253 -0.00673966649
-0.0180626564 -0.009799356461 -0.01856902122 0.8735848606 0.4866276472 -0.006559290431
-0.0197024231 -0.006008132458 -0.03034271622 0.9567933487 0.2907686379 -0.0002949975393
-0.01998094177 0.004834312439 -0.03010573578 0.9777771457 -0.2094782268 -0.008409869007
-0.01896816889 0.01957477824 -0.06852164205 0.925935463 0.02566284225 0.3768088864
-0.01751692963 0.05478472519 -0.04981161499 0.8647690393 -0.004247850706 -0.502151834
-0.01944381332 0.006733627796 -0.02811616611 0.9527441549 -0.3036053838 0.01011662695
-0.0161752255 -0.01270212626 -0.01652371693 0.7834380493 0.621355945 -0.01190010749
-0.01924090004 -0.00731592083 -0.0379719696 0.9334666236 0.358506352 0.01064228414
-0.01870775604 -0.008585933685 -0.02408731651 0.9072875995 0.4205104607 -0.0004052653777
-0.01335770035 -0.007459694862 -0.0629515686 0.6370323014 0.5884682898 0.4978904688
-0.01441937764 -0.01466122214 -0.01633164883 0.7082442863 0.7059674025 -0.000239674605
-0.006665829659 -0.01669039917 -0.05464160156 -0.3330748875 -0.8731278169 -0.3559619848
-0.01726275063 0.01614673996 -0.04827986526 0.8327563059 -0.2286979203 -0.5041965848
-0.02047178459 0.01099596405 -0.06051427841 0.992817828 0.04523740667 0.1107534989
-0.01931189537 0.04610256958 -0.05346632767 0.9365783493 -0.001083333594 -0.3504565909
-0.01254490566 -0.01632347488 -0.01592071724 -0.5933565763 -0.8048664164 -0.01086393567
-0.0199536171 0.04565423203 -0.0656317215 0.9696766598 -0.003791286732 0.2443620299
-0.006306946754 0.04579524612 -0.04099669266 -0.3801360711 -0.002235232918 0.9249278735
-0.008143200397 -0.01889526176 -0.01816823959 -0.4095721543 -0.9122749335 -0.002257459689
-0.006529977322 0.04750158691 -0.04108546066 -0.3916419269 0.001516146283 0.9201164613
-0.01122272396 -0.01723803902 -0.01596170998 -0.5225916379 -0.8525821645 -0.001277817425
-0.02051161003 0.007741114616 -0.05803398895 0.9978890263 0.03806542129 0.05261667821
0.00077238518 0.04487675858 -0.04004116821 -0.0937226969 -0.06128938608 -0.9937100519
-0.008143287659 -0.01889530182 -0.01606806946 -0.4192042523 -0.9078911436 0.001210849296
-0.01068076801 -0.01082192516 -0.06168013 -0.5074040201 -0.7090389755 -0.4896987764
-0.004111634254 -0.02017536163 -0.01622703743 -0.193527572 -0.9810947768 0.0003431704316
-0.009696753502 0.0007364571095 -0.07326642609 0.4733540215 0.4503610037 0.7570409082
-0.001430114627 -0.02054940796 -0.03851677322 -0.0549169863 -0.9984535305 0.008641296914
-0.005984262466 -0.01792544746 -0.05177124786 -0.2981520475 -0.9119956339 -0.2817256117
-0.005192917347 0.03919050217 -0.04068502808 -0.3255181795 -0.01480902332 0.945419805
-0.009792606354 -0.01811140442 -0.02019501495 -0.4801037002 -0.8772116609 0.000372883716
-0.02012332201 0.0374688406 -0.05637128162 0.9831116473 0.006197692299 -0.1829018251
0.002461337805 -0.0204270668 -0.01652486801 0.03152110318 -0.9995010397 0.002022805036
-0.02022958946 0.0177048645 -0.06414269257 0.9861192411 0.02810891099 0.1636420835
-0.01861775398 0.00880999279 -0.01834729671 0.8977283513 -0.4404547334 -0.009134278796
-0.01254490566 -0.01632347488 -0.01800162125 -0.5937246845 -0.804616552 -0.009121585715
-0.02059639263 -0.0002475583628 -0.01800093365 0.9999347977 -0.007071140991 0.00896656471
-0.02015141487 0.0455160408 -0.05636241531 0.9791805739 -0.001676170185 -0.2029842212
-0.01122581816 -0.0172394619 -0.01804777718 -0.5478372833 -0.8365481112 -0.007846571262
-0.01441168308 0.04039209366 -0.0753079834 0.6946027819 0.005748629171 0.7193705086
-0.002178655148 0.02501070404 -0.04012110519 -0.1070162633 -0.06087920183 -0.9923916778
-0.006262731791 -0.01958783245 -0.01824969959 -0.3251840951 -0.9456506844 0.0002955723244
-0.01957526207 0.04229888916 -0.06686431122 0.9499078058 -0.003497309068 0.3125106866
-0.016181777 -0.01270528889 -0.02412129307 0.7833163329 0.6216231091 -0.0004826106869
-0.004111634254 -0.02017536163 -0.01834797955 -0.1924463586 -0.9812676699 0.008840758536
-0.001430114627 -0.02054940796 -0.01847905922 -0.05495709896 -0.9982932311 0.01975707731
-0.01491625404 0.01419570446 -0.02012185192 0.7863175912 -0.6178225034 2.498001805e-14
-0.009799427986 -0.01811450386 -0.03420666885 -0.479592818 -0.8774862546 -0.002932908269
-0.007281237602 0.02895727158 -0.04136643219 0.4118752638 0.005575741303 -0.9112231769
-0.01861775398 0.00880999279 -0.03824213409 0.8983894219 -0.4391087712 0.008940561506
-0.02003938484 -0.004633829117 -0.01860311317 0.972064021 0.2344993586 -0.01007918438
-0.01828244209 0.05422977066 -0.07000260162 0.8961794119 0.005873442841 0.4436529774
-0.001378610015 -0.02052707672 -0.04068504715 -0.05236521573 -0.9984679214 -0.0178799935
-0.0197024231 -0.006008132458 -0.01858357811 0.9618908323 0.2732804148 -0.009156502444
-0.01922457314 -0.00730762291 -0.01857380295 0.933773678 0.3577030848 -0.01073412317
-0.0205267868 0.001363170385 -0.02013541794 0.998136898 -0.06101403625 -0.0001423636563
-0.01189542961 0.04941905975 -0.04379848099 0.582448286 0.008453140711 -0.8128238054
-0.01735097408 -0.009445453644 -0.04999739838 0.8344079659 0.5240805132 0.1705959029
-0.01850247383 0.03766490173 -0.06960053253 0.9053146918 0.01036564571 0.4246149576
-0.0127395525 -0.01026558876 -0.05992654037 -0.6138106901 -0.659579617 -0.433810057
-0.01738750839 -0.01099836349 -0.01857336426 0.8521852139 0.5231768883 -0.008142774519
-0.01726821899 0.01120230198 -0.02061870766 0.8320636633 -0.5543230236 -0.01990089796
-0.01861775398 0.00880999279 -0.02046956062 0.897893185 -0.440111449 -0.009473166364
-0.01944381332 0.006733627796 -0.0259977684 0.9527655888 -0.3035557489 0.009572880135
-0.0180626564 -0.009799356461 -0.01994805527 0.8735133856 0.4867671635 0.005665136455
-0.01313816357 0.02195573044 -0.04477403259 -0.6388095711 0.03743005766 0.768453852
-0.01944381332 0.006733627796 -0.02035952377 0.9530363171 -0.3028507207 -0.001794223332
-0.00733029151 0.05352584648 -0.04140393257 0.4175590619 0.003543855768 -0.9086428731
-0.01996531105 0.004842956066 -0.02027245712 0.975901895 -0.2182097238 8.758676037e-05
-0.02037488174 0.00302717948 -0.0222899313 0.989287323 -0.1459809538 -0.0003921531961
-0.02041202974 -0.002495421439 -0.02210488892 0.9929649281 0.1180497124 0.0092150411
-0.008142524719 -0.0188949585 -0.03433421707 -0.4181953704 -0.9083304733 -0.006955829418
-0.02059670258 -0.0002477242947 -0.02008311272 0.9999636278 -0.00834950343 0.001740337082
-0.01424046087 -0.01483090019 -0.02002684975 -0.6908457685 -0.7228978318 -0.01228205553
-0.02021411705 0.03301737595 -0.05669748306 0.9821694276 -0.01493128308 -0.1874040349
-0.01923300743 -0.007311909437 -0.02616998768 0.933357475 0.3589478379 -0.0005230081732
-0.01254490566 -0.01632347488 -0.02008390236 -0.5927549216 -0.805381608 -0.001438210517
-0.005287785053 -0.01761258316 -0.05334098816 -0.2679877976 -0.9066559767 -0.3258181705
-0.01122891331 -0.01724088478 -0.02013518333 -0.5527789359 -0.8333277288 0.0005869410607
-0.01649650733 0.04139426168 -0.0483268369 0.7896535231 0.00148300226 -0.6135512319
-0.02035033607 0.001458737373 -0.05393365479 0.9876858446 0.1272760759 0.0909806184
-0.001430114627 -0.02054940796 -0.0206165657 -0.05477911137 -0.9982557772 0.02201482032
0.005469791889 -0.01913825989 -0.04744408798 0 0 1
-0.01829004288 0.05422426224 -0.05122541809 0.8886632863 -0.001135776934 -0.4585589096
-0.003651205301 -0.01842837906 -0.05208047485 -0.1769170064 -0.9432810984 -0.2809290698
-0.01466988945 0.04383772278 -0.04617855072 0.7165975495 0.01041438971 -0.6974091285
-0.01726821899 0.01120230198 -0.02204489326 0.832490298 -0.5538219214 0.01553006854
-0.02005917358 -0.004644104481 -0.03454521561 0.9720700729 0.2344650962 -0.01029038003
-0.01861775398 0.00880999279 -0.02188542938 0.8977078347 -0.4403876096 0.01339391065
-0.01944381332 0.006733627796 -0.02247232723 0.9533342956 -0.3017487443 -0.01007056185
-0.01949711227 -0.004352261066 -0.05076637268 0.9511435614 0.2806878402 0.1286089498
-0.01576287365 0.05605632019 -0.07382202148 0.7615348736 -0.009017220169 0.6480612055
-0.01996531105 0.004842956066 -0.02237622452 0.9758676184 -0.2183073855 -0.004927149127
0.002439697981 -0.02043633842 -0.03240599442 0.02920588469 -0.9995734172 1.960035417e-14
-0.01425176811 -0.01483625031 -0.038112854 0.6917972195 0.7220666282 0.006032538318
-0.01736980438 0.05301599121 -0.07158982849 0.8599340854 0.001395476733 0.510403195
-0.02052991772 0.00136147505 -0.02222471237 0.9981325686 -0.06108493938 -7.528383268e-05
-0.02059670258 -0.0002477242947 -0.02216722965 0.9999792163 -0.0064415492 -0.0002710500706
-0.01062519884 -0.01389192295 -0.05638801956 -0.5122847688 -0.7781344714 -0.3634158226
-0.018442626 0.01545340109 -0.05026364708 0.8992264695 -0.2009220547 -0.3886156
-0.02004375839 -0.004636100292 -0.02205823421 0.9721020256 0.2344394798 0.007468737126
-0.0197024231 -0.006008132458 -0.02203541756 0.9568009997 0.2906571225 0.007091127244
-0.02013499546 0.0210989666 -0.05636460114 0.9803838327 -0.003054043496 -0.1970741319
-0.01618091869 -0.01270487618 -0.02204687548 0.7835364319 0.6212641668 0.01007447518
-0.0112382164 -0.01724516201 -0.0264086237 -0.5405915129 -0.8412453762 0.008187381839
-0.01944759941 0.01158584881 -0.05055452347 0.9435958342 -0.2097074526 -0.2562219466
-0.006269546986 -0.01959085846 -0.02247307682 -0.3257519471 -0.9454002615 0.01019875412
-0.01254490566 -0.01632347488 -0.02216810131 -0.5946229468 -0.8040043928 0.0006982775152
-0.01123201132 -0.01724230957 -0.02222446346 -0.5529414955 -0.8332199 0.0005483717973
-0.009795592308 -0.0181127615 -0.02229051208 -0.4801688177 -0.8771760307 0.0003430373874
-0.01430994987 0.0590173378 -0.04581787872 0.715841778 -0.01589059542 -0.6980816842
-0.0176784153 0.001316395402 -0.06444153595 0.8552893283 0.3186340925 0.4085981888
-0.00627240324 -0.01959212685 -0.03803746223 -0.3242694236 -0.9459393895 -0.006929092627
