# .PCD v0.7 - Point Cloud Data file format
VERSION 0.7
FIELDS x y z normal_x normal_y normal_z
SIZE 4 4 4 4 4 4
TYPE F F F F F F
COUNT 1 1 1 1 1 1
WIDTH 563
HEIGHT 1
VIEWPOINT 0 0 0 1 0 0 0
POINTS 563
DATA ascii
0.01724639702 -0.01121474361 -0.0007100968957 0.8516616865 -0.522539326 0.04031159369
0.01611399078 0.02838464546 -0.07343344879 0.7802907144 0.005548981911 -0.6253923647
0.002366599798 0.02935476017 -0.04014445114 -0.206960485 -0.01720852609 -0.9781979474
0.01865865294 0.008561077754 -0.002748062571 0.9087857659 0.4172621395 0.0008594256724
0.01860925674 -0.008814787865 -0.0007049272656 0.924157662 -0.3816872412 0.01573104054
0.02017005825 -0.003935084939 -0.0006967723668 0.9760961694 -0.2166831603 0.01687234824
0.02054010582 -0.0005694040507 -0.0006925522387 0.9996311746 0.001281319768 0.02712697742
0.01985790825 0.005314240456 -0.0006878787875 0.9712703948 0.2361184075 0.02969710073
0.01865624555 0.008559867859 -0.0006870024006 0.9087857659 0.4172621395 0.0008594256724
0.008126582146 0.01888779831 -0.0006980663538 0.3625319411 0.9309144085 0.04437291727
0.01698442554 0.01156633902 -0.000687353164 0.8244923151 0.5658718789 0.001199570873
0.01472239367 0.01429728635 -0.0006892121434 0.7181977326 0.6956925868 0.01427730623
0.01858282216 0.0597909317 -0.06936044566 0.83056165 0.3950093914 -0.3926002117
0.009764908791 0.01809881783 -0.000695517838 -0.4554746486 -0.8901731684 -0.01160063727
-0.002523680449 0.02040036011 -0.01436953115 0.001479567526 0.9999982643 0.001132400416
0.01566904163 0.02302005959 -0.04723344612 0.7532941034 0.01973295125 0.6573877125
-0.01634076929 0.05890148258 -0.06548120117 0.951010613 0.2499121152 0.1819965623
0.006234582901 0.01957533455 -0.0007012236118 -0.3008579637 -0.9532489223 -0.02830155064
0.01430435419 0.02687043476 -0.04580059052 0.6902289286 -0.005608083949 0.7235693302
0.02043047905 0.002505194843 -0.03881143475 0.9898686587 0.1418792694 -0.005505580555
0.01584421492 0.01100654078 -0.07230381012 0.7858616395 -0.1724373132 -0.5938744451
0.002747029364 0.02035195827 -0.0007075070739 0.1337589179 0.9886387778 0.06857053999
0.01488840008 -0.01421174765 -0.002871321797 0.7856604524 -0.6186568309 0.001174401419
0.0204830265 0.005636830211 -0.05123545551 0.9934276023 0.1033566937 0.04918325703
0.01699290212 0.01157048957 -0.008937814951 0.8244921182 0.5658723246 0.001122149815
0.01725048733 -0.0112124114 -0.002840424299 0.8523407187 -0.5226832561 0.01781889602
0.01861205482 -0.008813209534 -0.002819760799 0.9288863337 -0.3701396443 0.01291598971
0.0188133316 0.0008675698042 -0.06114834213 0.916364601 -0.2718102281 -0.2939304643
0.02017232609 -0.003933834374 -0.002787144482 0.9736603655 -0.2274410707 0.01600162814
0.01942464542 -0.006744335413 -0.002804735422 0.9280108775 -0.3723448437 0.01245506606
0.01480229473 0.05628739929 -0.07485033607 -0.6984807083 -0.1491175707 0.69992046
0.01186686063 0.01677293301 -0.002770303667 0.5758657756 0.8175435626 0.001063855117
0.01285847282 0.03214557171 -0.07666942215 -0.6059547161 0.02706603572 0.7950385599
0.02040343904 0.002490874946 -0.002758773327 0.9933906296 0.1147795099 0.0008492018579
0.02054245615 -0.0005681395121 -0.002770262778 0.9999806457 0.00487997127 0.003859296099
0.01472824367 0.01430006456 -0.005514159441 0.7157897578 0.6983053515 -0.003828658928
0.0172921505 -0.01118865585 -0.03564069176 0.84896541 -0.5284365257 0.00354554911
0.01985835028 0.005314468741 -0.00275158906 0.9725779532 0.2325438046 0.003937489743
-0.008874749184 0.05739159012 -0.04603629684 0.4205379713 0.5877466062 -0.6911597077
0.01698654413 0.01156737614 -0.002749468982 0.8244923151 0.5658718789 0.001199570873
0.0194342165 -0.0067389884 -0.008415634394 0.928103258 -0.3722598959 -0.006849261578
-0.00943772831 0.059571315 -0.07486902313 -0.4818135951 -0.2755611147 -0.8318183285
0.02057652044 0.05069325256 -0.06033330536 0.9995156083 -0.01823883955 -0.025216927
0.0147249004 0.01429847701 -0.002756901026 0.712327235 0.7018469539 0.0008738269098
0.02008844805 0.005432511449 -0.05981301308 0.9759573896 -0.1430423499 -0.1644568634
0.009768139362 0.01810028553 -0.002782117367 -0.4482397172 -0.8938758582 -0.008191827807
0.01929275513 -0.006818016052 -0.04447447205 0.9142224379 -0.3997371142 -0.06638955961
0.02005551529 -0.00399808383 -0.04490411568 0.9692292547 -0.2425623728 -0.04193026547
0.02054549217 -0.0005665052012 -0.005540889621 0.9999985809 -0.0006872500111 -0.001538141819
0.02057619619 0.05343115616 -0.06014910221 0.9994678208 0.02691264856 0.01843324631
0.008129843712 0.01888926315 -0.002792311311 -0.3762667599 -0.9259863791 -0.03118575018
0.02041092968 0.002494407833 -0.0543188448 0.9891530614 -0.1070390423 -0.1005925668
0.00623848629 0.01957706833 -0.002804934263 -0.3003606365 -0.953714094 -0.01459160525
0.01542153168 0.06060000229 -0.05125594521 -0.6217572663 -0.6053682501 -0.4969378065
0.00275185594 0.0203540597 -0.002830060124 0.1363451316 0.9889437675 0.05831149028
0.01866186301 0.008562691371 -0.005496483088 0.9088677267 0.4170835565 0.0008730772668
-0.002542168856 0.02039243984 -0.002872329235 -0.007318791391 -0.9999730018 -0.0006564332851
0.01979728794 -0.003343272209 -0.05059132004 0.9572847802 -0.2679129487 -0.1087589144
0.01489705992 -0.01420675993 -0.005742911816 0.7858313177 -0.6184397045 0.001213255553
0.0170023489 0.01157510448 -0.03589433575 0.824323505 0.5661042603 0.00408968605
0.01490572262 -0.01420177078 -0.008615202427 0.7860435085 -0.6181699704 0.001220841505
0.008143983205 0.01889561399 -0.01187198925 -0.4005760443 -0.9162630529 -0.0009223082303
0.00422061348 0.04850103378 -0.04047518539 0.3174465259 0.001943677084 0.9482741825
0.01725594234 -0.01120930099 -0.005681175232 0.8530616561 -0.5218059036 -0.002099959212
0.01942943096 -0.006741662264 -0.005609805346 0.9318128038 -0.3628571087 -0.007721231707
0.0170078907 0.05905873871 -0.04907553673 0.8132169156 0.3137366951 0.4901505221
0.008709038162 0.02037081757 -0.041831884 0.6330492676 0.3836377601 0.6723620259
0.02021416397 0.0295620163 -0.05686794815 0.9757933102 0.005299993586 0.2186305695
0.01881233883 0.05006620026 -0.06889660454 0.9113191618 0.002220075826 -0.4116946157
-0.01477452469 0.05637023799 -0.06905468877 0.8380566146 0.102946848 0.5357826585
0.02017520714 -0.003932244956 -0.005574658394 0.9754055791 -0.2203372607 -0.00595380764
0.01493741798 -0.01418351555 -0.02733487988 0.7861340242 -0.6180560621 1.269979102e-05
0.01986552143 0.005318181912 -0.02689176623 0.9719439696 0.2352049956 0.001878826877
0.01475551732 0.01709980424 -0.04515872129 0.742362946 0.3561914098 0.5674724099
0.01186805701 0.01677348709 -0.005541006327 -0.5753883222 -0.817816202 0.010243939
0.01482023144 -0.01259804583 -0.05052816582 0.7241041648 -0.65959416 -0.2015160108
0.0198589406 0.00531477356 -0.005503585935 0.970679331 0.2403469795 -0.003868560831
-0.002533678532 0.02039607716 -0.008618501186 0.007524779704 0.9999714506 0.000689625977
0.02040700054 0.00249275437 -0.00551789856 0.9933740649 0.1149231839 0.0007930966826
0.02021344376 0.05589489517 -0.0569778656 0.9866632774 0.02724219744 0.1604787827
0.02054740047 -0.0005654737254 -0.009005456686 0.9999879491 0.004897040217 0.0003473641732
0.008134192467 0.01889121628 -0.005584967375 -0.3951084679 -0.918537453 0.01335087802
0.009781785011 0.01810648727 -0.0208942318 0.4501612342 0.8929470567 0.000645910099
0.01698936939 0.01156875968 -0.00549930346 0.8244964182 0.5658658604 0.001218375346
0.009772448063 0.01810224342 -0.005564578533 -0.4528858681 -0.8915631715 0.003082490321
0.009777836164 0.01810469246 -0.009043848197 -0.4482037678 -0.8939302738 -0.001431111172
0.006243691444 0.01957938004 -0.005610199451 -0.3001620212 -0.9538246833 0.01101065792
0.02056438541 0.008753932595 -0.05661899757 0.9999450539 -0.004701001936 -0.00936962046
0.006487754345 0.06060000229 -0.0779241066 0.1003947686 0.9878629018 -0.1185233214
0.01188036251 0.01677919531 -0.02080549669 -0.5741943681 -0.8187182116 -0.001147913535
0.01440440035 0.04990114784 -0.04590359688 0.7040374833 0.01666815036 0.7099671787
0.01097601032 0.01405692768 -0.07741815948 -0.5654227263 0.1383203862 0.8131202933
-0.00946365118 0.05426387978 -0.07478440094 0.5734971427 0.03286232743 0.8185481628
-0.01238425001 0.05979659526 -0.0481113739 0.7251507555 0.2164907968 -0.6536727902
0.01817790604 0.02315651162 -0.05102417119 0.874762716 0.03112760559 0.4835506828
0.002754906178 0.02035539389 -0.005660498023 0.1199082426 0.9927223026 -0.01115541415
0.02013239956 0.008535886049 -0.05107133484 0.9824762104 0.1399963604 0.1230508634
-0.00253792429 0.02039425755 -0.005745017767 0.007413128381 0.9999723253 0.0006278021848
0.01861244011 -0.008812992096 -0.008460991621 0.9266734068 -0.3758652913 -0.001296140686
0.01726139927 -0.01120619011 -0.008522681713 0.8484167281 -0.5293203784 -0.002998756318
0.02021724319 -0.003750071621 -0.008777395725 0.978535675 -0.2058395111 -0.009900930106
0.01187084341 0.01677477996 -0.009005618572 -0.5762048032 -0.8172958334 -0.003942780948
0.001702014625 0.0321056757 -0.04009379005 0.1882383186 0.01415185749 0.9820214154
0.02055707359 -0.0005602347553 -0.03336263752 0.9998860903 0.006593367564 0.0135769625
0.02041123867 0.002494991839 -0.008968013684 0.9933262722 0.1153368867 0.0005653177872
0.01985967827 0.005315154632 -0.00894486467 0.9726083847 0.2324488796 0.0006696530495
0.01883982849 -0.007071044683 -0.04813263893 0.9014741613 -0.4154075066 -0.1215768889
0.01895521069 0.02004882336 -0.05250984764 0.915469103 0.06135774916 0.397682723
-0.01649528217 0.05284407997 -0.05614533806 0.9603061447 0.05765941837 -0.2729239821
0.01866587766 0.008564709187 -0.008933214823 0.909106818 0.4165622643 0.0008206843979
0.009274739265 0.01787605286 -0.07888076019 0.5519646178 -0.05334264765 -0.8321596137
0.01473242421 0.01430204964 -0.008961940077 0.7120860467 0.7020915602 0.0009503546883
0.008138542652 0.01889317036 -0.008378391266 -0.3948157848 -0.9186878033 0.01154193149
0.006248898029 0.01958169174 -0.008416220188 -0.3018090944 -0.9533235512 0.009245393416
0.02043011904 0.002505003899 -0.03601438141 0.9933878303 0.1148059588 0.0004586325209
0.002756988645 0.02035630798 -0.00849176681 -0.1189153488 -0.9928418481 0.01114470347
0.01868462372 0.00857411321 -0.03587467321 0.9087767612 0.4172085344 0.007863658532
0.01491438818 -0.01419677973 -0.01148863173 0.7862356002 -0.6179257834 0.001143345225
0.0170562315 0.00542599988 -0.06826277542 0.8390078026 -0.2485824036 -0.4840172474
0.008704299927 0.03487288094 -0.04193182182 0.4500071474 0.007944576846 0.8929896142
0.01719683695 0.03536567974 -0.07185608292 0.8407768357 0.01186283454 -0.541251869
0.0172668581 -0.01120307732 -0.0113653779 0.8485381107 -0.5291313428 -0.001759763238
0.01861244011 -0.008812992096 -0.0119892594 0.9169332695 -0.3990354378 0.002024526647
0.01944020271 -0.006735644341 -0.01192472998 0.9324726078 -0.3611887275 -0.006126892741
0.01852564621 -0.008861977577 -0.04255177116 0.9094616165 -0.4125023967 -0.05216647241
0.02014118881 -0.004109985447 -0.01213329639 0.9761112437 -0.2169456805 -0.01189166253
-0.0143558445 0.05425131607 -0.05131274796 0.8569496697 0.04151743167 -0.5137251857
0.006255409877 0.01958458201 -0.01192554951 -0.2991927222 -0.954189453 0.002490546174
0.00302499752 0.02031883774 -0.01173990707 -0.140867302 -0.9900244359 -0.002831861811
-0.002529430866 0.02039789677 -0.01149321747 0.01431197575 0.9998973167 0.0007234479467
-0.01826274872 0.06060000229 -0.05383873367 0.7753204767 0.5184463637 -0.3606820296
0.01617546844 0.005758042812 -0.06985347748 0.8179784503 -0.2500454933 -0.5180622609
0.02054892874 -0.0005646459758 -0.01247199702 0.9999134655 0.005894795152 0.011760653
0.0204139204 0.002496412396 -0.01242009282 0.993294572 0.1152414626 0.009235718439
0.009781785011 0.01810648727 -0.01252507257 0.4489788765 0.8934934491 0.009350124821
0.01986041689 0.005315535784 -0.01238811493 0.9727808169 0.2313871964 0.01254781669
0.02021574529 0.05941607475 -0.06251006508 0.9926669703 0.07786146436 -0.09246555245
0.0186698939 0.008566727797 -0.01237184111 0.9092076939 0.4161833956 0.01152174607
0.0173960317 0.05895713933 -0.07151079814 0.8221244766 0.27653979 -0.4976314797
0.01699614 0.01157207608 -0.01237824678 0.8243036649 0.5659894775 0.01339325802
0.0203216526 -0.0005297968954 -0.05073192825 0.9842894114 -0.1573933721 -0.08001050562
0.0147360336 0.01430376307 -0.01241164462 0.7118032106 0.7022622897 0.01280100515
0.008375694593 0.0384046847 -0.04180160141 0.437776781 -0.0002449482684 0.8990836613
0.01619309235 0.01802000809 -0.04747555542 0.8026574316 0.178749966 0.5690250408
0.01699824381 0.03239943457 -0.07216459656 0.8355224926 0.01398972684 -0.549278119
0.01187371612 0.01677611256 -0.01247216654 -0.5757087117 -0.8175384958 -0.01379446254
0.01492305899 -0.01419178534 -0.01436363745 0.7864704028 -0.6176269326 0.001130364291
0.01986100769 0.005315841198 -0.01514484525 0.9727369877 0.2313865322 0.01558927175
0.0091596632 0.04735037613 -0.07904626465 0.5255728702 -0.01879229123 -0.850541009
0.01727368609 -0.01119918442 -0.01492119439 0.8528033601 -0.5222252127 0.00269372936
0.002492130423 0.02039516068 -0.01516070271 0.1215005276 0.9925124003 -0.01252026449
0.006272366762 0.01959211063 -0.02106415367 -0.3002209042 -0.9538634907 -0.003442343291
0.01861244011 -0.008812992096 -0.01552019405 0.9282734028 -0.371639214 0.01388467981
0.006804240386 0.05648443349 -0.04119930903 0.2979087882 0.1473512508 0.9431532022
0.01944619274 -0.006732297897 -0.01543633747 0.9310795736 -0.3648106446 0.002005317318
-0.01826274872 0.06060000229 -0.05680441475 0.9269963551 0.3562093399 -0.1174421724
0.02018318129 -0.003927836061 -0.01534010077 0.9755662524 -0.2196853783 0.002970133374
0.02055015278 -0.0005639832616 -0.01524735904 0.9998392667 0.003789421772 0.01752373095
0.01699986649 0.01157389665 -0.02341176176 0.8243376329 0.5659710663 -0.01200912189
0.02041583204 0.00249742651 -0.01518386722 0.993273905 0.1153031553 0.01058924413
0.006506949902 0.02953916073 -0.04106321526 0.3301958767 -0.001524551415 0.9439112028
0.01867295011 0.008568264008 -0.01512481801 0.9092822167 0.415975824 0.01303703248
0.01699808455 0.01157302928 -0.01513270926 0.82422041 0.5660718441 0.01494600506
0.01008050632 0.01824224472 -0.04121876144 -0.5507416024 -0.7424372401 -0.3814061246
0.01473809576 0.01430474106 -0.01517353328 0.7117930727 0.7022402309 0.0144665022
0.01187601614 0.01677717924 -0.01524751091 -0.5755377506 -0.8176497576 -0.01432381236
0.01638997269 -0.00520795393 -0.06065033722 0.8180325095 -0.4439646659 -0.3656749771
0.009781785011 0.01810648727 -0.01531231165 -0.4491148762 -0.8934165156 -0.01013693941
-0.00250882419 0.02040672493 -0.0179675827 -0.006148984587 -0.9999810199 0.0003870019796
0.01836467806 0.01401303736 -0.06909680176 0.8787694258 -0.09822588493 -0.4670288769
0.008149427414 0.01889805889 -0.01536810637 -0.3906674707 -0.9204156137 -0.01462960829
-0.01826274872 0.06060000229 -0.05161977005 0.7652753804 0.6016605759 -0.2288190192
0.006261925936 0.01958747578 -0.01543738556 -0.2995045368 -0.9540397506 -0.01025605496
0.01493362967 -0.01418569724 -0.01796043587 0.7865777085 -0.6174907195 0.0008484020366
0.01878469276 0.003982345819 -0.06374725342 0.9176078263 -0.2221899331 -0.3295868789
0.0188668588 0.01121741803 -0.04802219772 0.9290272602 0.2810042433 0.2407176043
0.01728051949 -0.01119528818 -0.0184801712 0.8536765936 -0.5205737355 0.01546801376
0.01616495705 0.04492076111 -0.07336149979 0.7859155474 0.002845118696 -0.6183273063
0.01861244011 -0.008812992096 -0.0183476429 0.9285925201 -0.3707673641 0.01573192435
0.01946811867 -0.006720048904 -0.03590253448 0.9279014943 -0.3728087582 -0.003527974695
0.02046899319 0.002525478184 -0.04441793442 0.9917086873 0.1263701688 0.02333366766
0.0118893671 0.01678333616 -0.03897435474 -0.5988139317 -0.7783298001 -0.1887447947
0.01542489529 -0.01061201763 -0.05395009232 0.77994769 -0.5755681665 -0.2457699869
0.01832288857 0.05361430283 -0.05129001541 0.8947851946 -0.0133574498 0.4462970244
0.01945098877 -0.006729618311 -0.01824819756 0.9282550497 -0.3717572571 0.01179425934
0.01861244011 -0.008812992096 -0.02401138783 0.9294468306 -0.3689114007 0.005741726883
0.0201854496 -0.003926581621 -0.01813459349 0.9735652795 -0.2280248677 0.01324032793
0.008165914536 0.01890546608 -0.02939724922 -0.3963589386 -0.917988414 0.01403080365
0.0205513773 -0.0005633200705 -0.01802502441 0.9999735959 0.007260946381 0.00029354195
0.006210646152 0.03240265846 -0.04095952415 0.3096692714 0.006096290198 0.950824788
-0.01278590679 0.05173866653 -0.07193411255 0.7581973766 -0.01515999857 0.6518488417
0.02041774559 0.002498441398 -0.01794992161 0.9933194807 0.1153953991 0.0005577228903
0.01822328949 -0.009032625675 -0.0454735508 0.8977528641 -0.429424246 -0.09815605939
-0.01656213236 0.05883768463 -0.05660674477 0.9119338619 0.385615419 -0.1402760851
0.01916097546 0.03185870934 -0.05303775215 0.922374736 0.008978972242 0.3861919527
0.01986159945 0.005316146731 -0.01790387535 0.973091743 0.2304179718 0.0001343036
0.009781785011 0.01810648727 -0.02999390411 -0.4519135015 -0.8920604914 -0.001505582458
0.01867522113 0.008569405317 -0.01788009357 0.9093919742 0.4159396703 0.0006542066651
0.02042431593 0.03239009666 -0.06308847523 0.9886088519 0.006199617407 -0.1503798615
0.01699876785 0.01157336235 -0.01788952398 0.8242682043 0.5661994364 0.0003543144155
0.01237865233 0.02305300808 -0.04418324566 0.6205898664 0.03383716138 0.7834049172
0.01932702065 0.01042809486 -0.04894652557 0.9457179868 0.2478385152 0.2102226432
0.01474015919 0.01430572017 -0.01793769868 0.7119793953 0.7022001111 0.0005870516226
0.01241809654 -0.01563453388 -0.04737994003 0.7059209058 -0.6921543526 -0.150326401
0.01187831783 0.01677824688 -0.01802513885 -0.5743456606 -0.8186127283 -0.0005130712226
0.009781785011 0.01810648727 -0.01810188866 0.4481808454 0.893935527 0.003633651025
0.01811476898 0.05941443443 -0.0508759985 0.8244001849 0.3146103211 0.4705153355
0.008153787136 0.01890001774 -0.01816757774 -0.393832283 -0.9191540075 -0.007214111333
0.02023086815 -0.003742537785 -0.02975429306 0.979074745 -0.2035009627 4.399878068e-05
0.01953404713 0.04477444458 -0.054168396 0.9571043649 -0.007378158292 0.2896494389
0.006267143965 0.0195897913 -0.01824942589 -0.2972091505 -0.954702783 -0.01446778938
0.01846838665 0.002254952073 -0.06324433517 0.8990864066 -0.2704393476 -0.3442472842
0.002760009646 0.02035763359 -0.0184141922 -0.1443745862 -0.9892121852 -0.02480386128
0.01938326168 0.02320714474 -0.06756258392 0.9436191696 0.01943858883 -0.3304618043
0.01493741798 -0.01418351555 -0.0215615015 0.7864064398 -0.6177093205 0.0003268117188
0.01728599358 -0.01119216681 -0.02133045578 0.8532061174 -0.5213430801 0.01551496296
0.01861244011 -0.008812992096 -0.02117789555 0.9294668081 -0.3688599537 0.005812674943
0.01945579052 -0.00672693634 -0.02106275082 0.9283000959 -0.3718071934 -0.004282852889
0.01861244011 -0.008812992096 -0.02684855747 0.9183339409 -0.3957960707 0.002871132112
0.01188750529 0.01678248024 -0.03616574669 -0.5740246031 -0.8176014723 -0.04498430359
0.02018772078 -0.003925326228 -0.02093181181 0.9732287417 -0.2298382118 0.0004611535026
0.01502570391 -0.009201818466 -0.05756044388 0.7754776972 -0.5391720799 -0.3285236815
0.005196749449 0.04086054802 -0.04068848228 0.2620568776 0.01191902748 0.9649788234
0.01678061724 0.05350077248 -0.04872847462 0.8307863728 0.0009640322264 0.5565905797
0.02055260324 -0.0005626561642 -0.02080541897 0.9999741626 0.007061068012 0.001347366249
0.0153733654 0.05302130318 -0.04695320511 0.7470543698 0.008015672706 0.6647146137
0.02041966105 0.0024994573 -0.02071868086 0.9932142919 0.1158972349 -0.009654082171
0.02050445938 0.0116207016 -0.06019965286 0.9939247141 -0.03662175527 -0.1037907014
0.02018999338 -0.003924069285 -0.02373218679 0.9758401175 -0.2184062509 -0.005897010495
0.01986212873 0.005316420436 -0.02066563511 0.9726806275 0.231649929 -0.01518905155
0.01867739105 0.008570496003 -0.0206380647 0.9092912921 0.415985923 -0.01204400098
0.01699931717 0.01157362938 -0.02064906836 0.824314681 0.5659588189 -0.01399721024
0.02054660416 0.002566289186 -0.04792616971 0.995973461 0.08189430921 0.03647173104
0.01860952314 -0.008814638138 -0.03895856984 0.9278976033 -0.3728347545 0.000532584899
0.01474222501 0.01430669975 -0.02070456473 0.712384111 0.7016607161 -0.01345800534
0.01561294746 0.04752948761 -0.04720155144 0.7567436641 -0.01336883177 0.6535750157
0.01549139929 0.0502821331 -0.04707549667 0.7520798363 0.004323002953 0.6590578362
0.01916979408 0.05294513893 -0.05306051445 0.9253387459 0.00060655424 0.3791409202
0.01495717144 0.007478994131 -0.07211251068 0.7472866594 -0.2484084882 -0.6163244856
0.00815815115 0.01890197754 -0.02096973991 -0.3965972374 -0.9179922486 0.0009288666307
0.002930807352 0.02655424118 -0.04021212769 -0.2314028216 -0.01230863622 -0.9727801558
-0.01560238004 0.05311817169 -0.05376754761 0.9132347134 0.01730492498 -0.4070662081
0.002760836959 0.02035799646 -0.02125465155 -0.14234762 -0.9895628598 -0.02241654573
0.014506917 0.04430688286 -0.07519791794 0.7290813472 -0.002389509569 -0.6844228806
-0.002493444085 0.02041331387 -0.02156927299 -0.01089049131 -0.9999391817 -0.001740695812
0.01463266087 0.02031172562 -0.07501437124 -0.7000594782 -0.003738218102 0.7140747529
-0.01629091644 0.05591916275 -0.06563832283 0.9508758475 0.1547680236 0.2681081525
0.01493741798 -0.01418351555 -0.02444631863 0.7862424832 -0.6179180692 0.0001314863231
0.00396643436 0.05057435799 -0.0404201622 -0.3051154374 -0.006363719315 -0.9522941105
0.01818233681 0.04426732445 -0.05104406929 0.8757901924 0.01769274663 0.4823676042
0.01729112625 -0.01118924046 -0.02418392181 0.8545963627 -0.5192927439 0.0003207310917
0.01968947983 0.01725717773 -0.05426916199 0.9651019925 0.08697445227 0.2470092889
0.01946059704 -0.006724251032 -0.02388042831 0.9283042511 -0.3717962206 -0.004334475681
0.01675378418 -0.008236420631 -0.05502207565 0.8386081795 -0.4783655141 -0.260581573
0.02055383015 -0.0005619915128 -0.02358897257 0.9999205373 0.0060759391 -0.01104545625
0.0166894722 0.05622099018 -0.04860150051 0.8069552456 0.09964326867 0.5821464169
0.02042157841 0.002500474334 -0.0234905715 0.9930699098 0.1173085729 -0.007131124809
0.01475141335 0.01431106774 -0.03878524462 0.7191783885 0.6923820507 0.05821976758
0.01986337805 0.005317069054 -0.02343048429 0.9727970428 0.2313618738 -0.01173016767
0.02002708817 0.01153617787 -0.06354743099 0.9689392099 -0.08315215533 -0.2329002501
0.01867956416 0.008571587801 -0.02339915021 0.9092598184 0.4160989155 -0.01040553203
0.01474429289 0.01430768077 -0.02347455788 0.7134672562 0.7006135783 -0.010251255
0.009781785011 0.01810648727 -0.03914180183 0.4269053923 0.8840420468 0.1903193252
0.01448160958 0.05341346741 -0.07515298462 0.7104992278 0.0238008676 -0.7032953619
0.01188103533 0.01677950573 -0.02358910942 -0.5755747321 -0.817666155 0.01165275477
0.009781785011 0.01810648727 -0.02368977165 0.4534201728 0.8912880997 -0.003958556395
0.008162519455 0.01890394115 -0.02377502632 -0.3992403243 -0.9168303132 0.005416663755
-0.01298546839 0.05690226746 -0.04953010178 0.8264472508 0.1658155632 -0.53804288
0.00627759552 0.01959443188 -0.02388200283 -0.3002155089 -0.9538655414 -0.003343217066
0.002761665225 0.02035835981 -0.02409834623 -0.1246520974 -0.9921555737 -0.009443106168
0.02042831135 0.002504045129 -0.03322305107 0.9934785849 0.1134021097 0.01184326274
0.01479367447 0.0472340374 -0.07488331223 0.7373093246 0.01058589263 -0.6754723524
-0.002481124878 0.02041859055 -0.02445413494 -0.01184519971 -0.9999283555 -0.001724836816
0.0172921505 -0.01118865585 -0.02704138279 0.8545119894 -0.5194316641 7.884320154e-05
0.01946540928 -0.006721562624 -0.02670166683 0.9288258113 -0.3704735121 -0.005655883083
0.004355601788 0.05995057678 -0.04412252045 0.1167272433 0.5157081285 0.8487755162
0.02047956657 -0.000602097325 -0.04745261097 0.99202943 -0.1194748344 -0.04004215341
0.02019226933 -0.003922810793 -0.02653615046 0.9754723067 -0.2200742198 -0.004595273846
-0.01261599007 0.05953177948 -0.07229800873 0.716398075 0.3449904068 0.6064284107
0.02021800168 0.03230334949 -0.05694133631 0.9807475532 0.001686401664 0.1952726117
0.02056208954 -0.0004002117753 -0.02678729095 0.9999256929 0.007763637362 -0.009398653027
0.02042397912 0.002501747529 -0.02696070417 0.9933081188 0.1154945033 -2.824830621e-05
-0.01743453789 0.05933714803 -0.05969755872 0.9826945071 0.1809018853 0.03982478726
0.0186817877 0.008572702514 -0.02685579766 0.909233959 0.4162853749 0.0003073993675
0.01700055408 0.01157423115 -0.02687041855 0.8243971217 0.5660117461 0.0002982687097
0.01474688191 0.01430890878 -0.0269423116 0.7123158084 0.7018590142 -0.0003365413675
0.02041441441 0.05063562489 -0.06307000446 0.9890742803 -0.006903144008 -0.1472562889
0.01201620255 0.01668941002 -0.02678736343 -0.5754487925 -0.8177758819 0.01006450737
-0.01680288124 0.05274967384 -0.05768858147 0.9906767026 -0.004271833209 -0.1361668917
0.01964015388 0.02036547852 -0.05446373081 0.9596374496 0.005960490323 0.2811768802
0.01472338033 0.02334461021 -0.074937603 -0.705392092 -0.004358605618 0.7088039215
0.009781785011 0.01810648727 -0.02648893929 -0.4511006489 -0.8924330846 0.008449505354
0.01980040073 0.04765467262 -0.06613385201 0.9617815513 -0.01399915161 -0.2734598168
-0.002419266462 0.02044509029 -0.03894005585 -0.02901587653 0.9995774975 0.001704520357
0.008165856838 0.01890544033 -0.02658396816 -0.3968046392 -0.9177868164 0.01460951738
0.006282830477 0.01959675598 -0.02670340919 -0.301347844 -0.9535142316 0.0002950808061
0.008736566544 0.05033517075 -0.04203043976 0.4121938098 -0.002449188705 0.9110928957
0.002762494564 0.02035872364 -0.02694571543 -0.1250022955 -0.9921124204 -0.009347263143
0.006293323994 0.01960141468 -0.03235864449 -0.2992962239 -0.9540882317 0.0117224771
-0.002468790889 0.0204238739 -0.0273425045 0.01277109541 0.9999168219 0.001802352926
0.01743636751 0.05646808147 -0.07145922089 0.8359548744 0.16447052 -0.5235732002
0.01872711182 0.0388339119 -0.06913019943 0.913507326 -0.001549709694 -0.4068193256
0.01493741798 -0.01418351555 -0.03022763252 0.7861106369 -0.6180858084 -3.32893435e-15
0.0172921505 -0.01118865585 -0.02990307617 0.8544634718 -0.5195114596 -0.0001366680956
0.01493741798 -0.01418351555 -0.03312503052 0.7861106369 -0.6180858084 1.554312234e-15
0.008165914536 0.01890546608 -0.03645118523 -0.3814017456 -0.9212272467 -0.07663594676
0.01861244011 -0.008812992096 -0.02968984509 0.9205694431 -0.3905761439 -0.001475182217
0.01946811867 -0.006720048904 -0.02952712727 0.9288156626 -0.3702522755 -0.01465324018
0.01861244011 -0.008812992096 -0.03538654709 0.924892286 -0.3802074823 -0.004065669812
-0.01546434093 0.05915380669 -0.05346581459 0.8356357924 0.4028941381 -0.3733485449
0.01429925656 0.03852294827 -0.04583238125 0.682738562 0.003819661526 0.7306527672
0.02054929161 -0.0007217561007 -0.03015284348 0.9993010033 -0.03738065144 -0.0004379392441
0.01425991027 0.0533364296 -0.04575483195 0.6754329993 0.004101517226 0.7374099546
0.02035170603 0.01772026348 -0.05733592892 0.9888940709 0.02909721681 0.1457459036
0.01986278629 0.05043955708 -0.06591153336 0.9724055315 0.0004908827184 -0.2332964666
0.01174900112 0.01687104111 -0.03015316353 -0.5765968551 -0.817025519 -0.002316913858
0.01229820108 0.05057037544 -0.04413434505 0.6035476464 -0.008680697157 0.7972796774
0.006288073301 0.0195990839 -0.02952880955 -0.2998516709 -0.9539061607 0.01232931303
0.002763324976 0.02035908794 -0.02979720211 -0.125419517 -0.9920606186 -0.009256016044
-0.002456439972 0.02042916489 -0.03023483086 0.01373013867 0.9999041057 0.001806289168
0.01880214882 0.0353015124 -0.06895094554 0.9124973674 0.002502374083 -0.4090749231
0.02042638397 0.002503022909 -0.03043681335 0.9933074033 0.1151620907 0.008837155875
0.01986766863 0.005319296718 -0.03035901451 0.9604144159 0.2784000089 0.009878501448
0.01868320974 0.008573409875 -0.0303184878 0.9091049107 0.4164184526 0.01113255293
0.01700124311 0.0115745666 -0.03033507252 0.8242517674 0.566090204 0.01228433275
0.02022916126 0.05056982104 -0.05704253642 0.9819172734 -0.004053701255 0.1892671013
0.01474947516 0.01431013902 -0.0304160347 0.7122123152 0.701865345 0.01177520545
-0.01623630834 0.05292364788 -0.06580029297 0.9498855373 0.03648454315 0.310461502
0.0172921505 -0.01118865585 -0.0327693634 0.8544855512 -0.5194730499 -0.001480947055
0.01957603741 0.02329434633 -0.05425929642 0.9558015818 0.002966509461 0.2939975102
0.01861244011 -0.008812992096 -0.03253569317 0.9168238001 -0.3991111931 -0.01201562351
0.01946811867 -0.006720048904 -0.03235737896 0.9283976383 -0.3712806086 -0.01511736967
0.008165914536 0.01890546608 -0.03292052333 -0.395387783 -0.9185132951 0.001351958853
0.02023340912 0.03503008804 -0.05701527023 0.9881069311 -0.008282290618 0.1535450957
0.002764156938 0.0203594532 -0.03265324974 -0.1218033751 -0.9924030215 0.01732572373
0.01170021105 0.0257475996 -0.07754598618 -0.5765147569 -0.02655666169 0.816655055
-0.00244407022 0.02043446541 -0.03313156319 0.01469498121 0.9998903844 0.001810179016
-0.01135268354 0.05590724182 -0.04788529587 0.7260822407 0.184339835 -0.6624374725
0.01656056595 0.04787091827 -0.04839182663 0.7784232899 -0.01368951681 0.6275904548
0.01553371525 0.01468235779 -0.04392145157 0.7577897768 0.5294821631 0.3813178376
0.01986938906 0.005320190191 -0.03313815498 0.9728276149 0.2310436884 0.01500818938
0.0186843373 0.008573970636 -0.03309398969 0.9090055229 0.4165934747 0.01260302396
0.0196960144 0.02628248692 -0.0665253849 0.9528519404 -0.001401400615 -0.3034323908
0.01700179577 0.0115748353 -0.03311216164 0.8242513691 0.5660532055 0.01390859891
0.01475058126 0.01431066751 -0.03320047188 0.7111141721 0.702901461 0.01568981565
0.01188564706 0.01678162575 -0.0333626833 -0.5760705055 -0.817292858 -0.01323468726
0.006519296328 0.06014264425 -0.04154396947 -0.1660137185 -0.443974151 -0.8805262055
-0.0008452091515 0.05908311653 -0.07763181305 -0.08435517834 0.6735409805 0.7343206054
0.009781785011 0.01810648727 -0.03350559044 -0.4508248973 -0.8925868153 -0.006759376385
0.01493741798 -0.01418351555 -0.03602752304 0.7841239953 -0.6205929374 -0.003737110333
0.01542153168 0.06060000229 -0.05326793671 0.7692127475 0.5602962636 0.3072130304
0.006299338341 0.01960408529 -0.03590319951 -0.3147388998 -0.9490919544 -0.01280183626
0.004746775309 0.04434095128 -0.0405892779 0.3350278801 0.01762025258 0.9420434418
0.01556970708 0.05973679415 -0.0477083416 0.6335710698 0.5750922391 0.5175486605
0.002764990091 0.02035981846 -0.03551430416 -0.1616419608 -0.9698774183 -0.182235205
0.002571428895 0.0594078598 -0.04024365234 -0.2217571228 -0.5391880277 -0.8124654142
0.01911212158 -0.003718235016 -0.05430130005 0.9213065557 -0.3374013862 -0.1932732131
-0.002431679726 0.02043977261 -0.03603315353 0.01519475757 0.9998827591 0.001894044498
0.01573805285 0.04476292229 -0.04733141899 0.7545540279 -0.01545111618 0.6560560052
0.0202002635 -0.003918390632 -0.03638458729 0.9756037059 -0.2194913635 0.004577162228
0.01941673279 -0.006748755455 -0.04231321716 0.9261223074 -0.3758580951 -0.03206499859
0.02055784178 -0.0005598190427 -0.03616582966 0.9998724765 0.00394040538 0.01547591488
0.01957204342 0.05308415222 -0.05432146263 0.9617165042 0.01406269332 0.2736852319
0.01733982976 0.002708536863 -0.06605582937 0.8409280283 -0.3118145267 -0.4422801737
0.0198711133 0.005321085334 -0.03592236519 0.9733151382 0.2294553874 0.002804795351
0.00296721673 0.02060117073 -0.03877642593 0.07778662876 0.7690555658 0.6344310657
0.01475104221 0.01431088924 -0.03599007924 0.7120588039 0.7020726488 0.008139752675
0.009781785011 0.01810648727 -0.03632089424 -0.4434986508 -0.8961359643 -0.01578861214
0.0172921505 -0.01118865585 -0.03851751518 0.8480860959 -0.5297532455 -0.01055806717
0.01946682835 -0.006720769882 -0.03945594978 0.9309492373 -0.3650858041 -0.006772980958
0.0204336257 0.002506872743 -0.04161405373 0.9909468879 0.1342332094 -0.002389738328
0.02020170879 -0.003917591333 -0.03921024132 0.9787495403 -0.2050096255 0.00451561765
0.02055861044 -0.0005594025254 -0.03897458839 0.9999774364 0.006170822884 -0.002654750146
0.01406359386 0.004684771061 -0.07184153748 0.6942339919 -0.3176799362 -0.6458472131
0.0198728404 0.005321982265 -0.03871208191 0.9721965829 0.2338027644 -0.01304114587
0.01829925041 0.0325072258 -0.05121346588 0.872514775 0.004226441433 0.4885694471
-0.01677217197 0.05577596474 -0.05753106308 0.9754375806 0.09908021574 -0.1967349414
0.01868462372 0.00857411321 -0.03866092618 0.9099199082 0.4141916096 0.0221601272
0.01700290346 0.01157537436 -0.03868204117 0.8348336237 0.5504505905 -0.007547722088
0.01947832489 0.04753710747 -0.0540043993 0.957563385 -0.005447899805 0.2881712757
0.008165914536 0.01890546608 -0.03928221321 -0.4754449337 -0.7440533071 -0.4694004594
0.005664448579 0.01983594322 -0.03975462087 -0.4279395503 -0.7105334933 -0.5585784602
0.01949537595 0.05007906977 -0.05406896845 0.9440982026 0.002747075507 0.3296529044
0.009430728912 0.03221718884 -0.07889982605 0.5258396809 -0.0215587463 -0.8503104436
0.01540081501 -0.004139406204 -0.06364619446 0.7499147883 -0.4851714606 -0.4497070869
0.01478530598 -0.01427112484 -0.04187212372 0.7698521459 -0.6367835877 -0.04282914808
0.01722413158 -0.01122743893 -0.04141035271 0.841723516 -0.5378647257 -0.04693676052
0.003418028831 0.02371042538 -0.04029382896 -0.5565276197 -0.2727765907 -0.7847738146
0.02043955469 0.008690671444 -0.05947201061 0.9937685954 -0.05807111073 -0.0951405531
0.0120030447 0.01729337807 -0.04188805847 -0.6134651453 -0.6854196131 -0.3922505187
0.0009905909002 0.03483118629 -0.04005279732 0.1606537644 0.01808367422 0.9868451493
0.01925430298 0.05297426987 -0.06789476776 0.9381939398 0.003089034672 -0.3460962138
-6.734604637e-07 0.03819204585 -0.04001996613 -0.0962235203 -0.05355662207 -0.993917865
-0.001463698268 0.04063325882 -0.04008603287 0.119096212 0.04453122135 -0.9918835933
0.018642663 0.01691154099 -0.0690031929 0.8922814674 -0.05428551291 -0.4482040451
-0.002575063944 0.04172171402 -0.04017060852 0.119096212 0.04453122135 -0.9918835933
-0.01643408012 0.05587651443 -0.0559866333 0.9364912515 0.1844166729 -0.2982861489
0.02016781235 -0.003936233819 -0.04204728413 0.9739086012 -0.2263161701 -0.01682342644
0.02054672766 -0.0005657941476 -0.04179125309 0.999966511 -0.002151385659 -0.00789610373
0.01989556932 0.005333719969 -0.04150460339 0.9756542876 0.2183541334 0.02049837666
-0.002973055124 0.06060000229 -0.0408864975 0.03497357971 0.9766987516 0.2117460679
0.01589222431 0.04128078334 -0.04750063324 0.7761961129 0.008608756827 0.6304327748
0.01926264668 0.007326972246 -0.04145898628 0.9436025087 0.329072151 0.03641187894
0.01844622278 0.009223087549 -0.04144266701 0.9178662 0.3933314011 0.05302874419
0.01707753897 0.011611835 -0.0414647131 0.861835467 0.4979040716 0.09659794675
0.01799352809 0.04729368046 -0.05070406996 0.8708645898 0.01102737856 0.4913992909
0.01490420294 0.01438356606 -0.0415639108 0.7546588297 0.6305993724 0.181202876
0.01469256544 0.02997871113 -0.0750250206 0.721464558 -0.01694033226 -0.6922441164
0.007083539486 0.02375849247 -0.04128455925 -0.3479008992 -0.1492556253 -0.9255742664
0.02024540091 0.04084299278 -0.05701323509 0.9845043955 0.007310331532 0.1752074608
0.006791521072 0.0266553545 -0.04117243767 0.3390321686 -0.005265016555 0.9407600482
0.005878750324 0.0352374897 -0.04086460876 0.2809860051 -0.006654973414 0.9596887914
0.005536205292 0.03805477524 -0.0407749157 0.2483118372 0.01340005662 0.9685874612
0.01401425076 0.04412475777 -0.04557462406 0.6882191978 -0.0107442588 0.7254232534
0.02029863977 0.005541703224 -0.0484530592 0.9811887271 0.1745683456 0.08242920942
0.0106501894 0.02153575706 -0.07820040894 -0.6041758423 0.02424128206 0.7964822106
0.004393292904 0.04711640167 -0.04051260376 0.3304011676 0.006444227301 0.9438185951
0.003635549545 0.053332901 -0.04034862137 -0.2625878043 -0.00418795043 -0.9648990134
0.01807911437 0.02630330685 -0.05082819094 0.8698285707 0.008871423855 0.4932743206
0.003314225435 0.05608456993 -0.04027924919 -0.1960512694 -0.220973253 -0.9553715095
0.01681210232 0.04092476463 -0.04874362564 0.8187401574 0.01065775288 0.5740652985
0.0139458189 -0.01475463295 -0.04492663383 0.735836549 -0.6704437908 -0.09512989355
0.01689806366 -0.01141334867 -0.04435148239 0.8406432894 -0.5374658006 -0.06670362208
0.009629493713 0.02335055065 -0.04240943909 -0.5292093051 -0.1148602592 -0.8406810526
0.01795968771 0.02033490801 -0.0505551281 0.8816822417 0.02768382724 0.4710308168
0.01471213698 0.03868373299 -0.07493828773 0.7093414432 -0.001885062514 -0.7048625139
0.0184805069 -0.006736860911 -0.05127323023 0.8865355607 -0.4266655712 -0.1789167124
0.00939526844 0.02625548649 -0.04228431511 0.482191656 0.004720463733 0.8760530373
0.01952496624 -0.001116476044 -0.05617614174 0.9415982189 -0.2793869346 -0.1879780174
0.01890778351 0.04102766418 -0.05248045349 0.9156701283 0.02037430999 0.4014138807
0.009167131424 0.0291455164 -0.04216244316 0.4724229105 -0.0007788409002 0.8813716509
0.01933432961 -0.00519185257 -0.05007917404 0.9389757892 -0.3213703027 -0.1226604901
0.008942405224 0.03202001762 -0.04204415703 0.4626761232 0.006572649017 0.8865030205
0.008050029278 0.04191680527 -0.04167659569 0.4218828516 -0.002457499076 0.9066470207
0.008952590227 0.04441399193 -0.04213399506 0.4155644104 0.004289764071 0.9095536371
0.01559622788 0.03543965244 -0.04719146919 0.7610878516 -0.01378838897 0.6485022455
0.008734324217 0.04720218658 -0.0420340395 0.4093755913 0.03017831456 0.9118667088
0.007083296537 0.05304131889 -0.04130607605 -0.3557032335 -0.002916907461 -0.9345944047
0.01960578346 0.05650658798 -0.05444744587 0.9359339719 0.1420544612 0.32225476
0.001826191068 0.06060000229 -0.04236458969 0.08535743347 0.7237619766 0.6847501076
0.01401008701 0.05947021484 -0.04550117493 -0.6434837052 -0.331295444 -0.6900522081
0.01240267817 0.05317410405 -0.04422341665 0.6065529018 -0.003191468641 0.7950367236
0.01994113064 -0.0008922541566 -0.05394895172 0.96514529 -0.2231799185 -0.1366941591
-0.01221388006 0.05935416603 -0.04424660492 0.4205379713 0.5877466062 -0.6911597077
-0.007916366577 0.06060000229 -0.04292383575 -0.006255763256 0.8622716552 -0.5064074032
0.02053508377 -0.0005721320175 -0.04461460209 0.9972293761 -0.07088069988 -0.02257206018
0.01098446846 0.0598980217 -0.04322041893 -0.5337075521 -0.3338632413 -0.776975923
0.01459193897 -0.002970659375 -0.06588466644 0.730988325 -0.4747487955 -0.4901730816
0.01966368599 0.05950690308 -0.05473052597 0.8131760228 0.4761571417 0.3346925939
0.02005282275 0.005414903402 -0.04498316447 0.9706591141 0.2258848451 0.08244344102
-0.002973055124 0.06060000229 -0.0436925621 -0.0133642294 0.993115278 -0.1163762948
0.01189562321 0.044767519 -0.04378957367 0.5917460776 -0.003834797647 0.8061152982
0.01944790316 0.00780562973 -0.04525432491 0.9546976038 0.263588058 0.1381080046
0.0189805088 0.008723054409 -0.04420477486 0.9365792595 0.3284660907 0.1221855877
0.01794553714 0.01127282662 -0.04487488217 0.867390179 0.4444211729 0.2238841183
0.01285909939 0.01799034309 -0.04371257019 0.6907224649 0.4231776961 0.5863643185
0.01872002506 0.05689300919 -0.06908513641 0.8750150349 0.1827028291 -0.4482949531
0.01197626781 0.01986096668 -0.04371648026 0.6862346294 0.27896716 0.6717584068
0.01245732371 0.02582558568 -0.04424939982 0.6294853497 0.002333458276 0.7770088477
-0.01704911232 0.05039938736 -0.06084331512 0.999117503 0.01358115366 0.03974628848
0.01471401691 0.03604779816 -0.07493742879 -0.6933650913 0.001880112177 0.7205840099
-0.01700003052 0.05041480637 -0.0623335228 0.9959875315 0.0009765395649 0.08948677797
0.01131954813 0.02707486248 -0.04339873314 0.5530440967 -0.01716631926 0.8329751165
0.02057302999 0.03531225491 -0.06008138561 0.9996206098 -0.005281447448 0.02703225279
0.02046593857 0.005627674699 -0.05689223289 0.994042914 -0.07101885251 -0.08267410502
0.01111679125 0.02995567417 -0.04327007484 0.5428438325 -0.01034705809 0.839769916
0.01091940928 0.03282137299 -0.04314482689 0.5354589304 -0.01251033098 0.8444686054
0.01204589176 0.04196508789 -0.04390836143 0.5954679538 -0.005920743729 0.8033572436
0.01071453762 0.03566735458 -0.04302484894 0.5119333089 -0.003254114423 0.8590190324
0.01050657654 0.0384961319 -0.04290942001 0.5193472458 0.01459483845 0.8544386631
0.01323505688 0.03448831558 -0.07636509705 -0.6122990787 -0.006439515978 0.7906000068
0.01030420303 0.0413116684 -0.04279719734 0.514343143 0.01239746885 0.8574948595
0.009460986614 0.05382832909 -0.04233088493 0.51133022 -0.01080231067 0.8593164238
0.009288243294 0.05657803154 -0.04223565865 0.5014450248 0.05351105381 0.8635331228
0.01669223785 -0.009896739006 -0.05152595711 0.8300063311 -0.5182898955 -0.2060705574
0.009120703697 0.05931698227 -0.04214342117 0.3616463637 0.4216682559 0.8315093442
-0.008432454109 0.05996262614 -0.0453961525 0.1188276205 0.6856758476 -0.7181424849
0.01646582413 -0.01165979481 -0.04659640884 0.8103589077 -0.5755761015 -0.1096840562
0.01914403725 -0.006901097775 -0.04592949295 0.917877307 -0.3883170653 -0.08192134041
0.01673739878 0.01424220753 -0.04577748108 0.8283288068 0.4041881943 0.3879475369
0.01416164856 0.0203974514 -0.04564477615 0.7420055885 0.08106747147 0.6654740954
-0.004183055401 0.05662389183 -0.07712601471 -0.1608221387 -0.5463620408 -0.8219639652
0.01277441072 0.02917211819 -0.04448684692 0.6295361613 -0.004860461105 0.7769559817
0.01260483885 0.03204190063 -0.04435198021 0.6246324989 0.01209171184 0.7808252249
0.01243970299 0.03489592171 -0.04422076416 0.6059349533 0.02138747906 0.7952266394
0.01223965645 0.03844123332 -0.04406197993 0.6061739233 0.01543041814 0.7951824174
0.01565193272 0.01473794842 -0.07341980743 0.7722175214 -0.1038959616 -0.6268059738
0.01244886756 0.04780478764 -0.04424637508 0.6177177625 0.003035301379 0.7863940188
0.01137541771 0.05376324463 -0.04343607712 -0.5593649739 -0.004808459584 -0.8289075369
0.0111987168 0.05649570592 -0.04333853658 0.5615283516 0.1383317636 0.8158126216
0.01601523209 -0.01191670418 -0.04812682343 0.782387612 -0.6050589891 -0.1475575968
0.01768630219 -0.009335697174 -0.04844878387 0.8708976582 -0.470645435 -0.1415278893
0.01691773701 0.03811894798 -0.04889163971 0.8217591511 0.009502876111 0.5697557309
0.01985035944 -0.004111086667 -0.04778605556 0.9590094762 -0.273557024 -0.07394172884
-0.01428197718 0.05651662636 -0.05119986534 0.7736580666 0.2523402305 -0.5811863763
0.01445106697 0.02396767998 -0.0459516449 0.6970341437 -0.003507662995 0.717029357
0.01416151619 0.02975561619 -0.0456535244 0.6871717783 0.001323550012 0.7264937682
0.01918403244 0.01340042973 -0.06708896637 0.921518259 -0.1015405627 -0.3748247756
0.01402137661 0.03262328625 -0.04551057053 0.6884154415 0.00535351846 0.7252968494
0.01386028719 0.03546455193 -0.04537541008 0.6860590889 0.008948258791 0.7274907939
0.01415474248 0.0413311367 -0.04570165634 0.6833998139 -0.006185729186 0.7300181033
0.01410541916 0.04675067902 -0.04565296682 0.7042126598 0.002936105341 0.7099830344
0.0127391305 0.05630216408 -0.04448387718 0.6401136182 0.1273631516 0.7576497762
0.01181277704 0.05981318283 -0.04479397488 -0.601469267 -0.3341946232 -0.7256367374
0.01813498259 0.03574613953 -0.05089538097 0.8793089347 -0.009660077861 0.476153841
0.01663253975 0.02345034504 -0.04845959473 0.8169812535 0.003944144278 0.5766507393
0.01974717569 0.00834129715 -0.0483324585 0.9650486201 0.2106509846 0.1559080611
0.008415678978 0.02957909584 -0.07938745117 -0.503404762 0.008600249229 0.8640079174
0.01785153484 0.01427098497 -0.04819024277 0.8705824433 0.2898180574 0.3976074735
0.0169801 0.01738258044 -0.04833818309 0.8570268869 0.1813491542 0.4823042602
0.01583214188 0.02010681915 -0.04739285469 0.7835203321 0.05033203023 0.6193242898
0.01789216105 -0.003322935661 -0.05926751709 0.8636264765 -0.3873066563 -0.3227117337
0.01553121281 0.02592461872 -0.04707467461 0.7434873938 0.008953105623 0.6686900157
0.01538483381 0.02880589485 -0.04692208862 0.7366610705 0.00771850199 0.6762180801
0.01520739333 0.03238248444 -0.04673727544 0.723731592 0.0005363298736 0.6900813685
0.01412053728 0.05675273323 -0.04561133385 0.6597582725 0.1477519222 0.7368096032
-0.01307652378 0.05464097977 -0.04964207458 0.8187078914 0.05752522093 -0.5713214836
0.01677204514 0.02053640652 -0.04862709808 0.8366103543 0.03558415984 0.5466414571
0.01650881577 0.02635099888 -0.04829438019 0.781455062 0.003172673456 0.62395346
0.01887239075 0.01425812753 -0.05060898209 0.9060100068 0.2141338173 0.3650925579
-0.01501817608 0.05103740311 -0.06868054199 0.884119643 0.03416529391 0.46600986
0.01681534815 0.02941501236 -0.04874836063 0.8117151346 0.01275505448 0.5839142478
0.01670396948 0.03227735138 -0.04858881664 0.8140653353 -0.007809822649 0.5807207905
0.01604007244 0.03777207947 -0.04767752838 0.7779072274 0.01199373053 0.6282646703
0.01960284376 0.01132701492 -0.05094503403 0.9601995305 0.1833850866 0.2106816831
0.0152308801 0.05642633057 -0.04680575434 0.6898003625 0.1386974974 0.7105902224
0.01101764584 0.06060000229 -0.04723422241 0.6580090198 0.4687098474 0.5893515155
-0.01416397524 0.05952824974 -0.05105007362 0.724950852 0.2451461867 -0.6436999373
0.01239319992 -0.01398184109 -0.05317708588 0.6848451836 -0.6790897639 -0.2642426291
0.019389328 0.01122066545 -0.06582807922 0.9419734568 -0.1190528521 -0.3138668908
0.01668426323 0.04440896734 -0.04856471634 0.8080940961 -0.01450184466 0.5888748835
0.02054878473 0.002567274481 -0.05145741081 0.9994267405 -0.008853297975 -0.03267735341
0.009740039349 0.04968571472 -0.07870866394 -0.5384732732 0.007263499694 0.8426112838
0.01827306519 0.01718813515 -0.05058547668 0.8946583513 0.1277761477 0.4280884144
0.01951238871 0.02620153666 -0.0540605011 0.9586246859 -0.006256170936 0.2846042373
0.01921066284 0.050897789 -0.05317405319 0.9230467511 -0.01027344552 0.384550584
0.01702630043 0.0352967453 -0.04904390717 0.8238531623 -0.004667557269 0.566784069
0.01672994614 0.05094707235 -0.04864785258 0.8277408215 -0.005139074838 0.5610870898
0.02037429619 0.01473232937 -0.0568705794 0.9882730141 0.04082737768 0.1471379451
0.007534866333 0.04389781189 -0.07973648071 -0.4705354922 0.04042984066 0.8814543542
-0.01553218818 0.05614477444 -0.05361404896 0.848958394 0.279226099 -0.4486673945
0.01812868245 -0.006396276315 -0.05370222346 0.8786162961 -0.4190934264 -0.2288975846
0.01896905899 0.03892966461 -0.05260377121 0.9148294564 -0.003478425428 0.4038254155
0.01945490837 -0.003530642033 -0.05280052567 0.9236447911 -0.3394849175 -0.1778490672
0.01806673241 0.01133215904 -0.0689364624 0.880383253 -0.1642092392 -0.4449276948
0.01933053398 0.01347169304 -0.05153027725 0.9495660911 0.1720956954 0.2621207934
0.01833536911 0.02933581924 -0.05127789307 0.894409125 -0.012483358 0.4470754778
0.01900041294 0.05969903564 -0.05270768356 0.8293954547 0.4089573344 0.3806009436
0.01804396868 0.03856405163 -0.05073426247 0.8786986756 -0.01113150378 0.4772470295
0.01813779526 0.04157622452 -0.05094210205 0.8787526376 0.005497656551 0.4772458252
0.008513635635 0.04568986893 -0.0793447876 -0.4880698932 0.02214323935 0.8725236136
-0.002973055124 0.06060000229 -0.08022566223 -0.02731104302 -0.5765411643 -0.8166115311
0.01975240278 0.01443165445 -0.05349381638 0.9587669809 0.1053828822 0.2639324241
0.02056728935 0.03814911842 -0.05987045383 0.9993336406 0.01293207262 0.03413262834
0.01812596321 0.05028387705 -0.05092814064 0.8690625368 -0.0007834632565 0.4947016204
0.01402384949 -0.01140275764 -0.05568865585 0.7253788349 -0.6223982449 -0.2940169564
0.02056399393 0.00567849052 -0.05404217434 0.9998646782 0.009244181451 -0.01360773584
0.02043409729 0.008688230157 -0.05382658863 0.9919019351 0.08998183751 0.0896315798
0.01418311659 -0.0005264593561 -0.06841859182 0.7174330927 -0.3825387071 -0.5821974709
0.02012939978 0.01158726764 -0.05365049648 0.9789486757 0.09549287549 0.1803901355
0.01700890541 0.01081214905 -0.07063768005 0.8218438848 -0.1651012972 -0.545265248
0.01910396194 0.01787992668 -0.05264232254 0.9277437193 0.08026192249 0.3644854113
0.01818446016 0.05671583462 -0.05100841331 0.8644093192 0.2011872019 0.460782203
