# .PCD v0.7 - Point Cloud Data file format
VERSION 0.7
FIELDS x y z normal_x normal_y normal_z
SIZE 4 4 4 4 4 4
TYPE F F F F F F
COUNT 1 1 1 1 1 1
WIDTH 564
HEIGHT 1
VIEWPOINT 0 0 0 1 0 0 0
POINTS 564
DATA ascii
0.0176866312 0.03412744522 -0.07115528107 0.8692703882 0.006329014782 -0.4942964047
0.0205082283 -0.001373221636 -0.01318299007 0.9973794436 -0.0722889127 0.002925504912
0.0147857275 0.01432590103 -0.03668354797 -0.7055555041 -0.7085786847 0.01037680759
0.01932702065 0.01042809486 -0.04894652557 0.9406150292 0.2572862548 0.2214659114
0.02059024048 0.0002442609668 -0.01314817524 0.9999661482 -0.006922337918 0.004447895889
0.02041439819 0.002496665835 -0.01311078453 0.9947264996 0.1025629625 0.0001723663751
0.01101764584 0.06060000229 -0.07471986389 -0.09722645539 -0.7504648612 0.6537197476
0.0172921505 -0.01118865585 -0.03492219543 0.8331242179 -0.5530721316 -0.003905749482
0.006286761761 0.01959850121 -0.02882192612 -0.3225291695 -0.9465580278 -0.001683693768
0.0200186367 0.004623056412 -0.01308439922 0.9747508323 0.2232946782 0.0005491069037
0.0147857275 0.01432590103 -0.03319623756 -0.7056653211 -0.7084324848 -0.01264393713
0.02042880535 0.002504326761 -0.04091321945 0.995663366 0.0928784048 0.005297505774
0.01861244011 -0.008812992096 -0.02472019958 0.8984362995 -0.4390221949 -0.008469242027
0.01946067619 0.006656443834 -0.01306638432 0.9500121668 0.3122121584 0.0006717127477
0.01959247208 0.04827213669 -0.06681239319 0.9538608413 0.008113492913 -0.300139412
0.01371286106 0.01534421158 -0.02281672859 -0.6716462917 -0.7408719026 -0.0002877314422
0.01952617137 0.05829040146 -0.06699763489 0.9533953947 0.02002245331 -0.30105867
0.01922833633 0.03832385445 -0.05327970123 0.9238561857 0.007603191231 0.3826642649
0.01871465492 0.008589401245 -0.01305770874 0.9082545631 0.4184168194 0.001006896999
0.008451433659 0.01903372383 -0.04065946388 -0.4975804673 -0.7889492219 -0.3605174113
0.01773436546 0.01040346956 -0.01306055069 0.8481902797 0.5296907307 0.0009895814427
0.01369925594 0.01533781242 -0.01312233829 -0.6732898991 -0.7393655385 -0.004394561783
0.02059575272 0.05412028885 -0.06077072144 0.9999059801 0.005762800314 -0.01244271055
0.01187429094 0.01677637959 -0.0131657505 -0.591186731 -0.8064669782 -0.01045285615
0.01898874219 0.04433702977 -0.05271179454 0.9167934628 0.004878016819 0.3993318815
0.008146160126 0.01889659119 -0.01326995087 -0.3892832219 -0.9211113947 -0.003517347605
0.02011272812 0.05258742905 -0.06502225494 0.9768088332 0.007755795578 -0.2139727812
0.01546400992 0.03442315165 -0.04704010646 0.7577599621 -0.001227829312 0.6525322462
0.006258015633 0.01958573914 -0.01332980061 -0.3238565508 -0.9460428204 -0.01095063869
0.01709909821 0.02587376976 -0.07203331757 0.8452225775 0.004828403837 -0.5343926281
0.01492522717 -0.0141905365 -0.01508262062 0.7865219041 -0.617561075 0.001270060136
0.01699321175 -0.00972687149 -0.05074368668 0.8364708688 -0.5203847254 -0.1718028617
0.01727368546 -0.01119918442 -0.01492101383 0.8323532605 -0.5542453393 0.0003920430446
0.01861244011 -0.008812992096 -0.01481364822 0.8983800443 -0.4392178281 -0.000997747862
0.01944499397 -0.006732967377 -0.014733675 0.9521859468 -0.3054677052 -0.005603905002
0.004105644226 0.02017273331 -0.03467451096 -0.1876195479 -0.9821967675 0.009402933616
0.01998908234 -0.004829811573 -0.01466948318 0.9777759889 -0.2096504653 0.0008932301643
0.02037614632 -0.00302648735 -0.01461408615 0.9890255282 -0.1476684629 -0.00474654033
0.01783764267 0.04624009132 -0.07079176712 0.8641282995 0.004430055855 -0.5032520805
0.02059024048 0.0002442609668 -0.0152272501 0.9999150332 -0.007776815958 0.010461718
0.01555142975 0.03829638672 -0.07407252502 0.7538307701 0.002454466188 -0.6570640346
0.02041583204 0.00249742651 -0.01518386722 0.9946518105 0.1024987608 0.01271927276
0.02001908016 0.004623286724 -0.01515336418 0.974752006 0.2232230263 0.005477904618
0.02000869179 0.0586736393 -0.06529150009 0.9734218468 0.0398068791 -0.2255334132
0.01871653748 0.008590348244 -0.01512237597 0.9083272513 0.4182596075 0.0007108659593
-0.01583700434 0.05430180868 -0.06689287567 0.9209525652 -0.002866198977 0.3896641599
0.0177366004 0.01040457511 -0.01512564754 0.8481552046 0.5297473694 0.0006881227019
0.006319272041 0.01961293602 -0.04016541672 0.3587999775 0.8252637053 0.4361219931
0.01616522717 0.01269728708 -0.01514506173 0.7872090613 0.6166081742 0.009810877822
0.01221375275 0.04417200851 -0.07716178131 -0.6408107407 0.007080858697 0.76766624
0.006210646152 0.03240265846 -0.04095952415 0.3669682652 0.00152860181 0.9302322053
0.02057887554 0.0002381693423 -0.04314539528 0.9996854967 -0.02457285483 0.005008240157
0.01493741798 -0.01418351555 -0.02516797066 0.7861106369 -0.6180858084 -2.455947758e-15
0.0147857275 0.01432590103 -0.01517093563 0.7091264086 0.7050074232 0.01021126235
0.01815376282 0.0463563385 -0.05092651367 0.8768756688 0.004510668192 0.4806960738
0.01370216846 0.0153391819 -0.01519717073 -0.6703720852 -0.7419609519 -0.009757724464
0.0191951685 0.0304283514 -0.05312932205 0.9298187517 -0.007610480066 0.367939084
0.01209985733 0.01662635295 -0.01500910854 -0.5915218721 -0.8062888651 -0.000375350213
0.0172777853 -0.01119684696 -0.01705607414 0.8335023833 -0.5521991363 0.01870537305
0.02028701337 0.02238904317 -0.05721373622 0.9896757269 0.001557680853 0.1433161859
0.009781785011 0.01810648727 -0.01461522961 -0.4678661148 -0.8837437559 0.009913246015
0.006436731339 0.03025850868 -0.04103627014 0.376595886 -0.002117825589 0.9263752228
0.008148338318 0.01889756966 -0.01466854191 -0.3865520896 -0.9222671009 -0.0009363125247
0.001423918962 0.0205467205 -0.01492006111 -0.04981370205 -0.9987585269 4.575221133e-06
0.02042253828 0.002500983298 -0.02487782478 0.9947749764 0.1020910439 0.0004063787475
-0.00252111721 0.02040145874 -0.01508879662 0.03674954947 -0.9993234145 -0.00147781305
0.01760019398 0.001799333453 -0.06488760376 0.8541956745 -0.3116217881 -0.4162230301
0.01818280983 0.02414266014 -0.05095742035 0.8768546487 0.008977022765 0.4806717571
0.01008050632 0.01824224472 -0.04121876144 -0.5122013521 -0.7112360988 -0.4814488412
0.01999248409 -0.004827930689 -0.01676859283 0.9753317244 -0.2207331307 -0.00221637797
0.006276287556 0.01959385109 -0.02317711639 -0.3227501074 -0.9464378607 -0.009367173213
0.006863590717 0.02593278885 -0.04120010376 0.3287018857 -0.002646318646 0.9444300225
0.01625353098 0.01653922176 -0.04686212921 0.7992814613 0.2938137112 0.5242352991
0.01764833355 0.04266037178 -0.07112836456 0.8537714461 -0.003268157884 -0.5206377214
0.02037614632 -0.00302648735 -0.0167054739 0.9897998537 -0.1420527955 -0.0108283357
0.01884738922 0.06032654572 -0.06880929565 0.5916477352 0.7424848591 -0.3141165252
0.01165332572 0.01692853928 -0.01687451458 -0.5756104592 -0.8177237237 -0.0007148187683
0.02032573509 -0.003054074764 -0.0426806488 0.9881049391 -0.1517600357 -0.02484996856
0.01786669668 0.01021348254 -0.03703465271 0.8664529643 0.4992413575 0.004162637166
0.00815160656 0.01889903831 -0.01676753235 -0.3871810074 -0.9220032896 -0.0008952672829
0.01617866278 0.01270377588 -0.03871244335 0.788502654 0.6148094897 0.01651835626
0.006264534473 0.01958863354 -0.01684309673 -0.3232997776 -0.9462765632 0.006157895868
0.001423918962 0.0205467205 -0.01705523682 -0.05222583619 -0.9984174643 -0.02085734684
-0.002514972448 0.02040409088 -0.01652779961 0.03594903419 -0.9993525274 -0.001480851442
0.01493566179 -0.01418452692 -0.01868009472 0.7866659973 -0.6173781158 0.000933154293
0.02057543278 0.01633085632 -0.06091119576 0.9994328324 -0.00683275762 -0.0329746402
0.02059024048 0.0002442609668 -0.01730748749 0.999973509 -0.003682740889 0.00627842996
0.02000611591 -0.004820393324 -0.02518047333 0.9793995363 -0.2018166064 0.006826837977
0.02041726685 0.002498187542 -0.01725809002 0.9946404131 0.1023778123 0.01446486315
0.01819347572 -0.005822677612 -0.05460981369 0.887677733 -0.4067139569 -0.215898123
0.01872929192 -0.007132796288 -0.04886988068 0.9032984596 -0.4094019126 -0.1282262328
0.0200118103 -0.004817244053 -0.02869462395 0.9796723748 -0.2006011456 -0.001103807822
0.02001952362 0.004623517036 -0.01722348022 0.9741082753 0.2260348418 0.004617177418
0.01673468399 0.04301916122 -0.04863524246 0.8140778859 -0.009638020603 0.5806757307
0.01946347809 0.006657870293 -0.01719964981 0.9499809487 0.3122058363 0.007982037584
0.01824335734 0.05832448832 -0.05113469569 0.8320250822 0.2426591161 0.4988494923
-0.002434780121 0.02043844414 -0.03530711365 0.02821932323 -0.9996002964 -0.001707995699
0.001826191068 0.06060000229 -0.04098199081 0.9051245691 0.4150643795 -0.09203844471
0.01871684647 0.008590503693 -0.01718826675 0.9075767242 0.4198800301 0.002291304658
0.01946859169 0.006660470963 -0.03519721413 0.9485706626 0.3165039083 0.006242924278
0.01773799419 0.01040526724 -0.01719192028 0.8482292294 0.5296272887 0.001452373841
-0.01689136314 0.05196603203 -0.06297693062 0.9902689434 0.02140088198 0.1375115339
-0.01490489006 0.0600589447 -0.06886528015 0.7401373062 0.2282002442 0.6325515129
0.008154877663 0.01890050697 -0.01886776161 -0.3882191309 -0.9215666715 -0.0008811274584
-0.01595121574 0.0507442894 -0.06662622833 0.9419988775 0.02757550706 0.3344812494
0.01946859169 0.006660470963 -0.02894742584 0.9492929121 0.3143927884 0.000376419662
0.01773925447 0.01040589428 -0.01925982189 0.8635602953 0.5039889964 0.01608440081
0.01616650295 0.01269790316 -0.01721399403 0.7803706741 0.6253140554 0.001985728189
0.0192168115 0.01843111483 -0.05304945501 0.9425374106 0.03858862976 0.3318646519
0.01946811867 -0.006720048904 -0.03519260788 0.9512795408 -0.3081246572 0.01124415021
0.0147857275 0.01432590103 -0.01724347878 0.7319149169 0.6813889101 0.003115702562
0.01640287876 0.03215202427 -0.07302208328 0.8149690505 -0.0009140612817 -0.5795037629
0.01804745865 0.04069413757 -0.0705094986 0.8874647081 -0.004656857513 -0.4608521515
0.01639482689 0.05267870712 -0.04816059494 0.8144208347 -0.005242843786 0.5802509945
-0.01465423203 0.05115173721 -0.06935273743 0.8573733821 0.02855586286 0.5139021758
0.01372461796 0.01534974194 -0.03325104141 -0.6723738807 -0.7401097901 -0.01228263236
0.01370508099 0.01534055233 -0.01727312469 -0.6821530831 -0.7311699033 -0.00759892338
0.01268906641 0.03060900879 -0.04441895485 0.6334078044 -0.0119120885 0.7737264733
-0.00250575006 0.02040804195 -0.01868747425 -0.03505305089 0.9993840434 0.001678517395
-0.01407778931 0.05881110382 -0.07026225281 0.8460448702 0.009654940734 0.5330242581
0.01728188705 -0.01119450855 -0.01919238281 0.8338692278 -0.5516949444 0.01716971558
0.02054732037 0.03814112663 -0.05919209671 0.9986484266 0.00843188438 0.05128570384
0.0008108486533 0.03551107025 -0.04004321671 -0.05486078964 1.514601547e-05 -0.9984940128
-0.01658707428 0.05957849121 -0.06474485016 0.9079636457 0.3859456189 0.1632421436
0.00629463768 0.01960199738 -0.03306669235 -0.3229177404 -0.9464237724 -0.00248513235
0.01861244011 -0.008812992096 -0.01905483437 0.8984878369 -0.4389936759 0.002039478799
0.01945218849 -0.006728948116 -0.01895147896 0.9518639136 -0.3065200035 0.0007598474394
0.01858692932 -0.008827389717 -0.04110884094 0.8956031334 -0.4445336341 -0.01687825961
0.01999588776 -0.004826048374 -0.01886893654 0.9765572917 -0.2152559499 0.0008555538808
0.01807288742 0.008266765594 -0.06779188538 0.8811002826 -0.1857872762 -0.4349084732
0.02037614632 -0.00302648735 -0.01879813766 0.9900194208 -0.1409168696 -0.001995549218
0.01730410004 0.0124859581 -0.04488111115 0.8527549793 0.4274611112 0.3001432051
0.02051312637 -0.001370569348 -0.01874434853 0.9982185323 -0.05953367053 -0.003937486596
0.01940833473 0.002748227835 -0.06087864685 0.9443294074 -0.2206132204 -0.2440733033
0.001423918962 0.0205467205 -0.0227565136 -0.05218650264 -0.9983915353 0.02215651421
0.01974615192 0.01215845108 -0.06496313095 0.9617392557 -0.096915225 -0.2562519137
-0.01615083742 0.05671155739 -0.05516157532 0.9534038817 0.006804969408 -0.3016201762
0.01812869835 0.02632551956 -0.07035649109 0.873585904 0.02023021538 -0.4862493257
0.02001982117 0.004623670578 -0.01860441208 0.974655746 0.2236609592 -0.004685312345
0.00396643436 0.05057435799 -0.0404201622 0.2754726903 0.006410589107 0.9612875227
0.01431633186 -0.01288534927 -0.0513506012 0.7040495469 -0.6649370933 -0.2493449366
0.01938518333 0.006875136375 -0.01903676605 0.937778787 0.3472317028 0.00104465504
0.01239319992 -0.01398184109 -0.05317708588 0.6630197178 -0.6935625259 -0.2817372473
0.004097754955 0.02016927242 -0.02117927742 -0.1916812746 -0.9813960897 -0.01095464134
-0.016505723 0.05435009384 -0.06501956177 0.964832477 0.002087257015 0.2628572514
0.01871684647 0.008590503693 -0.01925581551 0.908346426 0.4181445108 0.00787010254
0.001170333147 0.03415130234 -0.04006237793 0.3381415452 0.1021304891 -0.9355370963
0.01616735411 0.01269831419 -0.01859413052 0.7796970237 0.6261179312 -0.006991955739
0.01334641075 0.02047975159 -0.04490816307 0.6857323729 0.1036105576 0.7204415071
0.0204989357 0.04444080734 -0.05875176239 0.9927395504 2.133235223e-06 0.1202837689
0.007232368469 0.02230504799 -0.04134171867 0.3822709203 0.1769067947 0.9069580638
0.0147857275 0.01432590103 -0.01862603569 -0.7045154698 -0.7096193235 0.009918095156
-0.01704799271 0.05191757584 -0.06076039505 0.9997970713 0.01445677787 -0.01402917954
-0.01390268135 0.05438934326 -0.07049703217 0.7900285134 -0.005422863878 0.6130461162
0.01370702457 0.0153414669 -0.01865793228 -0.6797911815 -0.7333966962 0.003638069496
0.0203958416 0.0485635891 -0.06322242165 0.9874084874 0.001295628514 -0.1581859678
0.01423181725 -0.01458991051 -0.04414819336 -0.4990932847 0.8665482636 -2.491287431e-07
0.0205674324 0.0222711606 -0.06111456299 0.9995573315 0.01019824611 -0.02794882506
0.01912151337 0.007255247593 -0.06481775665 0.9286869996 -0.1826496723 -0.3227685765
0.004096513748 0.02016872787 -0.01905615807 -0.1918939944 -0.9814140101 -0.001798804379
0.001423918962 0.0205467205 -0.01919171524 -0.05284652368 -0.9984239883 -0.01888874065
0.01871684647 0.008590503693 -0.02892879581 0.9085838873 0.4177024145 0.0001126798563
0.01493741798 -0.01418351555 -0.02084073067 0.7865936521 -0.6174709677 0.000175048434
0.0205280962 0.01630830622 -0.05881831741 0.9963570531 0.006477106127 0.08503334601
0.01317233753 0.02265552902 -0.04480376053 0.6651456455 0.003601875561 0.7467049596
0.0172846241 -0.01119294739 -0.02061751175 0.8327604733 -0.5533521611 -0.01764596098
0.01861244011 -0.008812992096 -0.02117789555 0.8985831373 -0.4386535275 0.01146420955
0.01945579052 -0.00672693634 -0.02106275082 0.9517552604 -0.3067295766 0.008882072913
0.01106906843 0.05853926849 -0.04326703453 -0.572600399 -0.08667396073 -0.815240092
0.02059024048 0.0002442609668 -0.02912944889 0.9998981738 -0.009045500865 0.0110372527
0.01999929523 -0.004824165106 -0.02097102642 0.9766803413 -0.2146969895 0.0008447567989
0.001826191068 0.06060000229 -0.04305629349 -0.6059849423 -0.7076456551 -0.3633453956
0.02051930237 0.02445471954 -0.05886160278 0.9967181383 0.00350466808 0.08087440953
0.01390630722 0.03908871841 -0.07579320526 -0.6597919998 0.002622144507 0.7514437047
0.02051496601 -0.001369573295 -0.02083267593 0.9982383166 -0.05915051872 -0.004634590002
0.01011894798 0.03470062256 -0.07850605011 -0.5583940571 0.01798833602 0.8293807912
0.02041966105 0.0024994573 -0.02071868086 0.9947316075 0.1021677379 -0.008413220156
0.02002026463 0.004623901367 -0.02067725468 0.974646313 0.223720928 -0.003675726279
0.01954542859 0.006442465464 -0.02088036346 0.9499819089 0.312303021 0.00109356649
0.01950554371 0.01051686954 -0.06515940475 0.9438139973 -0.1208330527 -0.3075947201
0.0147857275 0.01432590103 -0.02070131874 -0.704974654 -0.7091732248 0.009169215556
0.0115445528 0.02493471146 -0.0776607666 -0.6134740275 0.01499459171 0.7895725298
0.01493741798 -0.01418351555 -0.03893556976 0.7811280801 -0.6242662968 -0.0114242324
0.01370994186 0.01534283829 -0.02073655605 -0.6712625044 -0.7411683028 0.008729100173
0.01871157455 0.008587853432 -0.04075014114 0.9114225521 0.4109007186 0.02166866481
0.01188036251 0.01677919531 -0.02080549669 -0.5906682905 -0.8068798335 0.007476954977
0.0199477609 0.01628123887 -0.05495404053 0.97007377 0.07633014935 0.2305007353
0.01957081795 0.03846007729 -0.06690777206 0.9502114598 0.0004745711392 -0.3116054498
0.006272366762 0.01959211063 -0.02106415367 -0.322535303 -0.9465204011 -0.008373092568
0.01861244011 -0.008812992096 -0.02330257607 0.8986113102 -0.4385759552 0.01220019476
0.001423918962 0.0205467205 -0.02061699295 -0.05096065012 -0.9984849884 0.02075427983
0.01106677723 0.03067396736 -0.04323833847 0.5572595066 -0.009331559941 0.8302859533
-0.002496522188 0.02041199493 -0.02084846115 0.0344436837 -0.9994052263 -0.001681177458
0.01493741798 -0.01418351555 -0.02300346947 0.7863512082 -0.6177797159 1.063038546e-14
0.02054079628 0.04025572205 -0.05903988647 0.9964441201 -0.001027230213 0.08424998751
-0.00244407022 0.02043446541 -0.03313156319 -0.02916893958 0.9995730434 0.001704087936
0.01728873253 -0.01119060564 -0.02275675201 0.8330907152 -0.5528039519 -0.01917422819
0.01542153168 0.06060000229 -0.05125594521 -0.5711658041 -0.8153975261 -0.09432125255
0.01623792267 0.02990038681 -0.07326514435 0.7925196661 0.002558378548 -0.6098409904
0.001423918962 0.0205467205 -0.02489777565 0.05235750931 0.9986197135 -0.00416642217
0.02037614632 -0.00302648735 -0.02858858299 0.989463565 -0.1447262457 -0.004020857105
0.01871684647 0.008590503693 -0.02132483673 0.9083122621 0.4181927444 0.009146754024
-0.00248728621 0.02041595173 -0.02301129341 0.03352541188 -0.999436445 -0.001684978428
0.01945939445 -0.006724922657 -0.02317558479 0.9517674361 -0.3066611937 0.009882297352
0.02000270271 -0.00482227993 -0.02307467461 0.9789985257 -0.2037516945 -0.006865392639
0.02037614632 -0.00302648735 -0.02298865509 0.9901494046 -0.1400145246 0.000299072021
0.01961341286 -0.0002792907655 -0.05680907059 0.9562837791 -0.2313491704 -0.17888235
0.02051680565 -0.001368576527 -0.02292257309 0.9983238969 -0.05787394096 -6.179741319e-05
0.02059024048 0.0002442609668 -0.02286273956 0.999965935 -0.008250591787 0.0002377193823
0.02042109871 0.002500219941 -0.02279717445 0.9947426374 0.1024058825 0.0003472858596
0.01593115044 0.01334764099 -0.04220045853 0.7953083503 0.5770505012 0.1857346142
0.01472225475 -0.0143074398 -0.04261107254 0.7594457906 -0.6465148366 -0.07253038837
-0.01510647106 0.05851243591 -0.0527029953 0.7025834905 0.5061643437 -0.5001740657
0.02002188301 0.004624742031 -0.02275157738 0.9752581761 0.2210620624 -0.001747707538
0.01550370026 0.05834766261 -0.04711694463 0.7623909258 0.09555196609 0.6400233574
0.0194669466 0.006659634829 -0.02272000885 0.949907093 0.3124701119 -0.006240500946
0.01774135685 0.01040693951 -0.0227098093 0.84822243 0.5295905656 -0.007248597264
0.01777210426 0.0202490406 -0.07099999237 0.8658011435 -0.02690698038 -0.4996642816
0.01616991043 0.01269954777 -0.02273896503 0.7872669752 0.6166095256 -0.001844643075
0.01926086044 0.02043819809 -0.05336079915 0.9426600268 -0.003048887501 0.3337405851
0.0147857275 0.01432590103 -0.0227781868 -0.7047680334 -0.7094376937 -0.0004218803936
0.0118809166 0.01677945137 -0.02289277267 -0.5896738479 -0.8076414042 -0.0003396397219
0.01979922104 0.004509127617 -0.06065552139 0.9656357441 -0.1633747854 -0.2021293873
0.009781785011 0.01810648727 -0.02299045372 -0.4695208243 -0.8829213568 -0.0002706381146
0.008161426544 0.01890345001 -0.02307328033 -0.3896634467 -0.9209556784 -0.001742612118
-0.01187676716 0.05797273254 -0.07283329773 0.718799985 0.1438149862 0.6801792641
0.01946811867 -0.006720048904 -0.03306554413 0.9512098311 -0.3085360673 0.002313536493
0.004098997116 0.02016981697 -0.02330399895 -0.1912536477 -0.981471035 -0.01168972872
0.0172921505 -0.01118865585 -0.02489773941 0.8330511786 -0.5531843027 -0.003586237936
0.02051864815 -0.001367578745 -0.02501463223 0.9974202313 -0.0703847045 0.01410232343
0.02059024048 0.0002442609668 -0.02494950294 0.9999647269 -0.008396150246 0.0002226432462
-0.01248306704 0.06001362801 -0.0728359108 0.7973985632 0.3302990683 0.5050327285
0.02002445412 0.004626076698 -0.02482796478 0.974696332 0.2235317065 0.0007978076235
0.01946812963 0.00666023612 -0.02479364061 0.9495561373 0.3135280814 -0.006579083465
0.01861244011 -0.008812992096 -0.03895764923 0.8980421013 -0.4398907383 -0.004064803626
0.01067459583 0.05352957153 -0.07816495514 -0.5860160018 0.02397888958 0.8099446021
0.01774262047 0.01040756774 -0.02478250265 0.8485529639 0.529066738 -0.006801045403
0.01168442154 0.05804191971 -0.07756027222 0.5555174182 0.345731366 -0.7562210131
0.0147646122 0.0173557148 -0.07479590607 0.7073650622 -0.06455140281 -0.7038947259
0.02044543266 0.007928073406 -0.0531795845 0.9950710969 0.07373615851 0.06630604101
-0.0009929410219 0.05975475693 -0.07761875153 0.03188805859 0.8781659647 0.4772920387
0.01617118979 0.01270016575 -0.02481431866 0.7872878475 0.6165856109 0.000172181821
0.01357634735 0.04039596939 -0.04514958191 0.6529417349 -0.0001215968205 0.7574081304
0.01493741798 -0.01418351555 -0.03530122757 0.7861106369 -0.6180858084 2.141393397e-14
0.02013055992 0.04638897228 -0.06479693031 0.978871552 -0.0046933685 -0.2044222515
0.0147857275 0.01432590103 -0.024857234 -0.704846085 -0.7093601629 -0.0003945943581
0.02021326256 0.01010605001 -0.05304860878 0.9795203779 0.1148902953 0.1653482669
0.01566439104 0.01245532608 -0.0729223938 0.760778845 -0.153068066 -0.6307025576
0.01188127303 0.01677961493 -0.02498224688 -0.5893921616 -0.8078470069 -0.0003053931323
-0.0167497139 0.05803533936 -0.05741627502 0.9752915796 0.16500315 -0.1469023324
0.01914282608 0.03257219696 -0.05299250412 0.9290482154 -0.005686930261 0.3699149527
0.01702647781 0.05838355255 -0.07209449005 0.7824731908 0.2268281362 -0.579900597
0.001423918962 0.0205467205 -0.03276941299 -0.05521325614 -0.9982491054 0.02121838487
0.008164705753 0.01890492344 -0.02517897701 0.3939449759 0.9191241311 0.004264680418
0.006278903484 0.01959501266 -0.02458688927 -0.322321311 -0.946589225 0.008821084036
0.01381874943 0.03617220688 -0.04534237289 0.6616745857 0.01343720178 0.7496707172
0.004099825859 0.02017018127 -0.02472164154 -0.1904439024 -0.9816643022 0.008143578864
0.01946859169 0.006660470963 -0.0268692255 0.9495098325 0.3137369921 0.0004216542178
0.0172921505 -0.01118865585 -0.02704138279 0.8336759911 -0.5519498704 0.01832163976
0.01861244011 -0.008812992096 -0.02684855747 0.8985364272 -0.438826262 -0.007987535005
0.01365982056 -0.01491935539 -0.04570507431 -0.4990934718 0.8665481558 -1.171731621e-07
-0.01301052666 0.06060000229 -0.04937665558 0.7814946992 0.3685187522 -0.5034480751
-0.01662539291 0.05431386948 -0.05683713341 0.9794476657 0.01283140078 -0.2012899037
0.01627389383 0.01427412796 -0.04490276909 0.7912278851 0.4847944549 0.3727368648
-0.002471876383 0.02042255211 -0.0266199379 0.03167317088 -0.9994968455 -0.00169297781
0.02059024048 0.0002442609668 -0.0270381794 0.9999616156 -0.008554259939 0.001895236413
0.02002702713 0.004627412319 -0.02690622139 0.974646277 0.2237502195 0.0006885360315
0.01372461796 0.01534974194 -0.03674411011 -0.6831161608 -0.7302881817 0.005610930521
0.008375092506 0.03840563583 -0.0418013649 0.3907046973 0.004257221296 0.9205062279
0.01871684647 0.008590503693 -0.02685193253 0.9084583718 0.4179753111 0.0001609587062
0.01170635796 0.01847472318 -0.04288982264 0.6114370954 0.3609371035 0.7041797254
0.01774388504 0.01040819645 -0.02685707855 0.8488802408 0.5285851144 0.0003370300512
0.02002143383 -0.004811923027 -0.04070035362 0.9792389772 -0.2024149477 -0.01091853943
0.02003907394 0.004633667469 -0.03663844681 0.974243734 0.2254073741 -0.00637671671
-0.01681719208 0.05801575089 -0.06337952042 0.958424113 0.1840077886 0.2180925338
0.01188425541 0.01678098583 -0.03126360798 -0.5896786947 -0.8075555967 -0.01153236061
0.01788621902 0.05456435013 -0.07081317902 0.8630008249 -0.0003639282752 -0.505202379
0.0204455595 0.03454729462 -0.06291160393 0.9904385595 -0.006229891007 -0.1378138179
0.01980449867 0.0226614418 -0.05496140289 0.9615891877 -0.00385874526 0.2744655609
0.01617247105 0.01270078421 -0.02689155865 0.7872627912 0.6166176076 0.0001538264869
0.0147857275 0.01432590103 -0.02693818474 -0.7049240265 -0.7092827223 -0.0003697926618
0.01371227932 0.05035980415 -0.04530199242 0.6667704614 0.01051957266 0.7451888958
-0.01666092396 0.05203732109 -0.05695719528 0.9798400903 0.02435691344 -0.1982930613
0.01371870804 0.01534696198 -0.02698321533 -0.6716504429 -0.7408681381 -0.0002906768559
0.009781785011 0.01810648727 -0.02718921852 -0.4702884438 -0.8824328356 -0.01187730284
0.008165914536 0.01890546608 -0.02728675461 0.3946694673 0.9188131559 0.004289066803
0.02056479359 0.01407208395 -0.05899641037 0.9999709812 0.006969383793 0.003076444349
0.01868633461 0.02803116608 -0.05199795151 0.909915732 0.01160292017 0.4146308393
-0.002462617636 0.02042651844 -0.02878814507 -0.03073891239 0.9995260071 0.00169716066
0.0172921505 -0.01118865585 -0.02918709946 0.8337855403 -0.5518356527 0.01670584364
0.01861244011 -0.008812992096 -0.02897897339 0.8983113344 -0.4393573757 0.001357531355
0.0001051153913 0.03823140335 -0.04000560379 0.1192433671 0.04462726997 -0.9918615963
0.007674377918 0.04610799789 -0.04153251457 0.35849658 0.006903288642 0.9335055151
0.01946811867 -0.006720048904 -0.02882015228 0.9514151909 -0.3079085826 0.001199745718
0.009549325466 0.05244933128 -0.04237962723 0.4459910016 -0.001109087332 0.895036757
0.01691773701 0.03811894798 -0.04889163971 0.8215018237 0.01369873185 0.5700413129
0.02052160931 -0.001365974724 -0.02920518017 0.9968609605 -0.0782195489 0.01224448997
0.01617727423 0.01270310402 -0.03522587204 0.7816644816 0.6236977641 0.001318039492
0.020029603 0.004628749847 -0.02898701572 0.9745739187 0.2240653146 0.0006416840084
0.01774515057 0.01040882611 -0.02893420935 0.8490261789 0.5283506797 0.0003267742052
0.01493818951 0.0322728157 -0.07475595093 0.7173163837 0.01053481658 -0.6966679434
0.02035651064 0.01622609878 -0.06306960964 0.9871884678 -0.02318775007 -0.1578646806
0.01188286591 0.01678034687 -0.02916751528 -0.5894682345 -0.8076983049 -0.01227390431
0.009781785011 0.01810648727 -0.02859082031 -0.4695036418 -0.8828481981 0.01205775164
0.01170037556 0.04824709702 -0.0436478157 0.5895527773 0.007568353121 0.8076943994
0.004102315426 0.02017127228 -0.02898041916 -0.1896315894 -0.9818537687 -0.00174273896
0.01774768686 0.01041008735 -0.03309584236 0.8488979614 0.5285020243 0.007606670049
0.001423918962 0.0205467205 -0.02918714333 -0.054761562 -0.9983357373 -0.01808112106
0.02052582741 -0.001363690972 -0.03691488647 0.9969607841 -0.07786180217 0.002595133951
0.01899629211 -0.002192089319 -0.05706811142 0.9193023646 -0.3119167773 -0.2399814296
0.01493741798 -0.01418351555 -0.03095137978 0.7861106369 -0.6180858084 -3.604938263e-14
0.008178799629 0.04051429558 -0.04172601318 0.3814026111 -0.009763961874 0.9243574597
0.01861244011 -0.008812992096 -0.03111217117 0.8982223081 -0.4394173001 0.01044613091
0.01946811867 -0.006720048904 -0.03094165802 0.9513342323 -0.3081608793 0.0002256364607
0.02035613823 -0.003037436724 -0.04126095581 0.9890801712 -0.1470943886 -0.009146356242
0.01579920769 -0.0007310249805 -0.06618151855 0.763060703 -0.4122869001 -0.4977528257
0.02001523304 -0.004815351725 -0.03080651093 0.9808333584 -0.1946658817 -0.008433128842
0.01235877991 0.03631716919 -0.04415650749 -0.5956925268 -0.0003534155246 -0.8032124804
0.02037614632 -0.00302648735 -0.03069304371 0.9902133044 -0.1391720345 -0.01042864383
0.009781785011 0.01810648727 -0.03069544601 -0.469860106 -0.8826519273 0.01253220116
0.004103562593 0.02017182064 -0.03111359119 -0.1891938552 -0.9818814888 -0.01069705891
0.01660119629 0.02417785835 -0.04841773987 0.8147010648 -0.005328008149 0.5798566955
0.01402384949 -0.01140275764 -0.05568865585 0.6979134866 -0.6518280588 -0.2967102069
-0.002453350067 0.02043048859 -0.03095844269 0.03011281984 -0.9995450602 -0.0017002365
0.02013791847 -0.00157378304 -0.0511214447 0.9714343305 -0.213907891 -0.1027558059
0.01493741798 -0.01418351555 -0.03312503052 0.7861106369 -0.6180858084 -2.176037128e-14
0.01374788713 0.02440338516 -0.04532252121 0.664883945 0.004205544538 0.7469348386
0.02052275848 -0.001365352988 -0.03130400085 0.9974563672 -0.07114544808 0.00437272825
0.02042686558 0.002503278255 -0.03113277245 0.9948997257 0.1008663734 -0.0007144475078
0.02003218079 0.004630088806 -0.0310700016 0.9744927788 0.2244179616 0.0006345482837
0.009288243294 0.05657803154 -0.04223565865 0.4354227295 -0.01083411355 0.9001609126
0.02013043594 0.02865728378 -0.06483950806 0.9724866661 -0.0116490557 -0.2326671092
0.02058252907 0.05638098145 -0.06107104747 0.9987915315 0.03043185083 -0.03859247451
0.01762953631 0.01060711988 -0.03889780935 0.8502837906 0.5260730672 0.01626663645
0.0147857275 0.01432590103 -0.03110748291 -0.7051584531 -0.7090497512 -7.988196244e-05
0.02013988686 0.06006622028 -0.06114327812 0.9835603205 0.1798053264 -0.01670750227
0.01372456741 0.01534971809 -0.0311588459 -0.6718463539 -0.740686787 -0.002358029071
-0.01591975021 0.05452711487 -0.05448844337 0.9353349067 0.003343095622 -0.3537477011
0.01861244011 -0.008812992096 -0.03324776077 0.8983916436 -0.4390922141 0.00951221493
0.02057143847 0.002319584211 -0.04888055801 0.9999469838 0.01029697851 -4.292818621e-05
0.02001865959 -0.004813457489 -0.03292071915 0.9807507056 -0.1952566273 -0.001703806612
0.02037614632 -0.00302648735 -0.03913873863 0.9896936019 -0.1431980209 0.0009492765875
0.02052352333 -0.00136493814 -0.03270479202 0.9973560346 -0.07258001133 -0.003616942145
0.01871684647 0.008590503693 -0.03726256561 0.9084595666 0.417890303 0.008301229057
0.02042831135 0.002504045129 -0.03322305107 0.9948307531 0.1008058463 0.01224557418
0.01869424248 0.04863971138 -0.05205125046 0.9145501271 -0.01078015661 0.4043288924
0.02003476238 0.004631429195 -0.03315592957 0.9744325121 0.2245947754 0.006202121224
0.01871684647 0.008590503693 -0.03308994675 0.9088385243 0.4171480985 2.429262068e-05
0.01414994192 0.05814011383 -0.07555639648 -0.660299746 -0.09938104168 0.7443975107
0.01372461796 0.01534974194 -0.03534580231 -0.6837654768 -0.7296286859 -0.01033215429
0.009781785011 0.01810648727 -0.0328024292 -0.4705724773 -0.8823579481 0.002448499377
-0.01826274872 0.06060000229 -0.05309838867 -0.5164890722 -0.8493224709 0.1090430134
0.02052395058 -0.001364707351 -0.04113835144 0.99726117 -0.07373884835 -0.005721988003
0.01895036507 -0.007009293079 -0.04739539719 0.9183807123 -0.3820144389 -0.1031592732
0.008165914536 0.01890546608 -0.03292010117 -0.3933116372 -0.9194051112 -0.0004444561971
0.01861244011 -0.008812992096 -0.034673172 0.8979036315 -0.4400756475 -0.01012388627
0.01877158642 0.05826967049 -0.06897351074 0.9129656475 0.008794547423 -0.407941641
-0.01583945799 0.05829962349 -0.06691158295 0.8842714 0.3224406168 0.337781201
0.0118865757 0.01678205299 -0.03476354885 -0.5883330717 -0.8085353168 0.01161198124
-0.01413391399 0.0602791481 -0.05101311493 0.9018600899 0.04671916398 -0.4294947007
0.02037614632 -0.00302648735 -0.03490983772 0.9903715447 -0.1384031343 -0.002962399015
0.02059024048 0.0002442609668 -0.03471862411 0.9999667704 -0.005350375834 -0.006150734352
0.009781785011 0.01810648727 -0.03491257095 -0.4706347509 -0.8823281189 0.000148063239
0.01811556435 0.02631975746 -0.05082195282 0.8759550558 0.003862390073 0.4823772613
0.00422061348 0.04850103378 -0.04047518539 0.2855881024 0.006347811584 0.9583314359
0.01384806395 0.01616991067 -0.04299184513 0.7026070862 0.583296917 0.4075634784
0.01988859177 0.006103770256 -0.0449585762 0.9747720135 0.2092736277 0.07761488487
0.01920971012 0.06044210625 -0.05329498863 0.4888820063 0.8104648416 0.3227090399
0.008165914536 0.01890546608 -0.03503780937 -0.3935262008 -0.9192965384 -0.005568104299
0.0205269804 -0.001363066018 -0.0390248127 0.9969111831 -0.0780717102 0.008538216935
0.006298583984 0.01960375023 -0.03519335365 -0.3237920779 -0.9460571606 -0.01159909809
0.001423918962 0.0205467205 -0.03492224503 0.05492760926 0.9984821576 -0.004042112722
0.01493741798 -0.01418351555 -0.03675381851 0.7861106369 -0.6180858084 -3.141126087e-14
0.0172921505 -0.01118865585 -0.03707838821 0.8333827556 -0.5524437918 0.01670447551
0.02043047905 0.002505194843 -0.03671289635 0.9950400722 0.09902986833 -0.009398929506
0.01861244011 -0.008812992096 -0.03681399155 0.89814127 -0.4395732108 -0.01084672536
0.02042975903 0.002504812956 -0.03531586647 0.9949040882 0.1001548287 0.01161316452
0.02003734779 0.004632771492 -0.03524437714 0.974364819 0.2248354014 0.007889342511
0.01917503595 0.04042537212 -0.05315272808 0.9254178273 -0.0130008301 0.3787252609
-0.01656986046 0.05808755875 -0.06482273102 0.9548898417 0.2575841565 0.1477693894
0.0147857275 0.01432590103 -0.03528754807 -0.7052863085 -0.7087929927 -0.01355420916
0.004106895685 0.02017328262 -0.03681525803 -0.1856587399 -0.9825710602 -0.009216507945
-0.01523621368 0.05398316574 -0.0529303894 0.879630777 -0.008863766371 -0.475574526
-0.00242857933 0.02044110107 -0.03675919342 0.02726376258 -0.9996268083 -0.001712124687
0.01946811867 -0.006720048904 -0.0373223877 0.9512503754 -0.3082704683 0.009593836287
0.0152872858 0.04247252274 -0.04684149551 0.7457363385 -0.01154116749 0.6661412124
0.02049390125 0.02663472462 -0.05869583511 0.9961367299 -0.00444394973 0.08770328704
0.02037614632 -0.00302648735 -0.0370225029 0.9893619976 -0.1450134931 -0.01157257508
0.02059024048 0.0002442609668 -0.03681971741 0.9999758061 -0.003119501512 0.006217383779
0.02047982502 0.05408050537 -0.05878269196 0.9927249772 0.009787672477 0.1200055046
0.01030631924 0.05200016022 -0.07837922668 -0.5688756151 0.0186334393 0.8222124601
0.01285828686 0.00564522934 -0.07345954132 -0.6359806828 0.3057056433 0.7085708368
0.01946859169 0.006660470963 -0.03658964157 0.9389411163 0.3439746218 -0.00842850353
-0.01114846992 0.05966159821 -0.04769934845 0.5412363615 0.517330862 -0.6628966588
0.01617782879 0.01270337248 -0.03661936188 0.7803330178 0.6253449901 -0.00490150748
0.01947573376 0.006664121866 -0.04077458191 0.9493713463 0.3131212519 0.02547799829
0.01188797045 0.01678269386 -0.03686718559 0.5886081364 0.8084182612 0.0006137210338
0.009781785011 0.01810648727 -0.03702539825 -0.4747971633 -0.8797400525 -0.02500187564
0.008165914536 0.01890546608 -0.03715821838 -0.3853187914 -0.9225332478 -0.02149036132
0.006300847054 0.0196047554 -0.03732289124 -0.3266344963 -0.9449958952 -0.01710742203
-0.01676461029 0.05653044891 -0.05749235535 0.9853145178 0.0164274194 -0.1699571736
0.02059024048 0.0002442609668 -0.03892436409 0.9999761531 -0.003043897065 0.00619903255
0.02004166508 0.004635013342 -0.03873237038 0.9744271831 0.2246630202 -0.004265232949
0.01946859169 0.006660470963 -0.03868113613 0.9475362635 0.3196034813 0.005352024622
0.0147857275 0.01432590103 -0.03878041077 -0.7019454409 -0.7121864445 -0.00794142754
0.0118893671 0.01678333616 -0.03897435474 -0.5985232463 -0.8002462485 -0.03709265896
0.008165914536 0.01890546608 -0.03857371902 0.413545617 0.906968984 0.0799204905
0.01007416439 0.01976266861 -0.07850891876 0.5447219797 -0.0375664246 -0.8377748675
0.004108149052 0.02017383194 -0.03895882416 0.2674189822 0.9247137828 0.2709086708
0.02048183918 0.002532231629 -0.04511902618 0.9961309568 0.07971717375 0.03699039264
0.001423918962 0.0205467205 -0.03923750305 -0.003995013055 0.9561340743 0.292902154
0.01944050852 0.0006757427752 -0.05866608683 0.9383454083 -0.2539386485 -0.2345699417
0.0148483572 -0.01423480988 -0.0411331749 0.7769814337 -0.6273722276 -0.05199941999
0.01726555443 -0.01120382118 -0.04068264008 0.8311305418 -0.5550337517 -0.03405226748
0.02047970899 0.05042998123 -0.05879847717 0.9934857356 -0.002152624358 0.1139362071
0.01871684647 0.008590503693 -0.03935344696 0.9071564853 0.4202381937 0.02160952999
0.01794286919 0.0382872963 -0.05054054642 0.8822058857 0.004123142585 0.470845808
0.004373226643 0.02029013824 -0.04035377884 -0.2008902439 -0.8642850455 -0.4611447387
0.003300747395 0.02442484856 -0.04027233124 0.2510675711 0.01150303256 0.9679012114
0.002930807352 0.02655424118 -0.04021212769 0.1447961227 0.05306588597 -0.9880374966
0.006487754345 0.06060000229 -0.08006499481 0 1 0
0.002520098686 0.02866095352 -0.04015924835 0.1416610274 0.05242798575 -0.9885259024
0.02003014374 0.01431484826 -0.05462530136 0.9685179587 0.1030887264 0.2265958477
0.00221310091 0.03004856682 -0.04012965393 0.1416610277 0.05242798581 -0.9885259023
0.001702014625 0.0321056757 -0.04009379005 0.1630030209 0.05741576192 -0.9849535245
0.0004557778239 0.03687110519 -0.04002429199 0.1213204022 0.0454678933 -0.9915714955
-0.0005629135966 0.039473629 -0.04003000259 0.1188235314 0.04433855608 -0.991924927
0.01709441853 -0.01130139542 -0.04287423897 0.8268722018 -0.5598909348 -0.05295755822
0.02057303238 0.0002350380719 -0.0410345459 0.999911087 -0.01333357588 -0.0001838664989
0.01096808815 0.03210680389 -0.0431757164 0.5498430169 0.01485865694 0.8351358435
0.01378615856 0.0153786869 -0.04093896103 0.7241255328 0.659859295 0.2005689994
0.02004995537 0.004639317513 -0.04082842255 0.9759117859 0.2176578007 0.01487507636
0.01775542641 0.01041391563 -0.04075551987 0.8571792035 0.5141178062 0.03044165649
0.01698321533 0.02434746552 -0.07220173645 0.834504001 0.001241757563 -0.5510004813
0.01201410627 0.01684090137 -0.04106693649 -0.6114453195 -0.7330919764 -0.2978435419
0.007009597301 0.02448436928 -0.04125616455 0.3312061328 -0.0208888657 0.9433271717
-0.01301052666 0.06060000229 -0.04502586746 -0.6594275047 -0.7119374304 -0.2414548846
0.005706319571 0.03664730644 -0.04081945801 0.3430718257 0.01027271387 0.9392529977
0.005965546131 0.03453199005 -0.04088733673 0.3568625001 0.004761793064 0.9341447861
0.00545172596 0.03875792694 -0.04075279617 0.33377194 0.01035599125 0.9425969688
0.005285068035 0.0401619339 -0.04070915604 0.330646013 0.006639114656 0.9437314958
0.005017197132 0.04225525093 -0.04064798927 0.3206745321 0.00863223579 0.947150109
0.01699879074 0.03600438309 -0.04900530243 0.8218516133 0.006480536471 0.5696647509
0.004745957851 0.04434158325 -0.04058909225 0.3095359119 0.005712964474 0.9508705912
0.01731202761 0.04229565684 -0.04949207687 0.8424538638 -0.02033026052 0.5383847768
-0.006758282185 0.0565654335 -0.07624704742 0.3871380018 0.002327375165 0.9220188452
0.004480848789 0.04642316628 -0.0405315876 0.2955912743 0.007709296409 0.9552833953
0.01928954569 0.01244042397 -0.05067749405 0.941984827 0.1895983156 0.2769784548
0.003717072248 0.05264413452 -0.04036623383 0.2667041406 0.005128122598 0.9637648073
-0.01587223148 0.05978266144 -0.06683451462 0.7695349374 0.506778977 0.3885756666
0.003554026842 0.05402166748 -0.04033100891 0.2624708397 0.006391204216 0.9649187587
0.003314225435 0.05608456993 -0.04027924919 -0.251355097 -0.009535531787 -0.9678479678
0.00306911087 0.05814103317 -0.04022993469 -0.1005824919 -0.4758605497 -0.873750479
0.006482354641 0.06059835815 -0.04107626724 0.09290681418 0.9596013252 0.2655816645
-0.0115476799 0.05212765503 -0.07314426422 0.7124453301 0.01288117808 0.7016093834
0.002818984747 0.05948254395 -0.04020992661 -0.1854943358 0.3870704449 0.9031989383
-0.002973055124 0.06060000229 -0.0408864975 0 0 1
0.01848112297 -0.008887105942 -0.04327585983 0.8888842188 -0.4554610036 -0.04939756782
0.01938989639 -0.006763747692 -0.0430306015 0.9470350032 -0.3187923289 -0.03868014665
0.01997377968 -0.004838273048 -0.04283705521 0.9776359412 -0.2079243254 -0.03155061743
0.02051388168 -0.001370160103 -0.04255073547 0.9967838339 -0.079069823 -0.013036551
0.02044729662 0.002514071733 -0.04301586533 0.9962892404 0.08037374979 0.0307865189
0.02010464954 0.004667717218 -0.04292111588 0.9733541808 0.2260734863 0.03837209327
0.01948853111 0.04405920792 -0.06716184235 0.9422320605 0.007887443335 -0.3348679327
0.0196103007 0.006475685914 -0.04263503774 0.9538463161 0.2968411206 0.04541535535
0.0190182209 0.008229580084 -0.04306506729 0.9314274758 0.3529398482 0.08874863839
0.01815700769 0.01213954425 -0.04689057541 0.8768672212 0.3641400868 0.3138564538
0.01792422438 0.01049732542 -0.04282709026 0.868232488 0.4854307344 0.1026126152
0.0168873167 0.01228321981 -0.04284657669 0.8159403403 0.5417147452 0.2019566682
0.006356469631 0.04201810455 -0.08018544769 0 0 1
0.02028659821 0.02872499084 -0.05719302368 0.9888972239 -0.01087981898 0.1482022611
-0.01646492958 0.0520979538 -0.06514124298 0.9615476734 0.005422688426 0.274584534
0.01280196571 0.017964077 -0.07661749268 -0.6203267552 0.04204030517 0.7832160171
0.009961497784 0.02047142601 -0.04252441216 0.5126104019 0.1875677321 0.8378835968
0.009688817024 0.02262241936 -0.04244113159 0.4594259308 -0.001603875139 0.8882146372
0.01490689945 0.003544620991 -0.07032230377 0.7278532238 -0.3554715472 -0.5864040107
0.009570170403 0.02407868195 -0.04237774658 0.4483134578 0.01168051249 0.8938000946
0.02006533623 0.006194565535 -0.04703403091 0.978205782 0.1851052686 0.0940717156
0.00939526844 0.02625548649 -0.04228431511 0.4410215279 0.006657523263 0.897471832
0.006487754345 0.06060000229 -0.07863667297 0 1 0
0.009223410606 0.02842483902 -0.0421925087 0.4347772077 -0.002535505314 0.9005344807
0.008885019302 0.03273608017 -0.04201526642 0.4186163808 -0.01066146371 0.9081005775
0.02056886292 0.01256309748 -0.05912163353 0.9995755671 0.0007774384682 -0.02912183361
0.008765155792 0.03416215515 -0.04195921707 0.4175726719 0.00414374237 0.908634081
0.01979457474 0.002950923204 -0.05936431122 0.9615474089 -0.1808595256 -0.2066794921
0.008575901985 0.03628983879 -0.04187848473 0.4068677943 0.00846275829 0.9134478527
0.00798609066 0.04261736679 -0.04165206146 0.371903006 -0.009237897682 0.9282256274
0.007859992027 0.04401576233 -0.04160368729 0.3694769737 0.005607853254 0.9292229646
0.007314529896 0.05027554703 -0.04139461708 -0.3404808216 0.009020836977 -0.9402081868
0.007140244961 0.05235110474 -0.04132787323 -0.3313997732 0.009892273273 -0.9434385689
0.006970254421 0.05442054367 -0.04126281357 -0.3248944001 0.0150453535 -0.9456306182
0.006641332388 0.05854405403 -0.04113702011 0.3055810335 0.113780299 0.9453434696
0.01352172661 0.05447889519 -0.04513036537 0.6558359622 -0.01141512885 0.7548171206
0.020258763 0.03684372965 -0.05706364441 0.9871049676 -0.008481902392 0.15984943
-0.01141723347 0.05810832977 -0.04346734238 -0.5230036678 -0.5817714777 -0.6229037736
-0.007916366577 0.06060000229 -0.04292383575 0.9663311372 -0.2109408855 -0.1473366079
0.0204672823 0.02662293625 -0.06285938644 0.9934369498 -0.003592759372 -0.1143246203
0.01678999901 -0.01147496319 -0.04509255219 0.8522702742 -0.5160610672 -0.08553569209
0.01997802067 -0.003244364977 -0.04913182259 0.9745004394 -0.2079387195 -0.08432308438
0.01833302879 -0.008970689774 -0.04473600388 0.8797279056 -0.4685189185 -0.08104835038
0.01959018135 0.03059646225 -0.06686955643 0.9461480975 -0.008508722603 -0.3236222786
0.01921839619 -0.006859556913 -0.0452019825 0.9395016248 -0.3359867153 -0.06670550322
0.01985593319 -0.004903435707 -0.04499004364 0.9700094309 -0.2357778394 -0.05908057543
0.02025509739 -0.003092731953 -0.04481818771 0.9848448052 -0.1680709797 -0.04281186119
0.02048443317 -0.00138610965 -0.04467514992 0.9952094272 -0.09487034447 -0.02361808103
0.01285909939 0.01799034309 -0.04371257019 0.6424679701 0.4703249149 0.6050036213
0.01178151512 0.02052962685 -0.04370294571 0.6400902419 0.144503684 0.754588078
0.01167991066 0.02199292755 -0.04363324738 0.5886927469 0.08719017818 0.8036409164
0.01137091446 0.02635273552 -0.04343132782 0.5719211042 0.004002985937 0.8202988642
0.0106618433 0.03637623596 -0.0429955864 0.5342842123 -0.00270115581 0.8453005881
0.02018242264 0.05669978714 -0.05666733932 0.9770748041 0.02079244117 0.2118785066
0.01050657654 0.0384961319 -0.04290942001 0.5259841558 -0.007268041165 0.850463311
0.01455393505 0.04644422913 -0.04605825806 0.713657869 -0.002785658115 0.7004888908
0.01689949417 0.05629034996 -0.07228177643 0.8333496768 -0.00209712319 -0.5527421806
0.01035410309 0.04060940933 -0.0428248558 0.5158522083 -0.008416199798 0.8566362511
0.01010735321 0.04411436844 -0.04268814087 0.5022943469 0.01463630045 0.8645728238
0.02056570816 0.01028196955 -0.05860857582 0.9992060501 -0.02693077537 -0.02935988385
0.009963133812 0.04620858002 -0.04260830688 0.4678013655 -0.000749553204 0.8838333104
0.00982229805 0.04829520035 -0.04253041649 0.4596643255 -0.001054109893 0.8880921105
0.01452589321 0.02250954819 -0.04602868462 0.7103237457 0.008279636542 0.7038264161
0.009079464912 0.06000040436 -0.04212073135 -0.4582689751 -0.2321268991 -0.8579665781
0.01798496437 -0.00115209341 -0.06147132111 0.8886132549 -0.3236221684 -0.3250156541
-0.01474072933 0.05413408279 -0.06918477631 0.8538550469 -0.008059507449 0.5204484636
0.006487754345 0.06060000229 -0.04243909073 0.230203372 0.9718900235 -0.0493577727
-0.002973055124 0.06060000229 -0.0436925621 0 0 1
-0.01179656124 0.05651556015 -0.07290913391 0.6756858124 0.04176477861 0.7360056971
-0.008273081779 0.06049643326 -0.04511513138 0.7518283962 0.2683469846 -0.6022822914
0.01241809654 -0.01563453388 -0.04737994003 -0.4990937166 0.8665480149 9.119381983e-08
0.01390182495 0.03475689697 -0.04540844727 0.6676407188 -0.01124175212 0.7443987464
0.01646582413 -0.01165979481 -0.04659640884 0.8316078548 -0.5436190122 -0.1136078577
0.01797697067 -0.009171646118 -0.0469552002 0.8720607871 -0.4768241274 -0.1102213009
0.01883794403 0.002448892117 -0.06244022369 0.9103035393 -0.2626865467 -0.3199113072
0.02058976364 0.0002440053374 -0.04525869751 0.9991812564 -0.03947163925 -0.00887730904
0.01969304276 -0.003400321007 -0.05132448578 0.9618556683 -0.244570129 -0.1225525408
0.02021120453 0.004723044395 -0.04500811005 0.9788307036 0.195339953 0.06109628791
0.01860953712 -0.001609723449 -0.05924005508 0.9027357086 -0.3285613393 -0.2776971134
0.01928216362 0.008106406927 -0.04490601158 0.9387849228 0.3167192992 0.1355424446
0.0182413578 0.01065403366 -0.04487625694 0.8966738978 0.3968503245 0.1961778299
0.01519462967 0.0160411644 -0.04493375778 0.7549392178 0.4876406266 0.4384899049
0.01912273121 0.04251837158 -0.053028162 0.917522521 -0.01317591495 0.3974654937
0.01915107346 0.03257564545 -0.06818286133 0.9270058584 0.007017045472 -0.3749811988
0.01448839092 0.0172272625 -0.04495335388 0.7091772609 0.3804659098 0.5935598572
0.01567505264 0.04614797401 -0.04726600647 0.7572619796 0.00793016405 0.6530630955
0.013895504 0.01846681786 -0.04495590973 0.6919541281 0.3016019264 0.6559235951
-0.01167350292 0.05432437706 -0.07302542496 0.6837674553 0.02117254207 0.7293927547
-0.01570242691 0.05233384132 -0.06723340988 0.9089202868 -0.005444328993 0.4169343732
0.01341250102 0.02623972066 -0.045029555 0.6583729928 0.01168129861 0.752601189
0.02049908447 0.03026319885 -0.06255458069 0.9971603284 0.005093217926 -0.07513546848
0.01376075713 0.02836101468 -0.04532471593 0.6739714505 -0.00108977496 0.738756588
0.01256300354 0.03275735474 -0.04431872177 0.6088714644 -0.003549042865 0.7932609559
0.02046942139 0.007940265179 -0.0588223114 0.9917201953 -0.07101933322 -0.1069920958
0.01348069191 0.03603774643 -0.07616653442 -0.6433986836 -0.0160825589 0.7653623229
0.01248043728 0.03418434906 -0.04425311661 0.6006858248 0.004222172099 0.7994740228
0.01361603022 0.05242254639 -0.04521530247 0.6622326819 0.0004634365661 0.7492981118
0.01672740173 0.02126301384 -0.04858626938 0.8137750496 0.01515530312 0.5809823452
0.01223929787 0.03844245911 -0.04406168365 0.5897976938 -0.003310162859 0.8075442547
0.01216108036 0.03985439682 -0.04399965286 -0.5836606369 -0.002365845711 -0.811994251
-0.0130607872 0.05836493683 -0.07156988907 0.7746912579 -0.000798746825 0.6323391629
0.01200784969 0.0426674614 -0.04387822342 0.5986503092 0.003082380201 0.8010045607
0.0154859581 0.01819447327 -0.04662846883 0.7462914346 0.2175284171 0.6290711266
0.01193282223 0.0440687027 -0.04381881332 0.5921461174 0.003890755495 0.8058212194
0.0118186202 0.04616233444 -0.04373199654 0.5953183043 0.01898342651 0.8032656759
0.01158220291 0.0503229332 -0.04356612587 0.5791867787 0.004420739093 0.8151828828
0.01919867992 0.01416388083 -0.05150010872 0.9264461832 0.2049831736 0.3157203955
