# .PCD v0.7 - Point Cloud Data file format
VERSION 0.7
FIELDS x y z normal_x normal_y normal_z
SIZE 4 4 4 4 4 4
TYPE F F F F F F
COUNT 1 1 1 1 1 1
WIDTH 563
HEIGHT 1
VIEWPOINT 0 0 0 1 0 0 0
POINTS 563
DATA ascii
-0.004929168224 -0.01302303505 -0.06271016312 0 0 1
0.004088432789 -0.02016518211 -0.04039265442 0.1922876541 -0.9811070732 -0.02131593287
-0.002672131538 0.04423784637 -0.04018086243 0.09361444864 -0.06108028528 -0.99373313
0.009799427986 -0.01811450386 -0.02648732948 0.4808811073 -0.876673146 0.01405545066
0.01739836502 -0.01100370312 -0.02409465408 0.8518152309 -0.5238422982 0.0002430285788
0.02052053452 0.001366557002 -0.01596191216 0.9954166485 0.09561521651 -0.001850994726
0.01726821899 0.01120230198 -0.03420726585 0.8315547189 0.5552437646 -0.0148698153
0.02037488174 0.00302717948 -0.01600821304 0.9894612172 0.1444236297 -0.01040743917
0.01870775604 -0.008585933685 -0.036567276 0.908448828 -0.4179409629 0.006788106238
0.01996971893 0.004840518951 -0.01606993484 0.9782345597 0.2073182427 0.008734553193
0.02037200737 0.02944942284 -0.05783853912 0.9899116407 -0.005623948811 0.1415744146
0.01923070335 -0.00731073904 -0.02409562111 0.9344682991 -0.3560461611 0.0003594011185
0.02043494733 -0.002247592092 -0.01818612607 0.9930826266 -0.1174163244 -0.0005508981109
0.01944381332 0.006733627796 -0.01613920593 0.9529060645 0.3032656133 1.017660473e-05
0.01424046087 -0.01483090019 -0.02002684975 0.6908457685 -0.7228978318 -0.01228205553
0.01870775604 -0.008585933685 -0.02408731651 0.9081481927 -0.4186487028 0.0003518840025
0.01649952316 0.01493532228 -0.04609462738 0.821551168 0.3675605158 0.435835916
0.01861775398 0.00880999279 -0.0162264328 0.8981030438 0.4397850846 -4.520756108e-05
-0.002633137703 -0.01563828373 -0.05913037491 0.04035637386 0.9054490311 0.4225321469
0.01726821899 0.01120230198 -0.01634466362 0.8316927694 0.5552360972 -0.0001169809231
-0.002453927994 -0.02043024254 -0.01796411324 0.03040895422 0.9995354824 -0.002028551171
0.01258776617 0.02571305943 -0.04434784889 0.6115676669 0.01600524308 0.7910302276
0.008143112183 -0.01889522362 -0.02026979828 0.4104181416 -0.9118971667 0.0007116394424
0.004111634254 -0.02017536163 -0.01834797955 0.1924463586 -0.9812676699 0.008840758536
0.01726821899 0.01120230198 -0.03062164497 0.8323991626 0.5539434329 0.01607194123
0.006262731791 -0.01958783245 -0.01824969959 0.3251840951 -0.9456506844 0.0002955723244
0.01778746986 0.01336382532 -0.07005564117 0.8792567811 -0.1144065739 -0.4624052862
0.008143200397 -0.01889526176 -0.01816823959 0.4095721543 -0.9122749335 -0.002257459689
0.01740670204 -0.01100780392 -0.03240546799 0.8520072788 -0.523529923 0.0001290686889
0.01913613129 0.05361089325 -0.06821692657 0.9252822548 -0.005370314506 -0.3792412275
0.009789623737 -0.01811004925 -0.01810139751 0.4806305077 -0.8768762601 -0.009074115516
0.02037488174 0.00302717948 -0.03631821632 0.9883786977 0.1519228653 -0.005195482955
0.01405766582 -0.01499874338 -0.01818621826 0.690726858 -0.7231156103 0.0004709606009
0.02059639263 -0.0002475583628 -0.01800093365 0.9999347977 0.007071140991 -0.00896656471
0.01491625404 0.01419570446 -0.03385250854 0.7863175912 0.6178225034 3.268986793e-14
0.02058875275 -0.0002434640676 -0.04243944931 0.9999812676 -0.001936654791 0.005806368412
0.01332229519 0.03397352982 -0.07629640961 0.6295459719 -0.01482787401 -0.7768217321
0.02037488174 0.00302717948 -0.01810055447 0.9894877163 0.144278794 -0.009883766367
0.001430114627 -0.02054940796 -0.02418337154 0.05636636145 -0.9982909804 -0.01542568738
0.00627203083 -0.01959196091 -0.03023748016 0.3247840522 -0.9457881872 -0.0001560138129
0.01977978516 0.02300032234 -0.06625328827 0.9652925834 0.008805675914 -0.2610223906
0.0195333004 0.05708066177 -0.06697811127 0.9471905971 0.01137798431 -0.3204692096
0.01850845337 -0.0007058727145 -0.06049500084 0.9022176684 -0.3107839378 -0.299026124
0.02048484039 0.03811014175 -0.05865023422 0.9972239343 0.004163797396 0.0743443852
0.01997029495 0.004840200186 -0.0181703043 0.9759781443 0.2178684509 -4.636314126e-06
0.01491625404 0.01419570446 -0.01796131516 0.7863175912 0.6178225034 -9.131584378e-15
0.020553545 0.009329140663 -0.05816904068 0.9989519931 -0.02780895693 -0.03635350614
-0.002443106532 -0.02043487835 -0.020124259 0.02966609789 0.9995586893 -0.001532729712
0.008863145828 0.0413516674 -0.04200578308 0.415553837 0.004502545484 0.9095574395
0.001679340363 -0.0144242239 -0.06147216415 0.07963997335 -0.8490294049 -0.5223088591
0.01617794752 -0.01270344305 -0.01859343624 0.7889410112 -0.614441741 0.005781675733
0.01961645031 0.04137408257 -0.06675509644 0.9518889815 0.00041588149 -0.3064428068
0.005192917347 0.03919050217 -0.04068502808 0.3254346811 -0.01477804377 0.945449035
0.01808027458 -0.009808117867 -0.01856786156 0.8738800238 -0.4860950635 0.006730021585
0.01971707535 0.03862683868 -0.06643546295 0.9506416329 0.01474612185 -0.3099403777
0.01944381332 0.006733627796 -0.0259977684 0.9527572787 0.3035810175 -0.009598633587
0.020049016 -0.004638830185 -0.0262111702 0.972184707 -0.2342148426 0.0005504316099
0.01861775398 0.00880999279 -0.03824213409 0.8984733648 0.4389280315 -0.009369953352
0.004111634254 -0.02017536163 -0.03824355888 0.190503123 -0.9816619165 -0.006960012039
0.008142288208 -0.01889485359 -0.03999394608 0.4139242968 -0.9100208887 -0.02299258065
0.01922457314 -0.00730762291 -0.01857380295 0.934701558 -0.3552864177 0.0102254039
0.02007572412 -0.002318156511 -0.05012801552 0.9791880586 -0.1824510643 -0.08889519073
0.0197024231 -0.006008132458 -0.01858357811 0.9618908323 -0.2732804148 0.009156502444
0.0107966795 0.0373809166 -0.04307508469 0.5164295795 0.000912239817 0.8563291757
0.006269546986 -0.01959085846 -0.02247307682 0.3257519471 -0.9454002615 0.01019875412
0.0199852314 0.05864094925 -0.06550836182 0.966896844 0.03287576476 -0.2530408606
0.02003938484 -0.004633829117 -0.01860311317 0.972064021 -0.2344993586 0.01007918438
0.001430114627 -0.02054940796 -0.03851677322 0.0549169863 -0.9984535305 0.008641296914
0.01491625404 0.01419570446 -0.02012185192 0.7863175912 0.6178225034 -2.498001805e-14
0.01783158875 0.01416035175 -0.04805995941 0.8842115493 0.2702526717 0.3809638164
0.006194853306 -0.0195576973 -0.04160776901 0.3257732552 -0.9441739324 -0.04906497318
0.001430114627 -0.02054940796 -0.0206165657 0.05477911137 -0.9982557772 0.02201482032
0.02037488174 0.00302717948 -0.02999130821 0.9884503892 0.1514379729 -0.005689323781
0.004111634254 -0.02017536163 -0.02047032356 0.1924184802 -0.9812704678 0.009132221458
0.006266138077 -0.01958934593 -0.02036044312 0.3250646554 -0.9456892847 0.002178695103
0.01112144566 0.04077017593 -0.04327302933 0.5417883932 0.004522208897 0.8405027582
0.009792606354 -0.01811140442 -0.02019501495 0.4801037002 -0.8772116609 0.000372883716
0.01122891331 -0.01724088478 -0.02013518333 0.5527789359 -0.8333277288 0.0005869410607
0.01139964867 0.01959211159 -0.0433267746 0.5602350071 0.2178310658 0.7991785555
0.01429353809 -0.01255986118 -0.05234445572 0.7095691659 -0.6646166904 -0.2340859963
0.01254490566 -0.01632347488 -0.02008390236 0.5927549216 -0.805381608 -0.001438210517
0.01617955256 -0.01270421934 -0.01997417068 0.7872802838 -0.6165944304 -0.001031103483
0.01944381332 0.006733627796 -0.02458684921 0.9532146341 0.3021408062 0.009632997922
0.0180804081 -0.00980818367 -0.01994679832 0.8738042788 -0.4862418469 -0.005911739843
0.01870775604 -0.008585933685 -0.01994587898 0.9080799867 -0.4187294832 -0.007507179675
0.009844367981 0.05083875656 -0.04254732895 0.4765761045 0.008659243971 0.8790905722
0.01922610474 -0.007308401585 -0.01995308304 0.9345626573 -0.3556745403 -0.009394732233
0.0197024231 -0.006008132458 -0.01996369171 0.9569160677 -0.2902682618 -0.007481682508
0.0169869957 0.04407377243 -0.07215946198 0.8269095794 -0.002195070116 -0.5623306226
0.02004113388 -0.004634737015 -0.01998455429 0.9727952821 -0.2315485905 -0.007388457319
0.02059670258 -0.0002477242947 -0.02008311272 0.9999636278 0.00834950343 -0.001740337082
0.009671823502 0.04909008789 -0.04244484329 0.4667088208 0.02386505493 0.8840889863
0.02037488174 0.00302717948 -0.02019427872 0.9893675904 0.1454363804 0.0001739520043
0.01997087097 0.00483988142 -0.02027205467 0.9759271054 0.2180969619 -1.19216291e-05
0.01808161354 -0.009808783531 -0.03239791107 0.8801237833 -0.4747442305 0.0002039024283
0.01944381332 0.006733627796 -0.02035952377 0.9528694078 0.3033750057 0.001870217165
0.01662581253 0.02751912594 -0.04848366928 0.8052315369 -0.009581512866 0.5928830969
0.004893544197 0.03756974792 -0.04061300659 -0.316397846 0.01309793507 -0.9485361602
0.01861775398 0.00880999279 -0.02046956062 0.897893185 0.440111449 0.009473166364
0.02032291508 0.00544415164 -0.04853416443 0.9881054456 0.1369655985 0.06991461317
0.01726821899 0.01120230198 -0.02061870766 0.8320636633 0.5543230236 0.01990089796
0.01455701065 0.04209949493 -0.04606072235 0.7144672032 -0.003439817102 0.6996604771
0.0204736805 0.02089190674 -0.05850663757 0.9970001534 -0.000771321717 0.07739573098
0.01667616844 0.003448672295 -0.0677533493 0.8079900811 -0.3123138777 -0.4996119201
-0.002439697981 -0.02043633842 -0.02228635025 -0.02934278405 -0.9995693584 0.0003141560839
0.008142936707 -0.01889514351 -0.024478508 0.4105993957 -0.9117874562 0.007195208776
0.02034743118 0.06027493286 -0.05776662445 0.9888681169 -0.01804271117 0.1476966755
0.02007854939 0.03485506439 -0.05613511467 0.9733895272 0.01793985778 0.228453474
-0.002804071426 -0.01871359634 -0.05153536224 0.05599545664 0.954434097 0.2931212433
0.004111634254 -0.02017536163 -0.02188624573 0.1917352634 -0.981370731 -0.01220971229
0.02052242374 0.01919131565 -0.06202654648 0.9969217621 -0.0008127967549 -0.07839859384
0.02059670258 -0.0002477242947 -0.03401792908 0.9999975276 0.001038956865 -0.001966050021
0.005521998405 -0.01305758095 -0.06239240646 -0.2983198982 0.7915144708 0.5333948639
0.008143024445 -0.01889518356 -0.02237329578 0.4104754676 -0.9118465968 0.006758285697
0.01123201132 -0.01724230957 -0.02222446346 0.5529414955 -0.8332199 0.0005483717973
0.01424186969 -0.01483156729 -0.02210501862 0.6913426018 -0.7224549902 -0.01020755179
0.01618091869 -0.01270487618 -0.02204687548 0.7823797381 -0.6227234665 -0.009870649997
0.004241662025 0.0595261879 -0.04049589729 0 0 1
0.02011821079 0.01777162838 -0.05607094002 0.9753296081 0.0344362942 0.2180511343
0.0197024231 -0.006008132458 -0.02203541756 0.9568009997 -0.2906571225 -0.007091127244
0.02041202974 -0.002495421439 -0.02210488892 0.9929649281 -0.1180497124 -0.0092150411
0.02037488174 0.00302717948 -0.0222899313 0.9893487298 0.1455646731 0.0001295548186
0.01491625404 0.01419570446 -0.03603019714 0.7863175912 0.6178225034 -7.191469642e-14
0.01617308044 -0.0127010839 -0.0401104517 0.7856080072 -0.6185712346 -0.01377268421
0.006271828175 -0.01959187126 -0.02599843597 0.3248470018 -0.9457207682 -0.009308812814
0.006558535576 -0.005672183514 -0.07025506592 -0.3464446456 0.6049681301 0.7169307282
0.01726821899 0.01120230198 -0.02204489326 0.832490298 0.5538219214 -0.01553006854
0.02038843536 0.04717155838 -0.0580220871 0.9898759373 0.00383390364 0.1418835082
0.01491625404 0.01419570446 -0.02228392792 0.7863175912 0.6178225034 -4.248131641e-15
-0.002439697981 -0.02043633842 -0.02445079231 0.02920588469 0.9995734172 -8.649331251e-15
0.007697719097 0.03222576141 -0.04153072739 0.3671419996 0.01451995672 0.9300515701
0.01063374805 0.03569888687 -0.04297825623 0.5036330807 -0.008075077961 0.8638799182
0.01726821899 0.01120230198 -0.02418588352 0.8328407151 0.553337583 -0.01392345456
0.02035033607 0.001458737373 -0.05393365479 0.9871261542 -0.1302811674 -0.09278347473
0.01254490566 -0.01632347488 -0.0242539978 0.5948483034 -0.8038377837 0.0005597655976
0.01254490566 -0.01632347488 -0.02634221554 0.595536093 -0.8033110911 0.0052964887
0.009238126278 -0.0178594141 -0.04630847359 0.4626527757 -0.8727232602 -0.1559054848
0.01870598602 0.05580109978 -0.05208901596 0.9079693376 -0.001956365481 0.4190320449
0.01424327993 -0.01483223486 -0.02418486023 -0.6912003127 0.7226632187 8.952420631e-06
0.016181777 -0.01270528889 -0.02412129307 0.782207414 -0.6230179858 0.0003883621294
0.01808080864 -0.009808382988 -0.02408839417 0.8803470024 -0.4743300724 0.000371236781
0.009991733551 0.02904319763 -0.04260295105 0.4907958186 -0.0002366586588 0.8712745884
0.01944381332 0.006733627796 -0.02811616611 0.9527441549 0.3036053838 -0.01011662695
0.01690633583 0.05148217392 -0.07227655792 0.8188884824 -0.003934551176 -0.5739391716
0.0197024231 -0.006008132458 -0.0241088295 0.9569809907 -0.2901503792 0.0003754628726
0.02004638672 -0.004637464523 -0.02413356781 0.9721368254 -0.2344134708 0.0005633408989
0.02037488174 0.00302717948 -0.03209753323 0.9894017899 0.1445704839 -0.01354523495
0.02059670258 -0.0002477242947 -0.02425304413 0.9999797065 0.006366012297 0.0002458304382
0.02037488174 0.00302717948 -0.02438729095 0.98933938 0.145628254 5.281909912e-05
-0.002439697981 -0.02043633842 -0.02661710548 -0.02920588469 -0.9995734172 -3.851030427e-14
0.01804260826 0.02921219826 -0.05067567444 0.8772630943 0.004855892496 0.4799852952
0.008142877579 -0.01889511681 -0.02588321304 0.4179810579 -0.9084474056 0.003891837733
0.0112382164 -0.01724516201 -0.0264086237 0.5405915129 -0.8412453762 0.008187381839
0.01424469137 -0.01483290291 -0.02626699543 -0.6913095144 0.7225587477 0.0001070076456
0.008160991669 0.05963077164 -0.04173431015 -0.4554109998 0.009351611962 -0.8902321992
0.01923300743 -0.007311909437 -0.02616998768 0.9343274098 -0.3564157301 0.00034432008
0.0126927824 0.03793733215 -0.04443664551 0.6273739657 -0.01277609451 0.7786133049
0.0197024231 -0.006008132458 -0.02618454933 0.956918531 -0.2903563391 0.0003483278467
0.02041307545 -0.002495975912 -0.02626700211 0.9930844233 -0.1174023103 0.0001605232554
0.001378610015 -0.02052707672 -0.04068504715 0.05836515743 -0.9979492553 -0.0262829256
0.02037488174 0.00302717948 -0.03420622635 0.9894641243 0.1447555933 -0.002562212233
0.01897741508 0.05372595596 -0.05264876556 0.9227806951 -0.0001121254654 0.3853255457
0.02059670258 -0.0002477242947 -0.0263411808 0.9999728163 0.005596981434 0.004800041313
0.02053618717 0.001358079851 -0.02640889549 0.9970797472 0.07589388755 0.008490908624
0.01862767601 0.04475915909 -0.05190577316 0.9200391338 -0.004481704471 0.3918008508
0.02037488174 0.00302717948 -0.02648698616 0.9894087699 0.1444291943 0.01450840593
0.02044922924 0.02768254948 -0.05840652275 0.9952481759 -0.004841621425 0.09725033181
0.01997413635 0.004838075638 -0.02588577271 0.9777233632 0.2098376315 0.005019318478
0.01364418793 -0.01531191063 -0.04236397552 -0.660615058 0.7487998764 0.05372606695
0.01861775398 0.00880999279 -0.02613827705 0.8981128396 0.4397611698 -0.001854947033
0.01254490566 -0.01632347488 -0.03401926804 0.5990078885 -0.800742588 -0.0009258552393
0.01491625404 0.01419570446 -0.02661421204 0.7863175912 0.6178225034 -4.147462908e-14
0.01980968094 0.00975326252 -0.05036319351 0.9604893863 0.2023565601 0.1910810335
-0.002439697981 -0.02043633842 -0.0280626564 -0.02920588469 -0.9995734172 -2.952773403e-14
0.01944381332 0.006733627796 -0.0359051857 0.952269929 0.3051080707 -0.009541886451
0.001430114627 -0.02054940796 -0.02847113514 0.0553861275 -0.9982762098 0.01941612128
0.004111634254 -0.02017536163 -0.02826917839 0.1920695189 -0.9813813192 -7.894221705e-05
0.01457985163 0.002977137566 -0.07031256485 0.7073036935 -0.349557423 -0.6144355892
0.01997753811 0.004836194992 -0.02799470329 0.9776516562 0.2101940515 0.003962310927
0.01861775398 0.00880999279 -0.02826812458 0.8981003357 0.439790605 -0.0001033784086
0.02043523598 0.02598354053 -0.05824844742 0.9937224385 -0.005927495205 0.1117165165
0.01304037952 -0.01502790833 -0.04810100174 0.6331982731 -0.7539377372 -0.1750366686
-0.002439697981 -0.02043633842 -0.03023316479 0.02920588469 0.9995734172 -1.285950513e-14
0.01307960415 0.01692496681 -0.04296480942 -0.6310650871 -0.3661215696 -0.6838946206
0.02041435051 0.048985466 -0.05819632339 0.990476807 -0.0003939572334 0.1376791185
0.01967316055 0.005004498005 -0.0615403595 0.9515064408 -0.1844040609 -0.2462328886
0.01932131004 0.01493705368 -0.05229084778 0.937483596 0.1493096642 0.3143741902
0.01923762131 -0.007314254284 -0.03032534504 0.9340447823 -0.3571557725 0.000314399397
0.009799427986 -0.01811450386 -0.02858908272 0.4807112575 -0.8767973362 0.01196320351
0.02016109848 0.02958477211 -0.05638849258 0.9792655614 -0.01293572222 0.2021673253
0.01124132347 -0.01724658966 -0.02850382805 0.5407145456 -0.8411815665 0.006430574651
0.01104637241 -0.009441962242 -0.06318738174 0.5589876572 -0.6561679943 -0.5069283602
0.01254490566 -0.01632347488 -0.02843245506 0.5956558158 -0.8032139679 0.006439791267
0.009863805771 0.06033282089 -0.07862573242 0 0 1
0.016181777 -0.01270528889 -0.02827688885 0.7821960237 -0.62303235 0.0002671188593
0.0204238472 0.04171697998 -0.05825013161 0.9933668519 0.001691612549 0.114975806
0.01923531342 -0.007313081264 -0.02824633026 0.9341862341 -0.3567856102 0.0003292943328
0.01740252876 -0.01100575066 -0.02824524307 0.851928305 -0.523658417 0.000159520485
0.01984484863 0.03151841736 -0.0551139183 0.966436197 0.006624899877 0.2568213148
0.01870775604 -0.008585933685 -0.02823705864 0.9082870657 -0.4183473404 0.0003303234777
0.01585504818 -0.01178108501 -0.04933977127 0.7631364821 -0.6222761845 -0.1743417905
0.0197024231 -0.006008132458 -0.0282622757 0.9568559883 -0.2905624084 0.0003230963962
0.02059670258 -0.0002477242947 -0.02843133736 0.9999675802 0.005352035091 0.006016161747
0.02037488174 0.00302717948 -0.02858871269 0.9894489414 0.1443323694 0.01260791793
0.01870860672 0.02878888893 -0.05204473495 0.9095938606 0.01224435271 0.4153180523
0.01491625404 0.01419570446 -0.03022987652 0.7863175912 0.6178225034 -2.675984434e-14
0.02057137012 0.02335586548 -0.06020440102 0.9998084915 -0.003312754781 0.01928745702
0.008142701149 -0.0188950386 -0.030103508 0.4250417445 -0.9051737457 -7.404017274e-05
0.01424751902 -0.01483424091 -0.03043795538 0.6914167985 -0.7223093474 0.01456081601
0.016181777 -0.01270528889 -0.03035840368 0.7821894597 -0.6230406006 0.0002431219483
0.01870775604 -0.008585933685 -0.03031564236 0.9083566116 -0.4181963223 0.0003196398572
0.0152395916 0.04710430908 -0.07440296936 0.7321886973 0.009388669258 -0.6810371241
0.01919517899 0.02505806541 -0.06807507324 0.9395943876 0.008810502758 -0.342176507
0.0197024231 -0.006008132458 -0.03034271622 0.9567933487 -0.2907686379 0.0002949975393
0.02041412306 -0.002496531516 -0.03043814993 0.993013708 -0.1172351595 0.01340496748
0.01998094177 0.004834312439 -0.03010573578 0.9777771457 0.2094782268 0.008409869007
0.001430114627 -0.02054940796 -0.03205156708 0.05438905471 -0.99832354 -0.01979748019
0.00627213192 -0.01959200668 -0.03236098194 0.3246825257 -0.9457967435 0.007055313634
0.009799427986 -0.01811450386 -0.03209794807 0.4799379624 -0.8771932856 -0.01383805939
0.01124651051 -0.0172489748 -0.03200165272 0.539846612 -0.8417379998 -0.006540268908
0.01998435211 0.00483242774 -0.03221960068 0.977809136 0.209363334 -0.007502528137
0.009799427986 -0.01811450386 -0.03420666885 0.479592818 -0.8774862546 -0.002932908269
0.01944381332 0.006733627796 -0.03236018276 0.9523967451 0.3047643666 0.007689005571
0.007331282139 0.05352515984 -0.04140378952 -0.4177440025 0.003510722405 -0.9085579911
0.01861775398 0.00880999279 -0.03253507805 0.8979967338 0.4398450005 0.01175761797
0.01313816357 0.02195573044 -0.04477403259 -0.6396877061 -0.03255012045 -0.7679453941
0.01726821899 0.01120230198 -0.03205489731 0.831793186 0.5548000984 -0.01780299109
-0.002439697981 -0.02043633842 -0.03385618973 -0.02920588469 -0.9995734172 9.448238743e-15
0.01254490566 -0.01632347488 -0.03262073517 0.599525015 -0.8003339472 0.005943849916
0.01915441704 0.01175470924 -0.06667493439 0.9287044538 -0.1154463101 -0.3523920928
0.01424988079 -0.0148353591 -0.03392150879 0.6910182689 -0.7226953352 -0.01432496144
0.016181777 -0.01270528889 -0.03244225311 0.7821918517 -0.6230338239 0.002182065753
0.01870775604 -0.008585933685 -0.03239655685 0.9084407885 -0.4180134905 0.0002354489359
0.02005692291 -0.00464293623 -0.03245754242 0.9722997069 -0.2337303493 0.001844951967
0.02041464806 -0.00249680984 -0.03252741051 0.9929983418 -0.1174478318 0.01266095979
0.02059670258 -0.0002477242947 -0.03261945343 0.9999813186 0.0005510323414 0.006087602954
0.019427145 0.01652608299 -0.06712197113 0.9398957708 -0.03999703459 -0.3391108629
0.00869370683 -0.01038787142 -0.06401253128 0.4203954559 -0.711903343 -0.5625489231
0.02023050022 0.05468572807 -0.06424871254 0.979828483 0.007021011177 -0.1997169231
-0.002439697981 -0.02043633842 -0.03603411484 0.02920588469 0.9995734172 -4.782632623e-15
0.0133577013 -0.007459695339 -0.0629515686 0.6497583715 -0.5883168792 -0.481349466
0.008142524719 -0.0188949585 -0.03433421707 0.4181953704 -0.9083304733 -0.006955829418
0.01740876675 -0.01100881863 -0.03448981667 0.8523100999 -0.5229873748 0.007190222843
0.00226999259 -0.01936731911 -0.04931606674 0.09011808314 -0.9698096186 -0.2266010475
0.02015573025 -0.0007957759574 -0.05235935402 0.9796372153 -0.173850634 -0.1004334781
0.01808181477 -0.009808883667 -0.03448200417 0.8804710815 -0.4740438267 0.007288692767
0.02005917358 -0.004644104481 -0.03454521561 0.9720700729 -0.2344650962 0.01029038003
0.02054594612 0.00135279417 -0.03410419083 0.9970665514 0.07622535097 0.006927335373
0.01465508461 0.009408865929 -0.07321006775 0.6987088213 -0.2280181894 -0.6780956336
0.01998776436 0.00483054018 -0.03433589935 0.9777820291 0.2095186678 -0.006650667414
0.01861775398 0.00880999279 -0.03467251968 0.8979779955 0.4398564574 0.01272070585
0.01786370373 -0.006616018057 -0.05438193512 0.8648213845 -0.4419654516 -0.2382236607
0.01125091267 -0.01725099945 -0.03620917892 0.5392294045 -0.8421375959 0.00599323592
0.01254490566 -0.01632347488 -0.03611970901 0.5990049201 -0.8007447637 -0.0009639502091
0.01808360291 0.04879684067 -0.05078539276 0.8819820335 0.001525790476 0.4712805582
0.02059316635 0.0433986969 -0.06068247223 0.9998430398 0.01485165735 -0.00966043674
0.01988307762 0.01957836533 -0.06587646484 0.9730511226 -0.0203481046 -0.2296899376
0.01425108767 -0.01483592987 -0.03601576519 0.6912389541 -0.7224782694 -0.01462390257
0.02041552448 -0.002497274607 -0.03601626492 0.9919426648 -0.1265168625 -0.006575192011
0.02059670258 -0.0002477242947 -0.03611829185 0.9999977002 0.0009789837097 -0.001908190475
0.02054594612 0.00135279417 -0.03620987892 0.9970920473 0.07598904916 0.005754444113
0.01861775398 0.00880999279 -0.03609923935 0.8981050966 0.4396720331 -0.009784620576
0.01940937042 0.04970072556 -0.05377767944 0.9429742575 0.0002521243987 0.3328655676
0.01934550667 0.03010817146 -0.05356336975 0.9398182507 -0.007554350966 0.341591258
0.0002781079412 0.04605818939 -0.04001482391 0.09392365566 -0.06158600467 -0.9936727383
0.001420130014 0.04905312347 -0.04009274292 0.1191795152 -0.07137868883 -0.9903036534
0.003053442478 0.05362858963 -0.04022791672 0.09790030951 -0.06452306464 -0.9931023631
0.003411688328 0.05529130173 -0.04030035019 0.1130726495 -0.06754641687 -0.99128808
0.00627240324 -0.01959212685 -0.03803746223 0.3242694419 -0.9459393842 -0.006928959229
0.016181777 -0.01270528889 -0.03661885262 0.7895358536 -0.6136686736 0.006625326507
0.005287784576 -0.01761258316 -0.05334098816 0.2809813338 -0.9048010134 -0.319975962
0.02005966187 -0.004644358158 -0.03663574982 0.9720114674 -0.2347053068 0.0103501801
0.01944381332 0.006733627796 -0.03803655815 0.9519113291 0.3061963037 -0.01042329776
0.01626365471 -0.011979846 -0.04645197678 0.7887185454 -0.6039145528 -0.1149359345
0.01491625404 0.01419570446 -0.03821066284 0.7884284567 0.6150801057 0.007551974176
0.002791238427 0.02727837372 -0.04019415855 0.1128282655 -0.06263675031 -0.9916382506
0.003670118809 0.03116497421 -0.0403400383 0.1372916065 -0.06815807984 -0.9881829238
0.006530880451 0.04750097656 -0.04108533478 0.3917662491 0.001411862373 0.9200637004
0.02058266258 0.03982090759 -0.06032268143 0.9999011347 -0.008949612443 -0.0108455161
0.006307188511 0.04579508591 -0.04099665833 0.3802075097 -0.002350810326 0.9248982232
0.006757023335 0.04921329498 -0.04117497635 -0.3979314809 -0.001127231418 -0.9174144461
0.00698474884 0.05093272781 -0.04126571274 0.4040439105 -0.003956345697 0.9147310346
0.007682855606 0.05613105392 -0.04154385757 -0.4397508448 0.004425890215 -0.8981089054
0.0196987114 -0.002900614738 -0.05226343536 0.9571368947 -0.2609805717 -0.1256109311
0.01716770363 0.04214084625 -0.07189894104 0.8488698959 -0.003623287377 -0.5285894168
-0.002508767724 -0.02040674877 -0.04040860367 0.04621360763 0.9978186941 0.047139751
0.01452900124 0.01943323708 -0.04591643906 0.7447350888 0.1969978234 0.6376217571
0.008142347336 -0.01889487839 -0.03857683563 0.413031955 -0.9106632822 -0.009848386426
0.01680414963 0.05909571075 -0.07242023468 0.8158419295 0.004191070021 -0.5782597868
0.009799427986 -0.01811450386 -0.0384335022 0.4740073997 -0.8805111021 -0.004145371031
0.02057749939 0.0380477829 -0.06014608383 0.9986722022 -0.008117399097 0.05087180433
0.01125091267 -0.01725099945 -0.03831761932 -0.5339895888 0.8454888515 0.001928989968
0.01254490566 -0.01632347488 -0.03822294235 0.5950530718 -0.8036853079 -0.001329467718
0.01425176811 -0.01483625031 -0.038112854 -0.6917972195 0.7220666282 0.006032538318
0.016181777 -0.01270528889 -0.0380138073 0.7889935983 -0.6143839654 -0.004630867788
0.01808215141 -0.00980905056 -0.03796177673 0.8737765537 -0.4862736883 -0.007241148972
0.006793571472 -0.01364890575 -0.06066120911 0.3387535986 -0.8099143091 -0.4788369361
0.01870775604 -0.008585933685 -0.0379602623 0.9084465604 -0.4178999235 -0.009192436235
0.0197024231 -0.006008132458 -0.03799416351 0.9563221938 -0.2921538713 -0.009694181085
0.0205478096 0.056331604 -0.06203249741 0.9967623564 -0.01307406869 -0.07933393708
0.02005966187 -0.004644358158 -0.03803134918 0.9721823448 -0.234032115 -0.00951092373
0.009824186325 0.02740260887 -0.04251344681 -0.4885096261 -0.009838104026 -0.8725030412
0.02059670258 -0.0002477242947 -0.03822143936 0.9999701737 -0.0008400404438 0.00767763268
0.0008093823083 -0.01716667938 -0.05625171089 -0.03455215313 0.9235399521 0.3819425422
0.02054594612 0.00135279417 -0.03831835937 0.996593507 0.08245172567 0.001759185173
0.01988977242 0.04752319717 -0.06584804535 0.9685797474 0.0002523124123 -0.2487030545
0.02037488174 0.00302717948 -0.03843300629 0.9883762504 0.1518563068 -0.007214548213
0.01999460602 0.004826757908 -0.03857775879 0.9785686539 0.2058322254 0.006040239634
0.01747395706 0.01108499718 -0.04209466934 0.8666392946 0.4922598419 0.08134236975
0.01499206209 0.01415204239 -0.04038388252 0.8066204343 0.5847090763 0.08647988833
0.006579133749 0.02328794861 -0.04108699799 0.3856642587 -0.002186877335 0.9226366008
0.01466988945 0.04383772278 -0.04617855072 0.7258816918 -0.0180510272 0.6875826714
0.006877200127 0.02570878601 -0.04120526505 0.4016268771 -0.000370128689 0.9158033165
0.00707890749 0.02732980919 -0.04128528595 0.4093667404 -0.001958335339 0.9123678188
0.02023804092 0.01113058949 -0.05402594757 0.9848692704 0.09288282382 0.1463055066
0.01644693279 -0.01206899977 -0.04431579208 0.7963941714 -0.599211316 -0.08186649191
0.01889967346 0.03387719727 -0.05245024872 0.9213333197 0.001105804202 0.3887720299
0.007282884598 0.0289562645 -0.04136619949 -0.4121254788 0.005714654754 -0.911109177
0.007489148617 0.03058822632 -0.04144800949 -0.4220591853 0.006140828765 -0.9065474805
0.008120430946 0.03551873779 -0.04169910812 0.3809412041 0.0107870427 0.9245363372
0.008335167885 0.03717398453 -0.04178470993 0.397214073 0.01977537611 0.9175128962
0.009139900208 0.0439066124 -0.04214789581 0.4302519433 -0.002615662469 0.902705059
0.01010711718 0.05347723389 -0.04270335197 0.4850330522 0.008450809378 0.8744549857
0.01037384605 0.05613145065 -0.04286170197 0.4944327269 -0.003795596099 0.8692076116
0.01985945225 0.01544509077 -0.06545394135 0.9644984787 -0.05550267241 -0.2581901199
0.01055435085 0.05791159821 -0.04296883392 0.5005032646 0.0004744391474 0.8657345188
0.01622280025 0.05952494431 -0.04800548553 0.7875856313 0.009824641877 0.6161268942
0.01288515568 0.001474634737 -0.0712244873 -0.6067296124 0.4112148666 0.6802804649
0.01073689556 0.05969987869 -0.04307715607 -0.5063776686 -0.02207780244 -0.8620291337
0.01249244595 0.03806837845 -0.07695114136 -0.6563399889 -0.003804840786 0.7544556595
0.006264144421 -0.01958846092 -0.04017295456 0.314904114 -0.9487951098 -0.02496474607
0.01123115253 -0.01724191475 -0.04043257523 0.5388942243 -0.842022623 -0.0243087941
0.01252736425 -0.01631531715 -0.04033236694 0.5982730496 -0.8010841227 -0.01826435098
0.01870254803 -0.008583315372 -0.04005346107 0.907302538 -0.420271342 -0.01319483138
0.02005689335 -0.004642920256 -0.04012811279 0.9724024633 -0.2329252028 -0.01339026605
0.004280997276 -0.01870799065 -0.0505226059 0.2055502728 -0.9458863203 -0.2510939158
0.007790030479 -0.01565989876 -0.05598559189 0.378722511 -0.8439702364 -0.3798466791
0.01552051544 0.01717053986 -0.07390630341 0.7483206038 -0.06708660833 -0.6599361037
0.02041295099 -0.002495925575 -0.04021473789 0.9929987645 -0.1180286049 -0.004764679323
0.01770881844 0.03997836685 -0.05009423065 0.8591073815 -0.001881975624 0.5117919159
0.01637318611 0.03201564026 -0.04811326599 0.797317027 -0.009211228011 0.6034904404
0.0205944891 -0.0002465380803 -0.04032860374 0.9999555989 -0.002363187828 0.009122254137
0.02036495495 0.003032611609 -0.04055297089 0.9890876738 0.1469505258 0.01054118144
0.01999689102 0.004825494289 -0.03999457169 0.9792668842 0.2024283748 0.007689114521
0.0194452858 0.006732804775 -0.04017065811 0.9539413717 0.2995933984 0.01548079464
0.01727552605 0.01119813442 -0.04068120575 0.8316508395 0.5504880016 0.07293724166
0.01831052589 0.00335961771 -0.06452516937 0.8968803964 -0.2488095804 -0.3656492135
0.01045995712 0.01844902992 -0.04187182617 -0.5781910142 -0.3301498129 -0.7461208026
0.009413768291 0.02332851601 -0.04229419899 -0.44930368 -0.007605230863 -0.8933467208
0.01495806885 0.05537772624 -0.0465119311 0.7145944099 -0.006479305362 0.6995090049
0.009658525467 0.02576814842 -0.04242494965 0.4852159016 0.01040628059 0.8743324529
0.01023472452 0.03152417278 -0.04274103737 0.479641915 0.007831919748 0.8774293672
0.01047267151 0.03402365112 -0.04288251114 0.4903209447 -0.008267958979 0.8715027321
0.01136215687 0.04333709526 -0.04342577171 0.5490693043 -0.002883435322 0.8357718497
0.01160631275 0.04591895294 -0.04358084869 0.5532360313 0.001496254688 0.8330232019
0.01438155651 0.05327909851 -0.07531600189 0.6844805001 0.0004443248402 -0.7290310334
0.01277447605 0.04973742485 -0.04450539589 -0.6074201509 0.02311202161 -0.7940444539
0.01202742958 0.05119185638 -0.04391144943 0.594353239 0.0003819915738 0.8042040048
0.01216445732 0.05297079849 -0.04402518082 0.602060217 0.003989043769 0.7984407196
0.01342263317 0.01840333176 -0.04449855423 0.6625607123 0.2552449779 0.70417562
0.02021411705 0.03301737595 -0.05669748306 0.9819745642 0.01446203643 0.1884590269
0.01230756378 0.0547551918 -0.04413952637 0.6185252262 0.0116296197 0.7856788762
0.01252549887 0.05744922829 -0.04431365204 0.6218202982 -0.009415666619 0.7831033533
0.02055706596 0.0398382988 -0.06185046005 0.9985832035 -0.02237151943 -0.04828147527
0.01274675274 0.06016100693 -0.04449042892 -0.6178273824 0.02398378853 -0.7859479013
0.01761065865 0.05660246658 -0.04995357513 0.8611543033 0.005884201833 0.5083095928
-0.002766251802 -0.02029644394 -0.04263270569 0.393782153 0.9192037946 1.851859707e-07
0.003996141911 -0.0201246891 -0.04183849335 0.1955856209 -0.9794612189 -0.04901005482
0.00972282505 -0.01807969189 -0.04197736168 0.4752358047 -0.87834542 -0.05157764146
0.02045943451 0.009382798195 -0.05457035065 0.9952908929 0.07129722738 0.06567148527
-0.001386634827 -0.0193281517 -0.04982683563 -0.01208116694 -0.9697653074 -0.2437402182
0.01877160454 0.008723160267 -0.0425142231 0.9042927673 0.4151330003 0.09959509567
0.01973617554 0.006570298195 -0.04440422058 0.9631882306 0.2497301745 0.09951518622
0.01570588303 0.01374091339 -0.04246414948 0.7881674165 0.557801807 0.2600947283
0.01619297981 -0.01041084003 -0.05221765137 0.7816781966 -0.5803272103 -0.2284721556
0.01138563919 0.02129889107 -0.04344067383 0.5764752235 0.08611412215 0.8125642588
0.01663851357 0.03712680054 -0.04847964478 0.8066376669 -0.001092505673 0.5910452442
0.01450299072 0.007320923646 -0.07251715088 0.7071085301 -0.2535158662 -0.6600963811
0.01152976799 0.02291986275 -0.0435321312 0.553655098 0.01044258888 0.8326806019
0.01981071091 0.04757894897 -0.0550684967 0.9654524254 0.007007534413 0.2604851412
0.01939452934 0.03181018829 -0.05370490265 0.9431719767 -0.0004728775679 0.3323046775
0.01963013935 0.02734684563 -0.06674239731 0.9515505271 0.0002494222942 -0.3074923287
0.01166918564 0.02455092621 -0.04362561035 0.558199788 0.006825977105 0.8296784936
0.01220250702 0.03116597176 -0.04401667404 0.6036121997 0.00286858945 0.797272904
0.01736618423 -0.01098787498 -0.04216588593 0.844142255 -0.5344534892 -0.04222938768
0.02057709408 0.002916516542 -0.05045023346 0.9999603497 0.005679183489 -0.006859002214
0.01232292271 0.03284763336 -0.0441198616 0.618819343 0.01017743297 0.7854674026
0.01250640583 0.03538494492 -0.04427703857 0.6300147028 0.001408191754 0.7765819283
0.014888237 0.04734751129 -0.04642017365 0.7163189653 0.009435340028 0.6977091904
0.01281898499 0.03964915085 -0.04454468918 0.6445552664 -0.01913770253 0.7643181647
0.01303332901 0.02032095146 -0.04467397308 0.6514172108 0.1394269259 0.7457987328
0.01309026337 0.04308659744 -0.04476227188 0.6391273309 0.00304279913 0.7690949202
0.01082562685 0.005802099943 -0.07508026886 0.5293356865 -0.362198079 -0.7672133227
0.02003907776 -0.00463367033 -0.04223028183 0.9721635244 -0.2334279977 -0.02023491512
0.01199663544 0.05308913803 -0.07732065582 -0.6327763639 -0.004177962043 0.7743233291
0.0145851984 0.05313416481 -0.04611916924 -0.7008115751 -0.005672588424 -0.7133238802
0.01430994987 0.0590173378 -0.04581787872 0.7158683955 0.01590569447 0.6980540447
-0.003209579706 -0.02010652351 -0.04415937042 0.393782153 0.9192037946 1.851861007e-07
0.01104027271 -0.0007612244561 -0.0713563118 -0.5352476336 0.475371174 0.6982350734
0.006121719837 -0.01952522659 -0.04304542923 0.3012970661 -0.9507329041 -0.07298645826
0.01115869427 -0.01720860291 -0.04255862045 0.5364841388 -0.8408015815 -0.07237036311
0.01473925209 -0.01430379295 -0.04228916168 0.7067995479 -0.7059308346 -0.04578270266
0.01612665129 -0.01267862797 -0.04221589851 0.7788483722 -0.6263480898 -0.0329132725
0.01765083694 0.01925066566 -0.04993241882 0.8601649007 0.106439014 0.4987856051
0.01943131828 -0.006641386509 -0.042179636 0.9381243927 -0.3448481566 -0.03166026974
0.02039419746 -0.002486058652 -0.04232158661 0.9943153498 -0.1056851376 -0.01294746374
0.01722038651 0.02973480225 -0.04932879639 0.8591184304 -0.003701227023 0.5117634448
0.02037633896 0.003026381254 -0.04267292404 0.9901828318 0.1388649591 0.01595251293
0.0168041811 0.01310834217 -0.04447603607 0.8225133016 0.4816830169 0.3024125326
0.01789465714 0.04709272385 -0.07079728699 0.8718065709 0.01014458645 -0.48974523
0.002924027443 -0.01342281151 -0.06281598663 0.1517665183 -0.811429191 -0.5644019773
0.01451715469 0.03145297813 -0.04603486824 0.7008356489 0.01536766118 0.7131572255
0.009500120163 -0.01490754414 -0.05577035522 0.4555037545 -0.8108973716 -0.3673714501
0.01487725321 0.03356176631 -0.04640012995 0.7089303395 0.004251265484 0.7052656949
0.01479168081 0.0356763134 -0.046315485 0.7141758548 -0.006151976347 0.6999392842
0.0148992815 0.03738255882 -0.04643035698 0.714653018 0.004471008745 0.6994648482
0.0143882885 0.03951007462 -0.04588701057 0.7148354477 0.009751104562 0.6992247126
0.01751692963 0.05478472519 -0.04981161499 0.865169223 -0.0002256916406 0.5014799743
0.01568381405 0.03954400635 -0.04726359177 0.7584247476 -0.003163836795 0.6517529381
0.01499934578 0.04911553192 -0.04654309464 0.7301094762 0.006903944155 0.6832953156
-0.004023120403 -0.01975800705 -0.04574773788 0.393781983 0.9192038674 3.885062192e-07
0.003614626884 -0.01995729446 -0.04476751709 0.1729723405 -0.9766397278 -0.1274967118
0.001171266913 -0.01103434086 -0.06630140686 0.1115643849 -0.779646831 -0.6162014337
0.005909758091 -0.01943112183 -0.04450647736 0.2909496982 -0.9505194341 -0.1089085784
0.008701982021 -0.01838324547 -0.04421335793 0.4151352978 -0.9050951911 -0.09200749751
0.01735097313 -0.009445453644 -0.04999739838 0.8348096885 -0.5231782699 -0.1713980221
0.01102177811 -0.01714565659 -0.04399227142 0.5335417551 -0.8418920822 -0.0809377386
0.01956847572 -0.004389315605 -0.050046978 0.9507391425 -0.288808734 -0.1126259213
0.01234150791 -0.01622888756 -0.04387980652 0.607968086 -0.7898115726 -0.08107087149
0.02020942307 0.02105346489 -0.06448710632 0.9816548774 0.001781203847 -0.1906581472
0.01348980045 -0.01523929453 -0.04449846649 0.6445507392 -0.7575776974 -0.1031037196
0.01458571863 -0.01423075867 -0.04441984177 0.7014685847 -0.7066600433 -0.09259269855
0.01555187941 -0.0131651907 -0.04436195564 0.7528021045 -0.652694696 -0.0853148594
0.01794159412 -0.009739154816 -0.04427180672 0.8726370577 -0.4815585781 -0.08127669595
0.01934916353 -0.006599437714 -0.0442938776 0.9348155339 -0.3512216416 -0.05256687291
0.01997936916 -0.004602666616 -0.04434353447 0.9702844682 -0.2386920822 -0.03967544172
0.02035634375 -0.002466124356 -0.0444359045 0.9930369368 -0.1160043639 -0.02050925733
0.02057624817 -0.0002367618382 -0.04455560493 0.9998199021 -0.01762594327 0.007034877347
0.0204149189 0.003005267859 -0.0440834465 0.9927901331 0.1185675722 0.01759211548
0.02017144394 0.04732457352 -0.05653125 0.9801893176 0.00360626945 0.1980300392
0.0204989624 -0.0001953382641 -0.0481007576 0.9975481803 -0.06518233908 -0.02547333137
0.01500616646 0.01747278976 -0.04572171783 0.7572296809 0.2540660171 0.6017089573
0.01484128857 0.02604921532 -0.04635341644 0.7195835818 -0.004504425798 0.6943912291
0.01662415123 0.04798036194 -0.07268972778 0.8113033464 0.002141425741 -0.5846214967
0.01638843918 0.05185076904 -0.04814918518 0.7938995345 -0.00518018108 0.6080268867
0.02057052517 0.005306243181 -0.05421491432 0.999829702 -0.01731134322 -0.006394082796
0.016567873 0.05547274017 -0.0484213028 0.8002380149 0.002663918128 0.5996765987
0.01665920258 0.05729857254 -0.04855976486 0.7878970237 0.01484721602 0.6156280047
0.01816270351 0.01727655697 -0.05044335175 0.8952712975 0.1369705976 0.4239438162
0.02045138931 0.001404005885 -0.05248814774 0.9919143203 -0.09302630125 -0.08632547934
0.01976587677 0.001775281549 -0.05834786224 0.9542067484 -0.2030147149 -0.2197146032
0.006909412543 -0.0188544515 -0.04631787745 0.3158585647 -0.9378223567 -0.1439534453
0.01074626589 -0.01701899338 -0.04616020203 0.5386493532 -0.8320803549 -0.1322843804
0.01210318375 -0.0161180582 -0.04603640747 0.5935727431 -0.7945413827 -0.1279663621
0.01934457016 0.008399783134 -0.04600928879 0.9427314952 0.2962849111 0.1532076353
0.01867266083 0.01040154457 -0.04623373413 0.9075526148 0.3576422976 0.2200914318
0.01787050056 0.01249418926 -0.04648163986 0.8759140009 0.3735288029 0.3053700974
0.02021657467 0.02783042526 -0.06444075584 0.9850808984 -0.01116203566 -0.171729533
0.01624922943 0.01674232101 -0.04698669815 0.8088950972 0.2549871319 0.5297832428
0.01856340218 -0.006198057652 -0.05217965508 0.9004264417 -0.392358208 -0.1878490344
0.01614826393 0.02695755959 -0.07339013672 0.7784690972 -0.003562278082 -0.6276728247
0.01685765553 0.01555578184 -0.07196372223 0.8305403611 -0.0887933175 -0.5498349346
0.01850247383 0.03766490173 -0.06960053253 0.9051532425 -0.01026520367 -0.4249614491
0.01626056242 0.02008404732 -0.0479643631 0.7933473509 0.0889959231 0.6022289486
0.01668969599 0.02547795677 -0.04856636556 0.7972407448 0.01126889636 0.6035562996
0.01624021816 0.02949089813 -0.04793570518 0.7963914791 -0.0008284677143 0.6047808906
0.01646323204 0.03370943832 -0.04823350906 0.7942340632 -0.01276571574 0.6074778098
0.02057857132 0.02589331245 -0.06044934082 0.9997388562 -0.002102074061 0.02275523478
0.01780034065 0.02337421513 -0.05023765564 0.8633681501 0.0001595983031 0.504574486
0.02039050484 0.01349029016 -0.05638393211 0.9923217344 0.06174405017 0.1071692477
0.01655434227 0.03541135788 -0.04835517502 0.8073514013 0.0002558461137 0.5900708851
0.01581907463 -0.01022693634 -0.05370698547 0.764014615 -0.5915204392 -0.2576533293
0.01672171021 0.03885207748 -0.04860593033 0.7883905439 0.01413205564 0.6150127115
0.01724233246 0.04939007187 -0.04939554214 0.8401657892 -0.01585431665 0.5420978577
0.01675309753 0.03352162933 -0.07250865173 0.8168222052 0.006801768863 -0.576849392
0.01742430878 0.05297684097 -0.0496713028 0.8653769106 -0.003047704454 0.501112277
0.01962829208 0.04046925354 -0.05444263077 0.9561820169 -0.008326290897 0.2926544437
0.01780148315 0.06026807785 -0.05024250793 0.8621307579 0.009760915811 0.5065918287
-0.0004894355536 -0.01971714973 -0.04821752167 0.03758188103 -0.9759452125 -0.2147522862
0.005110343456 -0.01907620049 -0.0482206459 0.2620522726 -0.9459733268 -0.1909530606
0.009779452324 -0.004097406864 -0.06978610992 -0.4703344876 0.5580896326 0.683609122
0.01324883747 -0.01512595749 -0.04665249634 0.6424833659 -0.7533849456 -0.1400937124
0.0143421936 -0.01411491585 -0.04657063293 0.6973196519 -0.7053673393 -0.1272879397
0.01533842373 -0.01306250668 -0.04650518799 0.7476570274 -0.6515360522 -0.1284902412
0.01705762672 -0.01083611298 -0.04642095947 0.827996601 -0.5490168485 -0.1140268773
0.02057357502 0.04704100418 -0.06028869057 0.9998787423 0.004451397548 0.01492265851
0.01778519821 -0.009661383629 -0.04640161514 0.8657349289 -0.487083987 -0.1151182981
0.01986377144 -0.004542644501 -0.04647023392 0.9659552602 -0.2511690109 -0.06200454218
0.02057589722 0.03278072166 -0.06037851524 0.9999902858 0.004286424919 0.001027109006
0.02029623413 -0.002434471965 -0.04655786133 0.9903190452 -0.1332983404 -0.03872649184
0.02053507996 -0.0002146965861 -0.04668014145 0.9986481101 -0.05087090598 -0.01068190873
0.01726275063 0.01614673805 -0.04827986526 0.8334943216 0.2219283346 0.5059990417
0.01691390991 0.01801774216 -0.0484641571 0.8217484418 0.1776478342 0.5414524406
0.01729940605 0.03142124367 -0.04945262909 0.8566532814 -0.008352742691 0.5158249578
0.01075837135 0.001791188478 -0.07316495514 -0.5121490467 0.4243227851 0.7467620291
0.01737936783 0.03311585617 -0.04957793808 0.8630990755 0.004100263389 0.5050179935
0.01999754429 -0.000711503631 -0.0538122673 0.9748454155 -0.1864552436 -0.1221100241
0.01693026829 -0.00223446846 -0.06279228973 0.8123620094 -0.4096708932 -0.4150153311
0.02010569668 0.05950390053 -0.05615633011 0.9725609781 0.05923961669 0.2249795805
0.0119162674 0.02785504341 -0.07738573456 -0.6354832331 0.0009628544735 0.7721140676
0.01746027946 0.03481875229 -0.0497047348 0.8655052653 0.0003814664863 0.5008996807
0.01758357239 0.03738997269 -0.04989795494 0.8587786226 0.01049022467 0.5122394289
0.004449097157 -0.01723583794 -0.05494609833 0.2186894043 -0.9049617325 -0.3649920646
0.01779363441 0.04171562195 -0.05022714615 0.866216921 -0.005769945104 0.4996348201
0.01787539101 0.04346456146 -0.05036235809 0.8698044329 -0.0001800916797 0.4933966114
0.01801518822 0.0470085144 -0.05064238358 0.881221311 0.002191909689 0.4726988434
0.01829140091 0.05422327805 -0.05122517395 0.8884923242 0.003535810885 0.4588778572
0.008305522203 -0.01435201502 -0.05817285156 0.3939201334 -0.8161155812 -0.4228265443
0.01085518614 -0.0160496556 -0.05023430379 0.5403089896 -0.8091188243 -0.2310690889
0.007000121117 -0.01838178062 -0.04872097015 -0.3565910065 0.9101717545 0.2107847986
0.02030936337 0.003063034534 -0.05621954346 0.9876394581 -0.1123953428 -0.109250115
0.02022286987 0.034759758 -0.06441268158 0.9797168751 0.01239570202 -0.2000029779
0.008791088104 -0.01765625191 -0.04851872253 0.4205295817 -0.885816274 -0.1961744116
0.001222477794 0.001841189504 -0.07660510254 0.1479503991 -0.4916102588 -0.8581550168
0.01036323833 -0.01684290123 -0.04835312653 -0.5055082981 0.8410470062 0.1926169618
0.01177254581 -0.01596430111 -0.04821502686 -0.5736234355 0.8002341285 0.1748756523
0.02006005955 0.05108355522 -0.05613376236 0.9760286686 0.01060257969 0.2173835857
0.01414303017 -0.01402017593 -0.04801517105 0.6903658967 -0.706162683 -0.1572551868
0.01516005611 -0.01297670269 -0.04794431305 0.7403250697 -0.6539469317 -0.1557953839
0.01608798027 -0.01189439201 -0.04788909912 0.7786822116 -0.6108355118 -0.143296863
0.01386936665 -0.01388999557 -0.0494764328 0.6715145473 -0.7126346053 -0.203027417
0.0172650795 -0.01017145967 -0.04784399796 0.8273971284 -0.5457887794 -0.1323956201
0.01880551434 0.01359373951 -0.05007105446 0.9184539706 0.2350662993 0.3180976876
0.01730927467 -0.008654769897 -0.05218147469 0.8378874806 -0.5032907801 -0.2112888081
0.0191168623 -0.006480819225 -0.04784448624 0.9217735537 -0.3727074901 -0.1068767632
0.01976419067 -0.004490938187 -0.04789529419 0.9594013085 -0.2673042468 -0.08998649246
0.02022449493 -0.0023966223 -0.04798086166 0.9852986207 -0.1586683229 -0.06333238768
0.02058755302 0.001330259562 -0.04819868851 0.998901923 -0.044660793 -0.0141549196
0.02054973412 0.002931489468 -0.04831986237 0.9994569768 0.03198603208 0.0079148811
0.01883679962 0.02358249569 -0.05233431244 0.91485837 8.293017025e-05 0.4037748828
0.01431415176 0.02810097313 -0.07540547943 -0.6917425957 0.01476016353 0.7219932956
0.01987823105 0.008098589897 -0.04878964996 0.9652446417 0.2108137881 0.1544678882
0.01811845398 0.00909179306 -0.06806214905 0.8815669844 -0.1786976972 -0.4369288101
0.018442626 0.01545340109 -0.05026364708 0.9043325169 0.1919283878 0.3812429577
0.01768550301 0.0209087429 -0.05005768967 0.8626685452 0.0419808488 0.5040243937
-0.001107667565 -0.01315763092 -0.06354162216 0.08168100211 0.8524481609 0.5163916603
0.01790908051 0.02585984039 -0.05042192459 0.8726483323 -0.006670823792 0.4883035821
0.01797995186 0.02752911949 -0.05054723358 0.8691503903 -0.009019132832 0.494465625
0.01810485077 0.0309043541 -0.05080587387 0.8776658996 0.006562059356 0.4792280335
0.01819973087 0.033459589 -0.05100430679 0.8829393967 0.004948427729 0.4694608981
0.01829614639 0.0360321312 -0.05120592117 0.8895912978 0.0005507413669 0.4567570685
0.01545661545 0.01888267899 -0.07411363983 0.7434190387 -0.0338160683 -0.6679705131
0.01869609165 0.03753582382 -0.0520356369 0.9094638387 0.003866556482 0.4157650489
0.01882304859 0.04101629448 -0.05231853294 0.9241178379 -0.002711530585 0.3820979838
0.01873050976 0.04742459679 -0.05212428856 0.9174776358 0.01499732906 0.3975045509
0.01883500099 0.05010951614 -0.05234628296 0.9127797662 -0.006841206372 0.40839478
0.008373342514 -0.01746640205 -0.05001913834 -0.4149984484 0.8790400318 0.2346591365
0.01289846166 -0.0144513588 -0.05052275085 0.6327283561 -0.7410624881 -0.2246802533
0.01505266221 -0.0124145689 -0.05035314178 0.7257657532 -0.6556739275 -0.2082204896
0.006665829659 -0.01669039917 -0.05464160156 0.322354519 -0.8758263526 -0.3591876449
0.00830521965 0.003078578711 -0.07529646301 -0.4000324147 0.4129582636 0.81819285
0.01657316875 -0.01059783411 -0.05002689934 0.8040056727 -0.566129809 -0.1818568602
0.01880353642 0.03132444286 -0.05224584961 0.9115091951 0.007095272989 0.4112184875
0.01643899155 0.04995655823 -0.07296033478 0.8015116492 0.004568397314 -0.5979617094
0.01887704849 -0.006358262897 -0.05000168705 0.9084798595 -0.3931986894 -0.1416302778
0.02053591061 0.001358229399 -0.0503380394 0.9956384734 -0.08457734854 -0.03937895809
0.02043228722 0.005383335352 -0.04994384575 0.9923084153 0.1043073285 0.06666326002
0.01944759941 0.01158584881 -0.05055452347 0.9429229079 0.2189390749 0.2509224405
0.0203908577 0.03116464615 -0.05799759293 0.9904350935 0.008664814445 0.1377071043
0.01840605927 0.01879795647 -0.05126532364 0.9060229535 0.07042323791 0.4173283782
0.01865402603 0.02144322141 -0.05193682226 0.9106190316 0.01468994073 0.4129856958
0.02030315971 0.007858762741 -0.06025025558 0.9839217669 -0.09651056275 -0.150278634
0.01889261246 0.0252466898 -0.05246577072 0.9267552954 -0.002076424482 0.3756598339
