# .PCD v0.7 - Point Cloud Data file format
VERSION 0.7
FIELDS x y z normal_x normal_y normal_z
SIZE 4 4 4 4 4 4
TYPE F F F F F F
COUNT 1 1 1 1 1 1
WIDTH 563
HEIGHT 1
VIEWPOINT 0 0 0 1 0 0 0
POINTS 563
DATA ascii
0.008142495155 -0.01889494514 -0.0350406208 0.4092365991 -0.9124265097 0.00180841947
0.02040884924 -0.002493734539 -0.0138020196 0.98741578 -0.1578633302 -0.0094470274
0.01897345924 -0.007950485468 -0.0317077055 0.9261907531 -0.3768942875 -0.01101748316
0.02055533934 0.0005611825138 -0.01385912752 0.9999304022 -0.004912613324 -0.01072645735
0.02017201233 0.00393400836 -0.01394424415 0.9737576095 0.2272231502 -0.01287470287
0.01944352436 0.006733788967 -0.01403129768 0.9277744516 0.3731413774 0.0002817732746
0.02044926071 0.06019836617 -0.05852973175 0.9935199607 0.04541046737 0.1041920209
0.01861775398 0.00880999279 -0.01410711908 0.9296856492 0.3683158335 0.005295319583
0.01036754246 -0.01776338654 -0.02044974937 0.511267695 -0.8594125379 0.00392857744
0.01726821899 0.01120230198 -0.01420990658 0.8541664576 0.5199996743 3.708925471e-05
0.01726821899 0.01120230198 -0.02275840664 0.8484445642 0.529277709 -0.002632155769
0.01808221912 -0.009809084415 -0.03865902328 0.8866456731 -0.4624491963 0.0004372342883
0.01491625404 0.01419570446 -0.01436398602 0.7863175912 0.6178225034 4.205837068e-15
0.01574450874 -0.01325785542 -0.03873080635 0.7607759206 -0.6490057386 -0.003398523931
-0.002457632899 -0.02042865467 -0.01724449062 0.03136386596 0.9995070034 -0.00143457355
0.0128965044 0.04872613907 -0.07661054993 -0.6396046066 0.009847484731 0.7686409918
0.001430114627 -0.02054940796 -0.017054883 0.0947022196 -0.9955055892 0.0003337392251
0.01510624361 0.03020816135 -0.04662731171 0.7351729511 0.01831186041 0.6776322068
0.004111634254 -0.02017536163 -0.0169339056 0.2395229296 -0.9708512012 -0.008758505746
0.006260462284 -0.01958682442 -0.01684333038 0.3019639174 -0.9532017003 -0.01497701808
0.01337907457 0.01259286833 -0.07532061005 -0.6645943924 0.1790666116 0.725430522
0.008143258572 -0.01889528847 -0.01676801491 0.4096504043 -0.9122310287 -0.004593099048
0.01064992638 -0.01758705101 -0.01709403 0.510530444 -0.8598139766 -0.008865180681
0.02013785553 0.04311347071 -0.06481182988 0.9760858087 -0.01160878345 -0.2170754021
0.01896731329 -0.007947362304 -0.02063939953 0.9263113803 -0.3765892095 0.01130459858
0.006127584934 0.04223184967 -0.08026537323 0.3940229052 0.03002352959 -0.918610112
0.01254490566 -0.01632347488 -0.01730798658 0.6045971769 -0.7964902675 -0.008093673822
0.01423852173 -0.01482998276 -0.01725893354 0.6847015185 -0.7288227125 0.001133287432
0.01924613253 0.02108252398 -0.05329892985 0.9321850904 0.04175329878 0.3595658761
0.02018417311 0.003927284241 -0.03779896259 0.9750536674 0.2218723149 -0.006559089631
0.01752004941 0.04250297419 -0.04981749852 0.8443169794 0.005692856493 0.5358138013
0.02012897809 0.03365576935 -0.06481645203 0.9830029008 -0.009395155026 -0.1833494696
0.01573642159 -0.01325396538 -0.01722212505 0.7614724464 -0.6481970419 0.0005552849478
0.01700364272 -0.01157573144 -0.01719990746 0.8245244729 -0.5658258693 0.0006922303865
0.01807953898 -0.009807751973 -0.01718988387 0.8871918467 -0.4614003135 0.0006146677541
0.01896539911 -0.007946389437 -0.01719223611 0.9262966344 -0.3767948409 0.0004393153617
0.01987002977 -0.005320527077 -0.01721348619 0.9648623659 -0.2627557889 0.000101158927
0.02040184832 -0.002490084678 -0.04161881638 0.9867802957 -0.1620317514 -0.003218618998
0.01890495936 0.02129045486 -0.06871864319 0.9141722441 -0.007829715721 -0.4052502976
0.02055926609 0.0005590633278 -0.01732999388 0.9999845743 -0.00408200212 0.0037667445
0.004878512919 -0.01974552107 -0.04390287971 0.258038446 -0.9599440429 -0.1091952141
0.02017239618 0.003933796048 -0.01673774815 0.973550162 0.2281174765 -0.01274750698
0.01944381332 0.006733627796 -0.01684224796 0.928968434 0.3698382681 -0.01540467964
0.01861775398 0.00880999279 -0.03538587952 0.9253622361 0.3790840182 0.0001977774979
0.01861775398 0.00880999279 -0.01693327522 0.9261846911 0.3770596045 -0.002823586129
0.01491625404 0.01419570446 -0.0172416029 0.7863175912 0.6178225034 1.488392742e-15
0.01570645761 -0.01323955107 -0.04153368759 0.757697698 -0.6515319991 -0.03741994926
0.01708855867 0.01542183995 -0.04751693344 0.8256844217 0.2725159648 0.4939436048
0.01805871105 -0.009797394753 -0.04145459938 0.8847213254 -0.465296713 -0.02769738865
-0.002443106532 -0.02043487835 -0.020124259 0.03037586535 0.999538083 -0.0009630414026
0.003053442478 0.05362858963 -0.04022791672 -0.253842393 0.02753990472 -0.9668534497
-0.003616350055 -0.01993226528 -0.04495355415 -0.09053306517 -0.984924781 -0.1474006104
0.008227799416 0.03634636116 -0.04174190903 0.3752797601 -0.001006901403 0.9269110463
0.001430114627 -0.02054940796 -0.01990394115 0.09331177804 -0.9955304751 -0.01455971171
0.01612869199 0.0545343984 -0.04787540944 0.7744088535 -0.005799977886 0.6326589033
0.004111634254 -0.02017536163 -0.01976275444 0.2390089989 -0.9709844279 -0.007996203614
0.01987221575 -0.005321661949 -0.02066488934 0.964617014 -0.263334917 0.01298991092
0.006265002489 -0.01958884144 -0.01965674496 0.2922840652 -0.9563165726 -0.005351467201
0.02017287668 0.00393353045 -0.02023342387 0.9758088032 0.2182958714 -0.01200383398
0.01254490566 -0.01632347488 -0.02077849865 0.6029279739 -0.7977752008 0.005708517997
0.01944381332 0.006733627796 -0.01965578461 0.9287106744 0.3705405258 -0.01400721372
0.00627226758 -0.01959206581 -0.03519651222 0.3016504389 -0.9534134371 -0.00313537712
0.01861775398 0.00880999279 -0.0197620182 0.9261035593 0.3772639307 -0.002030774221
0.0196604557 0.006612599134 -0.04370247269 0.9533760547 0.2977679438 0.04907494235
0.01048911524 0.01256649876 -0.07741889572 0.555638793 -0.1906866001 -0.8092614857
0.01726821899 0.01120230198 -0.01990600967 0.8531192231 0.5215352626 -0.01373175167
0.01019536018 0.05435933304 -0.04275574493 0.5105132875 -0.00943424068 0.8598181077
0.01424093032 -0.01483112264 -0.0207194376 0.6841655627 -0.7292300396 0.01187569732
0.01574097061 -0.01325615406 -0.02067509365 0.7611529112 -0.6484569382 0.01224112751
0.01700697327 -0.01157736063 -0.02064850998 0.8246863769 -0.5654569695 0.01227987747
0.01552019119 0.01550507927 -0.07371807861 0.7656778583 -0.09541488258 -0.6361080234
0.0142102201 -0.01481660175 -0.04162218475 0.6795896269 -0.7324267483 -0.04134002199
0.01808047485 -0.009808217049 -0.02063664818 0.8868998944 -0.4617594493 0.01366705
0.02041161823 -0.002495203048 -0.02071927834 0.9874131629 -0.157840947 0.01007378524
0.02056226635 0.0005574405491 -0.02080469847 0.9998792253 -0.005119676575 0.0146739107
0.01681845538 0.012008015 -0.04174667486 0.8374825957 0.5226602688 0.1595278827
-0.002439697981 -0.02043633842 -0.02300767994 -0.02964866136 -0.9995602875 0.0004342724292
0.001430114627 -0.02054940796 -0.02275604248 0.08433881665 -0.9964314321 -0.003371206777
0.01052296925 -0.01768173933 -0.0320498004 0.5113575516 -0.8592388403 -0.01490200317
0.01597131697 0.0515279274 -0.04765265401 0.7600682042 0.01852950902 0.6495790809
0.004111634254 -0.02017536163 -0.02330330086 0.2381037952 -0.9712397141 -2.019051157e-05
0.01321212769 -0.008167424679 -0.06219215775 0.6569343409 -0.6015644249 -0.4544859893
0.001322245479 -0.02050263882 -0.04141458321 0.07731344265 -0.9954948653 -0.05488720101
0.01907922935 0.05459027481 -0.06833935165 0.9391101267 -0.0001949865819 -0.3436162568
0.006270284812 -0.01959118589 -0.02317787997 0.2994548473 -0.9541104725 2.557902854e-05
0.01944381332 0.006733627796 -0.02317716789 0.9289214745 0.3702767799 2.04925633e-05
0.01893230915 0.0364953289 -0.06862847328 0.9122918244 -0.007974049689 -0.409463114
0.01861775398 0.00880999279 -0.02330243238 0.9250252999 0.3797935833 0.009221099694
0.01978007269 -0.005274154186 -0.04432511234 0.9583446287 -0.2803524048 -0.05457198768
0.01344302559 0.05457552973 -0.04505024974 0.6501745912 -0.007566443764 0.7597471618
0.01491625404 0.01419570446 -0.02300517845 0.7863175912 0.6178225034 9.131150697e-16
0.01739579328 0.02732383601 -0.04961304855 0.834341927 0.009892055089 0.5511585035
0.01051583147 -0.01767846346 -0.02365338039 0.5175269759 -0.8556240694 0.008560435512
0.01835212708 0.01058430099 -0.068174263 0.8943027901 -0.1550668698 -0.4197341844
0.01254490566 -0.01632347488 -0.02355855274 0.602587498 -0.7980274348 0.006365573916
0.01977860212 -0.00216150856 -0.05301951313 0.9571605262 -0.2458648131 -0.152951694
0.01424280977 -0.01483201218 -0.023491436 0.6833150046 -0.7299822202 0.01437228859
0.01808074188 -0.009808350086 -0.02339770317 0.8869106683 -0.4616931439 0.01512968251
0.001497400522 -0.01902833557 -0.05090005493 0.07747219203 -0.9622400894 -0.2609445724
0.01987396669 -0.005322571039 -0.02342959738 0.9645499723 -0.2633874428 0.01644402588
0.01249244595 0.03806837845 -0.07695114136 -0.6266252636 0.00413986751 0.7793097205
0.01995783615 0.04565128517 -0.05563580894 0.9717338744 -0.02093189041 0.2351491725
0.02056435442 0.0005563098788 -0.02358808279 0.9998538234 -0.004365492756 0.01653100945
0.004472934604 0.005910507679 -0.07790888977 0.2424829153 -0.3856938977 -0.8901922563
0.02017335796 0.003933264494 -0.02373360014 0.9753529799 0.2206416155 0.001960136844
0.02018955088 0.05754235744 -0.05673715878 0.9811478263 0.02837748642 0.1911639644
-0.002439697981 -0.02043633842 -0.02589484024 0.02926819313 0.9995715921 -7.202087831e-05
0.001430114627 -0.02054940796 -0.02632632828 0.09213151797 -0.9957410283 0.003404097521
0.01927566433 0.000461433962 -0.0590323143 0.9396351825 -0.2558055555 -0.2272646951
0.01726821899 0.01120230198 -0.02632906405 0.8525189942 0.5226854036 0.003366512973
0.01491625404 0.01419570446 -0.02589202499 0.7863175912 0.6178225034 5.641320744e-15
0.01744353008 0.0392641716 -0.07151274872 0.8450842076 0.00192066225 -0.534629772
0.004111634254 -0.02017536163 -0.02684905148 0.2387058233 -0.9710440852 0.00963921516
0.02011813164 0.06044734573 -0.0562455368 0.978082772 0.05375380304 0.2011581957
0.006271861792 -0.01959188652 -0.02670440865 0.3091427025 -0.9509951216 0.006250447634
-0.002439697981 -0.02043633842 -0.03168151951 0.02920588469 0.9995734172 -1.301736496e-14
0.008142848492 -0.01889510441 -0.02658606339 0.4167784014 -0.9089246236 0.01232041871
0.01051882219 -0.01767983294 -0.02644797659 0.5102057521 -0.8598983073 0.0162785658
0.001146912515 0.04829536438 -0.04007137108 0.1483693178 -0.0505604644 0.9876386915
0.002791238427 0.02727837372 -0.04019415855 0.2405560986 -0.01117302457 0.9705709283
0.01424469137 -0.01483290291 -0.02626699543 0.6843398538 -0.7291586636 -0.002570561923
0.01254490566 -0.01632347488 -0.02634221554 0.594559199 -0.804049866 0.001780980518
0.00824982357 0.03903107834 -0.07945968628 -0.4702854634 -0.02765429336 0.8820809617
0.006271996975 -0.01959194565 -0.02953042889 0.2990184811 -0.9541178206 0.01572044171
0.001430114627 -0.02054940796 -0.03564000511 0.09504963185 -0.9954718128 0.00119888023
0.01574450874 -0.01325785542 -0.02621080017 0.7604985235 -0.6493377192 -0.001588123712
0.01897038174 -0.007948921561 -0.02616558647 0.9265643759 -0.3761362079 0.0001020090649
0.02026036453 -0.002415547132 -0.0472693615 0.977208378 -0.203990847 -0.0587496402
0.01516005611 -0.01297670269 -0.04794431305 0.7262429095 -0.6690850787 -0.1577859113
0.01987571955 -0.005323481321 -0.02619785976 0.9642282424 -0.2650733578 -0.0001070066628
0.02041307545 -0.002495975912 -0.02626700211 0.987247791 -0.1591910269 0.0001267225359
0.01774268532 0.05088693237 -0.05023138618 0.8508855218 0.00264033429 0.5253445131
0.01726821899 0.01120230198 -0.0327721386 0.853207198 0.5211962537 0.01979753583
0.02056644487 0.000555177778 -0.02637503815 0.9999828392 -0.00585011366 0.0003122716553
0.01494379139 0.04823152161 -0.04648163414 0.7312325344 0.007753927966 0.682084201
0.0174706192 0.05388078308 -0.04974145889 0.8509360906 -0.003523537006 0.5252574173
0.01370567322 -0.01150774384 -0.05607875538 0.6653580495 -0.6684467022 -0.3323818168
0.01944381332 0.006733627796 -0.02670372581 0.931788663 0.3629988921 0.001300691118
0.0199375871 0.03612129466 -0.06561806234 0.9680384286 0.01326817884 -0.2504507063
0.01861775398 0.00880999279 -0.02684805012 0.9289056032 0.3700561347 0.01388659725
-0.002439697981 -0.02043633842 -0.02878597069 0.02920588469 0.9995734172 9.934761347e-15
0.0164041214 0.02423237801 -0.07302791214 0.800969555 -0.008612083359 -0.5986431358
0.001430114627 -0.02054940796 -0.02990250111 0.09462480633 -0.9952965153 0.02076036501
0.02046008301 0.003775196791 -0.04768179607 0.9918155661 0.1158274392 0.05372045426
0.004111634254 -0.02017536163 -0.02969039059 0.238033165 -0.9711992515 0.01059368753
0.01766916593 0.03351319631 -0.05007343547 0.8583051252 -0.01927713767 0.5127774411
0.008142730713 -0.01889505196 -0.02939958382 0.4175272026 -0.9086643639 -0.0003299361849
0.01291052055 0.03601131439 -0.07662127686 -0.6497331683 -0.0006581909159 0.7601620727
0.01052089405 -0.01768078518 -0.02924666309 0.5097788182 -0.8602990403 0.003334329744
0.001430114627 -0.02054940796 -0.03276873398 0.0938116142 -0.9953649685 0.02116507687
0.01302183867 0.04222543526 -0.04470759964 0.6259328245 0.003485562091 0.7798691878
0.01308574629 0.02113834095 -0.04472400284 0.6581525283 0.1189913991 0.7434220178
0.0119162674 0.02785504341 -0.07738573456 -0.6056042687 0.01595971469 0.7956059057
0.01254490566 -0.01632347488 -0.02912992001 0.5964363742 -0.8026487824 -0.00431087114
0.01425068537 -0.01483573961 -0.03531767972 0.6860922193 -0.7275102017 0.002524484563
0.01424657559 -0.01483379459 -0.02904654741 0.685779482 -0.7276690061 -0.01429404036
0.01842756271 0.03949466324 -0.05148066711 0.9000056227 -0.004467421371 0.4358553903
0.01938861783 0.01876490784 -0.05357350032 0.9524218598 0.03729891463 0.30249197
-0.002672044635 -0.02033680153 -0.04188967133 -0.04919113602 -0.9972431636 -0.05555452171
0.01574450874 -0.01325785542 -0.02898459625 0.7614267341 -0.6481124113 -0.01340264641
0.003502540231 0.03038065434 -0.04030932045 0.2692099629 -0.004939025228 0.9630688459
0.004974417448 -0.01798880323 -0.05239757029 0.2619773047 -0.9211954163 -0.2876923648
0.01701113462 -0.01157940745 -0.02894726038 0.8249849221 -0.5649996174 -0.01324049006
0.01808127785 -0.009808616638 -0.02893097401 0.8868235196 -0.4618672998 -0.01492121038
0.01897191906 -0.007949702859 -0.02893443918 0.9260870173 -0.3770665175 -0.01355277561
0.02056853771 0.0005540440381 -0.02916599607 0.9999820636 -0.005985443417 0.0002168096557
0.01987747526 -0.005324392915 -0.02897010422 0.9643520824 -0.2640689333 -0.01710729944
-0.001722258359 0.04455730247 -0.04011101532 0.09402321209 -0.06162972856 -0.9936606122
0.02052809763 0.04798882484 -0.06193413162 0.9975378312 0.006879125424 -0.0697922129
0.02041377354 -0.002496346176 -0.0290466733 0.9873105397 -0.1583325155 -0.01219478623
0.02017734432 0.003931059837 -0.0293459444 0.9750712132 0.2217898064 0.006738762555
0.01634514141 0.05095246887 -0.07309749603 0.7806272318 0.001171320125 -0.6249958024
0.01944381332 0.006733627796 -0.02952968597 0.9281458584 0.3720617234 0.01073962532
0.02018189287 0.003928544998 -0.03497609138 0.9751393768 0.2215226399 -0.005560205771
0.01491625404 0.01419570446 -0.03167807388 0.7863175912 0.6178225034 -3.663735981e-15
0.00933962822 0.04931789017 -0.07894023895 -0.5158654735 -0.005978966065 0.8566487409
0.004111634254 -0.02017536163 -0.03253629112 0.2397106667 -0.9708408093 0.002630433816
0.01308204587 0.05736376572 -0.04477272415 0.6607018507 -0.002451493569 0.7506444263
0.009332800865 0.02251729584 -0.04225094604 0.5000890329 0.05622603888 0.864146742
0.0008775741458 -0.02030984211 -0.04437104988 0.03987024557 -0.992976114 -0.1113947956
0.00627213192 -0.01959200668 -0.03236098194 0.3002398579 -0.9538635507 -0.0005953359558
0.01254490566 -0.01632347488 -0.03192209721 0.5962224528 -0.8026425551 -0.01684385615
0.02037975168 0.003818953991 -0.0562728548 0.990659837 -0.1050092443 -0.08698359573
0.01292413076 0.03363996887 -0.04461229706 0.6248467652 0.01468962278 0.7806092076
0.01424846315 -0.01483468771 -0.03183052397 0.6855941404 -0.7278743196 -0.01263525146
0.01574450874 -0.01325785542 -0.03176284409 0.7612765098 -0.6483294643 -0.01126859857
0.004548567375 -0.0167652715 -0.05593435796 0.2070005384 -0.9001179131 -0.3833256052
0.01822158051 0.05240415192 -0.05107678986 0.8927680572 -0.0171500544 0.4501900396
0.01987923336 -0.005325305939 -0.03174676418 0.9644096974 -0.2640708379 -0.01343607773
0.01944381332 0.006733627796 -0.03236018276 0.9282432555 0.3719341382 -0.005427281831
0.01861775398 0.00880999279 -0.03253507805 0.9254251535 0.3789295984 -0.0008029986342
-0.002439697981 -0.02043633842 -0.0353081398 -0.02920588469 -0.9995734172 -1.554208098e-14
0.00932144165 0.04562296677 -0.04224487686 0.4787106016 0.008856865623 0.8779280812
0.01491625404 0.01419570446 -0.03530430094 0.7880880864 0.6155480216 0.004219137286
0.004111634254 -0.02017536163 -0.03538719749 0.2397297257 -0.9708396592 0.000121189964
0.01052484894 -0.01768260384 -0.03485785389 0.5025976118 -0.8645085579 -0.004538048515
0.020478127 0.03900332451 -0.0625384655 0.990973061 0.008012171724 -0.1338215134
0.01254490566 -0.01632347488 -0.03471918678 0.5956923782 -0.8030753506 -0.01485166059
0.01574450874 -0.01325785542 -0.03524286143 0.7613197707 -0.6483724771 0.002310355128
0.01701401774 -0.01158082549 -0.03519710414 0.8248692012 -0.5653235586 -0.0002737851684
0.0047435956 0.03676271439 -0.04057761765 -0.3175911233 0.007863452345 -0.9481951511
0.01808188184 -0.009808917046 -0.03517758687 0.8871017164 -0.4615737511 -0.0004658614318
0.01897432804 -0.007950927258 -0.03518157387 0.9262665316 -0.376868745 -0.0005112965361
0.01988087972 -0.005326160749 -0.03522481155 0.9647325118 -0.2632092025 0.003477975682
0.01961971283 -0.005191318989 -0.04716229916 0.9516366034 -0.2943616508 -0.08797155017
0.02041534901 -0.002497181614 -0.03531814257 0.9875328753 -0.1573897789 0.002697727701
0.01640381145 0.03966069921 -0.04820107651 0.7809561637 -0.01520893182 0.6244006396
0.02057132435 0.0005525349379 -0.03476184082 0.9999035755 -0.004440601777 -0.01315753695
0.01681858654 0.0005069677256 -0.06539297485 0.8078161601 -0.3658644127 -0.4621431413
0.01166918564 0.02455092621 -0.04362561035 0.562264249 -0.001168969982 0.8269567993
0.01911627102 0.05928841972 -0.06808917999 0.9299946433 0.04486937479 -0.364824208
0.01944381332 0.006733627796 -0.03519565964 0.9281248458 0.372237196 -0.004872415195
0.01726821899 0.01120230198 -0.03564370918 0.8531902118 0.5215236834 -0.008916845029
0.02047982788 0.000601602722 -0.05028902435 0.9955865095 -0.08112539653 -0.04718232949
0.01177254581 -0.01596430111 -0.04821502686 0.5789355038 -0.793351016 -0.1882228678
0.0002781079412 0.04605818939 -0.04001482391 0.09480576314 -0.06240463096 -0.9935378852
0.005768742085 0.04246657944 -0.04083580399 -0.3559781817 0.01007971001 -0.9344399037
0.01735254288 0.05964484215 -0.07159764862 0.8571384705 0.04095091154 -0.5134556117
0.002249465644 0.05132801437 -0.04015758896 -0.2067549056 0.03577592438 -0.977738458
0.0147877841 -0.01279761982 -0.05012882614 0.7195037393 -0.6606172897 -0.2142409057
0.003411688328 0.05529130173 -0.04030035019 0.2625801768 -0.012204281 0.964832994
0.003907289743 0.05782867432 -0.04041712952 0.284827652 -0.004085671415 0.9585700371
0.004409702778 0.06037622452 -0.04053547668 0.2931124679 -0.007963855599 0.9560447993
0.001430114627 -0.02054940796 -0.03851677322 0.09146309976 -0.9956735307 -0.01639272935
0.02054883146 0.0005644927435 -0.04744078159 0.9993364097 -0.03415283222 -0.01266192271
0.01737453588 0.03079374631 -0.07157009379 0.8362911392 -0.006029588398 -0.5482524734
0.00627240324 -0.01959212685 -0.03803746223 0.3114752496 -0.9501828876 -0.01164684789
0.01202742958 0.05119185638 -0.04391144943 0.5902160012 0.01075066874 0.80717377
0.004111634254 -0.02017536163 -0.03824355888 0.2377705113 -0.9712189426 -0.01410494785
0.0081423769 -0.01889489174 -0.03786902428 0.4088396001 -0.9125360725 -0.01131803187
0.01067031879 -0.01759640121 -0.03808219757 0.5106087659 -0.8597551007 -0.009992750184
0.0160598824 0.03662171078 -0.04775171757 0.7767721485 -0.01100010448 0.6296856573
0.01620238876 0.04827502441 -0.04788518906 0.7761214888 0.01283932021 0.6304526837
0.01254490566 -0.01632347488 -0.03822343318 0.6037932367 -0.7969521972 -0.01734712319
0.02057132435 0.0005525349379 -0.0382703921 0.9999726981 -0.007001012312 0.002364082711
0.01944381332 0.006733627796 -0.03803655815 0.9323734116 0.3614309553 0.006891004769
0.004150096893 0.03354309082 -0.04043751335 0.2934954619 -0.002525705044 0.9559571301
0.02048224926 0.04802124691 -0.05886158466 0.9920822583 0.01730224529 0.1243922229
0.01726821899 0.01120230198 -0.03852077484 0.8558114642 0.5169712655 0.0180955354
0.001919578731 0.02428954697 -0.04010480309 -0.217341268 0.03422137356 -0.9754956027
0.0175195624 0.03360933685 -0.07135752614 0.8497026661 -0.005828898577 -0.5272299339
0.005336122751 0.04000832176 -0.04072252464 -0.3405816175 0.008589026825 -0.9401757232
0.02048695517 0.05170430088 -0.06233103943 0.9988882124 -0.005405499795 -0.04683075558
0.01355316257 0.02770973969 -0.04512779617 0.6639480095 -0.001230738216 0.747777725
0.006061182499 0.04411188126 -0.0409123764 0.3974693201 -0.008413991191 0.9175768874
0.006307188511 0.04579508591 -0.04099665833 0.3240951039 0.04122838801 0.9451256973
0.006643951893 0.04835713577 -0.04113015556 0.3191302411 0.03671523411 0.9469994091
0.01823161125 0.03431419754 -0.05107098007 0.899269716 -0.01437297065 0.4371583187
0.001222477794 0.001841189504 -0.07660510254 0.1664819437 -0.4553354337 -0.8746161474
0.0205162735 0.03632237053 -0.05922794533 0.9937020349 0.006514511736 0.111865218
0.007447629452 0.0543915329 -0.04145014572 0.3617010469 -0.01949543856 0.9320902749
0.007099841833 0.05179575729 -0.04131157303 -0.3626446531 -0.001460453584 -0.9319263504
0.009931621075 0.05171694565 -0.04259914398 0.5044799222 -0.007657116408 0.8633894699
0.01873731168 0.009284185092 -0.04423054759 0.9200300268 0.3581702079 0.1589303368
0.007801745415 0.05700424576 -0.04159121704 0.3442492215 0.005702782445 0.9388609864
0.01603660774 0.02789014244 -0.07351952362 0.7712517429 -0.006318350852 -0.6364988826
0.01988134956 0.02406586583 -0.06585030365 0.9568227168 0.009660350138 -0.2905115597
0.008160991669 0.05963077164 -0.04173431015 0.4025464299 0.05403347766 0.9138034554
0.01425197816 -0.01483634901 -0.03881285477 0.6914569727 -0.7223034539 -0.01284427371
0.01701424122 -0.01158093548 -0.03868048954 0.8246333898 -0.5656552191 -0.003734368246
0.01897432804 -0.007950927258 -0.03866345119 0.9256004485 -0.3784958647 -0.002165698345
0.02041622686 -0.002497647196 -0.03881341553 0.9873424018 -0.1584837487 0.006154923064
0.00707890749 0.02732980919 -0.04128528595 0.3685031879 0.002976554417 0.9296217191
0.009824186325 0.02740260887 -0.04251344681 0.5036375658 0.003240054723 0.8639089676
0.01369361019 -0.0145722394 -0.04733482552 0.6634934958 -0.7331557964 -0.1491943674
0.007386016607 0.02977224541 -0.04140710449 0.3711616864 0.00349115265 0.9285616912
0.007802884817 0.03304752731 -0.04157258224 0.3968268918 0.01181667408 0.9178174024
0.02000790787 0.0483572607 -0.05588290405 0.9731767577 0.001357416778 0.2300546798
0.009586522102 0.04821956253 -0.04239416695 0.4906761019 0.0003908669774 0.8713419594
0.02014879322 0.02193147707 -0.05643747616 0.9781755062 -0.000562197195 0.2077796019
0.009050133705 0.0430519619 -0.04209994125 0.4631886829 -0.01006895254 0.8862024939
0.01046409845 0.05702152443 -0.04291526794 0.5303296375 0.01218701396 0.8477039296
0.01951684634 0.01209014988 -0.06566385396 0.9489287713 -0.1014931318 -0.2987194859
0.00404228735 -0.02014493561 -0.04111557388 0.2300683599 -0.9719331748 -0.049137089
0.006229498863 -0.01957307911 -0.04089036179 0.307730056 -0.9505038601 -0.04294909261
0.01906550598 0.05117994944 -0.05292657344 0.9298899572 -0.001900895033 0.3678329161
0.008112847328 -0.01888162804 -0.04070744896 0.4103646849 -0.9113329889 -0.0327568128
-0.002804071426 -0.01871359634 -0.05153536224 -0.1176673601 -0.9490212872 -0.2924260398
0.01032303295 -0.01774306412 -0.04149972687 0.5162012638 -0.8557823015 -0.03424774078
0.01901949596 0.01265145659 -0.04996999645 0.9339195179 0.2002970973 0.2961003324
0.02022394753 0.003746339178 -0.04103675308 0.9799093398 0.1991273795 0.01122374745
0.01946437073 0.006722142935 -0.04088028908 0.9306763742 0.3656812974 0.01089381672
0.01506787014 0.01410838032 -0.04110150909 0.8393465781 0.5268451016 0.1339087778
0.01458339167 0.02193790817 -0.0460878849 0.7200158375 0.01930561543 0.693689042
0.009576630592 0.0249539423 -0.04238120079 0.4959470846 0.004839781517 0.8683392573
0.01045116711 0.03315391922 -0.07831179047 0.5746790371 0.004739128628 -0.818365166
0.01071521378 0.03653990173 -0.04302667046 0.5468273209 -0.01093819639 0.8371739586
0.01104146433 0.0399200058 -0.04322301483 0.568889237 -0.01183984401 0.8223289209
0.01128131676 0.04247900391 -0.04337447357 0.5470548325 0.02428617585 0.8367444006
0.0185193634 0.004042626858 -0.06455397034 0.8951567528 -0.2430012524 -0.3736907535
0.01152465487 0.04505706978 -0.04352895927 0.5570570594 0.02049792753 0.830221216
0.01917933591 0.04863709132 -0.05319861221 0.9407042616 -0.01729820274 0.3387864583
0.01182613802 0.04853968048 -0.04374324989 0.5675578355 -0.007254452635 0.8233015707
0.01216445732 0.05297079849 -0.04402518082 0.5905736239 0.01145274617 0.8069024906
0.01245003128 0.05089660645 -0.07696286774 -0.615340461 -0.01699749073 0.7880781702
0.01274675274 0.06016100693 -0.04449042892 -0.6250211355 -0.0484809716 -0.7791008764
0.01248335457 -0.0162948513 -0.04174529648 0.599409038 -0.7985780461 -0.05460686304
0.006580483437 -0.01042273331 -0.06536902618 0.3766071209 -0.7260796083 -0.5753046836
0.01895383596 -0.007940569401 -0.04145891285 0.9239925291 -0.3816350494 -0.02434122452
0.02056775045 0.0005544528291 -0.04178810406 0.999760731 -0.01474993395 0.01615302396
0.01145770359 0.02210937691 -0.04348640251 0.5588613466 0.04683657265 0.8279373954
0.01187136936 0.02701669598 -0.04376954842 0.5794755022 0.02430320621 0.8146272132
0.004721096992 -0.0116400795 -0.06461779149 0.2537254305 -0.7689139994 -0.5868514867
0.01327398364 0.03107414627 -0.04489525223 0.6497820378 -0.008391817662 0.76007426
0.0187753067 0.01525790596 -0.05093360519 0.9203960637 0.1947566933 0.339029374
0.02052469063 0.02170056248 -0.05931335735 0.9997371749 -0.01425120439 0.01795784965
0.01339901996 0.03658490086 -0.04502152824 0.6673956907 -0.002588459588 0.7446987928
0.0132986865 0.04568589592 -0.0449288044 0.6313223519 -0.01029127716 0.7754522407
0.0161527853 0.02781689167 -0.04781895065 0.7346054092 0.0003011487975 0.6784945114
0.01351029682 0.04830128479 -0.0450978775 0.6373638789 -0.0008585777061 0.7705624885
0.02055733299 0.003721522689 -0.05051442242 0.9987982753 0.04622439311 0.01628836251
0.0177276783 0.05714850108 -0.07097007497 0.8721728116 0.01538513011 -0.4889559126
0.01430994987 0.0590173378 -0.04581787872 0.7081759642 0.03700801537 0.7050653945
0.007849580447 -0.01876336606 -0.04430029678 0.4104334688 -0.9076847183 -0.08748039631
0.02027380714 0.004036803722 -0.04445303955 0.98346042 0.1774550561 0.03626713838
0.01533842373 -0.01306250668 -0.04650518799 0.7367266221 -0.663583489 -0.1299647545
0.01784440422 0.01087378311 -0.04348123169 0.874915809 0.4598342483 0.1519038884
0.01128046608 -0.01573546648 -0.05043213081 0.5581382713 -0.7958128522 -0.2348692709
0.0168041811 0.01310834217 -0.04447603607 0.8355056136 0.4687469618 0.2867170302
0.01331325102 0.02441240406 -0.04492408943 0.6385534233 0.007428599615 0.7695416438
0.02021476889 0.04276043606 -0.05685631561 0.9846781295 -0.01268243928 0.1739199155
0.0143882885 0.03951007462 -0.04588701057 0.7128161646 -0.01833934312 0.7011111067
0.01531143856 0.02065298653 -0.07434469604 0.7516474626 -0.01344034223 -0.6594281229
0.004588115931 -0.01884434414 -0.04974902725 0.2153225246 -0.9473608891 -0.2369463148
0.01461345005 0.04296860886 -0.04611963654 0.7097715272 -0.01562674714 0.7042586059
0.02036903381 0.0067518212 -0.05101284663 0.9898762808 0.1098265819 0.08990589912
0.008555465698 -0.006654364109 -0.06829577637 -0.4163100554 0.621359536 0.663775764
0.01511176395 0.0508924675 -0.04666744232 0.7450860725 0.02071724686 0.6666464883
0.02020794392 0.0119627614 -0.06284173679 0.9769093484 -0.05931673186 -0.2052550858
0.01589700381 0.05722285843 -0.04759612274 0.781125785 0.02366667702 0.6239249926
0.01020523119 -0.01753654337 -0.0447816 0.4930673819 -0.8650115626 -0.09294919865
0.01684499025 -0.01149815559 -0.04430079269 0.8149280666 -0.574225534 -0.07846835215
0.0181099453 0.01564889622 -0.04959368896 0.907615694 0.1726531318 0.3826547374
0.01794159412 -0.009739154816 -0.04427180672 0.874572735 -0.4793605481 -0.07304790291
0.01885253572 -0.007889360547 -0.0442739706 0.9175241847 -0.3919884327 -0.06704057758
0.01845723534 0.01215625572 -0.04783243179 0.8999789048 0.3295719987 0.2853423707
0.02035634375 -0.002466124356 -0.0444359045 0.9838719994 -0.1763762208 -0.0297878741
0.01910752424 -0.005701947133 -0.05001678403 0.9284432992 -0.3485330471 -0.1285214198
0.008512033463 -0.01599183178 -0.05440609741 0.4192921271 -0.8383742825 -0.348314046
0.02056697607 0.0005548319072 -0.04460950089 0.9993415323 -0.03383989699 0.01309057546
0.02013613548 0.02719785728 -0.05647131729 0.9826184909 0.02265314751 0.1842491146
0.01452900124 0.01943323708 -0.04591643906 0.7187596949 0.130704352 0.6828622652
0.01473715973 0.02439900017 -0.04624620438 0.7252228968 -0.003431219667 0.6885056112
0.01489396715 0.02687794113 -0.04640765381 0.7275868834 0.01102477104 0.6859269506
0.01586586833 0.03321869564 -0.04751359463 0.771526403 0.02867090901 0.635550933
0.01584476328 0.04213604927 -0.04744507217 0.7782547556 -0.005091544649 0.6279280305
0.01727326393 0.04508964284 -0.07171072896 0.8292509195 0.0049939897 -0.5588541603
0.02054361343 0.003728931367 -0.05337419033 0.9981329886 -0.04833982345 -0.03733361044
-0.005469791412 -0.01913825989 -0.04744408798 0.1476021914 0.9697078208 0.1946287114
0.001511119343 -0.01981286144 -0.0472140274 0.05742798026 -0.9874416471 -0.1471768346
0.004788396358 -0.01944878832 -0.04656243896 0.2121428053 -0.9641929669 -0.1591456963
0.02004370753 0.006398494403 -0.0472110316 0.9812284384 0.1603093017 0.1071992516
0.00162075302 -0.01830752277 -0.0531151371 0.05288585078 -0.9447161092 -0.3235962914
0.01918860626 0.009298462152 -0.04681065655 0.9434528317 0.2904013352 0.1598868939
0.01650425148 0.01881937345 -0.04808566538 0.8085963693 0.1106952551 0.577856792
0.01613633251 0.02128311729 -0.04782389577 0.7954564318 0.062653245 0.6027633333
0.01732986132 0.04505044683 -0.04954033534 0.8471019926 0.005962746248 0.5313968947
0.01762351942 0.04820158482 -0.05002084446 0.8449116167 -0.003184964907 0.5348964535
-0.0004894355536 -0.01971714973 -0.04821752167 -0.00591634922 -0.9811817589 -0.1929957328
0.008061594844 -0.01809398127 -0.04787810707 0.3974328194 -0.899432169 -0.1818486391
0.01099537722 -0.01662508011 -0.04733410899 0.5616619617 -0.8136346795 -0.1501147866
-0.001386634827 -0.0193281517 -0.04982683563 -0.02936376911 -0.9762640756 -0.2145838383
0.01657504749 -0.01136611843 -0.04715443134 0.799507448 -0.5868028578 -0.1282585151
0.01517381191 0.06029945755 -0.07444882965 0.7675560322 0.0008683745413 -0.640981266
0.01771221447 -0.009625090122 -0.04711696053 0.8630930252 -0.4903436108 -0.1209693071
0.01864410925 -0.007784040809 -0.04711588383 0.9068855618 -0.4055646545 -0.1143498525
0.02012025642 0.05165909576 -0.05643875249 0.9788360699 -0.008297210299 0.2044776381
0.01741253757 0.02446258926 -0.04963349628 0.8447798962 0.001164412829 0.5351126714
0.01083250809 0.01823228645 -0.07800480652 0.5716401581 -0.07507651346 -0.8170624498
0.0176668129 0.03031814957 -0.05006574345 0.8496889496 -0.001528701746 0.5272820421
0.0192405262 0.02787879626 -0.06787286886 0.935664135 -0.001947750611 -0.3528864304
0.0175421505 0.036530056 -0.04983304214 0.8495729825 0.001537770797 0.5274688453
0.01747578557 0.008913113912 -0.06914782715 0.861928307 -0.2043132643 -0.4640427606
0.01829140091 0.05422327805 -0.05122517395 0.8872015523 -0.003077167682 0.4613717987
0.01485789108 0.02432518959 -0.07485756683 0.7409943859 0.004335883553 -0.6714972227
0.01850594902 0.05974317551 -0.05168099976 0.9052502046 0.02528579558 0.4241258017
0.00226999259 -0.01936731911 -0.04931606674 0.1135487654 -0.9611289691 -0.2516699876
0.01986785278 0.009074124336 -0.05001538162 0.9638695946 0.2007731961 0.1750586424
0.009090041161 0.02438232613 -0.07908386993 -0.5041182896 -0.01651201841 0.8634767532
0.01066548157 -0.005333611012 -0.06802183151 -0.5226513803 0.5763986829 0.628172025
0.01772382355 0.01837219429 -0.0498546505 0.8462614297 0.1262459579 0.5175940018
0.01772362995 0.02172930908 -0.05011743927 0.8422264362 0.008461377669 0.5390575435
0.0185268774 0.04211754608 -0.05169152832 0.9064912142 0.02347775541 0.4215714335
0.019270051 0.05445101357 -0.05345254135 0.9328950039 -0.00264439635 0.3601387494
0.0102275629 0.001263822585 -0.07321569061 -0.4975062942 0.4297147254 0.7535467749
0.01173366213 0.05421997452 -0.07751116562 -0.6058804653 0.006152063239 0.7955319062
0.01945620664 0.05776966858 -0.053992335 0.9544777384 0.01538235909 0.2978852629
0.01919101906 0.05923272324 -0.05311734009 0.9313743364 0.04341154769 0.3614654658
0.01613213491 0.009397823811 -0.07143004608 0.7900445741 -0.1797633343 -0.5861012835
0.007603704294 -0.01763065338 -0.05059640376 0.3724695838 -0.9006303527 -0.223900373
0.009817476749 -0.01659199429 -0.05058553314 0.4624494496 -0.8552721664 -0.2337734542
0.02007572412 -0.002318156511 -0.05012801552 0.9650763977 -0.2385198969 -0.1083319224
0.01846732807 0.01792867374 -0.05118757248 0.91611781 0.09439140662 0.3896388335
0.01828244209 0.05422977066 -0.07000260162 0.8897062175 -0.002389989868 -0.456527255
0.01843195629 0.02129840946 -0.05146382332 0.905877073 0.05678076886 0.4197173726
0.01925064545 0.02434523621 -0.05337663193 0.9306346848 0.0257750766 0.3650407221
0.01912453346 0.02749527779 -0.05306910934 0.9286470101 -0.01353502149 0.370717593
0.001994683981 -0.01613329315 -0.05833973312 -0.1042984116 0.8890540209 0.4457631538
0.01905971464 0.03319024785 -0.05287061437 0.9283064283 0.007981536475 0.371730373
0.01925757694 0.03627927208 -0.05336285496 0.9456424859 0.01003976275 0.3250530604
0.01936460209 0.03975613689 -0.05365528488 0.9467772462 -0.01057181262 0.3217158417
0.02007426262 0.05417668788 -0.05616935221 0.9657145279 0.003947692648 0.2595763208
0.01996246338 0.01194233379 -0.0531179306 0.9658888917 0.1485899232 0.2120841427
0.01947605515 0.01567181325 -0.05305845642 0.9592712175 0.08448084396 0.2695583764
0.007873426914 0.02684881973 -0.07962362671 -0.502480534 0.0117643804 0.8645084802
-0.0008329927921 -0.01800584602 -0.05423825836 0.02933551668 -0.939972689 -0.3399864282
0.007701595624 -0.01664960035 -0.05352536901 0.3798347473 -0.8755071692 -0.2986850539
0.01106000757 -0.01486654449 -0.05337969017 0.5422019673 -0.7865199395 -0.2956406796
6.202436984e-06 -0.0168100872 -0.05713797379 0.05422737599 -0.9048455709 -0.4222722871
0.01299680662 -0.01347492599 -0.05318573761 0.6287687299 -0.7300922423 -0.2676101681
0.0143666455 -0.01208336608 -0.05331656011 0.6966054837 -0.6643596263 -0.2708635948
0.01576358477 -0.01071283436 -0.05273294067 0.755238695 -0.6080950771 -0.2446117142
0.01882863121 -0.005248474026 -0.05278015289 0.9085139879 -0.3799049044 -0.1739959695
0.02030194902 0.0006973208717 -0.05316722965 0.9842710594 -0.1444333047 -0.1017325029
0.02052602386 0.006931106925 -0.05363696194 0.9987088046 0.0390971408 0.03243666393
0.02038219738 0.009426835537 -0.05386334229 0.9894337578 0.098747465 0.1061592061
0.02000117493 0.03055221128 -0.0557525177 0.9819845358 -0.01655487866 0.1882347134
0.0201104393 0.03366787593 -0.05627229818 0.9773457319 -0.007945499326 0.2114998565
0.02004690488 0.03604858526 -0.05599919383 0.964172025 0.01508146238 0.2648487412
0.02015360403 0.03922267532 -0.05653097153 0.9704242419 0.02034872419 0.240546711
-0.00308156538 -0.01701925659 -0.05612824249 -0.1167799559 -0.9173406823 -0.3805896931
0.01898701096 0.03323778534 -0.06850826263 0.9238603269 0.01357750366 -0.3824888858
0.00161256218 -0.01752327156 -0.055365448 0.05445555188 -0.9249236535 -0.3762324122
0.01801724434 -0.006694048882 -0.05364149857 0.8800440079 -0.4206977508 -0.2203087528
0.02043464041 0.01223891306 -0.05626777935 0.9940705037 0.06506419917 0.08712338174
0.02019833612 0.01524513221 -0.05583732319 0.9832706587 0.06439895187 0.1703865804
0.0201905365 0.02443754482 -0.05665789986 0.9807595359 0.02269400793 0.1938961443
0.02051541042 0.05168370533 -0.05922304153 0.997610674 -0.007579323074 0.06866947641
0.01915295744 0.04530474377 -0.06804542351 0.925575163 0.01888997475 -0.3780922989
0.02054079342 0.05445870972 -0.05949970818 0.9984333642 -0.01003845106 0.05504586014
0.005055375338 -0.01362286472 -0.06169329262 0.2882317581 -0.8166481573 -0.5000082407
0.02056458092 0.05726422501 -0.05978252411 0.998424627 0.02511999926 0.05017220263
0.01025017293 -0.01423046335 -0.05618213145 0.5227588811 -0.7720407544 -0.3614916676
0.01225661278 -0.01312282181 -0.05546837234 0.5920970002 -0.7391361075 -0.3210902629
0.01624525642 -0.008586907387 -0.05576102829 0.7920588947 -0.5411123947 -0.2825598762
0.01042604828 -0.008097232024 -0.06536526744 0.5199512838 -0.6443610588 -0.5607579589
0.01721640158 -0.002383800238 -0.06200731659 0.8237686333 -0.3989751256 -0.4027705153
0.01089916547 -0.01196154435 -0.05961808395 0.5473205339 -0.7186496179 -0.4289323487
0.01831211662 -0.005293917179 -0.05512759781 0.8692529328 -0.4307304835 -0.242632622
0.01911398411 -0.00259294637 -0.05593465932 0.9291210155 -0.3086769349 -0.2035993329
0.02054824448 0.006918485522 -0.05651229763 0.9995173957 -0.02309164005 -0.02077863934
0.02056599617 0.009861932119 -0.05700718943 0.9999520568 0.009682585616 -0.001459994872
0.01354574537 0.04551816368 -0.07609464645 -0.6894751435 0.01072258821 0.7242299722
0.02046785831 0.03025131369 -0.058648139 0.9932262489 0.001366331295 0.1161884315
0.0153086915 0.0131443634 -0.07349487305 0.7487194955 -0.1340187178 -0.649198044
0.02049428511 0.0337072916 -0.05897675514 0.9992935895 -0.01159079403 0.03574878359
0.02056560898 0.04251875591 -0.05983397388 0.9998948446 0.002153301798 0.0143409567
0.02054351521 0.06012749672 -0.06165174484 0.9997883368 0.02027929515 0.003468672422
-0.001294762552 -0.01544756889 -0.05966688919 -0.05754067624 -0.873061042 -0.4842039731
0.01167948437 -0.01284828663 -0.05701605988 0.5553393281 -0.7357650046 -0.3876184834
0.02054157734 0.01504234815 -0.05868947315 0.9977305992 0.01934307271 0.06449416295
0.02051152706 0.01836689234 -0.05900205612 0.9945708485 0.01368228843 0.1031582386
0.02055000353 0.0250623498 -0.05962999344 0.998629586 -0.005778845495 0.05201494846
0.02056425095 0.02760944176 -0.05987348747 0.999741283 0.02249569363 0.003363169921
0.01158421612 -0.000243584767 -0.07130239105 -0.5696344641 0.4596039413 0.6813815337
0.02045547199 0.05452113342 -0.06263497353 0.9900487749 -0.0160120621 -0.1398107195
0.02046640142 0.05702180481 -0.06263977814 0.9960100129 0.01310226472 -0.08827448552
0.007330034971 -0.0138983798 -0.0598231945 0.332228422 -0.8232537606 -0.4603015548
0.01777554321 -0.0003171600401 -0.06282060623 0.8477451721 -0.3569442657 -0.3923250111
0.009556479454 -0.01338924789 -0.05876374817 0.4594775851 -0.7787806698 -0.4270609056
0.0128127896 -0.01081762409 -0.05890931193 0.6220696549 -0.6752871479 -0.3962532175
0.01990885115 0.03938829899 -0.06572319603 0.9627296515 0.006942492811 -0.270376441
0.01435483487 -0.008990513802 -0.05928106435 0.6897495331 -0.6028604705 -0.4010047814
0.01577037621 -0.007885508537 -0.05818004417 0.7756656968 -0.533958566 -0.3364981078
0.01673115501 -0.005729874706 -0.05906247482 0.8112945894 -0.4766975224 -0.338467962
0.01792949677 -0.003538295507 -0.05890681076 0.8695615057 -0.3817275478 -0.3132840038
0.01845793629 -0.002249468327 -0.05893051529 0.8953510455 -0.3447796926 -0.2819103917
0.02000137138 0.004026993096 -0.05922913265 0.9706896732 -0.1568769431 -0.1820746635
0.02032663012 0.007042811871 -0.05944790936 0.9877691044 -0.1016989241 -0.1181927458
0.02050778834 0.009895097415 -0.05943664932 0.9968107232 -0.05305971336 -0.05960745719
0.02052251752 0.01205202866 -0.06011897659 0.9976326733 -0.003363952528 -0.06868575486
0.02055379248 0.03019593096 -0.061627038 0.9999521977 0.004609756852 -0.008622782443
0.004641818047 -0.008708698034 -0.06810340881 0.2146242801 -0.6994263045 -0.6817178764
0.02053229332 0.03368235207 -0.06198297501 0.9994545224 -0.009039736179 -0.03176382989
0.02050833797 0.0363276577 -0.0622571907 0.9961758601 -0.009269082643 -0.08687772964
0.02047579511 0.04228075918 -0.06262536367 0.9964600235 0.004193261348 -0.08396331387
0.0201090711 0.05791751353 -0.06488408407 0.9809030031 -0.001233446037 -0.194493643
0.02025013161 0.06034809494 -0.06408082581 0.988162621 0.01946096472 -0.1521706453
0.0006795839295 -0.01159962511 -0.0655950737 0.1127978157 -0.7761176928 -0.620417585
0.002301683903 -0.0139235177 -0.06214407539 0.1506970934 -0.8324907797 -0.5331505302
0.02049666786 0.01506880379 -0.06162920094 0.9974869293 -0.01730551879 -0.06870476628
0.02052002764 0.01836175776 -0.06194566631 0.9993917691 -0.002423264946 -0.03478820982
0.02051056099 0.02480398115 -0.06233826447 0.9984196763 -0.01697075293 -0.05357371983
0.01548856544 0.01802660942 -0.07400997162 0.7598883639 -0.06225178988 -0.6470659851
0.02043053563 0.02712503624 -0.06308364105 0.9901896868 0.02860929225 -0.1367694867
0.02002511406 0.05172764969 -0.06525585429 0.966715499 0.005662926562 -0.2557910774
0.01979719226 0.05437878927 -0.06610768127 0.9579122719 -0.002759576885 -0.2870478429
0.007792530298 -0.01178006887 -0.06283387184 0.3618680001 -0.7622420429 -0.5366922942
0.009861117045 -0.01094729392 -0.06229809697 0.4726946208 -0.7219345027 -0.5053418341
0.01150143623 -0.009663322449 -0.0623626461 0.5423221209 -0.6691558983 -0.508052262
0.01483458551 -0.006118654251 -0.06232871755 0.7096017821 -0.5373225084 -0.4557958236
0.01612227281 -0.004690155188 -0.06174958801 0.7880855044 -0.4670274392 -0.4010069934
0.01841934395 0.0003930684725 -0.06181159973 0.8995935366 -0.3048654116 -0.312711608
0.01904572344 0.002959472239 -0.06218203259 0.9271931524 -0.234799394 -0.2918597311
0.01832422066 0.02731240654 -0.0699882431 0.8914079136 0.009357106179 -0.4531052594
0.01960700655 0.005841441274 -0.06235635185 0.9541591931 -0.1672962203 -0.2481777767
0.01997787237 0.00884964931 -0.06257973289 0.9740765557 -0.1177548072 -0.193154521
0.02015357542 0.03045406628 -0.06472623348 0.974405235 -0.02259386885 -0.2236603564
0.01921601009 0.05731492996 -0.06784500504 0.9376065058 0.01918636414 -0.3471684371
0.01320763493 0.05982381821 -0.07634331512 -0.6302445604 -0.02760412129 0.7759057975
0.02002643728 0.01534647989 -0.0646779213 0.9736974096 -0.05199637546 -0.2218326655
0.020060534 0.01863858175 -0.06500756645 0.9729126972 -0.02472904023 -0.2298463797
0.01994826063 0.02686012395 -0.06563440704 0.9698815922 0.02093409341 -0.242675629
0.01928639984 0.04249697495 -0.06770596695 0.9375320141 0.01539357827 -0.3475582834
0.01872137642 0.05142646662 -0.06907872009 0.9048547915 -0.00642818899 -0.425671804
0.00849311924 -0.008985033989 -0.06588357925 0.4305047057 -0.6746317761 -0.5996145971
0.01408350539 4.586124793e-05 -0.06900362015 0.6708580258 -0.4262837735 -0.6068209404
0.0186726675 0.006360646486 -0.06548431778 0.9016834999 -0.2018438965 -0.3823949627
0.01915559387 0.009316048384 -0.06569302177 0.9247061903 -0.158368667 -0.3461760057
0.0191387825 0.03990906525 -0.06820878983 0.9278431929 -0.02424954619 -0.3721813656
0.00156509465 -0.008833606243 -0.0686702652 0.1606154252 -0.7125660497 -0.6829731401
0.00682858181 -0.008179528475 -0.0677412529 -0.3280471854 0.6676520138 0.6683007052
0.01473920441 -0.002671189308 -0.06605030441 0.7099148691 -0.4783118167 -0.5169513368
0.01883304214 0.01303120073 -0.06785043335 0.9115082115 -0.1170567363 -0.3942721152
0.01908063936 0.01590505123 -0.06786180878 0.9166943543 -0.06587815483 -0.3941212118
0.01920304235 0.01887642988 -0.06790720622 0.9247357835 -0.03126215565 -0.3793236196
0.01900464312 0.02404448128 -0.06850035604 0.9128558661 -0.008820645755 -0.4081866777
0.01827143288 0.04139103317 -0.07006796265 0.8972850868 0.004248104204 -0.441431112
0.01766067219 0.04270730019 -0.07110263443 0.8462461337 0.008073775368 -0.5327309784
0.009883536339 -0.001763934493 -0.07148153687 -0.4750049061 0.5095630134 0.7174370178
0.0174227066 0.04803521856 -0.0715126826 0.8403331049 -0.001997076831 -0.542066679
0.01513110447 0.005896879673 -0.07124953461 0.7020588506 -0.3028876861 -0.6444939254
0.01756138039 0.05101596832 -0.07131845856 0.8392307579 -0.001285222493 -0.5437739266
0.01145810413 0.02988147736 -0.07771890259 -0.5899479685 0.004436643005 0.8074290747
0.01727939034 0.05401924324 -0.07172569275 0.8358127203 0.009087966967 -0.548939437
0.01328060373 -0.002710184375 -0.0677809906 0.6542412278 -0.4783410482 -0.5857971129
0.01557507133 0.0008498995304 -0.06769927216 0.749794276 -0.3775895048 -0.5433550493
0.01618996449 0.00339175334 -0.06842751923 0.7761780518 -0.3143635855 -0.5465557318
0.01706979513 0.006443681955 -0.06872133827 0.8182514944 -0.2608565605 -0.5122678468
0.01844102287 0.02552821732 -0.06976824951 0.8978606745 0.001352043769 -0.4402776184
0.01713910484 0.03591078949 -0.07194847107 0.8381827749 0.00462544762 -0.5453698205
0.01604027176 0.0539710083 -0.07351812744 0.7709011608 -0.00327226263 -0.6369463813
0.01561666346 0.05711230469 -0.07397759628 0.75810416 -0.02120445148 -0.6517886574
0.0007911861539 -0.0060645051 -0.07133242798 0.1457412654 -0.6294950472 -0.7632139078
0.003916403055 -0.005172095776 -0.07156698608 -0.2119879968 0.6284497581 0.7484063006
0.007431341648 -0.005309434414 -0.07012153625 -0.3845684668 0.6066373489 0.6957716733
0.009779452324 -0.004097406864 -0.06978610992 -0.4878922312 0.5603516866 0.6693034873
0.01154312134 -0.002611649513 -0.06959260941 -0.5603212508 0.5096414038 0.6529209259
0.0171294384 0.01210096264 -0.07078889084 0.8283355921 -0.1404042406 -0.542353018
0.01737482452 0.01525337887 -0.07108571243 0.8359947304 -0.08623334286 -0.5419193863
0.01396387959 0.003307346821 -0.07120459493 0.6741830803 -0.3493625632 -0.6507095924
0.0173901782 0.01857107735 -0.07144923973 0.8326744206 -0.0480962912 -0.5516702422
0.01741849454 0.0216328729 -0.07153447215 0.8418300581 -0.02465694105 -0.5391791804
0.007793584347 -0.003099051476 -0.07175794983 -0.3951293685 0.5493805184 0.7362430497
0.01759882164 0.02434678841 -0.07130132294 0.8537971387 -0.003821180739 -0.5205918214
0.0173652916 0.02705770397 -0.07165167236 0.8410658981 0.008007878684 -0.5408733945
0.016407547 0.03727932739 -0.07301271057 0.7885672931 -0.004609782074 -0.6149311947
0.01623160934 0.03917881012 -0.0732698288 0.778478672 0.01939760605 -0.6273712538
0.01589807892 0.04210056114 -0.07367938614 0.7588169754 -0.00256609769 -0.6512988661
0.01551755905 0.04508142471 -0.07410723114 0.7432625592 -0.001043773044 -0.6689990124
0.0152395916 0.04710430908 -0.07440296936 0.7489072868 0.01695163678 -0.6624579366
0.01203794289 0.04016493607 -0.07729413605 -0.6178160116 0.01173602256 0.7862351058
0.01467165565 0.05120281601 -0.07500728607 0.7355854379 0.01076666187 -0.6773463978
0.01423285341 0.05432760429 -0.0754730072 -0.6979216913 -0.009542380175 0.7161105053
0.01367010593 0.05757346344 -0.07597838593 -0.6428730068 -0.01027531439 0.765903855
0.01246410561 0.00089603585 -0.07124695587 -0.6098951428 0.4241285264 0.6694347674
0.01556392384 0.007276667595 -0.0713122406 0.7430279459 -0.2441486191 -0.623137965
0.01569208908 0.03070619011 -0.07391300201 0.7537925226 -0.0254813494 -0.6566182557
0.0153357892 0.03356102753 -0.07431674576 0.7476567518 0.004052668772 -0.6640730061
0.01495144367 0.03645986557 -0.07473371887 0.7355703805 0.005959902806 -0.677422095
0.01454757881 0.03940498352 -0.07516339493 0.7170477923 -0.001485915305 -0.6970224211
0.01410520267 0.04240355682 -0.07560945892 0.7075551179 0.01547728562 -0.7064886473
0.01067720985 0.05782334518 -0.07815882111 0.5910985055 0.01039393039 -0.8065324067
