# .PCD v0.7 - Point Cloud Data file format
VERSION 0.7
FIELDS x y z normal_x normal_y normal_z
SIZE 4 4 4 4 4 4
TYPE F F F F F F
COUNT 1 1 1 1 1 1
WIDTH 568
HEIGHT 1
VIEWPOINT 0 0 0 1 0 0 0
POINTS 568
DATA ascii
-0.002802176118 0.02035586548 -0.008636213899 0.1750305135 -0.984561801 -0.001542498995
0 0.04099748993 -0.07765762329 -0.002558435125 -0.001042347309 0.999996184
0.003103938878 -0.01676908827 -0.01185630298 0.2283363103 -0.9734560268 -0.01568098539
0.01877592278 0.06060000229 -0.06593891652 0.8724524237 -0.4799350634 -0.09213633015
0.01655751324 0.01220154047 -0.011628335 0.7894774326 0.6137652866 -0.004190035578
-0.0162074337 0.03812701035 -0.04789192581 0.7786824411 -0.008585296658 -0.6273595051
-0.003103938878 -0.01676908827 -0.01185630298 -0.2227773364 -0.9747447819 -0.01558424357
-0.00542249608 -0.01617325878 -0.01155212116 -0.2741341816 -0.9616787325 -0.004946303354
-0.01749555016 0.04159858322 -0.04976001358 0.8317889791 0.0240717276 -0.5545697847
-0.0129488945 -0.01111261368 -0.008111746788 0.7483091735 0.6632157865 0.01334920904
-0.009235328674 0.0183741188 -0.01467912292 -0.4213200104 0.9068336375 -0.01192487845
-0.01577846909 -0.006476745367 -0.006600646734 0.8566027029 0.5158902589 0.009436639855
0.01300368786 -0.01106027508 -0.01151844311 -0.7112574455 0.7027515818 0.01590787232
-0.01735074997 0.004851956606 0 0.7214518229 -0.2068816093 -0.6608383062
0.003044883132 0.02355243683 -0.07740447235 -0.2277497112 0.03116301357 0.9732209079
-0.01952415657 0.004853691101 0 0.7214518229 -0.2068816093 -0.6608383062
-0.01692669773 0.0117392211 -0.02714162922 0.8114844856 -0.5843525 -0.005008521712
0.018683074 0.00735097599 -0.0003434475362 0.7589492352 0.234080657 0.6076201974
0.01648432541 0.008016740799 0 0.6467954488 0.3655840898 0.66933095
0.009041922092 0.02641949177 -0.07507640076 0.4713900337 0.003221968218 -0.8819189617
0.01441240215 -0.009110825539 -0.008797204971 0.8081403497 -0.5889657522 -0.005340219302
-0.002772031963 0.02024608612 -0.0007278316319 -0.1158777577 0.9057801417 0.407596222
0.01151814461 -0.01263658285 -0.0114715147 -0.6772612415 0.735580332 0.01545269797
-0.01843814468 0.009173524857 -0.02351559544 0.9221311533 -0.3867653497 0.009311306899
-0.002850292921 0.02035795593 -0.02096397305 0.1731951468 -0.9848866166 0.001339274248
-0.009082680702 0.03520532227 -0.07505034637 0.5264333658 0.00989076227 0.8501588582
0.01262199354 0.03801134872 -0.04437589645 0.6251640075 0.01235727726 0.7803955801
0.01001911497 -0.01381487703 -0.01207939959 -0.5666993662 0.8238456469 -0.01140957246
0 0.02033944893 -0.0006768439412 0.05565377796 0.912030548 0.4063286066
-0.01430037022 0.01476723027 -0.01182460308 0.7165020656 -0.6974047228 0.01585694139
0.008503488064 -0.01479320335 -0.01258409929 -0.4998633469 0.8660051479 -0.01310412871
-0.007991465251 -0.01506662146 -0.01243435033 0.4227843824 0.9062058844 0.006652894208
-0.0107683506 -0.01321698046 -0.01177093649 -0.6202141523 -0.7843782296 -0.00923028412
0.01301499557 0.06060000229 -0.07288015747 0.6380387595 -0.2638490048 -0.7233880314
-0.01369431686 -0.01009866285 -0.009304311275 0.7891885388 0.6141362731 0.004253035274
-0.002790783525 0.03761363411 -0.04021832275 -0.1396064722 0.008691681514 0.9901689187
0.0006745003064 0.04950111643 -0.04007107671 0.01351466478 0.01344352047 0.9998182963
-0.01720235729 0.00801763773 0 0.6949181238 -0.4083889849 -0.5918675851
-0.01480240631 0.01427916145 -0.02414083989 0.6985370885 -0.7155726914 0.001288133163
0.01237080073 0.05912025928 -0.07229071045 0.6948355845 -0.332889695 -0.6374856559
-0.01651214027 0.03154692268 -0.04829881668 0.7822971881 -0.007091950611 -0.6228650045
0 0.02057279778 -0.0362848053 0.05599802358 -0.9665193745 -0.250408706
-0.01944575882 0.00668341732 -0.0006868950725 0.9234513745 -0.2593807592 -0.2827705441
-0.009130734444 0.01841265106 -0.006512062311 0.4213738651 -0.906844051 -0.008827970049
0.008979584376 0.05944667435 -0.04211186981 -0.3836132881 -0.2607931216 -0.88590507
0.01952253246 0.006496652365 -0.003224384189 0.9401110817 0.2184286592 0.2616869788
0.0178249054 0.01021245193 -0.000477053225 0.8165726047 0.3905054259 0.4251055088
0.01585611089 0.01158704758 -0.0002943684061 0.6673343356 0.5687291748 0.4808451
-0.005563659986 0.02350773748 -0.04079302851 -0.2536549825 0.1667487775 0.9528137253
0.01463767195 0.0527321682 -0.06937903214 0.9092875572 -0.06399350895 -0.4112188823
-0.01479284382 0.01428028965 -0.03605512905 0.7105188757 -0.7036612358 -0.004877754665
0.01412026691 0.01589258003 -0.04305404663 0.7055368342 0.5685113918 0.4230987745
0.01349857044 0.01112436867 0 0.5834251271 0.4832055823 0.6527844102
-0.0113689177 0.01711290741 -0.01212373281 0.5555480928 -0.8314119907 -0.01097352515
0.02027461243 0.003608613729 -0.02596468925 0.9553251661 0.2945528048 -0.02434075171
0.01367725372 0.01536803579 -0.01812070656 -0.6611850004 -0.7501823283 -0.007801891877
0 0.02057284927 -0.02167107105 -0.01713492689 -0.9998289845 -0.006956722852
0.006218260407 -0.01588647842 -0.01489827299 0.3916569881 -0.919749582 -0.02579748
0.006172928095 0.02341931057 -0.04100542831 0.3309474244 0.1554999336 0.9307489312
0.003117601812 -0.01676917458 -0.01535825872 -0.2349480199 0.9710968383 0.04207562929
0 -0.01706424427 -0.0155120244 0.04861493946 0.9985638232 0.02251396472
-0.01829591465 0.00944318676 -0.01822958183 0.9102054693 -0.4135827934 -0.02180084063
0.01892854691 0.00827763319 -0.04180913734 0.8752559775 0.4801886495 0.05784319089
-0.01716083336 0.01723171329 -0.04855158043 0.8226684675 -0.2254262709 -0.5219191402
0.002790783525 0.03761363411 -0.04021832275 0.1272936837 0.01331568831 0.9917756856
-0.003117601812 -0.01676917458 -0.01535825872 0.2320226645 0.9727102352 0.0005305795015
-0.005446318865 -0.01617020702 -0.01504612112 0.3167408592 0.9455829916 0.07448512633
-0.01005087185 -0.01377222633 -0.01466776752 0.573145154 0.8185279705 0.03894346986
-0.007503898303 -0.01532913303 -0.0148991979 -0.4132187987 -0.910346378 -0.02279684997
-0.01300368786 -0.01106027508 -0.01151844311 0.7301765131 0.6830918792 0.01509119911
-0.0160300293 0.04196329498 -0.04766550827 0.7604586335 0.0007325083048 -0.649385964
-0.01420992708 0.01112539673 0 0.6281652499 -0.5125280169 -0.5854258713
0.007321638107 0.04996293004 -0.07600763194 -0.3989405359 -0.00971871586 0.9169252943
-0.01682399686 0.01128217824 -0.0004534973105 0.7058416809 -0.4726802822 -0.5275991587
0.005170027733 0.03497446823 -0.07688412094 -0.2819608294 -0.01216536131 0.9593487868
-0.01952253246 0.006496652365 -0.003224384189 0.9202433527 -0.2653854314 -0.2876156196
-0.003461371422 0.06060000229 -0.08071012878 0.08792393334 0.9216649772 0.3778929104
0.01789062405 0.01010535669 -0.002954512358 0.8422627463 0.5005848007 0.2000208078
0.01267997217 0.01418207598 0 0.5601068938 0.6241943338 0.5446665963
0.01140655279 0.05303215408 -0.04345542526 0.5215960752 -0.02098659179 0.8529344039
0.01056502914 0.01417882729 0 0.4031367164 0.5922874482 0.6976219368
0.009568018198 0.03523526192 -0.07469888687 -0.5459578754 -0.01391287859 0.8376970993
-0.00932097578 0.01834216785 -0.02136594772 0.4300897365 -0.9027146864 -0.01135841306
0.01005155277 -0.0137934885 -0.01467892647 -0.5601347538 0.8283304053 -0.01085344457
-0.01436823225 0.01470374942 -0.01517130804 0.7045299491 -0.7092495002 -0.02454989382
0.008531291008 -0.01478189945 -0.01519674397 -0.4394558886 0.8981628515 -0.01349126181
-0.01126993847 0.01417986679 0 0.5410132078 -0.660231845 -0.5209593264
0.01724087906 0.01488570881 -0.04742362595 0.833751763 0.3136312135 0.4544155143
0.01250728464 0.0163648634 -0.03645407295 -0.5823803442 -0.8122177073 -0.03369763687
0.01184378099 0.06060000229 -0.04524645615 -0.5416636732 -0.5458632542 -0.6392446894
-0.01712569475 0.01126982737 -0.003144070208 0.805818101 -0.5557015951 -0.2045798751
0.00941932869 0.06060000229 -0.07742644246 0.4404816241 -0.4525384059 -0.7753611611
0.01962677097 0.006231283188 -0.006646002054 0.9171469671 0.3985113954 -0.005487115133
-0.006860192299 0.02253914261 -0.07623033142 0.3440815489 -0.001217572579 0.9389389784
0.01636063004 0.01243669701 -0.003332347393 0.7828755367 0.5949733193 0.1819687976
0.01484128904 0.01425704336 -0.002359676242 -0.6669204141 -0.7009038622 -0.2528852251
-0.005676022768 0.03189802361 -0.04082188416 -0.2722361118 0.01518881377 0.9621105962
0.01261977291 0.01619756889 -0.0005264995992 -0.5637121446 -0.7282549586 -0.3897092932
0.009773935318 0.01763178062 -0.0005534387231 -0.5371436291 -0.792318539 -0.2893234427
0.006983386278 0.01718148327 0 0.2658420777 0.6674967988 0.6955400875
0.003491332054 0.01717862256 0 -0.1142250315 -0.5606440691 -0.8201407623
0.01317360067 0.02252981853 -0.04480347633 0.658310427 0.108122236 0.7449409129
-0.01704454231 0.05659982681 -0.06129063797 -0.5748889652 0.4630609495 -0.6745941259
0 0.01717758179 0 0.02671776501 -0.6548117978 -0.7553195817
-0.002793007851 0.01717820644 0 -0.009108223803 -0.6723259692 -0.7401991836
-0.008387779713 0.03783692169 -0.04182737923 -0.3911292798 0.00722330629 0.9203073999
-0.005586411953 0.01718007851 0 -0.1067327556 0.7246268483 0.6808260054
-0.02011812878 0.004222267389 -0.02125865459 0.9468145072 -0.3216480924 0.009208346921
-0.01238523149 0.03800374603 -0.07237655258 0.6975885299 -0.01993003633 0.71622136
-0.008606747786 0.01760182317 -0.0003042802016 -0.3368603085 0.6838795469 0.6471737773
0.006826271439 0.01939142151 -0.0328675766 -0.3237586355 -0.946116928 0.006565400274
0.002951550245 0.03551839256 -0.07741458511 -0.1446126155 0.01550425939 0.989366873
-0.01095024395 0.01721907934 -0.0005106342584 -0.4915289681 0.8054272662 0.3311890584
0.003565049887 0.0202323068 -0.02104161771 -0.1796268628 -0.9837346823 -0.0005148292532
-0.01724088097 0.01488570786 -0.04742362595 0.831350096 -0.3090068553 -0.4619218345
0.00673349762 0.02977801704 -0.07628173065 -0.403689727 0.02159648825 0.9146410203
-0.01334626389 0.01564120674 -0.0008223379254 0.6300830381 -0.7239353445 -0.2809145458
-0.002446257432 0.0530974617 -0.04018717702 0.1154856769 -0.008749183406 -0.9932706128
0.01797900009 0.009961338997 -0.006286099672 0.8676537001 0.4971678104 -0.00110675098
0.01266325712 0.01616507077 -0.002935180366 -0.6290445022 -0.7340779896 -0.2557978098
0.006945873499 0.01934515667 -0.0004255313426 -0.2750595216 -0.8984143271 -0.3423360284
0.003187607098 0.02019750977 -0.0005965762541 0.1268574085 0.8533562652 0.5056582666
-0.01893017673 0.01169688845 -0.04871439934 0.879070697 -0.321719005 -0.3517550162
-0.007646226883 0.01911890602 -0.0005472847223 0.2636772939 -0.919653013 -0.2910543255
0.01894096565 0.01118686008 -0.04813621648 0.8664859692 0.3778644881 0.3262215409
-0.00890816768 0.02597341156 -0.04206203588 -0.4601457501 -0.009286815914 0.8877948207
0.01477392292 0.03786203575 -0.0462840538 0.7430484759 0.002203547285 0.6692339702
-0.01122520947 0.01720932579 -0.003167719424 0.5605322491 -0.8195425872 -0.1189686744
-0.01720902348 0.01115002418 -0.006457003474 0.8392084029 -0.5435745254 -0.01599974491
0.00355279847 0.02023382696 -0.01853614171 -0.1762198341 -0.9842796294 -0.01183981558
0.01729160309 0.01199131012 -0.04389331818 0.8295604724 0.5131410349 0.2202627997
-0.002886817455 0.02035992622 -0.03032266378 0.1483242468 -0.9889308295 -0.003966404246
0.01643877411 0.01234347963 -0.006625308275 0.7838296457 0.6209758848 0.0001924071297
0.009802963257 0.01806094122 -0.003502087057 -0.5373977325 -0.8199464104 -0.1972094349
0.006969203234 0.01933911371 -0.002803271562 -0.2909685431 -0.9265461389 -0.2384314563
0.01829591465 0.00944318676 -0.01822958183 0.8828678929 0.4694927834 0.0109913651
-0.008035454273 0.01896062183 -0.03649051285 0.3863374747 -0.917173582 -0.09765232298
-0.01804012871 0.05834454727 -0.05071218491 0.8080320228 -0.2440081707 -0.5362315384
0.003823214829 0.02017909956 -0.002739369512 -0.1205578419 -0.9533482851 -0.2767541402
0.01804483604 0.0308112278 -0.0506823349 0.8761436231 -0.004632993109 0.4820278903
-0.0055662781 0.01978407478 -0.002559926957 0.2457533762 -0.9435809407 -0.2219465847
0.01460258198 0.01731626066 -0.04511309687 0.7405014563 0.3464316964 0.5758842531
0.02021167946 0.003855407476 -0.02407205772 0.9484483405 0.3165710287 -0.01511718418
-0.007671981335 0.01910995483 -0.002928642154 0.3525553537 -0.9286077788 -0.1157251738
-0.01515353775 0.0288000946 -0.04667490387 0.7315468335 -0.0102630882 -0.6817139425
-0.002907194734 0.02036260653 -0.03554811573 0.1741636009 -0.9765631789 -0.1264570981
0.01280828698 0.02592712975 -0.0445071373 0.6492754667 0.00305428058 0.7605471975
-0.009089617252 0.01842779732 -0.003301495671 0.4671885943 -0.8672097922 -0.1722846301
0.01886258125 0.008267701149 -0.03908757019 0.8740272694 0.4838942014 0.04384899273
-0.008673109372 0.03174920527 -0.07530816905 0.5169523749 -0.01786584268 0.855827701
-0.01971041107 0.005959739208 -0.009274315834 0.9089498699 -0.4160720391 0.02634752982
-0.002908082843 0.02260107708 -0.04022620201 -0.079874712 0.5869012737 0.8057089582
-0.01772290707 0.06060000229 -0.0690959549 0.796448201 0.4601549197 0.3923362244
-0.01599619484 0.05566783524 -0.07356811523 -0.6490806832 -0.2366190564 -0.7229838787
0.0198028326 0.005567413092 -0.01199395609 0.930026857 0.3672275922 -0.0139262664
0.01286511517 0.05049200058 -0.04458363342 0.6295457494 -0.007362287552 0.7769285334
0.01806830215 0.009815813541 -0.009652569771 0.872228135 0.4888224499 0.01645274965
0.01345466375 0.01555174303 -0.006487577677 -0.6515343766 -0.7585067092 -0.01305864385
0.01198875475 0.01669102764 -0.005858311892 -0.5611172146 -0.8276571718 -0.01144890383
0.02011812878 0.004222267389 -0.02125865459 0.9467125956 0.3219257591 -0.009953240968
0.01350167084 0.01551294708 -0.008944300652 -0.6546334354 -0.7558514536 -0.01198521144
0 0.02054776573 -0.003726760507 0.08175654771 -0.9709731874 -0.2247819748
-0.002780315757 0.02035661316 -0.003037721634 0.09409709562 -0.9615464396 -0.2580197301
-0.01151006413 0.0170151151 -0.005946876685 0.5550581322 -0.8318007799 0.004234668351
0.003536611557 0.02023535792 -0.01522488912 -0.1760479611 -0.9843108372 -0.01180216659
-0.01754495366 0.01063267835 -0.009474915822 0.8504807748 -0.5252187215 -0.02877057911
0.01726808643 0.01135963106 -0.04158283234 0.8374319529 0.537697683 0.09792306122
0.01914281082 0.06060000229 -0.06280665207 0.8808629763 -0.4393712561 -0.1761627552
-0.01980403328 0.00554955554 -0.01200378513 0.9364438693 -0.350362813 0.01785437922
0.01868406105 0.008663121223 -0.03256676292 0.8517695764 0.5239065827 -0.003237474549
-0.01387316847 0.05938038445 -0.04538876915 0.6545663477 -0.3843731421 -0.6509993734
0.01649787903 0.01227297401 -0.009115977287 0.7840092052 0.6207300093 -0.004880751871
0.01599619484 0.05566783524 -0.07356811523 0.7554079771 -0.2490656295 -0.6060735107
0.0149805789 0.01413154316 -0.008902198792 0.7421113506 0.6702765795 -0.0002241546596
0.01721097374 0.01129522705 -0.03891106415 0.8361889911 0.547932756 0.02361495314
0.009604620616 0.01816524188 -0.006381398996 -0.5021393202 -0.8646099242 -0.01748662884
-0.008590476513 0.02912586117 -0.04191628647 -0.4011678225 -0.0004064819565 0.916004483
0.008986707687 0.02879645252 -0.07511293793 -0.5002141586 -0.023350287 0.8655868297
0.00700055933 0.0193309927 -0.005999031782 -0.3622902545 -0.931957522 0.01417563911
0.01822686195 0.009557426453 -0.01562988472 0.8868470654 0.4619372846 -0.01078089352
-0.009386697769 0.01830956459 -0.0264809761 0.4268597973 -0.9042395663 0.01189622676
0.003489045461 0.02023869514 -0.005491728306 -0.1611687871 -0.9869146773 -0.004903251831
0.0170778389 0.01151134396 -0.03341544724 0.8080188484 0.5891119638 0.007254987561
-0.002789641798 0.02035618639 -0.005426021338 0.1644718721 -0.9863393147 -0.009152019955
-0.00786702919 0.01903182888 -0.02094271183 0.358129602 -0.9336718817 7.388039032e-05
0.01269187832 0.04980657005 -0.07194682312 0.7367729842 0.01650619559 -0.675938692
-0.005591217518 0.01978083277 -0.005747631907 0.2327785263 -0.9724791092 0.009926728684
0.02045560455 0.002326702356 -0.0302635231 0.9982655918 0.05265613912 0.02632753734
0.01714413357 0.01140372753 -0.03615202141 0.813773931 0.5811524248 0.00581792715
0.003331218243 0.05372417068 -0.04027972412 0.08875104141 0.08411399359 0.9924958885
0.0198970089 0.005157689571 -0.01474536896 0.9338623278 0.3574627364 -0.01102473709
-0.005541693211 0.01981142362 -0.03039189148 0.2608127548 -0.9653208224 -0.01150725171
0.01813587189 0.009705701828 -0.01219980717 0.8869734563 0.4617058653 -0.01028502802
0.01011312548 0.01789811007 -0.008684868018 -0.5062443401 -0.862329897 0.01018905495
0.005218006134 0.03145529747 -0.07687023926 -0.2659015719 -0.0005450221814 0.9640000296
-0.01834284019 0.02501272774 -0.05129059982 0.8794039737 -0.004352955495 -0.4760564072
0.01716083336 0.01723171425 -0.04855157852 0.8401195261 0.2051838979 0.5020943635
0 0.02055120468 -0.006115019321 0.01817397733 -0.9996919252 -0.01690447611
-0.01131655073 0.01714705038 -0.008839323401 0.5533398331 -0.8328546131 0.01297006404
0.01549770641 0.01356174946 -0.03298415947 0.7582222822 0.6519303695 -0.009260886723
-0.01122460556 0.02838984108 -0.07347424316 -0.547187569 0.004484002105 -0.8369980036
-0.01708394241 0.01136422189 -0.01182184315 0.7900409183 -0.6130075461 0.007556178555
0.018845541 0.01436314869 -0.05058049393 0.8734608184 0.2425131718 0.4222008529
0.003461371422 0.06060000229 -0.08071012878 0.2144888016 -0.6731182523 -0.7077473931
-0.003044883132 0.02355243683 -0.07740447235 0.2278599168 0.03115109858 0.9731954929
-0.01989849281 0.005135705471 -0.01475765228 0.938835128 -0.3439346128 0.01725063753
0.002828920722 0.03273256683 -0.04022088242 0.123141667 -0.005571980593 0.9923734594
0.01999225044 0.004743333101 -0.01752789307 0.9405117619 0.3395654614 -0.01152923009
-0.0167195015 0.01199624491 -0.01843025112 0.7982918266 -0.6020844558 -0.01498224757
0.01818124199 0.009631765366 -0.01391017914 0.8770611553 0.4803377392 0.006275843701
0.01505290723 0.06060000229 -0.0719437542 0.7343124541 -0.2947009105 -0.6115035511
-0.006733370781 0.0297831192 -0.07627745819 0.4033854242 0.02133645705 0.9147813701
0.01505166388 0.01406063795 -0.01222736835 0.7542120075 0.6564606504 0.01495533953
-0.01058092451 0.03510937691 -0.0429467926 -0.5209023832 0.01346020246 0.853510123
-0.01428886 0.03805651474 -0.04583824285 -0.6844591291 -0.005531030864 0.7290302519
0.01354907656 0.01547382259 -0.01142183781 -0.6591980019 -0.7518923629 0.01076424685
-0.01463767195 0.0527321682 -0.06937903214 0.869996014 0.05942923629 0.4894640963
-0.01834414927 0.04413239034 -0.05141262309 0.8542128768 -0.001243407299 -0.5199219317
-0.002917241096 0.05004125977 -0.04023542531 -0.1548639646 -0.003332411792 0.9879301835
0.007032235384 0.01932233763 -0.009226397991 -0.3610398104 -0.9325429497 -0.003728583634
0.01557536459 0.01346959209 -0.0365874157 0.7556657486 0.654938112 0.005034460866
0.003504738212 0.02023785082 -0.008703653653 -0.1719376534 -0.9850168649 0.01338727841
0.01294122171 0.02912464142 -0.04462216187 0.6421712191 -0.01174469069 0.7664712568
0.01997776985 0.05024862671 -0.05562303543 0.941951601 -0.01944978263 0.3351848554
-0.008561845462 0.01980045891 -0.04156370799 0.5422216086 -0.6123504708 -0.5753456596
0.003575141748 0.04708469899 -0.07725493368 -0.2152891095 -0.02111287259 0.9763221015
0 0.02055467224 -0.008522696972 0.02140529598 -0.999685618 0.01305674168
-0.01676369858 0.02611520386 -0.04863608932 0.7976230589 0.002316190577 -0.6031517978
0.01749555016 0.04159858322 -0.04976001358 0.8320521879 -0.01778323556 0.5544122232
-0.005616424203 0.01977620602 -0.008967259407 0.2524860516 -0.9675951618 -0.003224375047
-0.01526528645 0.02613249397 -0.04678995895 0.7395463907 -0.0003726534177 -0.6731054874
-0.007741578579 0.01908486652 -0.00936204052 0.361782344 -0.9321987694 -0.01090825243
-0.00916182518 0.01840119743 -0.008939699173 0.4217973241 -0.9066862297 -0.002664235271
0 0.02324247742 -0.07765560913 -0 0.008538768714 0.999963544
-0.01715261904 0.01127418232 -0.01464564323 0.7927025932 -0.6096004017 0.003154201357
0.01209986448 0.01661837006 -0.01240877962 -0.572589164 -0.8198348088 -0.0035405752
0.01558163071 0.01841824532 -0.04679034805 0.8008084986 0.2302274707 0.5529023968
0.01475796413 0.04969169617 -0.06916503906 0.8578137614 0.007408936999 -0.5139072469
0.01249563599 0.03462530136 -0.07227298737 -0.6401677488 -0.0180093787 0.7680240333
-0.009193174362 0.01838964844 -0.0113875761 -0.4213293328 0.9068715936 -0.008093581754
0.003520594279 0.02023661105 -0.01194778411 -0.1722169343 -0.9850583373 -0.001183068844
0.01440147877 0.05870210838 -0.06979919815 0.8427430396 -0.2430439303 -0.4803267817
0.01512363529 0.01398629236 -0.01558890057 0.7499711265 0.6612223628 0.01811895056
0.007064253688 0.01931271076 -0.01248659897 -0.3634959437 -0.9314331327 -0.01740741925
-0.005641893148 0.01977095175 -0.01221937132 0.2530078206 -0.96742653 -0.00854118007
-0.01390184879 0.02295918846 -0.04541164017 -0.6924538166 0.03972129563 0.7203679133
0.01922344971 0.03716008377 -0.05321097183 0.8991820801 -0.001328731409 0.437572647
0 0.02055933189 -0.01175952053 0.02137187463 -0.9996604531 0.01490709616
-0.007931510448 0.0190045681 -0.02689515686 0.3859632961 -0.9223949629 0.01482789372
-0.01763002141 0.06060000229 -0.05661653264 0.7806886493 -0.5903886283 -0.2048572683
-0.002814828753 0.02035639286 -0.01187786579 0.179510423 -0.9837261927 -0.007667193892
-0.01674327087 0.05646460724 -0.04868100739 0.829115769 -0.2040086451 -0.5205261898
-0.01286520195 0.05049032211 -0.04458494186 -0.6153593209 -0.009747417609 0.7881864589
-0.007776960611 0.01906990814 -0.01262824583 0.3581794669 -0.9336174666 -0.008117608601
0.003594042897 0.02022870922 -0.02697070408 -0.1739435138 -0.984753295 -0.002145244299
0.01220058227 0.01729670334 -0.04208864689 0.6693641607 0.5652156511 0.4821647935
0.01012548995 0.01788773632 -0.02674776125 -0.507797511 -0.861333502 0.01569350573
0.01671922207 0.01200105667 -0.01842743874 0.7918874847 0.6105287178 0.01299600856
0.01214198017 0.01659351349 -0.01489711285 0.6126374533 0.7903640143 -0.0002752459916
0.009961222172 0.0179781003 -0.01491234803 -0.5089646864 -0.8607873198 -0.000371538067
0.00585493958 0.01976089287 -0.03949632835 0.3352246773 0.8294504216 0.4468069089
-0.01117222309 0.01724852816 -0.01506511084 0.5532544165 -0.8329285452 -0.01181478651
0.01836649513 0.00931205368 -0.0208581295 0.9010928962 0.4335217497 -0.009512357776
-0.01092115402 0.02358927727 -0.04314593506 -0.5385549561 0.03726129776 0.8417660928
0.01517832851 0.01392559528 -0.01813503265 0.7526833038 0.6583827487 -2.14511114e-05
0.005283192158 0.02667398643 -0.07685137177 -0.2770132868 0.005789835878 0.960848644
0.01218443584 0.01656908131 -0.01740671635 -0.5804789174 -0.814180175 0.01244464364
0.006854903062 0.01938698069 -0.01545445983 -0.3286545159 -0.944362638 -0.0128614614
-0.005667621493 0.01976564312 -0.01550463629 0.2546571973 -0.966923006 -0.01447799595
0.008045052528 0.01895656395 -0.03737656784 -0.3943250378 -0.9088740574 -0.1358518027
0 0.02056404114 -0.01502910423 0.02107360089 -0.9997704527 0.003865910352
-0.01621752167 0.0468829689 -0.06585298157 0.8908019903 -0.003792644447 0.4543758686
-0.002827609599 0.02035695601 -0.01515240669 0.1899761328 -0.9817190945 -0.01169138259
-0.01209408283 0.03255297089 -0.04392955017 -0.5763752964 -0.01406460655 0.8170640762
0.009769013405 0.0470983963 -0.04250813421 0.4829369841 -0.001881624011 0.8756530871
-0.007803723335 0.01905859375 -0.01509877586 0.3810365537 -0.9245591853 0.001207318609
-0.01146088624 0.01705551624 -0.01795118284 0.5543588341 -0.8322777032 -0.0003283249768
0 0.02544799232 -0.04003843689 -0.04242923998 0.1207676601 0.9917736293
-0.01417761199 0.01488722229 -0.01812548192 0.7017952302 -0.7120551791 -0.02146804
-0.01836649513 0.00931205368 -0.0208581295 0.9174116954 -0.3977983645 0.01059444671
0.01049998633 0.01767237409 -0.03587878291 -0.5055196278 -0.8623845965 -0.02725277399
-0.002880156875 0.04467003632 -0.07741584778 0.1894678482 0.0129865143 0.9818010414
-0.02021167946 0.003855407476 -0.02407205772 0.9484483405 -0.3165710287 0.01511718418
0.01625933981 0.02058515644 -0.04802173233 0.8029266295 0.08289188779 0.5902861701
0.01843814468 0.009173524857 -0.02351559544 0.9070391417 0.420785021 -0.01483110017
-0.01252810574 0.01958030701 -0.04413970947 -0.6376984675 0.2988368653 0.709955768
0.01678075981 0.01192448521 -0.02101429939 0.7941446625 0.6077285646 -0.0004967653249
0.01523351812 0.01386434841 -0.0207042551 0.7557106556 0.6549036548 0.001614914338
0.02045123291 0.01616888428 -0.05778212357 0 0 1
0.01000748801 0.01795388079 -0.01824802923 -0.5120588581 -0.8588961442 -0.009650873012
0.006796418905 0.02618316174 -0.07625666046 -0.4042712703 0.004066747699 0.91463009
0.007354608695 0.01921408463 -0.01776685778 -0.3653562841 -0.9307891846 0.01209460435
-0.00783071804 0.01904718113 -0.01759074211 0.3657107874 -0.9306842241 0.009082674564
0.00289691782 0.02036454296 -0.03292082596 -0.123752672 -0.9922711901 0.009119289748
-0.009277920246 0.018358428 -0.0180048151 -0.4263845256 0.9045403197 -0.001745401334
-0.00533864212 0.03851543808 -0.0407321345 -0.2492366749 -0.006702553728 0.968419411
0.01692669296 0.01173930407 -0.02714157867 0.8003388343 0.599473183 0.009468531207
-0.0135564127 0.03213322449 -0.04513616371 -0.6745504216 -0.001054259017 0.7382280253
-0.0144879446 0.0145893209 -0.02111407232 0.6960761116 -0.7178611124 0.01238831073
0.01544003391 0.01363018894 -0.03030822945 0.7548387966 0.6558569083 0.008372992101
-0.01678095055 0.01192120743 -0.02101624489 0.8041931554 -0.5943184963 -0.00767422329
-0.02027461243 0.003608613729 -0.02596468925 0.9553251661 -0.2945528048 0.02434075171
-0.01878561115 0.00843819046 -0.03627605247 0.8734817827 -0.4868535687 -0.001782692809
0.01684286976 0.01184720325 -0.02362516212 0.7971088965 0.6037686177 -0.008992408501
0.01441058826 0.04653533173 -0.04590996933 0.6882633428 0.01596889975 0.7252851613
0.01374237108 0.01531429338 -0.02152388954 -0.6655261256 -0.7462698216 -0.01250317599
0.01863911629 0.01920034218 -0.05180037308 0.8903141956 0.07310067173 0.4494406801
0.01224154329 0.01653621769 -0.02078247738 -0.579637788 -0.8148076541 0.01041737018
-0.01476322524 0.06060000229 -0.04820310211 0.7874782064 -0.3923674987 -0.4753165476
0 0.02056879807 -0.01833245373 0.01715563537 -0.9997624348 -0.01344463122
0.006572160244 0.02136413574 -0.04108290482 0.4443472639 0.3982668722 0.8024581033
-0.002840522885 0.02035752583 -0.01846086454 0.1850760539 -0.9827172981 -0.003683236373
-0.005452459971 0.01983181063 -0.0185025781 0.2556136914 -0.9667082417 -0.0116968439
0 0.02057301998 -0.03018362331 0.03174758542 -0.9994715202 0.006983635629
-0.0117527504 0.01686286545 -0.02086427816 0.560559871 -0.8279847191 0.01462654745
-0.01684297085 0.0118454752 -0.02362620163 0.8104120555 -0.5857589899 0.01089523137
0.003577411175 0.02023077297 -0.02356950442 -0.17603132 -0.9843043882 0.01256366996
-0.02034966278 0.003189696312 -0.02797253418 0.9982656143 -0.0526556303 -0.02632770327
0.01853461552 0.008987005711 -0.02709370136 0.8991627172 0.437119944 0.02079813701
0.01585222292 0.05554308891 -0.06690826035 0.9059801492 -0.09154461482 -0.4133032213
0.01530778313 0.01378193188 -0.02416150761 0.7473426388 0.6644212319 0.004838059571
0.009805598577 0.0180696303 -0.02125156466 -0.5164233486 -0.856307777 -0.006626914568
0.002933433414 0.03784073448 -0.07741490173 -0.1536265141 -0.01121305879 0.988065363
-0.01853461552 0.008987005711 -0.02709370136 0.9182770451 -0.3951239761 -0.02538330153
0.00665116787 0.03448176575 -0.07631453705 -0.4092180516 -0.01503925487 0.9123126696
0 0.04378602791 -0.04003652954 -0.006221266954 -0.0008787851533 0.9999802616
-0.02045560455 0.002326702356 -0.0302635231 0.9982655918 -0.05265613912 -0.02632753734
-0.01084360409 0.02621318626 -0.04309672546 -0.5352465377 -0.008679118345 0.8446512989
0.01589526844 0.02882535458 -0.04757022667 0.769158204 -0.0149544866 0.6388834171
0.01379165268 0.01527362061 -0.02409950447 -0.6682382328 -0.7439199607 0.00638406011
-0.01714413357 0.01140372753 -0.03615202141 0.8241740869 -0.5662724161 -0.008522040089
-0.0183218174 0.05329313278 -0.05129010773 0.8639062875 -0.06605412667 -0.499302292
0.0122992692 0.01650299931 -0.02419473553 -0.5824583117 -0.812859279 0.00145178466
-0.002809736013 0.0351879425 -0.04021959686 -0.1419794792 -0.003135975688 0.9898646337
0.01860869026 0.008830068588 -0.0298136673 0.8472367701 0.5312149244 0.0007480206096
0.008673109372 0.03174920527 -0.07530816905 -0.5185183654 -0.02249454231 0.8547705542
0.009622731686 0.04413408852 -0.0424226799 0.429256462 -0.007753835722 0.9031493608
0.01538294363 0.01369750166 -0.02765840054 0.7510659083 0.6601072523 0.01258637684
0.009785951614 0.03811785126 -0.04250824356 0.4551732183 -0.006367126975 0.8903801441
0.0140102005 0.01509324932 -0.03552136803 -0.6727140427 -0.739680691 0.0181188335
0.01384139156 0.01523257017 -0.02669897175 -0.6731715375 -0.7394490168 0.007431865816
0.007178963542 0.01927821922 -0.02416666222 -0.3698801102 -0.9290012538 -0.01205713145
-0.002860150039 0.02035839081 -0.02348943138 0.1791387425 -0.9838223092 0.001724752954
-0.01441891416 0.01466136678 -0.03023462041 0.7024532482 -0.7115434589 -0.01628926495
-0.00573313117 0.01975212812 -0.02386960268 0.2581194182 -0.9660249201 0.01304682394
-0.01558163071 0.01841824532 -0.04679034805 0.7901734809 -0.2057542208 -0.5773136675
-0.007903732061 0.01901631165 -0.02433084679 0.3697124723 -0.9291134546 -0.007802331887
0 0.03543825912 -0.04003739548 0.008313237208 -0.02213585017 0.999720408
-0.01860869026 0.008830068588 -0.0298136673 0.8672454991 -0.4978786215 0.001456879482
0 0.03298673248 -0.04003765106 0.003087282867 -0.0112623045 0.9999318123
0.01834374873 0.04413783646 -0.05140830994 0.8540338329 0.001096130251 0.5202163115
0.01699076462 0.01164738655 -0.02981054115 0.8043273293 0.5941375336 0.007624861833
0.002979089439 0.03198814869 -0.07741336823 -0.1468449006 -0.001546158989 0.9891583213
0 0.02057323837 -0.02419904709 0.02253828208 -0.9997411419 -0.003110476776
-0.01161116409 0.01696226692 -0.02733296299 0.5657741123 -0.8243912989 -0.01669251791
0.00290716964 0.02036466742 -0.03554675007 -0.187439229 -0.9714852712 -0.1451995294
-0.01699076462 0.01164738655 -0.02981054115 0.8157140011 -0.578454543 0.001005012856
-0.01868406105 0.008663121223 -0.03256676292 0.8706138165 -0.4919559945 0.003298772313
-0.00954452467 0.01822844028 -0.03875871086 0.5233114111 -0.8133899716 -0.2540510207
0.01703399658 0.01158251095 -0.03160576057 0.8158315676 0.5782863454 -0.001938034956
0.0069666605 0.01935860443 -0.02724111176 -0.3333200102 -0.9427558457 -0.01044921644
-0.01373940849 0.06060000229 -0.07485128403 -0.5446682457 -0.2704723355 -0.7938395417
0 0.02057314587 -0.02675035095 0.028605607 -0.9995639629 0.007321428293
-0.00287341243 0.02035897589 -0.02688730955 0.1894201682 -0.9818951537 0.001380954796
-0.009510149002 0.01824610901 -0.03608452225 0.4445006843 -0.8938135279 -0.05930024522
-0.01569067574 0.04932969666 -0.04728855515 0.7722253159 -0.006863448928 -0.6353116988
-0.01154967944 0.01701652209 -0.03928094101 0.5996513807 -0.7618349499 -0.2450014913
-0.00575983274 0.01974661922 -0.02727913094 0.2594955805 -0.965636873 -0.01440393015
-0.01705591774 0.01154692745 -0.0325106039 0.8198828544 -0.5723534713 0.01426916402
0.01878561115 0.00843819046 -0.03627605247 0.8539055545 0.5203687939 -0.007849989326
0.002920960009 0.02036573744 -0.03908141708 -0.1575120108 -0.6544519748 -0.7395150973
0.01240181065 0.01644399071 -0.03025617599 -0.6225286612 -0.7825904057 -0.003212911182
-0.01141159026 0.01709717814 -0.03041582807 0.56864247 -0.8224849057 -0.01281878087
0.006508834839 0.01948393974 -0.03002845573 -0.3264181213 -0.945221069 0.002888049184
-0.007959547281 0.01899271393 -0.02948330212 0.3698077209 -0.9290499801 0.01041076636
0.01395902157 0.01513548851 -0.03284660721 -0.6831672593 -0.7301884732 0.01035805543
-0.01996480751 0.02428331947 -0.05556736374 0.9387687784 0.02038553779 -0.3439441968
0.002886763036 0.02036441994 -0.03031976748 -0.1285812611 -0.9915553861 -0.01687529426
-0.01194960244 0.0167435894 -0.03297168477 0.5702885653 -0.8213626623 0.01159005247
0.009969200134 0.01797832998 -0.03333123779 -0.5017512257 -0.8648591196 -0.0162607112
0.01010826333 0.0350620664 -0.04268459702 0.4644796674 0.01090675178 0.8855166184
-0.006045596917 0.01966786257 -0.03280142975 0.3005925948 -0.9537149002 0.008484171821
0 0.05321162796 -0.07765071869 0.02060884626 -0.01656602596 0.99965036
-0.00799728322 0.01897675991 -0.03296679688 0.362868115 -0.9318384606 0.001953076766
-0.01451874447 0.05573814392 -0.06959059143 0.7945063921 0.2144665709 0.568122947
-0.009476106644 0.01826360798 -0.03343627357 0.4349291139 -0.9004132079 -0.009629171941
-0.005715311527 0.02938877201 -0.04083415794 -0.291648651 0.001656893928 0.9565240818
-0.01440147877 0.05870210838 -0.06979919815 0.8278677752 0.2497054668 0.5022769422
-0.01886258125 0.008267701149 -0.03908757019 0.8740272694 -0.4838942014 -0.04384899273
-0.002896957636 0.02036126041 -0.03292297554 -0.131731306 0.9912854591 3.957282535e-05
-0.01721097374 0.01129522705 -0.03891106415 0.8298785505 -0.5553477771 -0.05376279301
-0.01892854691 0.00827763319 -0.04180913734 0.8660458733 -0.4919083941 -0.08939058753
0.002762806773 0.04119435978 -0.04021644402 0.1326933426 -0.01292264637 0.9910728944
0.01459774017 0.01448552418 -0.03919117228 0.7060727927 0.7008715863 0.1011940266
-0.00828105704 0.03221500079 -0.04178145091 -0.3989626753 -0.00902902075 0.9169227124
0.006267502499 0.0195787899 -0.03589842758 -0.3398197187 -0.937399345 -0.07619072649
-0.01459770075 0.01448634942 -0.03919062042 0.7273524091 -0.6765918757 -0.1148124852
-0.01537853527 0.02342907715 -0.04690655899 0.7488502844 -0.002395119066 -0.6627348753
0.01597232819 0.05269430923 -0.06655841064 0.710384566 -0.09181134226 -0.6977997176
0.01711159134 0.0491831131 -0.04920326996 0.8214038474 0.003088406341 0.5703386548
-0.01727997303 0.01321115541 -0.04581513023 0.8371066311 -0.412181516 -0.3596649637
-0.01726808643 0.01135963106 -0.04158283234 0.8312726816 -0.5439251857 -0.114591104
-0.01527817774 0.06060000229 -0.05146265793 0.7026209291 -0.5003507386 -0.5059377119
0.01896561813 0.00908428669 -0.04494075966 0.8680315535 0.4681303526 0.1654545107
0.0151575222 0.01417173576 -0.04180645879 0.7410361525 0.643945376 0.1902623804
-0.01095878792 0.03758421326 -0.07370632935 0.6126662381 -0.01166955379 0.790255593
0.01180715322 0.01684325027 -0.03969569969 -0.5996881646 -0.7876376388 -0.1414250867
-0.0141371603 0.05575184631 -0.05100724792 0.8209051786 -0.2224965273 -0.5259372425
-0.01896561813 0.00908428669 -0.04494075966 0.8687805362 -0.4641911479 -0.1724730651
0.008064362526 0.0189484005 -0.03915911865 -0.4562179002 -0.7813023708 -0.4259481576
-0.02025266457 0.04615497971 -0.05713829422 0.9473739817 0.05322828672 -0.315672755
0 0.0205727005 -0.03893947029 8.053461875e-05 -0.7367897065 -0.6761219727
-0.002920965135 0.02036531162 -0.03908170414 -0.1443167659 0.6707840151 0.7274761001
-0.00585493958 0.01976089287 -0.03949632835 0.2940571084 -0.8342869995 -0.4663642563
-0.008064362526 0.0189484005 -0.03915911865 0.4772313253 -0.8279691205 -0.2944781784
0.01696951103 0.06060000229 -0.06621789169 0.8110282619 -0.5697262615 -0.1328350305
-0.01729160309 0.01199131012 -0.04389331818 0.8333016105 -0.5079354601 -0.2181971458
-0.008608200709 0.05673506165 -0.04196754583 -0.3163749103 0.1722268509 0.9328691377
0.01727997303 0.01321115541 -0.04581513023 0.8291428874 0.4221277434 0.3665109009
-0.01896254349 0.01016680241 -0.04697985077 0.882207276 -0.394081398 -0.2577017149
0.01567536926 0.01502097321 -0.04456766319 0.7713639692 0.4984953333 0.3956008464
0.009567664146 0.01854920387 -0.04122409439 -0.5945030389 -0.6596163107 -0.459861348
0.009171314001 0.0200830965 -0.04197172832 0.5228931943 0.5424593225 0.6575109055
-0.01483908844 0.04764122009 -0.06902072906 0.8548748179 -0.00352036696 0.5188223712
-0.006572163105 0.02136401749 -0.04108298492 -0.4463980307 0.454461894 0.7708392732
-0.01460258198 0.01731626066 -0.04511309687 0.7413367088 -0.3180005904 -0.5910122746
0.01326540184 0.01992782307 -0.0448103714 0.6228395391 0.2744870258 0.7326170768
0.01109010696 0.03303913116 -0.07358594513 -0.5828272288 -0.02462422647 0.8122229182
0.01020560217 0.02287633991 -0.04274044228 0.5273652992 0.1797112918 0.8304153737
0.002887918115 0.02518181038 -0.04022484779 0.1497690719 0.07729909472 0.985694717
-0.001982450724 0.05818730164 -0.04366131973 0.3231233059 -0.6624452171 -0.6758384892
-0.002887918115 0.02518181038 -0.04022484779 -0.1304148694 0.08097108428 0.9881475828
0.01849471474 0.02205533409 -0.05159613419 0.9071556689 0.0206611136 0.4202876524
-0.008745399475 0.02265842342 -0.04198899269 -0.514017204 0.2141795484 0.8306102787
0.007212730408 0.02615354824 -0.04133677483 0.3221129499 -0.007096139099 0.9466746497
0.005029548645 0.0271371994 -0.04064225006 0.2463185058 0.005559112048 0.9691729928
-0.002858174503 0.02898851776 -0.04022284889 -0.1439293465 -0.0005154426873 0.9895878322
-0.005755094767 0.02684794044 -0.04084658051 -0.2935157598 0.000323359945 0.95595418
-0.01400269222 0.02027544594 -0.04548095703 0.7206716338 -0.1793329335 -0.6696805919
0.007162677526 0.02870853424 -0.04131902122 0.3289042877 -0.001529441159 0.9443620229
0.004994880199 0.02967053032 -0.0406331749 0.2725963207 -0.00194625318 0.9621265291
-0.0123118434 0.02607533073 -0.04409717369 -0.5947254945 -0.005096416015 0.8039126898
-0.01549331951 0.02068901253 -0.04702474213 0.7802698265 -0.03183917085 -0.6246321038
0.01874212456 0.01696080017 -0.05154022217 0.8471293668 0.141714761 0.51214135
0.01613576555 0.02337859631 -0.04786270714 0.780731793 0.01647804206 0.6246489746
0.01002917624 0.02937321472 -0.04263846016 0.4589926463 -0.01615014609 0.8882932643
0.004960641384 0.03217246246 -0.04062420654 0.2184537406 0.002243242978 0.9758447269
-0.01757819653 0.06060000229 -0.06339756584 0.7301876118 0.6568832844 0.1879638321
-0.01082263565 0.05010518074 -0.04311761093 -0.5450365737 0.002486774737 0.8384085814
0.01762850761 0.03898002625 -0.04996837234 0.8388768932 0.009402874433 0.5442399691
-0.01076704788 0.02880349541 -0.04304814529 -0.5129568243 0.002195378294 0.858411601
-0.002761233211 0.06060000229 -0.07870130539 -0.2415827839 -0.5087824364 -0.8263039337
-0.01783221626 0.03497105789 -0.05029374504 0.8530805764 0.0133928396 -0.5216072871
-0.01380149555 0.02562434006 -0.04533161163 -0.6633347331 0.01343890804 0.7482021302
-0.01218029022 0.02998858643 -0.04399590683 -0.5894050778 -0.008005405997 0.8077979746
0 0.02569054985 -0.07765588379 0 -0.01923895236 0.9998149142
0.003364111185 0.05035508728 -0.04028394508 -0.17988328 0.002585926981 -0.9836845625
-0.01702584839 0.02047327042 -0.04902443695 0.8157181795 -0.07353487876 -0.5737564581
-0.005250430584 0.02907700157 -0.0768608551 0.3067374107 0.01183086765 0.9517206478
-0.003006989956 0.02841141701 -0.07741026688 0.1893385842 -0.007738762762 0.9818813635
-0.01874212456 0.01696080017 -0.05154022217 0.8398939837 -0.179868768 -0.5120794103
0.01601449251 0.02612384892 -0.04771302414 0.7702806301 0.005492803626 0.6376814095
0.009959214211 0.03191285229 -0.04259943581 0.4546780192 0.009096546461 0.8906094271
-0.01186341286 0.03153884983 -0.07286334229 -0.6132673812 0.002253095281 -0.7898721686
0.004926849842 0.03464223099 -0.04061638641 0.2203355809 0.01412993477 0.9753217811
0.002809736013 0.0351879425 -0.04021959686 0.1324354486 0.002088361341 0.9911894323
-0.005859612465 0.03510492706 -0.04087001419 -0.2694743476 0.01914596913 0.9628172245
-0.008545895259 0.04093093109 -0.04188784536 -0.4207472102 0.007175599306 0.9071495444
-0.01689299583 0.02332811546 -0.04881885529 0.8067665254 -0.0006010643961 -0.5908700469
0.003025845408 0.02599406815 -0.07740788651 -0.1994922832 0.003868458588 0.9798917614
-0.01863911629 0.01920034218 -0.05180037689 0.8854786735 -0.071040885 -0.4592174991
0.01306879838 0.0322765255 -0.0447314949 0.647385627 -0.0167710376 0.761978072
0.01569067574 0.04932969666 -0.04728855515 0.7650298486 0.02188647332 0.6436228034
0.004877119064 0.0382796936 -0.0406102829 0.2305720546 0.001796279984 0.9730535962
0.01577769756 0.03148980522 -0.04743008804 0.7638615631 0.004303152524 0.6453657841
-0.01762850761 0.03898002625 -0.04996837234 0.8404818123 -0.0008069751163 -0.541839157
0.01271090746 0.0355151844 -0.04444306755 0.6458404989 -0.0133329279 0.7633559346
0.006968619823 0.03861480713 -0.04125126076 0.3140001508 -0.01251461753 0.9493404498
0 0.04025310135 -0.04003689575 -0.01201177125 0.00625449122 0.9999082951
-0.002762806773 0.04119435978 -0.04021644402 -0.09067224362 -0.006045563924 0.995862438
-0.01200918961 0.03507996368 -0.04386766434 -0.5699273722 0.003468057648 0.8216877527
-0.005523846865 0.04162029457 -0.04078331947 -0.2629716861 -0.00293241163 0.9647990948
-0.01504325485 0.03143268776 -0.04656135941 0.7255385403 -0.02360587059 -0.6877765549
-0.01663699913 0.02885061455 -0.04846554947 0.7874325162 0.001040163263 -0.6163999923
-0.02045123291 0.01616888618 -0.05778211975 0 0 1
0.02019283867 0.02044406128 -0.05653502655 0.948777947 -0.02314982157 0.3150944193
0.01493440723 0.03403105164 -0.04644928741 0.7327439689 0.003227131865 0.6804967757
-0.01727594376 0.06060000229 -0.0514954319 0.7986100897 -0.3720967162 -0.4730390664
0.00947148641 0.041122907 -0.04233547465 0.4306017093 -0.0117158407 0.9024660143
0.006921584845 0.04101602173 -0.04123530197 0.3088490432 0.002541158943 0.9511076758
0.004828179359 0.04185929108 -0.04060427856 0.2400498063 -0.006904043296 0.9707360221
-0.01047195625 0.03880246735 -0.04288993454 -0.5070458018 0.0004607967316 0.8619189884
0.00533302474 0.02301881695 -0.07683694839 0.2737124381 -0.02848916532 -0.961389551
-0.01192544937 0.03757336807 -0.04380804825 -0.5953724209 0.0140235026 0.8033274686
-0.01417362642 0.03498856163 -0.04573547935 -0.6997414428 -0.00174692534 0.7143940519
0.009158437411 0.05278168615 -0.04218703079 0.4208135891 0.1036331904 0.9012081253
-0.01819302559 0.02792910385 -0.05098746872 0.8688430793 -0.01691606695 -0.4947984946
0.01996480751 0.02428331947 -0.05556736374 0.9388087453 -0.02037964583 0.34383544
0.01638895607 0.0342070694 -0.04813432312 0.762324569 -0.001828277101 0.6471923276
-0.002769924283 0.05880003262 -0.07741779709 0.255064126 0.3785115727 0.889759114
-0.01861129189 0.04810211945 -0.05188400269 0.902936804 0.0241662842 -0.4290933682
0.007090643247 0.04405281067 -0.04130369186 0.3128868796 0.007404706643 0.9497615337
0.004796066284 0.04420811844 -0.04060033798 0.246039426 -0.0038971412 0.9692519864
0.002735270143 0.0447187767 -0.04021459389 0.1106785419 -0.01076815981 0.9937979207
-0.005486954212 0.04397765923 -0.04077468872 -0.2636522359 0.007447482793 0.964589049
-0.01040048885 0.04122462463 -0.04285264206 -0.5168233487 -0.01158146094 0.8560137242
-0.0140143261 0.05599467468 -0.04550197983 0.7570344411 -0.09802135447 -0.6459803937
-0.01180189848 0.04125216484 -0.04372009087 -0.5861631047 0.0003826763746 0.8101929821
0.006692122936 0.03214187241 -0.07629821777 -0.4037018822 -0.01034425481 0.9148321085
-0.01638895607 0.0342070694 -0.04813432312 0.7776472274 -0.005114942078 -0.6286800674
0.00918591404 0.06060000229 -0.04348675919 -0.3751932546 -0.4410669454 -0.8152852086
-0.01804499245 0.03080889702 -0.05068407059 0.8697019738 -0.002488205342 -0.493570953
0.003309637308 0.05593512344 -0.04027798843 0.2446771489 0.1627612532 0.9558461525
0.019759552 0.02779431343 -0.05480667877 0.9269950367 -0.008514923029 0.3749769301
0.01708654213 0.06060000229 -0.07101111603 0.8573493865 -0.266050819 -0.4406461065
0.0006679256757 0.05286955516 -0.040074248 0.04619924952 0.008026555482 0.9988999969
0.0162074337 0.03812701035 -0.04789192581 0.7827565068 0.001258406835 0.6223268173
0.006568084876 0.04739531199 -0.04110432307 0.3141906765 0.003572520367 0.9493531777
0.003397544384 0.04693160248 -0.04029007339 0.1740090127 0.003806086123 0.9847367045
-0.01597263622 0.05268954086 -0.06656258392 0.7426415691 0.09892843819 0.6623418029
0.0006789507866 0.04721998215 -0.0400696729 0.06950959662 -0.007517949353 0.9975529542
-0.002717198372 0.04703182411 -0.04021337891 -0.1280952983 0.00688880632 0.9917379386
-0.01392097044 0.04127107048 -0.04549705696 -0.6779984442 -0.007756088216 0.7350224165
-0.019759552 0.02779431343 -0.05480667877 0.9269043823 0.008591256012 -0.3751992222
0.0195736599 0.03102621078 -0.05422208023 0.9181965377 -0.002399063963 0.3961178647
0.01461615086 0.04162828064 -0.04612161255 0.7308092717 -0.01781913251 0.6823490946
0.01240709496 0.04411306572 -0.04421530914 0.6299701476 -0.01233741546 0.7765213463
-0.005163555781 0.05019829051 -0.04069744492 -0.2108436141 -0.01438891583 0.9774138988
-0.008163713932 0.04734890747 -0.04172838974 -0.3875456086 -0.01071437265 0.9217882639
-0.01168035126 0.04487128448 -0.04363356018 -0.5940322714 -0.004447381243 0.8044289163
-0.01382335854 0.0437245121 -0.0454072113 -0.6469959458 0.007021898259 0.7624611066
0.01939712143 0.03411825943 -0.05371238708 0.9124776232 -0.00795939804 0.4090491842
0.0160300293 0.04196329498 -0.04766550827 0.7613971201 0.00245585556 0.6482811074
0.01451272774 0.04409712601 -0.04601512909 0.7260870205 -0.0134285433 0.6874716815
0.003490325371 0.05578876114 -0.07726152547 -0.2233471054 0.1720627186 0.9594323798
-0.005091553211 0.04073049164 -0.07690682983 0.2971976416 -0.0131509106 0.9547254136
0.01253247579 0.04704975001 -0.04431868998 0.6276451521 -0.003820248859 0.7784901854
0.009459870338 0.04996823883 -0.04234171295 0.4769337034 0.01240827255 0.8788516811
0.006738950491 0.05034001923 -0.04117379379 0.3611823162 0.004153767461 0.9324859681
-0.002621512026 0.05928263187 -0.04021061611 0.1887703012 -0.6326380631 -0.7510891122
0.01905977058 0.0400547905 -0.05279423904 0.8749300918 -0.00163709544 0.4842464811
-0.01372694731 0.04614778519 -0.04531847191 -0.6810344023 0.009707559486 0.7321870705
-0.01939712143 0.03411825943 -0.05371238708 0.9124498671 0.008007285509 -0.4091101606
-0.01552686357 0.05289148903 -0.04711840439 0.8028327392 -0.05821510216 -0.5933553697
0.01591460896 0.04446375656 -0.04752736282 0.7612743958 -0.005374315716 0.6484075964
0.01152223587 0.04958243179 -0.04352735138 0.5503862157 -0.00144244294 0.8349089369
0.006904711088 0.0532402153 -0.04124062347 0.3677825939 0.1135108463 0.9229578817
0.004671290874 0.05333453751 -0.04058502579 0.3079098793 0.07304051677 0.9486077109
-0.005343677998 0.05313402557 -0.04074279594 0.4997513748 -0.1466231891 -0.8536686733
-0.0080294379 0.05305496597 -0.04167779541 -0.3763936077 0.2260388952 0.8984621694
-0.01591460896 0.04446375656 -0.04752736282 0.7490359792 0.004763249217 -0.6625121986
-0.01922344971 0.03716008377 -0.05321097183 0.8991887639 0.001316970705 -0.4375589474
0.0158016777 0.04691614151 -0.04740385437 0.773412872 0.0124572298 0.6337802039
0.01425987864 0.05013300514 -0.04575479698 -0.6835532128 0.01396858553 -0.7297670066
0.006397289753 0.05642139943 -0.04105182775 0.2642797246 0.2153431738 0.9400976251
-0.01305566263 0.05885136032 -0.07157539368 -0.6804126676 -0.2210954455 -0.6986811903
0.0006614496311 0.05618751399 -0.04007736969 -0.01983779398 0.2441153525 0.9695432722
-0.002646993101 0.05601959991 -0.04021068382 -0.2610901229 0.2031005999 0.943706572
-0.01095626513 0.05299155807 -0.04319452794 0.4613463869 -0.0650356785 -0.8848332452
-0.01425987864 0.05013300514 -0.04575479698 -0.6901233582 -0.02393432815 0.7232958581
-0.0158016777 0.04691614151 -0.04740385437 0.7627107098 0.009877255541 -0.6466643743
-0.01905980682 0.04005431366 -0.05279461288 0.8749506403 0.00148196487 -0.4842098521
0.01723751831 0.04669358826 -0.04938182831 0.8156137242 0.01649812984 0.5783615345
0.012777668 0.05281455231 -0.04451418304 0.6359157271 0.01618439778 0.7715887851
0.01868242168 0.06060000229 -0.05421417809 0.7276007546 0.5562210966 0.4015161686
0.009512220383 0.05621268336 -0.0423849767 0.4191160487 0.1388839977 0.8972474424
-0.002836962163 0.05020694351 -0.07741661072 0.2218832479 0.001256766581 0.9750724306
0.00327774477 0.05920249176 -0.04027542305 0.1218206114 0.3690322866 0.921398345
