# .PCD v0.7 - Point Cloud Data file format
VERSION 0.7
FIELDS x y z normal_x normal_y normal_z
SIZE 4 4 4 4 4 4
TYPE F F F F F F
COUNT 1 1 1 1 1 1
WIDTH 562
HEIGHT 1
VIEWPOINT 0 0 0 1 0 0 0
POINTS 562
DATA ascii
-0.01460116482 0.06046913719 -0.05066950607 -0.1471369954 0.9757399556 0.1621179928
-0.01358087015 0.01544758272 -0.01308345366 0.6428981931 -0.7659512396 -0.0007822318408
-0.01645871544 0.01231469154 -0.007455643654 0.7986942718 -0.601667061 -0.009176485913
0.01150588512 -0.01264735889 -0.01061260509 0.6766048273 -0.7362506179 -0.01187161578
0.01804483604 0.0308112278 -0.0506823349 0.8863832745 -0.003430398304 0.4629394378
0.006570484161 0.03909146881 -0.07634668732 -0.3877868552 -0.01019354384 0.9216927073
0.01406879807 0.01827846909 -0.04505099869 0.655444219 0.337159935 0.6758077049
-0.0007669926882 0.0207682991 -0.07765532684 -0.07162833771 -0.01333846001 -0.9973422014
0.001984348893 0.05610407639 -0.04014337921 0.08801196035 0.01102940745 0.9960583552
0.01000833416 -0.01382198524 -0.01121545506 0.5563324708 -0.8309141409 0.008710473943
-0.0007776073813 -0.0170603981 -0.01287733173 -0.06362891051 -0.9979700567 0.002669771799
0.01558163071 0.01841824532 -0.04679034805 0.7699807309 0.2240274146 0.5974457226
0.007487577438 -0.01533641148 -0.01315439638 -0.4372625311 0.8993017161 -0.007609357539
-0.01050436306 0.01770079041 -0.002900131702 0.4801418609 -0.8691644624 -0.1183931193
0.005428425312 -0.0161724987 -0.01242170715 0.301436202 -0.9533514124 -0.01604059162
0.0152982378 0.06060000229 -0.0523558197 0.3742164102 0.9067727395 0.1942299596
0.003883003473 -0.01663778687 -0.01266048145 0.2434455351 -0.9699089615 -0.003298152748
-0.008352626801 0.01877898693 -0.0007300626636 -0.33915221 0.8473407304 0.408643445
-0.01400269222 0.02027544594 -0.04548095703 -0.6519367145 0.1362780851 0.7459268086
-0.01673991013 0.01197132397 -0.01928910255 0.8235631288 -0.5672056366 -0.004640976449
-0.002331675053 -0.01690043259 -0.01279523945 -0.1270483618 -0.9918957253 0.00125853829
0.01540188408 0.01367546272 -0.02853809547 0.7514694941 0.6596375627 -0.01311050429
-0.004655714393 -0.01640514278 -0.0125410943 -0.246259942 -0.9692035884 -0.0006672534826
0.009556028366 0.01822252655 -0.03965361786 -0.5212964519 -0.8240995784 -0.2216075227
-0.006975002289 -0.0156098938 -0.01300540495 -0.4396762683 -0.8980922147 0.01073093737
-0.006597513676 0.01962139702 -0.04048432922 0.3972573306 -0.7470709498 -0.5329836858
0.02034966278 0.003189696312 -0.02797253418 0.9982656024 0.0526558912 0.02632763122
-0.01242181206 0.03688452148 -0.07234255981 0.7044901321 -0.001241499327 0.7097126972
-0.00849424839 -0.01479695988 -0.01171581936 -0.544455871 -0.8387108058 0.01148863805
0.009356707573 0.02738284111 -0.04226371384 0.4494987925 -0.001397664653 0.8932798453
0.02014917183 0.004100529194 -0.0221922493 0.9982635139 0.05269818617 0.02632219671
0.01353322124 0.01548690891 -0.01059317493 -0.65362636 -0.75669269 0.013738789
-0.01887395096 0.01358772564 -0.05019323349 0.8668209839 -0.2714606102 -0.4182469592
-0.01000781631 -0.0138057375 -0.0112071085 -0.5505155632 -0.8347884547 0.007800679622
0.003572066307 0.02025450516 -0.02270928764 -0.1761202686 -0.9843301809 0.008703209097
-0.01064066219 0.04858732605 -0.07398306274 0.6049115064 -0.002996033815 0.7962870671
0.01836649513 0.00931205368 -0.0208581295 0.8551175152 0.518430412 -0.001985739445
-0.002336808205 -0.01690125847 -0.01454728603 -0.1185041957 -0.992933646 -0.006287309149
0.01786864281 0.01014117622 -0.002125893831 0.8624082385 0.4465364677 0.2384475062
0.00673349762 0.02977801704 -0.07628173065 -0.3988882073 -0.004320418765 0.9169893849
-0.01514180088 0.01396613216 -0.01643457794 0.7256993545 -0.6879638534 0.008135310376
0.01563431454 0.01339754581 -0.03931846237 0.7747953073 0.6313295774 0.03339455965
-0.01150588512 -0.01264735889 -0.01061260509 -0.6490081357 -0.760606408 -0.01631967696
0.003780629396 0.02616023636 -0.07727192688 -0.2365969129 0.005404143907 0.9715928654
-0.003535582423 0.02024777126 -0.01521739006 0.1746099181 -0.9846347912 -0.002388398622
-0.0170778389 0.01151134396 -0.03341544724 0.8461387383 -0.5329143985 0.007174916939
-0.01441240215 -0.009110825539 -0.008797204971 0.8489960671 0.5282130833 0.01402200976
0.01581239414 0.05648778534 -0.06702427673 0.8946887902 -0.01312071388 -0.4464972738
0.01645840836 0.01232005787 -0.007452706337 0.8124495991 0.5829855828 0.007311577472
0.01711159134 0.0491831131 -0.04920326996 0.8405093882 0.007323471953 0.5417474828
-0.01579409599 -0.006444111347 -0.007428059101 0.8863525652 0.4630069404 -0.001924398731
-0.008447301388 0.01874489212 -0.008744650364 0.3955722854 -0.9183743802 0.01053873215
-0.01792038918 0.00801853466 0 0.5643057473 -0.1969593131 -0.8017269189
0.01815780258 0.06060000229 -0.05968492508 -0.3280982594 0.9445803212 -0.01093384929
0.00799728322 0.01897675991 -0.03296679688 -0.3649199117 -0.9310223643 0.005551154982
-0.009542108536 0.03632649612 -0.07476438904 0.5557674087 0.002665860711 0.8313335556
0.009182689667 0.01839351082 -0.01056887722 -0.4351579325 -0.9003110657 0.008806748761
-0.01944575882 0.00668341732 -0.0006868950725 0.466754896 -0.1108206515 -0.8774158935
-0.004262685537 0.04944971657 -0.07711628342 0.2198555816 -0.01343020631 0.9754399791
0.01949684906 0.006559131145 -0.002375513315 0.9140888935 0.259264827 0.311806421
-0.004531910777 0.0264171114 -0.07706164932 0.240642917 -0.002972660217 0.9706091643
0.0178249054 0.01021245193 -0.000477053225 0.7838199658 0.4555554738 0.4220135916
0.01563291264 0.01112755632 0 -0.5378139683 -0.3468374224 -0.7684139106
-0.0007573882341 0.02569054985 -0.07765588379 0.06686492778 0.0003020525463 0.9977619908
-0.01391984272 0.05826078796 -0.04542599106 0.5285436618 -0.2720586552 -0.804130391
0.01358087015 0.01544758272 -0.01308345366 -0.6509119795 -0.7590785248 -0.01064839014
0.01519669151 0.01390521717 -0.01898987675 0.7440391739 0.6681354819 -0.0008279912904
-0.01853461552 0.008987005711 -0.02709370136 0.8638349925 -0.5037568034 0.004264822324
0.0149805789 0.01413154316 -0.008902198792 0.7315579919 0.6817481491 -0.006508896262
0.01349857044 0.01112436867 0 -0.2394279527 -0.2175906005 -0.9462180436
-0.01115715694 0.03072281075 -0.07353313446 0.6155521982 -0.00385343785 0.7880866972
0.01153040409 -0.01262580681 -0.01233042431 -0.6746986958 0.738071453 0.005674522923
0.001558065861 -0.01698210812 -0.01458920765 -0.0923020184 0.9955311852 0.0199498534
-0.01346774101 0.04749100876 -0.0710711441 0.7974538737 -0.003132973614 0.6033717791
-0.01957417774 0.006369289875 -0.004927851915 0.9982694645 -0.05257946584 -0.02633393127
-0.01060822201 0.05690765572 -0.04299829102 -0.5209443924 0.03092070343 0.8530303922
0.005446318865 -0.01617020702 -0.01504612112 -0.2950020991 0.9553476559 0.01687061949
-0.008461457491 0.05137632942 -0.07540006638 -0.4937934191 0.001667464918 -0.8695776439
-0.004220155597 0.03485206985 -0.04046385574 -0.207681054 0.009720415067 0.9781482982
-0.01065017605 0.01760137558 -0.01266103268 0.5257727442 -0.8505907972 0.007636572123
-0.007781308651 0.03333602524 -0.04156553268 -0.3784601769 -0.01043589849 0.9255587429
0.01736738634 0.06060000229 -0.05509627628 0.3626532617 0.9099650432 0.2011124859
0.003891533136 -0.01663704681 -0.01441033077 0.1944189899 -0.9809034492 -0.005447910337
0.006300115108 0.05453688431 -0.07645131683 -0.3356146845 -0.004065258116 0.9419905824
-0.0007793235183 -0.01706295776 -0.01463112926 -0.04283098392 -0.9989776018 -0.01446575091
-0.01891565132 0.01226359367 -0.04925291443 0.8691276941 -0.325212493 -0.3726310318
0.01896254349 0.01016680241 -0.04697985077 0.8725704316 0.3981835794 0.2829676289
-0.004928056955 -0.01632582029 -0.014834191 0.3029477376 0.9529217858 0.01275689351
0.01301909733 0.05985941315 -0.07162014008 0.6626845328 -0.5322145876 -0.5268745986
-0.008512727737 -0.01478944683 -0.01345237923 -0.5350329269 -0.8447971626 0.007584281198
-0.01002929687 -0.01378901863 -0.01293360806 0.5551966983 0.8317073919 -0.004409121821
0.01451874447 0.05573814392 -0.06959059143 0.8607139479 -0.01287724418 -0.508926003
0.001311799765 0.06060000229 -0.04344889069 0.02159731883 0.973410329 -0.2280479933
0.01822686195 0.009557426453 -0.01562988472 0.8490876996 0.5282515764 0.0005919861739
-0.00487155056 0.01999931145 -0.003234285116 0.2334755136 -0.9722672917 -0.01361976515
-0.01236358213 0.06060000229 -0.07482891464 0.2279298211 0.9171785536 0.3268508794
-0.01153040409 -0.01262580681 -0.01233042431 0.6391512579 0.7690676515 0.004540591186
-0.01300368786 -0.01106027508 -0.01151844311 0.7625378738 0.646839303 -0.01161495583
-0.002102957964 0.02046231461 -0.009381587982 0.09177572286 -0.9957757801 -0.002795076804
-0.01420992708 0.01112539673 0 0.4825641358 -0.3420043793 -0.8063280098
-0.01634454155 0.01112868786 0 0.6206791185 -0.3771931342 -0.6873738221
-0.0007211592793 0.02544799232 -0.04003843689 -0.03378284893 -0.002898002377 0.999424995
-0.01220442009 0.04353585815 -0.07254457855 0.7247044761 -0.002676248119 0.6890546132
-0.0178249054 0.01021245193 -0.000477053225 0.6950685724 -0.4844335559 -0.531228585
0.01719438553 0.01633758736 -0.04825723267 0.8493602582 0.2726702983 0.4519270518
-0.002079596281 0.02046155739 -0.001398752809 0.08147345372 -0.9322426136 -0.352541892
-0.009464802742 0.01826941872 -0.03255693054 0.4679355111 -0.883760779 0.00180084262
-0.01949684906 0.006559131145 -0.002375513315 0.9240497881 -0.2932837199 -0.245186967
0.01957417774 0.006369289875 -0.004927851915 0.9982694645 0.05257946584 0.02633393127
-0.01669767094 0.06060000229 -0.05508418655 -0.3782240162 0.9107278007 0.1658959508
0.0163025074 0.01250603008 -0.0008831052184 0.6290081173 0.513494829 0.583671011
0.01192544937 0.03757336807 -0.04380804825 0.5684187853 0.005721252139 0.8227194855
0.007839747906 0.01904336357 -0.01842429924 0.3640349102 0.9313806595 -0.002941312323
0.01190683603 0.01674500084 -0.001029619753 0.5431534867 0.7796306886 0.3117054367
0.01479582691 0.01418584538 0 0.5501534749 0.4832502364 0.6810289003
-0.008544452429 0.01870668507 -0.01696311378 0.4010369282 -0.9160613953 0.0009499195434
0.01338509655 0.01418324566 0 -0.4846095884 -0.4826063398 -0.7295510041
-0.006568615437 0.01952195168 -0.03699486542 0.3043092984 -0.952495524 -0.012170772
0.01339128494 0.04959878159 -0.07116470337 0.7766271911 -0.01251507793 -0.6298361524
0.005661156178 0.01976697731 -0.01467909718 -0.2948166376 -0.9554811531 0.01178627056
0.01005155277 -0.0137934885 -0.01467892647 -0.5468290355 0.837244204 -0.0003857261203
0.001458948553 0.03992425346 -0.0776006813 -0.06198137123 -0.003066006789 0.9980725972
-0.01250257111 0.06060000229 -0.04525374985 -0.3645336886 0.8030425195 0.4714211511
0.007306833982 0.01923925781 -0.03718571663 -0.3286405883 -0.9442409065 -0.02011154198
0.001477015674 0.0352966671 -0.07760212708 -0.08617869707 -0.00656563371 0.9962580613
0.00536645937 0.01985139529 -0.007044046402 -0.2654268256 -0.964118438 0.004923187035
-0.003492125034 0.05574415207 -0.07730226135 0.2035225926 0.005097011184 0.9790569824
0.007764554977 -0.01519053459 -0.0154108181 -0.4601202867 0.8876836417 -0.01752352665
-0.0124457016 0.02209350586 -0.04420021057 0.5994576772 -0.01977280293 -0.8001621895
0.003534157753 0.05143404007 -0.07729788971 -0.202304045 -0.005387535256 0.9793079433
-0.01836649513 0.00931205368 -0.0208581295 0.8548586348 -0.5188572446 0.001968309135
0.003900101185 -0.01663630486 -0.01616811943 0.1906191855 -0.9815263662 -0.01644136527
-0.01444034958 0.05771962738 -0.06973004913 0.7651971291 0.2378622902 0.598243165
0.0114494586 0.04498529243 -0.07323760223 -0.6795434005 -0.01493571443 0.733483259
-0.0007023166418 0.02055816078 -0.01094626617 0.05068223573 -0.9987142828 0.001045117399
-0.01406879807 0.01827846909 -0.04505099869 0.6974051806 -0.3165023014 -0.6430025718
0.001561506093 -0.01698380947 -0.0163501091 -0.06167511706 0.9974789683 0.03509825739
0.01613478088 0.04884108353 -0.06608519745 0.9138561581 -0.009442025762 -0.4059282824
-0.002341964722 -0.01690208817 -0.01630729866 -0.107850817 -0.9936932073 -0.03069219828
-0.008163713932 0.04734890747 -0.04172838974 0.3903920845 -0.0007023639632 -0.9206484275
0.005439984163 0.01983466085 -0.01684032758 -0.272548511 -0.9621140104 0.007344396984
-0.002229021072 0.03301186752 -0.07754901123 0.105267798 0.003912729783 0.9944362128
-0.003900101185 -0.01663630486 -0.01616811943 0.2193651389 0.9753974617 0.02187984258
0.01377795267 0.04492993927 -0.04537009048 0.6734115203 -0.005682100525 0.7392459929
-0.006997818947 -0.01559916973 -0.01562489223 0.411017538 0.9113117127 0.02399053561
-0.002149552107 0.02787342262 -0.04012231445 -0.09602210618 -0.0002513128703 0.9953791699
-0.01005087185 -0.01377222633 -0.01466776752 0.5413938433 0.8407648686 0.002672479722
0.01846212006 0.009127169609 -0.02440485954 0.8588782802 0.5121701498 -0.003136455182
0.001401833981 0.02051120949 -0.009353518486 -0.04295124823 -0.9990699913 -0.003787171484
-0.002717198372 0.04703182411 -0.04021337891 -0.124062025 -0.01183922899 0.9922038332
-0.01056502914 0.01417882729 0 0.4123516182 -0.4009469197 -0.8180511662
-0.01519669151 0.01390521717 -0.01898987675 0.7278105359 -0.6857583476 -0.00522614328
0.007872870445 0.06060000229 -0.04347649956 -0.2983860818 -0.6653928084 -0.6842646832
-0.01267997217 0.01418207598 0 0.5464417348 -0.4259774189 -0.721071889
-0.01048047733 0.01771707535 -0.001301192522 0.5112410011 -0.7713271112 -0.3790608479
-0.01479582691 0.01418584538 0 0.6575662383 -0.5601381233 -0.503837201
-0.01184274483 0.04003595352 -0.0437491684 -0.5961910493 0.0008130544164 0.8028421836
-0.01630254364 0.01250539494 -0.0008834387064 0.7027877616 -0.5632829235 -0.4345131876
0.01791260529 0.01006953716 -0.003783130884 0.8366377099 0.5477558923 -0.0009081781688
0.01482411098 0.01427139473 -0.00155055356 0.6722417559 0.6253785917 0.3962229658
-0.01830578232 0.06060000229 -0.06529582214 0.3736481322 0.9265648106 0.04318246135
0.009778128147 0.01718523026 0 0.4259702715 0.6384663126 0.641022695
-0.01669909286 0.01202116585 -0.01757139969 0.8220869074 -0.5693072546 -0.00789724426
-0.0125225172 0.01635313606 -0.03734857559 0.5858571226 -0.8103739564 -0.008092139509
0.007681929111 0.01718226433 0 0.2331898564 0.754826068 0.6130743005
-0.004937838554 0.01998482895 -0.01291039467 0.2077912606 -0.9781353097 0.008608596019
-0.00823371315 0.01884944153 -0.01085030238 0.3880449086 -0.921609754 0.007523972745
0.005586411953 0.01718007851 0 -0.1256293707 -0.2052161477 -0.970620211
-0.01070312405 0.04642735672 -0.07392955017 0.6082192924 -0.002520608733 0.7937650401
0.003491290808 0.0171785183 0 0.1325299379 0.2329638658 0.963412504
-0.002094724894 0.01717789459 0 -0.002683529788 0.273062325 0.9619926015
0.00139647913 0.01717773819 0 -0.006105168427 0.1428481212 0.9897257909
-0.004189635634 0.01717898655 0 -0.09460885937 0.2286187822 0.9689079503
0.009110126019 0.01842024231 -0.004902881145 -0.4522526951 -0.8918811889 0.003929968877
-0.006284843445 0.01718070221 0 -0.2047277916 0.5481629383 0.810927817
0.02002414131 0.004604586601 -0.01845961571 0.9982648474 0.05267122476 0.02632558523
-0.00838060832 0.01718320084 0 -0.3352805454 0.6120024722 0.7162680573
-0.01047696877 0.01718632317 0 -0.5172239584 0.6355840376 0.5731599323
0.01135562897 0.01712480068 -0.01129656124 -0.5561972143 -0.8309576263 -0.01241298375
0.005064656258 0.02457177734 -0.04065144348 0.2537269228 -0.00295446049 0.9672713786
0.001450970143 0.02052642822 -0.03455986214 -0.0749092213 -0.9971224372 0.01163846043
0.001982450724 0.05818730164 -0.04366131973 -0.3816747325 0.7790799896 0.4973517553
-0.01190685368 0.01674458885 -0.001029840462 -0.4576963392 0.783391692 0.4204896169
-0.01532645321 0.0137612133 -0.02503063583 0.7492384791 -0.6622980397 -0.001734351181
-0.01040048885 0.04122462463 -0.04285264206 -0.5104456364 0.006480766621 0.859885604
0.001384938806 0.02013473225 0 0.1303910392 0.6460641654 0.7520633424
0.01728637218 0.01173684502 -0.04315146255 0.8489974124 0.4794466431 0.2221132822
-0.01051719856 0.05285381317 -0.07408285522 0.6246938001 -0.01072260646 0.7807961846
-0.01334626389 0.01564120674 -0.0008223379254 -0.550711323 0.6900074538 0.4696879309
-0.01776327133 0.03632585144 -0.05017956543 0.867681278 -0.003259637036 -0.4971102237
-0.01482411098 0.01427139473 -0.00155055356 0.7329407585 -0.6273657835 -0.2630779698
-0.007728137016 0.03580331802 -0.04154675674 -0.362718221 -0.006064947608 0.9318791276
-0.01634129333 0.01245807552 -0.002514193296 0.7812442117 -0.592176486 -0.1974449067
-0.01870928955 0.008607241631 -0.03348826599 0.8718130032 -0.4898173236 0.004590969354
0.01515353775 0.0288000946 -0.04667490387 0.7396832174 -0.0008606001904 0.6729546769
-0.003515607119 0.02024910355 -0.01112552071 0.1728585101 -0.9849262659 -0.006339266243
-0.01791260529 0.01006953716 -0.003783130884 0.8363736285 -0.5481589349 0.0009672916823
0.01965340233 0.00615816021 -0.00750955534 0.9982654563 0.05265879293 0.0263273684
-0.009521584988 0.01824023151 -0.03697416306 -0.464482787 0.8855634656 0.005752297882
0.01795679092 0.009997529984 -0.005448892117 0.8393101911 0.5436524239 -0.0006670861201
-0.00617784214 0.04374720001 -0.04094903946 -0.2788833615 -0.00849173341 0.9602874367
-0.008511817455 0.04921254349 -0.07537533951 -0.4972893801 0.001780743571 -0.8675829075
0.007324342251 0.01923233795 -0.03896554565 -0.3465912346 -0.9138582017 -0.2115128914
0.0148584671 0.01424269199 -0.003168798923 -0.6982896179 -0.7133544711 -0.05930436796
-0.000752661407 0.02811302185 -0.07765616608 0.06018284606 -0.004617977262 0.9981766874
-0.008045052528 0.01895656395 -0.03737656784 0.3959750937 -0.9178548629 -0.02731621792
0.01048045826 0.01771759415 -0.001300914288 -0.5131368506 -0.8053479965 -0.2968251625
-0.003523564577 0.0202485733 -0.01275559998 0.1731077439 -0.9848626989 0.008897940467
0.009059026718 0.01843906784 -0.0009128406048 0.3359258293 0.8994660732 0.2794899289
0.007646226883 0.01911890602 -0.0005472847223 0.2677714861 0.8436039848 0.4654360836
-0.01019117069 0.04831871033 -0.04274342346 -0.4955258807 0.006498375793 0.8685688647
0.005553897619 0.01978568459 -0.0009774659257 -0.2091815747 -0.8614374723 -0.4627834808
-0.01209408283 0.03255297089 -0.04392955017 -0.5727844329 0.003384348852 0.8196990543
0.003507622242 0.02025498199 -0.009500569344 -0.1696900047 -0.9854946299 -0.002374201356
-0.0006924633384 0.02013455009 0 0.1028225559 0.6324134925 0.7677764626
-0.01638895607 0.0342070694 -0.04813432312 0.7964937588 -0.003953004794 -0.604633828
-0.002161426783 0.02047572517 -0.02938375854 0.09719091975 -0.9952519205 -0.005247838792
-0.003462437868 0.02013563919 0 0.2328164628 -0.7301385703 -0.6424127666
-0.004855317831 0.02000100517 -0.0008610314541 0.3023510597 -0.8849192376 -0.3542623035
-0.008000748634 0.02315344429 -0.04164303589 0.4363599724 -0.04158533939 -0.8988106775
0.006775300026 0.0273897438 -0.07626507568 -0.4019187284 -0.00440897117 0.9156647294
-0.006252477407 0.019570364 -0.001093900397 0.3316912123 -0.8784512816 -0.3439539003
-0.005064991951 0.01994937134 -0.03145581055 0.2536729429 -0.9672069947 -0.01267546386
-0.01846212006 0.009127169609 -0.02440485954 0.8587086614 -0.5124555837 0.002951194637
0.01347028065 0.0155388546 -0.007303751945 -0.6355880393 -0.7720106146 -0.005239772224
-0.006347613335 0.03410907745 -0.04100417709 -0.3216575317 0.003782252076 0.9468485237
0.01144475269 0.05189250946 -0.04347818375 0.5478903395 0.002429557561 0.8365466353
-0.01337704086 0.01561580658 -0.00243081665 0.5848167705 -0.7700413336 -0.255001352
-0.0148584671 0.01424269199 -0.003168798923 0.6803448411 -0.7282972346 -0.08193921725
-0.01795679092 0.009997529984 -0.005448892117 0.8388901913 -0.5443001921 0.0007401570166
0.01506952667 0.01404281998 -0.01306296062 0.7393046122 0.6733147603 0.008713434713
0.005624158382 0.05319204712 -0.07669124985 -0.3308801402 -0.004276068832 0.9436631009
-0.01965340233 0.00615816021 -0.00750955534 0.9982652062 -0.05266380262 -0.0263268292
0.01970948792 0.005973516941 -0.009266853333 0.9982651673 0.05266458186 0.02632674665
0.01489299202 0.01421384811 -0.004794965744 0.7116402652 0.7024593942 -0.01090561508
0.01692669296 0.01173930407 -0.02714157867 0.8281360566 0.5605263291 -0.0009518706044
-0.01410428524 0.01689058304 -0.04418845749 0.726388375 -0.4530411027 -0.5168304248
0.01342350721 0.01557745647 -0.004859267712 -0.6303378226 -0.7763198126 -0.001333404422
0.01555583382 0.01349276924 -0.03568121719 0.7627716614 0.6465625052 0.0116755915
0.01194762993 0.01671812439 -0.003434194565 -0.5801771179 -0.8144903323 -0.000102154871
0.01050432014 0.01770194626 -0.002899505138 -0.5074104539 -0.8605834118 -0.04394112701
0.009162940979 0.03496744537 -0.04216020584 0.4395914019 -0.006232060304 0.8981762415
0.009079387665 0.01843156624 -0.002502737284 -0.4115500152 -0.8991639515 -0.1487641536
0.007671981335 0.01910995483 -0.002928642154 -0.3862930367 -0.9152776942 -0.1142122244
0.001386287361 0.02050334549 -0.001376007259 -0.09199814533 -0.9672803674 -0.2364424501
0.00203685236 0.04713204575 -0.04013668442 0.1026509674 0.006660000853 0.9946951409
-0.006136660576 0.04608522415 -0.04093587875 -0.2696194114 -0.002145798651 0.9629645728
-0.0006929844022 0.02054434776 -0.001353687882 0.02811051965 -0.9267714374 -0.3745724249
-0.01544007397 0.01362945843 -0.03030868912 0.7523954306 -0.6587092413 0.001803136304
-0.003468679428 0.02025223351 -0.001512573719 0.2308213625 -0.91130423 -0.3409488216
-0.01342350721 0.01557745647 -0.004859267712 0.6314938501 -0.7753579967 -0.005957703431
0.01147366905 0.02939604092 -0.04352202606 0.5675094737 -0.002852768988 0.8233619246
-0.01489299202 0.01421384811 -0.004794965744 0.7114819068 -0.7024849806 0.01755985215
0.01138271618 0.04715283012 -0.07329737854 -0.6781099368 -0.004193720268 0.7349485195
0.001504783243 0.02818007469 -0.07760100937 -0.08699878701 -0.006522832228 0.9961870626
0.01651214027 0.03154692268 -0.04829881668 0.8037455349 0.003719577968 0.5949615785
-0.01979721069 0.05314944458 -0.05505175018 0.3084370332 0.1652891419 -0.9367743037
-0.01800120926 0.00992514801 -0.007123307228 0.8399598966 -0.5426484712 -9.414757377e-05
-0.01971041107 0.005959739208 -0.009274315834 0.9982654306 -0.05265932203 -0.02632728278
-0.008613986969 0.04482266426 -0.07532517242 0.5086602672 0.006476301028 0.8609429657
-0.002091847658 0.03773422623 -0.040129673 -0.08815304497 -0.001512886454 0.9961057935
-0.004671290874 0.05333453751 -0.04058502579 0.2191740781 -0.007709922602 -0.9756553083
0.01977157974 0.005703379631 -0.0110809021 0.9982654334 0.05265920327 0.02632741692
-0.008564185858 0.01869892406 -0.01863244343 0.4039746555 -0.9146506139 0.01478959645
0.01804585838 0.009852387428 -0.008806509018 0.8416038541 0.5400950724 -0.0005152071829
0.01162113237 0.03947867966 -0.07308354568 0.6908262594 0.01087484929 -0.7229390133
-0.019759552 0.02779431343 -0.05480667877 0.9982658952 -0.05265914514 -0.02631001577
0.01525198174 0.01384385777 -0.02156378937 0.7462193425 0.665689898 0.00369493494
-0.01402732658 0.01507911491 -0.03641643906 0.6659171097 -0.7459392317 0.01136070894
0.01492771816 0.01418426991 -0.006429499626 0.7337464291 0.6793525496 -0.009812804167
-0.01961268425 0.06060000229 -0.06343991852 -0.1701350132 -0.9837360074 -0.05759813467
0.01052829838 0.01768622398 -0.004505851746 -0.508330909 -0.8610982844 0.01046095466
0.01937737083 0.06060000229 -0.05513441658 0.489597087 0.8529601454 0.1809797853
0.005572483063 0.01978326797 -0.003353032112 -0.2813184032 -0.9593970014 -0.02042913716
-0.01228475952 0.01651134872 -0.02333702087 0.5678447118 -0.8230646484 -0.01081517203
-0.0006945210695 0.02054662323 -0.00293322444 0.03562957961 -0.9981141467 -0.04998683065
-0.003476406336 0.02025171852 -0.003095382929 0.1676618312 -0.9856736215 -0.01835816801
-0.006273415565 0.0195672245 -0.003471779108 0.2938964267 -0.9558187893 -0.005944108849
-0.02024314594 0.003732010603 -0.02501837349 0.9982660136 -0.05264729846 -0.02632922347
-0.008639384429 0.01864714368 -0.005043678602 0.4147341199 -0.909855869 -0.01256612409
-0.006301579475 0.01956300354 -0.006670287132 0.3052609673 -0.9522686696 -0.0003502516563
0.01983408546 0.005431446552 -0.01290701008 -0.3716463529 -0.9200178444 0.1242825589
0.01649787903 0.01227297401 -0.009115977287 0.8169627448 0.5764633351 0.0161832298
-0.01170860004 0.06060000229 -0.07679334259 0.1160923826 0.9766071406 0.1810001425
0.005240570307 0.05972659111 -0.04072418213 0.1852867532 0.5704652063 0.8001489033
0.007697901249 0.01910094643 -0.005325273514 -0.3824405888 -0.923895886 -0.01247348511
0.007771445274 0.05091740417 -0.0758094101 -0.452514665 0.0009834657567 0.891756419
0.005584952593 0.01978164673 -0.004946855783 -0.2900644353 -0.956990685 0.005608228433
0.001392461002 0.02050646877 -0.004543906927 -0.04701368215 -0.9988937267 -0.001018050619
0.01144736958 0.01706740856 -0.01710882664 0.5620933221 0.8270732763 -0.0009449216738
-0.002088876009 0.02046145821 -0.004568938732 0.08940012004 -0.9959859043 0.004438137813
-0.01961952782 0.05600405121 -0.0544895668 0.9246191616 0.01738252716 -0.3804960628
0.00206402564 0.04248859024 -0.04013322067 0.09722832406 -0.003192036125 0.9952569839
-0.00348416996 0.02025119972 -0.004685775757 0.1720273168 -0.9850738142 0.006015217408
-0.004882441998 0.01999817467 -0.00482654953 0.2440824207 -0.9697231925 0.007791135154
-0.0006983960271 0.02055235863 -0.006916264296 0.05042822562 -0.9987164581 0.004736075806
0.003331218243 0.05372417068 -0.04027972412 0.1484095882 -0.001107104793 0.9889253604
-0.01056460428 0.01765971851 -0.006932718277 0.5023705463 -0.8646508659 -0.001647529767
0.01558102608 0.05171382523 -0.04717466354 0.7483418901 -0.001088782301 0.6633123171
-0.0007103099823 0.02056999397 -0.01916259193 0.04759813228 -0.9988543883 -0.004932429568
-0.0120026207 0.01667929459 -0.006670473099 0.6109037196 -0.7916356192 0.01047338504
-0.01448760955 0.01459201113 -0.008916232745 -0.7090504221 0.7047720542 0.02332060338
-0.01649825668 0.01226640797 -0.009119607925 0.8075148196 -0.5896355493 -0.01580300873
-0.01809074593 0.009779239655 -0.01049863052 0.8433782734 -0.5373201756 -0.000341920727
-0.01540190029 0.01367516327 -0.02853828239 0.7514772686 -0.6596281645 0.0131377088
-0.008285841703 0.06060000229 -0.07874056625 0.124780425 0.8975712389 0.4228424254
0.007594955921 0.06060000229 -0.07873320007 -0.1810448027 0.8959601662 0.4055590709
-0.01983537865 0.005412221432 -0.01291764259 -0.1466172923 -0.9774576019 0.1519210523
-0.01366106224 0.01538139915 -0.01727448654 0.6421272583 -0.7665701046 -0.006546662144
0.009464802742 0.01826941872 -0.03255693054 -0.4829904866 -0.8754923576 0.01527486964
0.0198970089 0.005157689571 -0.01474536896 -4.732137789e-07 -0.9890933917 0.1472897229
-0.008524822235 0.01871440506 -0.01530250263 0.4002585341 -0.9163284211 -0.0116331692
0.01815855694 0.009668733597 -0.01305499315 0.847158993 0.5313385469 0.0009945240199
0.01578567743 0.01315205145 -0.01108981323 0.7380479813 0.6747080814 0.00736085985
-0.01082973289 0.04204808426 -0.07381900787 0.6203168163 -0.006656256164 0.7843231105
-0.01074990082 0.01753338432 -0.0193367157 0.5385363729 -0.8425741397 -0.006884350363
0.007715293407 0.01909490204 -0.006933404446 -0.3941668634 -0.9189816799 -0.01025455175
-0.01241673279 0.01643353939 -0.03113451004 0.5839106986 -0.8117982839 0.005642896706
0.003495841503 0.02025440788 -0.007084580421 -0.1715070577 -0.9851662582 0.005724754738
-0.002156409264 0.02047457504 -0.02766729546 0.09121177587 -0.9958306561 0.001310079983
0.001397132248 0.0205088315 -0.006940874577 -0.0514306554 -0.9986587744 0.005961535016
-0.008664629698 0.0186542263 -0.02711790085 0.408983258 -0.912541685 0.0006064961512
-0.002095897794 0.02046138382 -0.00696768713 0.1029580228 -0.9946665023 0.006180185525
-0.008428178549 0.01875187397 -0.007126010418 0.392349542 -0.9197688753 -0.009330218154
-0.00210769248 0.02046340179 -0.01100126076 -0.08356141703 0.9964976398 -0.003153313801
-0.01231377888 0.01649464989 -0.02505245018 -0.598425621 0.8011752393 0.002238756956
0.01543417215 0.03927513123 -0.04702064323 0.7516670344 0.003453669247 0.6595337304
0.001404989302 0.02051280499 -0.0109725976 0.03826797568 0.9992665685 -0.001373688578
-0.006435742855 0.0291070137 -0.04103514099 -0.3204415857 0.003990091138 0.9472598742
0.001437467873 0.02052471352 -0.02763504696 -0.05321904384 -0.9985530914 -0.00771083898
-0.01204419756 0.01665094948 -0.00911927557 0.609676661 -0.7926466239 -0.002387187434
-0.01653800201 0.01221787548 -0.01079219246 0.8101073526 -0.5862494136 -0.006140222849
-0.01989849281 0.005135705471 -0.01475765228 -3.441004068e-07 -0.9888957361 0.1486109793
0.009620268822 0.06042251587 -0.07495790863 0.5192652892 -0.6054783193 -0.603124833
0.000669742167 0.05179830551 -0.0400397644 0.02058430687 0.0045003848 0.9997779918
0.01657747269 0.01217743397 -0.01246881962 0.8176939128 0.5756487636 0.002272880291
0.00916182518 0.01840119743 -0.008939699173 -0.4478157535 -0.8940503177 0.01162240352
0.007471633911 0.04770476151 -0.04145421982 0.3652244633 -0.00129397332 0.9309185878
0.007732777596 0.01908858681 -0.008549601555 0.3614277762 0.932397242 -0.002312092396
0.01887395096 0.01358772469 -0.05019323349 0.8668210344 0.2714604949 0.4182469294
-0.003636670351 0.02244555092 -0.04033390808 -0.2234230362 0.3105962795 0.9239113042
-0.006322892189 0.01955980873 -0.009090755463 0.2930012813 -0.9561008871 -0.004619822008
0.01354489803 0.04536390305 -0.07097673035 0.7855330422 0.009302982647 -0.6187497831
-0.01060108376 0.01763484764 -0.009374729156 0.5221573157 -0.8528482354 -0.001274760748
-0.02034966278 0.003189696312 -0.02797253418 0.9982656024 -0.0526558912 -0.02632763122
0.005113190651 0.01993593216 -0.03848559189 -0.2596963385 -0.9368398499 -0.2342838182
-0.01834284019 0.02501272774 -0.05129059982 0.8612735045 0.005727761534 -0.5081093812
0.01154248857 0.01700963306 -0.02302984428 -0.5667905493 -0.8238605727 -0.001493263708
-0.01382649422 0.06049998093 -0.04535154724 -0.4623105537 0.755385194 0.4643944021
-0.01353322124 0.01548690891 -0.01059317493 0.6280515231 -0.7781634348 -0.00359903144
0.01661769485 0.01212738705 -0.01415956593 0.8165837761 0.5771972615 0.00585302144
0.007759224892 0.01907740688 -0.01099101496 0.362560141 0.9319565761 0.002661660508
-0.003507689476 0.02024963188 -0.009503620148 0.1670251957 -0.9859421592 -0.004543416295
-0.008077983856 0.01914196396 -0.04081518936 -0.441134135 0.8264758289 0.349769037
-0.01506952667 0.01404281998 -0.01306296062 0.7228076822 -0.6910132377 -0.007054071014
-0.00491549921 0.01999105835 -0.00965220356 0.250808272 -0.9679917989 -0.009332091549
0.02045560455 0.002326702356 -0.0302635231 0 0 1
-0.01208605385 0.01662241173 -0.01158458042 0.6136291304 -0.7895818514 -0.004448628308
-0.01712194443 0.0114397459 -0.0352361145 0.839095349 -0.543976142 -0.002992023021
-0.01661811829 0.01212004375 -0.01416375351 0.8139118577 -0.5809790404 -0.003292806555
-0.00498321104 0.0199721756 -0.01952801323 0.2535947248 -0.9672719009 -0.008647847904
-0.01822686195 0.009557426453 -0.01562988472 0.8485541292 -0.5291082314 -0.0006076780496
-0.02002601051 0.004577012062 -0.01847533989 0.9982658222 -0.0526513271 -0.02632842421
0.01573334599 0.05836272812 -0.06725453949 0.8221717929 -0.2510782022 -0.5108750134
0.02008708572 0.004344005585 -0.02032505989 0.9982654655 0.05265864091 0.0263273245
0.01827273178 0.00948267746 -0.01735906792 0.8509112766 0.5253094314 -2.446612421e-05
-0.01674327087 0.05646460724 -0.04868100739 0.8636676283 0.149874053 -0.4812649957
0.009226721764 0.0324709053 -0.0421942749 0.4383190164 -0.0006207093721 0.8988192558
-0.01662353706 0.05883165359 -0.04851123428 0.7173580286 -0.3918080919 -0.5760936365
0.01665813065 0.0120770731 -0.01585934734 0.8180722254 0.5750997101 0.004261149767
0.01402732658 0.01507911491 -0.03641643906 -0.6685181232 -0.743650472 0.008215502049
0.0151054697 0.01400645256 -0.01474322319 0.7424270644 0.6699013926 -0.005846208575
-0.01559502983 0.01344393158 -0.03749523926 0.7654586622 -0.6432369707 -0.01786717619
-0.01694632721 0.06060000229 -0.06526835632 0.4045915221 0.9134342549 0.04408584969
0.005635493755 0.01977227211 -0.011402246 -0.2910277246 -0.9566438198 -0.01163897041
0.00351552844 0.02025536728 -0.01112191296 -0.1755573601 -0.9844601003 -0.004233695057
-0.003648077488 0.02024635124 -0.03827371979 0.2991256196 -0.9311398255 -0.2085725033
0.006860219479 0.02253803635 -0.07623123932 0.3597411643 0.003361085812 -0.9330460856
-0.01090357876 0.01742860985 -0.02962409592 0.5335794866 -0.8456991923 -0.009263236404
-0.004926640511 0.01998795128 -0.01127718639 0.2359898435 -0.9716738144 -0.01260127579
-0.008738082091 0.01860998535 -0.01316907756 0.4386080337 -0.8986322552 -0.009113876429
0.007894506454 0.01902021217 -0.02347920609 -0.3626254697 -0.9319115038 -0.006611942249
-0.0151054697 0.01400645256 -0.01474322319 0.7244782294 -0.6891849858 0.01246396459
-0.01380820131 0.01525996256 -0.02496437931 0.654908158 -0.7557000424 -0.003570788627
-0.01665849686 0.01207073784 -0.01586299706 0.8180504313 -0.5751296281 -0.00440485222
-0.01827273178 0.00948267746 -0.01735906792 0.8504784881 -0.5260098298 -1.380733263e-05
-0.01537853527 0.02342907715 -0.04690655899 0.7534335609 0.001054431239 -0.6575231993
-0.00210997057 0.05334063339 -0.07753403473 0.1011049519 0.003325844655 0.9948702063
-0.02008708572 0.004344005585 -0.02032505989 0.9982660084 -0.05264754631 -0.02632892734
0.01514180088 0.01396613216 -0.01643457794 0.7413703244 0.6710842986 -0.003988266809
0.01331853771 0.03844932938 -0.04494374466 0.6777964277 -0.002253993512 0.7352461643
0.007785851002 0.01906614876 -0.01344894123 -0.3589578536 -0.9333216277 -0.007745872793
0.003523474216 0.02025575447 -0.01275142288 -0.1730888331 -0.9848903337 0.005593426877
0.001408160508 0.02051440907 -0.0125998168 -0.04743355615 -0.998873904 -0.0009908309025
-0.006431868553 0.01954347229 -0.02146689034 0.2999613662 -0.9538905847 -0.01076713327
-0.0007038990259 0.02056050301 -0.01257277489 0.04612579495 -0.9989279028 0.00393142341
-0.004378456712 0.02111205006 -0.04035524178 -0.3071028465 0.5010146707 0.8091181257
-0.002112450838 0.0204644928 -0.01262908173 0.09254887804 -0.9957032594 0.003118380983
-0.006358746529 0.01955443382 -0.01316259861 0.2980140338 -0.9545613642 0.000487505109
-0.01235607433 0.02475961304 -0.04413122177 -0.577613126 -0.0007372824613 0.8163103167
0.005101035595 0.01993932152 -0.03671281052 -0.2345865813 -0.9720799587 -0.005448826018
-0.01442747879 0.06060000229 -0.07486306 0.3695647217 0.9039574077 0.2151346591
0.01313383865 0.04335484695 -0.04479705811 0.6415764915 -0.01292979308 0.7669500805
-0.01528911304 0.01380265045 -0.02329237938 0.7472177833 -0.664413233 -0.01485396462
-0.01068734455 0.0175760355 -0.01514910984 0.5287398177 -0.8487585061 0.006572934853
-0.01214198017 0.01659351349 -0.01489711285 0.6168661863 -0.7870634915 0.002677424241
0.01855887604 0.008940099716 -0.02799353027 0.8655573153 0.5007946232 -0.003908874548
0.0117251447 0.01688216337 -0.01917076429 -0.5633479746 -0.826101425 -0.0139819551
-0.0007112909555 0.0305049572 -0.04003791046 -0.01866806507 -0.001341732541 0.9998248362
-0.01362884998 0.01540798378 -0.0155910244 0.6401608376 -0.768173346 -0.0101888406
0.01136835289 0.05417179871 -0.04343266678 0.542928283 0.002592672624 0.8397750637
-0.01831909752 0.00940369606 -0.01910009575 0.8525138507 -0.5227031968 0.001225746561
-0.02014917183 0.004100529194 -0.0221922493 0.9982699218 -0.05256805453 -0.02633937841
-0.006553053856 0.0195253067 -0.03522964478 0.3151801636 -0.9490280715 -0.002680299367
0.02024314594 0.003732010603 -0.02501837349 0.9982660136 0.05264729846 0.02632922347
0.01366106224 0.01538139915 -0.01727448654 -0.6401253306 -0.7681452021 -0.01387478199
-0.008064362526 0.0189484005 -0.03915911865 0.4375204393 -0.8832605715 -0.1686019812
-0.01020560217 0.02287633991 -0.04274044228 -0.4911533548 0.02344905105 0.8707574427
0.007803723335 0.01905859375 -0.01509877586 -0.3942480557 -0.9189163831 -0.01269454299
0.01571661282 0.06060000229 -0.07098403168 0.5314106716 -0.785770052 -0.3164934809
0.003535474181 0.02025633907 -0.01521232939 -0.171333133 -0.98520315 -0.004439687623
-0.01563466263 0.01677972984 -0.04609983444 0.7836067778 -0.3407749205 -0.5194543977
0.001412949577 0.02051683187 -0.01505723572 -0.05294412983 -0.9985974746 -5.267465214e-05
-0.01221291351 0.01655269337 -0.01909010315 0.6173982997 -0.7866505029 0.0005708281102
-0.0007062887251 0.02056404114 -0.01502910423 0.05150739203 -0.9986726109 6.866823715e-05
-0.002119636774 0.02046614075 -0.01508742332 0.1060951809 -0.9943533703 -0.002277606315
-0.00767561245 0.03824060822 -0.04152820587 -0.3603790843 -0.00600479111 0.9327866091
0.01841416931 0.009219880104 -0.02262633133 0.857546792 0.5144010013 -0.002260385294
-0.002136612654 0.02047003365 -0.02089483261 0.08654154321 -0.9961914722 0.01063541216
0.001424262941 0.0205225544 -0.02086241436 -0.04341682691 -0.9990377618 0.006207218199
0.01099971962 0.02093100929 -0.04319578934 0.5911988916 0.1786299274 0.7864955305
0.0117085762 0.01690384007 -0.03345110512 -0.5726894522 -0.8196139633 -0.01611652686
-0.00428846693 0.04724559212 -0.07711296082 0.2215870695 -0.01354060181 0.9750465746
0.01678075981 0.01192448521 -0.02101429939 0.8257070806 0.5640980084 0.001119778478
-0.009717693329 0.02935290146 -0.07465684509 0.529823724 -0.003695297144 0.8480997384
-0.008255722046 0.02824000359 -0.07556903076 0.5163772697 0.009221929577 0.8563115504
0.01369344521 0.01535467243 -0.01896692657 -0.644882293 -0.7642808855 0.001247492464
0.007821688175 0.01905099869 -0.01675718498 -0.3589656327 -0.9333167702 0.007967503017
0.008512475014 0.06045876694 -0.04187292099 -0.2994246378 -0.5308885822 -0.7927813063
-0.01375873852 0.01530078506 -0.02237929535 0.6441266957 -0.7649181148 0.001038049777
-0.004966092825 0.01997694969 -0.01703131008 0.2430719113 -0.9700077261 0.001028227627
-0.01072477245 0.01755051804 -0.01765458298 0.5394579051 -0.8419988908 -0.004799628778
-0.02045560455 0.002326702356 -0.0302635231 0 0 1
-0.01626740837 0.03683187866 -0.04797201157 0.7909112216 -0.0036517261 -0.6119200147
0.01591460896 0.04446375656 -0.04752736282 0.7710779076 -0.005615956169 0.6367160446
-0.01369344521 0.01535467243 -0.01896692657 0.6359752384 -0.7717069525 -0.001968660371
-0.01678095055 0.01192120743 -0.02101624489 0.8256652279 -0.564158768 -0.001347580425
0.01536400318 0.0137195406 -0.0267787056 0.7464447285 0.6654449924 0.001797065084
-0.01841416931 0.009219880104 -0.02262633133 0.8569767359 -0.5153536778 0.00120869366
0.009442324638 0.01828097153 -0.03080830765 -0.4624017918 -0.8866577016 -0.004764781147
0.01372600365 0.0153278017 -0.02066848373 -0.6478153679 -0.7616544837 0.01475454115
0.01170860004 0.06060000229 -0.07679334259 -0.2671626144 0.933927623 0.2374938576
-0.00476432848 0.04652950287 -0.04059644318 -0.2620430123 0.008082791264 0.965022346
0.001417771637 0.02051926994 -0.01753156185 -0.04373747529 -0.9990363887 -0.003650658052
-0.0007086948156 0.02056760216 -0.01750231552 0.04733857741 -0.998869838 -0.004255085969
-0.003547683001 0.02024696541 -0.0176961689 0.1696094981 -0.9854920249 -0.00617147067
-0.01492092609 0.04557273483 -0.06887514496 0.8771642751 -0.01553284531 0.4799391266
-0.006409739971 0.01954679012 -0.01895382214 0.2963098624 -0.9550888748 -0.002388865734
-0.01525198174 0.01384385777 -0.02156378937 0.7464826269 -0.6653939399 -0.003820013911
-0.01870723629 0.06060000229 -0.0551213913 -0.4938085779 0.8566247975 0.1494892797
0.01532645321 0.0137612133 -0.02503063583 0.7491293568 0.6624215911 0.001685946877
0.01961952782 0.05600405121 -0.0544895668 0.9246972637 -0.01734065393 0.380308128
-0.004591661453 0.06060000229 -0.04345756531 0.06447351632 0.9935360806 0.09343030729
0.01686364937 0.01182134628 -0.02449869919 0.8273900654 0.5616204069 -0.002863241271
-0.01098168087 0.01739295769 -0.0348875618 0.5301994057 -0.8478514735 -0.006038966427
0.01922344971 0.03716008377 -0.05321097183 0.903508063 -0.01493777519 0.4283106851
0.001427536428 0.02052345276 -0.02254161072 -0.04869239238 -0.9988128455 -0.001396657986
-0.01865883255 0.008719000816 -0.03164525986 0.8699347131 -0.4931528078 0.003728690372
-0.01099971962 0.02093100929 -0.04319578934 -0.5504188158 0.2254443342 0.8038743555
0.01528911304 0.01380265045 -0.02329237938 0.7470048233 0.6646556297 0.0147203193
-0.01234865093 0.03912297058 -0.07241054535 0.7069650123 0.009238536396 0.7071881792
0.01375873852 0.01530078506 -0.02237929535 -0.6505004477 -0.75946952 0.007430723231
-0.006304374218 0.03656347275 -0.04098947906 -0.319134037 0.003812307675 0.9477019219
-0.01032987976 0.04361764526 -0.04281579971 -0.5114828203 0.005800332085 0.8592739265
0.001432484105 0.02052408075 -0.02507905197 -0.05420011604 -0.9985281101 -0.001990167387
0.01891565132 0.01226359463 -0.04925291443 0.8691275917 0.3252126497 0.3726311338
0.01151537037 0.01702625656 -0.02132686329 -0.5641147723 -0.8255705755 -0.01441348399
0.009310144424 0.01834655762 -0.02052099609 -0.4393279821 -0.8983123851 0.005077692989
0.001421008706 0.02052090836 -0.0191925993 -0.0388820835 -0.9991811662 -0.01118841518
0.006526106358 0.02397807693 -0.04106675339 0.3222139296 -0.004362623989 0.9466568286
-0.02003247833 0.05415206909 -0.06536089325 0 0 1
-0.002131729603 0.02046891403 -0.01922436714 0.08801276275 -0.9960437176 -0.01227461539
-0.01078389406 0.05126021957 -0.04309302711 -0.5325276592 0.004890082846 0.8463984755
-0.003555806637 0.02024642372 -0.0193602314 0.1706977593 -0.9853092573 -0.005286064518
-0.008348067602 0.01880340513 -0.02080213992 0.3956713222 -0.9183600242 0.007685754134
-0.0107751646 0.01751616096 -0.02102787971 0.5415568773 -0.8406633772 -0.00111127604
-0.005053113937 0.0199526844 -0.02972341156 0.2620661991 -0.9650328403 -0.005737982877
0.009151533127 0.05183323669 -0.07499255371 -0.536012378 0.01103890678 0.8441379467
0.01380820131 0.01525996256 -0.02496437931 -0.6493918526 -0.7604527963 -0.001329043956
0.007912957668 0.01901241112 -0.02518248749 -0.3618706449 -0.9322123386 -0.00545822632
0.009342737198 0.01833216 -0.02306116962 -0.450149956 -0.8929512079 -0.001776911209
0.005793619394 0.01973964787 -0.03159337234 0.2750214874 0.9614186317 0.006115240404
0.005713286161 0.01975622177 -0.02133557796 -0.2921722502 -0.9563476096 -0.005884363196
0.003563853741 0.02025523758 -0.02102739143 -0.1788577375 -0.9838730003 -0.001956789221
0.01621697998 0.0468914299 -0.06584576416 0.9176665707 -0.006130033951 -0.3973040243
-0.01997776985 0.05024862671 -0.05562303543 0 0 1
-0.000711933732 0.02057239723 -0.02083163261 0.04727877139 -0.9988664834 0.005519610167
-0.003563973188 0.02024587822 -0.02103311348 0.1765009682 -0.9842996348 -0.001279531599
-0.008859993617 0.01856151072 -0.02320051511 0.4462000828 -0.8948828795 -0.009493052111
-0.006860192299 0.02253914261 -0.07623033142 -0.3647689487 0.003531495815 -0.9310913718
-0.01080056477 0.01749884415 -0.02272821617 0.5306752887 -0.847563714 0.004414603657
-0.0007135699987 0.02057330132 -0.02251050949 0.04786955609 -0.9988478876 0.003376834272
0.01860869026 0.008830068588 -0.0298136673 0.8685104478 0.4956445726 -0.005104867379
0.007573591232 0.06060000229 -0.07674286652 0.3047978964 -0.7342445586 -0.606616164
-0.003572183371 0.02024533081 -0.02271495247 0.17595343 -0.9843478899 0.009981087575
0.01701353645 0.05769233322 -0.06220573044 0.6447610485 -0.322150127 -0.6931828662
-0.005006258488 0.01996574974 -0.02288952637 -0.2094924549 0.9777730456 -0.008531275623
-0.006446725845 0.01954124641 -0.02315423393 0.3016190733 -0.9534256434 -0.002340346393
-0.01082610416 0.01748143005 -0.02443786049 0.5344735659 -0.8450894371 0.01272204992
-0.01536400318 0.0137195406 -0.0267787056 0.7465066926 -0.6653755332 -0.001776969997
0.0007211592793 0.02544799232 -0.04003843689 0.02821130878 0.003782332841 0.9995948259
0.01865883255 0.008719000816 -0.03164525986 0.8696059198 0.4937236353 -0.004745135398
0.01699076462 0.01164738655 -0.02981054115 0.836386701 0.548135018 0.002299650338
0.01385803318 0.01521883583 -0.02756868935 -0.6558405892 -0.7548895865 -0.0038514695
0.01135717456 0.0171365579 -0.02693548266 -0.5529655832 -0.8330933234 0.01358596082
0.003580322981 0.02025376701 -0.02440028 -0.1785010612 -0.9839366027 0.00247651197
0.003471402645 0.05786904907 -0.07730442047 -0.1959585902 0.216104044 0.9565036713
-0.01944464684 0.05881364059 -0.05393624496 0.8540465397 -0.4814369539 -0.1970354473
-0.0007160458863 0.02057320786 -0.02504792309 0.05253612381 -0.9986163586 -0.002307405265
0.01702536011 0.02048130035 -0.04901872253 0.8404271588 0.0361405858 0.5407180863
0.002120346785 0.03286418533 -0.0401260376 0.1053822131 0.006398885253 0.9944112044
0.009750371933 0.05552003288 -0.07459145737 -0.5804945111 -0.002682301374 0.8142597422
-0.003580437899 0.02024478149 -0.02440588379 0.1820624419 -0.9832821572 0.003076774976
-0.005017876148 0.01996250916 -0.02458392906 0.2490681437 -0.9684706745 0.005441731687
0.01257663918 0.01748178005 -0.04286740875 0.6177045193 0.6147347643 0.4904511151
-0.0064616642 0.01953900719 -0.02485072136 0.3034114883 -0.9528192463 0.008772269248
-0.00864430213 0.0186638279 -0.02540189743 0.4078441824 -0.9129069715 -0.01624759161
0.01863911629 0.01920034218 -0.05180037308 0.8673164754 0.05071232099 0.4951670345
-0.01086469698 0.01745511913 -0.02702130795 0.5327302606 -0.8462612446 0.006354161485
0.009653064251 0.04294640541 -0.04243813515 0.450865959 -0.000179454659 0.8925916507
-0.01102426052 0.03531957245 -0.07364916229 0.6230396818 0.008532206146 0.7821436929
-0.0123429594 0.01647785759 -0.02677735519 -0.5988205174 0.800858774 -0.006261945293
-0.002181782246 0.02048039246 -0.03634735489 0.1120525836 -0.9936740579 0.007489006502
-0.002122688055 0.05116904449 -0.0775356369 0.108361387 -0.005285111564 0.9940975191
0.01362276936 0.04321712112 -0.07088143921 0.7902889228 0.00143335476 -0.612732702
0.019759552 0.02779431343 -0.05480667877 0.9982658952 0.05265914514 0.02631001577
-0.01699076462 0.01164738655 -0.02981054115 0.8342057013 -0.5514509783 0.001632909978
-0.01736508179 0.04417171478 -0.04956270981 0.8539076331 -0.007494094454 -0.5203706302
0.01870928955 0.008607241631 -0.03348826599 0.8718130032 0.4898173236 -0.004590969354
0.01703399658 0.01158251095 -0.03160576057 0.8421398599 0.5391362246 0.01151467434
0.003450871706 0.05997432709 -0.0773065567 -0.2286194261 0.6875523926 0.6892059674
0.01544003391 0.01363018894 -0.03030822945 0.7523882637 0.6587175674 -0.001751283212
0.005561181784 0.03923468018 -0.04079205132 0.243709526 -0.004032705534 0.9698398859
0.01389150333 0.0151912117 -0.02931795883 -0.6527485727 -0.7573354057 -0.01903638854
0.007950166702 0.01899667931 -0.02861736107 -0.3696584723 -0.9291559876 0.004665252921
-0.006610438824 0.03680553436 -0.07632434082 -0.3971746279 -0.01129026538 -0.9176736048
0.01163771248 0.01695070553 -0.02906422901 0.5705804758 0.8212416135 -0.0003646632118
0.01192324829 0.05213143539 -0.07279151917 -0.6809607708 -0.002744570546 0.732314752
-0.01689299583 0.02332811546 -0.04881885529 0.8294553259 -0.004279597185 -0.5585566645
0.003592798591 0.02025265312 -0.02695530891 -0.1779452351 -0.9840354209 0.003127881743
-0.01106493664 0.01759579468 -0.04097999763 -0.5451498977 0.7978271568 0.25745566
-0.003592910409 0.02024394894 -0.02696081448 0.177276581 -0.9841607214 -0.0008295788001
-0.006476684093 0.01953675461 -0.02655649185 0.3082022808 -0.951316673 0.002818097783
-0.01237230301 0.01646097183 -0.02851188087 0.6005722836 -0.7995362467 0.00739745651
-0.01389150333 0.0151912117 -0.02931795883 0.6554253215 -0.7552024281 -0.009324195569
-0.01703399658 0.01158251095 -0.03160576057 0.8421015205 -0.5391962238 -0.01150918688
-0.006560182571 0.06060000229 -0.04346781921 -0.103576343 0.915154576 0.389569048
0.01876006317 0.008494778633 -0.03534286499 0.8738523817 0.4861720725 -0.004327914024
0.01663699913 0.02885061455 -0.04846554947 0.8124548605 0.004055287647 0.583009995
0.01549770641 0.01356174946 -0.03298415947 0.7597306453 0.6502379148 -2.552995776e-05
-0.009037721634 0.03986893082 -0.04209331131 -0.4344232613 0.00224046292 0.9007060621
0.005349752426 0.02179186249 -0.07683210754 0.3550622057 -0.00866995668 -0.9348024722
