# .PCD v0.7 - Point Cloud Data file format
VERSION 0.7
FIELDS x y z normal_x normal_y normal_z
SIZE 4 4 4 4 4 4
TYPE F F F F F F
COUNT 1 1 1 1 1 1
WIDTH 568
HEIGHT 1
VIEWPOINT 0 0 0 1 0 0 0
POINTS 568
DATA ascii
0.002939555526 -0.0168103838 -0.03035168457 -0.1008858317 0.9942842232 -0.03494184459
-0.005413620154 -0.01357626756 -0.05349815114 0.2789534387 0.889542979 0.3617986561
0.009501090288 0.01823993921 -0.01822689629 -0.4352039181 -0.9003102708 -0.006242273319
0.006324592829 0.02848256874 -0.04474656296 0.372064731 -0.004897541789 0.9281938645
-0.003063208421 -0.0141225764 -0.05382455571 -0.2160123447 -0.9176392505 -0.3335818834
-0.008124215245 0.01889595652 -0.01853259468 0.3983627945 -0.9171782643 0.009545442051
-0.01019169617 0.01789579105 -0.01806654453 0.4833264618 -0.8751820668 -0.02125750169
-0.00290605551 -0.0168215456 -0.03895843983 -0.1227380551 -0.9922903156 -0.01718428016
-0.01228060246 0.01647853422 -0.01816009998 0.6028729016 -0.7977686628 -0.01046065126
0.01682794189 0.0491210289 -0.05780696869 -0.5817156237 0.3412657097 -0.7383391149
-0.01590514946 0.01301534986 -0.01579066038 0.7725034187 -0.6349968613 -0.004177829482
-0.01433900118 0.01475993299 -0.02113232422 -0.704581698 0.7095762149 -0.00813794649
-0.005327981472 0.04951257579 -0.04441796112 -0.3035551649 -0.1122624743 0.9461772554
-0.01741454983 0.01096127701 -0.01483213997 0.8402653349 -0.5420759455 0.01038442198
0.008713892937 0.03320941734 -0.04591640091 0.5197546302 0.0004048588277 0.8543154923
-0.01903965569 0.007759570599 -0.01255894279 0.8931713541 -0.4496533205 -0.007538139985
0.003520183086 0.05233475494 -0.04390295792 0.03399091656 -0.1011510144 0.9942902443
-0.01382412577 0.05475196075 -0.05061892891 0.8040554896 0.1203499826 -0.5822462119
0.01896530914 0.00795745492 -0.01498213243 0.8692811653 0.4942342471 0.009097510448
0.006571496805 0.04648304749 -0.04487575785 0.4040922839 -0.001016381612 0.9147176576
-0.004750297785 0.03050233555 -0.08061305237 0.2269279572 -0.02421447789 0.9736104772
-0.002952023983 0.03195685005 -0.08098194885 0.1678314946 0.01262258285 0.9857348831
0.01440411711 0.01469354296 -0.01808924389 0.7213478491 0.6924392777 0.01360614802
0.004034260154 0.02016830015 -0.02061054897 -0.2164729641 -0.9754297379 0.04094242618
0.01788492966 0.06060000229 -0.0628303992 0.08587263794 0.9962992402 -0.003703242496
0.01324861622 0.04188113022 -0.0763415451 -0.6360305321 0.023883487 0.7712941989
-0.01104331422 0.06046578884 -0.07736968422 -0.4123403947 0.4799119193 -0.7743771359
-0.005157538732 0.0199188652 -0.0207432785 -0.2365624334 0.9704135627 -0.04832941497
-0.01440411711 0.01469354296 -0.01808924389 0.7000834805 -0.713992327 -0.009903394415
-0.01695110703 0.01758568954 -0.07209767151 0.7955717098 -0.02355350536 0.6054014263
0.01733137894 0.01109977245 -0.01796153927 0.8258991121 0.5638121321 0.002556619011
0.01583081818 0.01312360144 -0.01888376141 0.7841345654 0.6205184485 -0.009478315119
-0.01174929047 0.03412557983 -0.04828511556 -0.6771181794 -0.003084505761 0.7358678257
-0.01739339333 0.06060000229 -0.06909990387 0.6278702112 -0.6408597825 0.4416760544
0.01437322712 0.05498834229 -0.05134102631 0.8637810653 -0.07511476728 0.4982369345
0.01222588944 0.0165249629 -0.02118063641 0.6309982555 0.7757298468 0.009187292124
0.009459518671 0.01826285124 -0.02122329426 0.4242506824 0.9054340582 -0.01416067269
-0.003485775471 0.05527697754 -0.04389712143 -0.05258192673 -0.06162826444 0.9967131473
-0.005805369616 0.05534201431 -0.04456323433 -0.1294756118 -0.05213785111 0.9902109424
0.02058459282 0.04399732399 -0.06037929153 0.1433745857 -0.6365553845 0.7577868899
-0.00579839921 -0.01605202627 -0.03923322201 0.337698535 0.9412504437 0.002702175556
0.01000335169 -0.01347184086 -0.04473964882 0.551989388 -0.8253668329 -0.1186478267
0.006734788895 0.01943777466 -0.02101748466 0.3118540992 0.9481659725 -0.06105988337
-0.00837025547 0.0221811552 -0.04578108788 0.4677205226 0.0137889741 -0.8837688481
0.01564755154 0.05149433517 -0.05370695877 0.8470309131 -0.02823276428 0.530793315
-0.008319201152 0.01881018448 -0.0212253081 -0.4022273654 0.9147397885 -0.03826572584
-0.01014710093 0.01791871357 -0.02106678772 -0.4814533287 0.8755364547 -0.04047973279
0.0101082592 0.04701179123 -0.04682410812 0.6039664442 -0.00793067342 0.7969702872
-0.01222601366 0.0165219202 -0.02117924356 -0.6086005823 0.7934295996 0.00864879571
-0.01577648067 0.01318592358 -0.02117848396 0.7719845153 -0.6355258848 0.01211436704
0.003121701956 0.01479244614 -0.08053025818 0.08932931334 -0.03290815059 -0.9954583504
0.01236649847 0.0338877697 -0.04886217117 0.7345096567 0.01164703824 0.6784982761
-0.01733137894 0.01109977245 -0.01796153927 0.8256827414 -0.5641288707 -0.002574453783
0.00573058331 0.06049388981 -0.04178491402 -0.2108875149 -0.2373226992 -0.9482638834
0.01224698877 0.03701460266 -0.04873397636 0.71298299 -0.0247391187 0.7007447695
0.01485989952 -0.008360466003 -0.04196765137 0.8433356914 -0.5331509826 -0.06734197291
0.003626238823 0.06060000229 -0.04204117203 -0.05898324374 0.4003672374 -0.9144545107
-0.01141164271 0.04340460841 -0.04796221034 -0.6886378439 -0.01478620768 0.72495468
0.0157759409 0.01319574833 -0.02118289757 0.7587413838 0.6506064538 -0.03198053756
0.00289264822 0.0584261322 -0.04021419907 -0.06136823234 0.1899768204 -0.9798687401
-0.002671434979 0.06057345136 -0.0422377739 0.1161292075 0.4111337573 -0.9041476875
0.01339453411 0.05178125 -0.05004431534 0.7796979561 -0.01242372539 0.6260325458
-0.01356058836 -0.01040656328 -0.03971827888 0.759988812 0.6492895646 0.02898390844
-0.00289264822 0.0584261322 -0.04021419907 0.3101634028 0.3382139988 -0.8884874532
-0.01777987146 0.06060000229 -0.06025097179 -0.6096567655 -0.7913926609 -0.0449030571
0.01172903728 0.0502098732 -0.07752668762 0.4595867691 0.1418541172 -0.876731094
-0.005730582833 0.06049390697 -0.04178492165 0.2344000203 -0.03586069862 -0.9714785848
0 0.03233353043 -0.04353647232 -0.001842926868 -0.00612050223 0.9999795713
0 -0.01706957817 -0.03025239182 0 0.9969031708 -0.07863884505
0.01774830627 0.01033036741 -0.02142153104 0.8228668377 0.5681418721 -0.01024600199
-0.004828663349 0.02549171925 -0.08059890747 0.2185053664 -0.00509052866 0.9758224692
0.01150029564 0.01703108978 -0.02289747238 0.5786308893 0.8148189035 -0.03544641604
0.004215937614 0.02601176453 -0.08072805023 -0.226070571 0.01070777682 0.9740520728
0.007507203102 0.05840183258 -0.04147673416 0.2153193086 0.1879916099 0.9582780129
0.0006191196839 0.03576871363 -0.04356530507 0.06177785488 0.01511161428 0.9979755186
-0.01641989517 0.05725294876 -0.05594531631 0.9293864624 0.2959882946 -0.220526037
0.01553428078 0.03014073563 -0.05348312759 0.8506369261 0.05788551757 0.522557257
-0.008677396774 0.05765192795 -0.04198894119 -0.1280074047 0.1721751423 0.9767137885
-0.01150029564 0.01703108978 -0.02289747238 -0.583064443 0.812221264 -0.01823386258
-0.01774830627 0.01033036741 -0.02142153104 0.8226200795 -0.5685037326 0.009985529866
0.01474220562 0.0471033783 -0.05199878311 0.7784662189 0.08075749281 0.622469737
0.01879384804 0.008413825035 -0.02057061005 0.849129091 0.5279223223 0.0166675853
0.01573956299 0.01324357319 -0.02270694733 0.7455961851 0.6649568637 -0.04380294784
0.01429050446 0.01480937862 -0.02339874268 0.7193497984 0.6944698285 -0.0157329242
0.00969126091 0.06042606583 -0.04514265747 -0.6595148287 0.04389632799 -0.7504087574
-0.008661370873 -0.01470208788 -0.03971474743 -0.5363447468 -0.8436807189 -0.02317665231
0.009262509823 0.0572765007 -0.04224483109 0.5857048579 0.1793313224 0.7904366491
0.01079190922 0.06040109634 -0.04737134933 -0.5321540748 0.390473343 -0.7512274017
0.005870018005 0.0341455822 -0.08031749725 -0.3013561688 -0.01137205192 0.9534438295
0.007577721596 0.05560995483 -0.04150217819 0.13888234 -0.1686830506 0.9758369352
0.005899679661 0.06043363953 -0.04405876033 -0.3875810708 -0.1390845897 -0.9112828268
-0.001938937783 0.02198279762 -0.04361347961 0.08010423374 0.007185587939 -0.9967605927
0.003425315619 0.06060000229 -0.04371340752 -0.03104397499 0.4096053557 -0.9117344593
0.01551992798 0.05403995895 -0.05345480347 0.8305575781 0.03499595454 0.5558321623
-0.001819172978 0.0424335556 -0.04362854385 -0.08657872807 0.01168836462 0.9961764432
-0.003425315619 0.06060000229 -0.04371340752 0.2258484898 0.3627118078 -0.9041197952
-0.00589968284 0.06043351618 -0.04405870565 0.3204859505 0.3952574401 -0.8608485997
-0.008742610216 0.05539380074 -0.04204672241 0.103249814 0.275219736 -0.9558208895
0.009516859055 0.03082133579 -0.07884176254 -0.473657903 -0.01212082491 0.880625503
-0.01625379181 0.03914274597 -0.05542346954 0.7528619279 0.119889757 -0.6471671838
-0.01120869414 0.06060000229 -0.04497201029 0.2412024128 0.9521348774 -0.187777984
-0.01207738495 -0.01159827328 -0.04537918091 -0.7031237298 -0.7031341231 -0.1059217895
-0.01574004173 0.01323484898 -0.02270307541 0.7455952519 -0.664966539 0.04367175645
-0.002736451983 0.05421923574 -0.08096342723 0.1647721104 0.1502619283 0.9748187034
-0.005987643719 0.0559462738 -0.0803087616 -0.3413434723 0.1204878888 -0.932184157
-0.01879384804 0.008413825035 -0.02057061005 0.8486766335 -0.5286437456 -0.01684523829
0.01794396114 0.009980247974 -0.02353610229 0.8443657061 0.535764678 0.001662567671
-0.003027841568 0.04278918839 -0.04377623749 -0.2073350398 -0.004860351615 0.9782579201
0.01271376101 0.06060000229 -0.04580712255 0.7051280773 -0.3372156562 0.6237627721
0.01208576012 0.05829257202 -0.04396307755 0.7237483285 -0.05724928967 0.6876851575
0.006319283009 0.05828020986 -0.04478540929 -0.3443222578 0.1349656303 -0.9290998124
0.0005768054724 0.05744426219 -0.04357582982 0.06025383029 -0.1692158934 0.9837354611
0.009907524109 0.05517682648 -0.04259090424 0.8295094662 -0.1572626836 0.5358941069
-0.01994741249 0.06060000229 -0.06205793571 2.804278927e-14 1 5.36018774e-14
0.007649607182 0.05276398087 -0.04152811432 -0.2473205899 0.4620456702 -0.8516726628
-0.001917853713 0.02558306885 -0.04361613083 -0.1052969951 -0.002280439662 0.9944382044
-0.01131382179 0.03128064919 -0.07771665192 0.5244014625 0.022374917 0.851177108
0.003452049971 0.05816087914 -0.04389140129 -0.04865020597 -0.1888668958 0.980796846
-0.001730416417 0.05758942413 -0.04363970566 -0.07766843444 -0.1670223026 0.9828891925
0.01979968834 0.05811523056 -0.05508387375 0.8112592693 -0.4503097173 0.3729337159
-0.005749498367 0.05821286392 -0.04454685402 -0.25476718 -0.2040897721 0.9452201061
0.0183020916 0.06060000229 -0.05435307693 0.6954410235 -0.5729448274 0.4337003661
0.009071295738 0.04212437439 -0.04613811493 0.5049230562 0.01488913544 0.8630359326
-0.01223009396 -0.01194019604 -0.03686037064 0.640181742 0.7682204572 -0.0021601762
-0.00764956665 0.05276528168 -0.04152868652 -0.1381296878 -0.3878151702 0.9113284716
-0.01208573055 0.0582931633 -0.04396333694 0.692818334 0.0448218838 -0.71971783
0.01336294079 0.0241474247 -0.04996218491 0.7765338135 -0.01689503992 0.6298490248
-0.01794396114 0.009980247974 -0.02353610229 0.843874206 -0.5365381145 -0.001782165766
0.0142240715 0.06060000229 -0.04622668076 0.5578285396 -0.5928591592 0.5808143747
0.005822504759 -0.01604430389 -0.03612909698 0.3162316597 -0.9482174691 -0.02968448665
0.01111134911 0.05383388138 -0.04328373337 0.8093305907 -0.2726309833 0.5202464242
0.006380487124 0.05541720327 -0.04480655924 0.232172176 -0.1610352564 0.9592516494
0.01247163645 -0.01058814939 -0.04798051707 0.7234472531 -0.6702580237 -0.1654637536
0.003485775471 0.05527697754 -0.04389712143 -0.0787180319 -0.08754090519 0.9930458506
0.0005824834506 0.05453244019 -0.04357305908 -0.008990124503 -0.117169002 0.9930712979
0.01580183125 0.02434396172 -0.05411865997 0.7345304428 0.0393571441 0.6774334239
-0.008609263579 0.05798217265 -0.04591308848 -0.4707771932 -0.1241116724 0.8734787502
-0.01146344805 0.05745914268 -0.04798810768 0.6948687665 0.2103243969 -0.6876925515
0.006529119492 0.0581391716 -0.07634739685 0.4990479 -0.1302707586 -0.8567267493
-0.009131808281 -0.01168506527 -0.05359873962 0.5245717862 0.8080779087 0.2680196535
0.009184411526 0.05776786613 -0.04623926544 0.7298460841 -0.0940637754 0.6771090752
0.0006324133078 0.02896494802 -0.04356414922 0.04900606158 0.00619250926 0.9987792843
0.01415730762 0.0343118782 -0.05102046204 0.8394742198 0.019911667 0.5430345843
0.01654544449 0.02491336632 -0.07282369995 0.8123738493 0.007160011892 -0.5830930141
-0.005381368001 0.04646412404 -0.04443369293 -0.3108121854 -0.006061752877 0.9504520191
0.006442920049 0.05249668248 -0.04482813263 0.2241280722 -0.260286193 0.9391579766
-0.005822504759 -0.01604430389 -0.03612909698 -0.3392962563 -0.9405753527 -0.01400201146
0.0005882771015 0.05156125387 -0.04357022985 -0.02093048462 0.003190931469 0.9997758413
-0.001764831305 0.05171282196 -0.04363537979 -0.06604852203 0.002638164853 0.9978129248
0.001604918122 0.06060000229 -0.08049393463 0.03814500686 0.3714330754 -0.9276758211
-0.01890171814 0.02863163948 -0.06875143433 0.8602474318 -0.006936125788 0.5098296248
-0.002938080311 0.05199783325 -0.04375813293 -0.07238687548 -0.01261315136 0.9972968709
0.009586331367 0.04879338455 -0.07471377563 0.7154564166 0.3822170583 -0.5848352216
-0.005275672595 0.05249945704 -0.04440255864 -0.2387661321 -0.09717158103 0.9662030936
0 -0.01706992626 -0.03886968803 -1.182111682e-08 0.9997874382 0.02061742785
-0.01532651138 0.04727974701 -0.07430895996 0.7458177866 0.1630421476 0.645889377
-0.008691593011 0.05514585368 -0.04595752462 -0.5426681384 -0.124809043 0.8306226546
-0.01456303914 0.06060000229 -0.04788031006 0.7361149243 0.5089899969 -0.44616589
0.01062308311 0.03131012917 -0.04720272446 0.5995178952 -0.009567081534 0.8003041699
0.01089097023 0.0576870079 -0.04745881653 0.7054343973 -0.2245186253 0.6722750166
0.00927190876 0.05493923378 -0.046291502 0.8015345179 -0.08472447891 0.591915686
0.006506548087 0.0495206604 -0.04485179265 0.4329376486 -0.0979364794 0.896087852
-0.01513128281 0.03878755188 -0.05269505692 0.8539525544 0.101251436 -0.5104049192
0.01073190403 0.02798721123 -0.04729068375 0.6260433881 0.0007065399761 0.7797879052
0.003555294991 0.04933230972 -0.04390891266 0.1521482887 -0.08808495719 0.9844246739
0.0005941902399 0.04852907689 -0.04356747437 0.02409334284 0.004363804011 0.9997001891
0.003386342406 0.04542137337 -0.08088463974 0.1743778541 0.002921928845 -0.9846744773
-0.01395234013 0.05406098938 -0.07043395996 0.7334998792 0.03265281175 0.6789047953
-0.00178257072 0.04868368149 -0.04363314819 -0.06373955321 -0.01160444268 0.9978990962
0.01203645897 0.05722003937 -0.04851267242 0.7362431908 -0.2386689311 0.6332322681
0.009531673908 0.04845644379 -0.07878307724 -0.5265050991 -0.1567166585 0.8356029378
0.01478626633 -0.00811423254 -0.04506645966 0.8462677058 -0.5217080811 -0.1079428012
-0.002967386723 0.04899127579 -0.0437640419 -0.2044832915 -0.01007457857 0.9788182091
-0.008206261396 0.05192030525 -0.04565047646 -0.5129576709 -0.2410544912 0.8238732671
-0.01281907749 0.05128059006 -0.07666790009 0.5270355452 -0.05549818337 0.8480291774
-0.01553643799 0.05688640213 -0.04713589478 0.7921355385 0.4027193251 -0.4586266825
0.01469887543 0.02183003044 -0.05187079239 0.8356852979 0.003177899926 0.5491994026
0.00675615263 0.046602314 -0.08002987289 0.3660573493 -0.004868531867 -0.9305795584
0.009914151192 0.05291882706 -0.04670758057 0.7418565712 -0.07627349264 0.6662065611
0.003782077909 0.0299386158 -0.04394870949 0.2188343136 -0.007231223279 0.9757352369
-0.01643517494 0.06060000229 -0.04871192169 0.7311118417 0.5746316756 -0.36779602
-0.005537042141 0.01955524254 -0.08040110016 0.2974586832 0.04024121287 0.9538862493
0.01425049686 0.05759370804 -0.05115694809 0.8152807787 -0.2193370951 0.5359183619
0.01538240671 0.06055228281 -0.05099216652 0.7848790271 -0.3663785363 0.4997316089
0.01157000923 0.05468463135 -0.04807979774 0.8205776778 -0.1100307721 0.5608435645
0.00880812645 0.05119031143 -0.04598196793 0.5059907014 -0.194271603 0.8403760791
-0.01963772964 0.06060000229 -0.05484792328 0.6776171867 0.733682791 -0.05044314104
-0.001800680399 0.04559130096 -0.04363087082 -0.06265548807 9.996438695e-05 0.9980352097
-0.01479252205 0.06052365112 -0.05088580399 0.8077698808 0.4005806522 -0.4324846365
-0.00291817373 -0.01681788588 -0.03584559917 -0.1224881531 -0.9924211287 -0.009846607103
0.01315770626 0.0571997757 -0.04975205231 0.730798088 -0.2703373986 0.6267789446
-0.01183129883 0.0174236927 -0.07728934479 -0.5674185165 -0.07278081084 -0.8202067914
0.01167831326 0.05186312294 -0.04817605782 0.7704311979 -0.04075361974 0.6362192325
-0.01700955963 0.04534928513 -0.05894015884 0.7997541671 -0.01614325003 -0.6001105463
0.01001023388 0.04999486923 -0.0467652626 0.631804154 -0.1018849149 0.768402873
-0.01943668175 0.02726391983 -0.05382660675 -0.5503773414 0.4049578941 0.7301327866
0.006637796879 0.04338223775 -0.04490022151 0.4080306174 -0.001114424808 0.9129675642
-0.01564755154 0.05149433517 -0.05370695877 0.8463313224 0.02957670089 -0.5318350416
0.01217993975 0.02448836708 -0.07718666458 -0.5594458958 0.005229401776 0.8288503743
0.00362772584 0.04313871193 -0.0439211998 -0.2030021075 -0.004720123597 -0.9791669239
-0.008390362104 -0.01475185267 -0.04251697032 -0.4941610263 -0.867020772 -0.06387378905
-0.005435868899 0.04335202662 -0.04444975408 -0.3137215214 -0.005970656298 0.9494962656
0.01527541351 0.03707929611 -0.07436684799 0.7514222919 0.007564867011 -0.6597782294
0.01499895716 0.0423687458 -0.07466804886 0.8715379491 0.06055650883 -0.4865742621
-0.008368782043 0.04593095589 -0.04573231125 -0.4742356937 -0.01792189344 0.8802154921
-0.0159089365 -0.004221951485 -0.05009664917 0.9212329379 0.3273577431 0.2101589451
-0.01167760849 0.05187813187 -0.04818221664 0.749827732 0.05618012611 -0.6592436316
-0.01370410156 0.05739674187 -0.0504545002 0.7871817651 0.3048279045 -0.5361201519
0.01327502441 0.05451557922 -0.04989683151 0.771031186 -0.06621601885 0.6333453632
0.0170677681 0.04394312668 -0.05969794464 -0.6984765804 0.03710471339 -0.7146703484
0.01178849554 0.0489913063 -0.04827617264 0.6389224974 0.04173004182 0.7681384289
0.01190085411 0.04606274986 -0.04837826729 0.6548697649 -0.00805088024 0.7556988649
-0.01409798861 0.02131241798 -0.05099743462 0.8286098095 -0.01895754034 -0.5595054917
0.008981784821 0.04520795059 -0.04608500671 0.5000000226 -0.0001957409447 0.8660253686
0.01692164803 0.04719496536 -0.05835164642 0.7694243992 -0.004995928148 0.6387183531
0.006705473264 0.04021677653 -0.04492546463 0.4124476235 0.001700128556 0.9109797294
0.0006126871109 0.03906111272 -0.04356586456 0.0243745053 0.004688970667 0.9996919011
-0.001838061333 0.03920823288 -0.0436261673 -0.0874105127 0.0119357751 0.9961008682
-0.003059031248 0.0395894165 -0.04378252792 -0.209330786 -0.004560057788 0.9778342538
-0.01130289777 0.04638857142 -0.04786402512 -0.6780885462 -0.01713359284 0.7347804866
-0.00845256114 0.04284342575 -0.04577449608 -0.4738909255 0.002029232924 0.8805812132
-0.005515566587 0.05223750305 -0.08041543198 0.3903195392 -0.005157142487 0.9206650103
0.01629943943 0.06004765511 -0.054607481 0.7414333557 -0.4519727778 0.4959810351
0.01532859373 0.05783894539 -0.05311160851 0.8213210398 -0.2814060072 0.4962281821
0.01442458534 0.02815954208 -0.05142457581 0.7289081997 0.02901117817 0.6839964824
0.01020732975 0.04399179077 -0.04689388275 0.6090476317 -0.0001762050562 0.7931336276
0.003703266144 0.03667921257 -0.04393401337 0.2026922788 0.01225782734 0.9791657601
-0.001857359052 0.03591300583 -0.04362374115 -0.08495067784 0.01112363253 0.9963230636
-0.003090891838 0.0363208313 -0.04378895569 -0.2144341822 0.009486807668 0.9766923681
0.01186444616 0.06033157539 -0.07705000687 0.490995909 0.49855535 -0.7143987544
-0.0115430665 0.06060000229 -0.07464532216 -0.3803415595 0.682784439 -0.6238154439
-0.005548353831 0.03692865626 -0.04448305893 -0.3201776695 -0.006117987682 0.9473377593
-0.01394439602 0.05209202766 -0.05079969025 0.7905687459 0.005677877835 -0.6123469765
-0.01741192087 0.06041608683 -0.0543554821 0.8585851554 0.4209402071 -0.292644619
0.01720127678 0.04677153015 -0.04932886505 0.7260111981 0.2192595215 0.6517921467
0.01189083862 -0.009665559769 -0.0527555809 -0.7132832486 0.6602310759 0.2352061515
0.01449425793 0.05240280533 -0.05155506516 0.8572499568 -0.002905130202 0.5148922914
-0.01799299431 0.06060000229 -0.05701219177 0.8626650235 0.5005251336 -0.07268870512
-0.007962087631 0.02142062378 -0.07958500671 0.3661001244 -0.007748773269 0.9305432045
0 -0.01667556953 -0.04517660141 5.715232793e-11 -0.9870467469 -0.1604329127
0.01351630116 0.04899525452 -0.05019458389 0.7650590365 0.05747709647 0.6413899391
0.01201452541 0.04309468269 -0.0484898777 0.7181510934 -0.003131995977 0.6958801604
0.00916267395 0.03897647095 -0.04619233322 0.5539059447 0.008422634365 0.832536644
0.006228830814 0.03357598305 -0.04471165657 0.3920593953 0.003697536277 0.9199324751
0.001877080202 0.0325454483 -0.0436212616 0.08297712754 -0.01003104024 0.9965009656
-0.01448595619 0.05220467758 -0.07518736267 0.6630400231 -0.06085101078 0.7461066159
-0.001877080202 0.0325454483 -0.0436212616 -0.07734139533 0.02086749912 0.996786264
-0.01084516478 -0.01319974375 -0.03562254143 0.5839520327 0.8113366411 0.02707172418
-0.008806984901 0.034611763 -0.07921702576 0.419403665 0.007282285928 0.9077706396
0.01576596642 0.04908631516 -0.05403310394 0.9031500686 0.002583140656 0.4293172265
0.01958335686 0.02463116264 -0.05425007629 -0.5392641187 -0.2421371631 -0.8065753558
-0.003123445988 0.03298106003 -0.04379552078 -0.208323594 -0.00473951201 0.9780484739
-0.005606371085 0.03361498896 -0.04450118764 -0.2870761796 0.009095124616 0.9578645759
-0.008625050068 0.03648505783 -0.04586664581 -0.4838524031 0.02360442973 0.8748312311
-0.01668961239 0.05196424675 -0.05700292015 0.8500537758 0.05725582611 -0.5235745875
-0.01152192879 0.04037386703 -0.04806763713 -0.6851473123 0.01191230502 0.7283071175
-0.01406671667 0.0493859272 -0.05098476982 0.7724353304 -0.1153280728 -0.6245343033
-0.01720127678 0.04677153015 -0.04932886505 0.7929952895 -0.4256769459 -0.4358412654
0.01843340411 0.06060000229 -0.05725644847 -0.466264597 0.8846418898 0.002460174944
0.01461713219 0.04977659988 -0.05177495575 0.8119219527 0.07825149093 0.5784975772
0.01532651138 0.04727974701 -0.07430895996 0.7310101926 -0.1725624919 -0.660186553
0.00964871788 0.02222621155 -0.04649374771 0.5999829653 -0.02669712252 0.7995671986
0.0005893421173 0.03264836121 -0.08115703328 -0.03031646281 0.006862475923 0.9995167925
0.01364039612 0.04615600967 -0.05034772491 0.6896102844 0.07165674542 0.7206267872
0.01212959671 0.04008502197 -0.04861071014 0.7078582027 -0.003298263856 0.7063468597
0.01041140461 0.03776964188 -0.04704006195 0.6223401547 0.002779656418 0.7827419788
0.005647555828 0.03123373795 -0.044460186 0.3176160754 -0.006421903321 0.9481976523
0.006392439842 0.02499175358 -0.04477162361 0.3672266152 -0.006440422272 0.9301092055
0.0119943924 0.02744699097 -0.04844982529 0.6943822108 0.0128660402 0.7194913553
0.01028387165 -0.01354816405 -0.04191595332 0.5749175622 -0.8168271077 -0.04757386597
-0.001897239923 0.02910302353 -0.04361872482 -0.06666479284 0.006814774229 0.9977521557
-0.003156718493 0.02956762505 -0.04380223083 -0.1808248143 0.007269073704 0.983488458
-0.005027496576 0.03077167225 -0.04427768707 -0.2664082553 -0.001059751045 0.9638596985
0.0166242733 0.03151884651 -0.056623806 0.8255194646 0.1637219672 0.5401043705
-0.005919542789 -0.01436355909 -0.05074878947 -0.3532007074 -0.8961108462 -0.2687649748
-0.008713892937 0.03320941734 -0.04591640091 -0.4766270057 0.02655512053 0.8787044572
0.005136482716 -0.01628787422 -0.03055182076 -0.2394512579 0.9708410376 -0.01143567854
-0.01163445759 0.03728140895 -0.04817520142 -0.7011947912 0.004375065946 0.7129563266
-0.005167405128 0.02200619602 -0.04432409286 -0.2918230969 -0.04282460282 0.9555131258
-0.01419130087 0.04662969398 -0.05117325401 0.7526702222 -0.1353864236 -0.6443275975
0.01642014503 0.05724927139 -0.05594388962 0.9057821808 -0.264088083 0.3313851616
0.01376689148 0.04326185989 -0.05050382996 0.7342044023 -0.0772367642 0.6745208506
0.0163836689 0.0365076828 -0.05576907349 0.765218123 -0.1791717526 0.6183354327
-0.007827923298 0.02667884254 -0.07964344025 0.3666880051 0.007732650094 0.9303118365
0.004454647064 0.02684683418 -0.04410884857 0.2878372959 0.002626008598 0.9576757255
0.003190734386 0.02607792282 -0.04380909348 0.1460313492 0.006141626525 0.9892608986
0.01329357815 -0.008760356903 -0.05082126427 0.7730269384 -0.5934227315 -0.2242293785
0.000639284571 0.02544840113 -0.04356355158 0.06467700171 0.00739770008 0.9978788301
-0.008160538673 0.03060513878 -0.04557405853 -0.4569657913 0.01639578109 0.8893331457
0.01854520226 0.04302638245 -0.05173127747 0.8634936353 -0.152313589 0.4808110985
0.01654126167 0.05494345856 -0.05628060913 0.7222294543 -0.04045937885 0.690469155
0.01301020432 0.01947045708 -0.07651992798 -0.5967756943 0.01979382741 0.8021639328
0.01493437767 0.04299603653 -0.0523426857 0.7637531807 -0.1071175269 0.6365586496
0.01389586067 0.04031108475 -0.05066298676 0.7442319677 -0.06877893512 0.6643705564
0.008847351074 0.02816716957 -0.04599360275 0.5246341656 -0.00611166309 0.8513058439
0.01287692142 -0.01119157529 -0.03943573761 0.7094679772 -0.7044560243 -0.01992233017
0.001938937783 0.02198279762 -0.04361347961 -0.1114340465 0.03087898259 -0.993291972
-0.01553428078 0.03014073563 -0.05348312759 0.8661015326 -0.07475901498 -0.4942461177
0.01526380825 0.03594682693 -0.05294865799 0.8068694227 -0.06464164313 0.5871824185
0 0.02178623009 -0.04353767014 0.02488527801 0.01472882746 -0.9995818048
-0.003225520134 0.02250923347 -0.0438161087 0.1967606269 0.05552404636 -0.9788781007
-0.008847351074 0.02816716957 -0.04599360275 -0.5066842192 -0.006693081616 0.8621057387
-0.0112479434 0.03104263401 -0.04777573776 -0.6783098331 0.008257125646 0.7347296034
-0.01389586067 0.04031108475 -0.05066298676 0.7615718054 0.1594884673 -0.6281495157
-0.01654126167 0.05494345856 -0.05628060913 0.6223359798 0.06158283549 -0.78032396
0.02015851784 0.05217022324 -0.05648635483 0.6817416602 -0.02098963407 0.7312918323
0.01668961239 0.05196424675 -0.05700292015 0.865555533 -0.05698629629 0.4975602288
0.01588432789 0.04667076492 -0.05437632751 0.9508551717 0.1062997526 0.2908174772
-0.008422455788 0.0202023983 -0.04573511124 0.5166744886 0.002058122932 -0.856179442
-0.01402632427 0.03732173157 -0.05083278656 0.8369588853 0.002899636213 -0.5472580894
0.01402632427 0.03732173157 -0.05083278656 0.8149279211 -0.0238112538 0.5790729726
0.00894077301 0.02471886635 -0.04604956245 0.5250972469 -0.01226790971 0.8509538058
0.006461818218 0.02142210865 -0.04479724884 -0.3877971953 -0.005392530711 -0.9217289493
-0.01526380825 0.03594682693 -0.05294865799 0.8175129829 0.04741779768 -0.5739547676
-0.002939555526 -0.0168103838 -0.03035168457 0.1008858317 0.9942842232 -0.03494184459
-0.00894077301 0.02471886635 -0.04604956245 -0.5144385303 -0.01008160574 0.8574679934
-0.01136271429 0.02772696877 -0.04787393188 -0.6800925156 0.008278314996 0.7330795589
-0.02015851784 0.05217022324 -0.05648635483 0.681358471 0.02248836685 -0.7316043379
0.00354993844 0.03147417927 -0.08085935211 -0.1358855721 -0.007703613468 0.9906945875
0.0205984211 0.05999744034 -0.06064754486 -0.2988508615 -0.9264649468 -0.2288031139
0.0137151432 0.03168536949 -0.07596090698 -0.641794246 0.007388862735 0.7668412811
0.01606569386 0.04296940041 -0.0549022541 0.9578371519 0.01251359044 0.2870390227
0.01877106285 0.04949932861 -0.06900363159 0.9261301727 -0.188848101 -0.326526106
0.01569253731 0.03896514893 -0.05405926323 0.7333747889 -0.1175257237 0.6695887717
0.01084307861 0.02459243011 -0.04738054276 0.6343780587 -0.01647244722 0.7728474216
0.005846741438 -0.01603557873 -0.03300588799 -0.2927900482 0.9555072769 0.03577473098
0.002930364013 -0.01681362152 -0.03271340561 -0.1702182585 0.9853071907 0.01398157306
-0.005846741438 -0.01603557873 -0.03300588799 0.2752781271 0.9609479048 0.02830330399
-0.008490910848 -0.01480552896 -0.03372782644 0.4843486923 0.874236535 -0.03341893487
-0.01147995949 0.02433978844 -0.04797424316 -0.6766135292 -0.01299273944 0.7362236894
-0.0131028471 0.03064703941 -0.0496483345 0.8014671323 0.01659912021 -0.5978084183
0.0113900156 0.02908332253 -0.07776106262 -0.5313781213 -0.009089339312 0.847085991
0.009131808281 -0.01168506527 -0.05359873962 -0.5791947055 0.7642049551 0.2837680033
-0.01600340271 0.04423539352 -0.0547321167 0.9727162732 -0.03045021513 -0.2299909482
-0.002606577476 -0.01502227147 -0.05154024124 0.1852786392 0.9288879487 0.3206852112
-0.01943196106 0.06060000229 -0.06086191559 0 1 0
0.0205036087 0.06060000229 -0.06206309891 0.1264136916 0.9919649382 0.005013968301
0.01429088593 0.03124237633 -0.05121185684 0.8362168794 -0.0007385467658 0.5483983817
-0.0144452343 0.04431335449 -0.06974183655 0.9048239099 -0.1360424464 0.4034676504
0.01323155212 0.02743075371 -0.04980364227 0.7746851186 0.003525373368 0.6323373615
0.01863476944 0.04249953842 -0.0692092514 0.9117514533 0.4071404587 0.0542764619
0.01211728668 0.02407699966 -0.0485642128 0.7110326691 0.006696816485 0.703127084
-0.01159976625 0.02087862206 -0.04807674217 0.6806438391 0.03437756911 -0.7318074522
-0.01382806873 0.0277951479 -0.05061410904 0.8074053239 0.01826161808 -0.58971447
0.01223009396 -0.01194019604 -0.03686037064 -0.6480930229 0.761558942 -0.001847011198
-0.01429088593 0.03124237633 -0.05121185684 0.8359070995 0.01173530349 -0.5487454817
-0.01612542343 0.04174437714 -0.0550875473 0.9742509419 0.05132606629 -0.2195466628
0.01317816162 0.04589704514 -0.07144673157 0.8670942894 -0.0468671676 -0.495934433
-0.01682794189 0.0491210289 -0.05780696869 0.7202034417 0.2263552401 -0.6557974595
0.00625945727 0.06060000229 -0.07899446615 0.2913715054 0.4950953724 -0.8185250259
0.02043921089 0.04713203812 -0.05835892105 -0.1704353631 0.4614895228 -0.8706200132
0 -0.01706980038 -0.03575323677 5.647137442e-18 -0.9997001889 -0.02448535068
-0.01725304413 0.03462519073 -0.07179440308 0.7986691091 -0.002650555001 0.6017645957
-0.015397789 0.03307074738 -0.05321341324 0.8989492143 0.003605560368 -0.4380380236
-0.01692164803 0.04719496536 -0.05835164642 0.7907442839 0.0129420093 -0.612009789
-0.02043767929 0.04715099716 -0.05836579132 0.2004878726 0.4766672717 -0.8559164241
0.02003106308 0.0365590477 -0.05581780243 0.4355524146 -0.3097786688 0.8451812057
0.02053522301 0.04541156387 -0.05899374008 -0.115804953 0.5240886839 -0.8437536751
0.01700955963 0.04534928513 -0.05894015884 0.762256668 -0.057850503 0.6446844898
-0.00535812068 0.06028696442 -0.08041313553 -0.519216364 0.449206809 -0.7270678167
0.01349710178 0.02079480553 -0.05012407684 0.7972243343 -0.005586769215 0.6036573108
-0.01080127048 -0.01323852396 -0.03869831085 -0.6014433902 -0.7981067014 -0.03593802575
-0.01219325447 -0.0119765873 -0.03915319633 -0.6792452283 -0.7323879352 -0.04726343372
-0.01120001984 0.03415167999 -0.07786762238 0.5275147091 0.002936379849 0.8495408226
-0.0163836689 0.0365076828 -0.05576907349 0.81107531 0.03249109221 -0.584038672
-0.01531031704 0.05067037964 -0.068141716 0.7096132707 0.2834187391 0.6450758284
-0.02003106308 0.0365590477 -0.05581780243 -0.4657250386 -0.07018069821 0.8821421983
-0.02054804134 0.04498568153 -0.0594708519 0.1449331833 0.5371630883 -0.830933324
0.0181460886 0.06060000229 -0.06617964172 0.7649781775 0.5715495305 -0.2968830109
0.00657884407 0.02850913429 -0.08010778809 -0.3527693672 -0.007890529307 0.9356770346
0.01943668175 0.02726391983 -0.05382660675 0.6265704191 0.3667192146 0.6876965374
0.01650924301 0.03393267441 -0.05615777588 0.7752211501 -0.1007590701 0.6236022597
0.01567284107 0.02716422653 -0.05376116562 0.7755072527 0.07346281917 0.6270500102
0.00579839921 -0.01605202627 -0.03923322201 -0.3402962043 0.9402325911 0.01269519695
0.003335274696 0.04977493477 -0.08089280701 -0.173971344 -0.1215092994 0.9772253894
-0.01485989952 -0.008360466003 -0.04196765137 0.8344673368 0.5481418347 0.0566108901
0.01229049083 0.06060000229 -0.07467839922 0.5997538881 0.4275879616 -0.6763607091
-0.01650924301 0.03393267441 -0.05615777588 0.7923602075 0.06913392203 -0.6061235868
-0.0181460886 0.06060000229 -0.06617964172 0.7645538923 -0.5803196811 0.2805109865
0.01282019496 -0.01111669779 -0.04251284313 0.7271137602 -0.6838901803 -0.05999834122
-0.01075517893 -0.01320546484 -0.04178046799 -0.6141831934 -0.7871529157 -0.05629646736
-0.005185345173 0.03952492142 -0.08050855255 0.2877793566 -0.006397087713 0.9576753725
0.01839850807 0.03640306473 -0.06982060242 0.8221417923 -0.006399556284 -0.5692467997
-0.01214016438 -0.01191663265 -0.04223262978 -0.6956969703 -0.7147513364 -0.07166765324
0.0005800806681 0.03739686203 -0.08115658569 0.02797285429 -0.005964587644 0.9995908879
-0.01350022554 -0.01031676197 -0.04279305649 0.7578769517 0.6486333935 0.0699803324
0.005537042141 0.01955524254 -0.08040110016 -0.2346985579 0.0452437916 0.9710147199
-0.01487417793 0.01792446899 -0.05187655258 0.8372241875 -0.05968260495 -0.5435932732
-0.01580183125 0.02434396172 -0.05411865997 -0.7017364954 0.05544366869 0.7102759257
-0.0166242733 0.03151884651 -0.056623806 0.825570978 -0.1635831336 -0.5400676983
0 -0.0151413579 -0.05175252342 -0.02772300954 -0.9471017602 -0.3197337807
-0.01592419529 0.06060000229 -0.06674720001 -0.1918387318 0.9765990451 -0.09722245666
0.01804215431 0.0213366394 -0.0705194931 0.8190490434 -0.01266842255 -0.5735836257
-0.01958335686 0.02463116264 -0.05425007629 0.06254292774 -0.4752066017 -0.8776486016
-0.01654544449 0.02491336632 -0.07282369995 0.8123738493 -0.007160011892 0.5830930141
-0.0205632782 0.04399527359 -0.06100632095 0.1589588011 0.6484376628 -0.7444868682
0.02053742409 0.04378271484 -0.06218712234 0.2254685147 -0.702012831 0.6755308534
-0.001662321448 0.05049689865 -0.08108880615 0.1386756611 -0.1267759676 0.9821898569
0.01678704643 0.02803975582 -0.05741020012 0.5506205883 0.4048072856 0.730032896
0.01593488693 0.02144259262 -0.05447186279 0.7236398588 -0.05830766781 0.6877103828
0.01606125641 -0.005223100185 -0.04531689072 0.8838598143 -0.4532384415 -0.1156146347
0.007914914608 -0.01501099825 -0.04268199348 0.4054281206 -0.90988941 -0.08791644112
0.005772432685 -0.0159511745 -0.04235543156 -0.3446199652 0.9372869356 0.05225208137
0.002893252492 -0.01674251795 -0.04208045769 -0.1694910175 0.9821813606 0.081194642
0 -0.01698625278 -0.04199559784 6.115144325e-11 -0.9975146108 -0.07045992644
-0.002893252492 -0.01674251842 -0.04208045769 -0.173274895 -0.9824040885 -0.06969948156
-0.005772432685 -0.0159511745 -0.04235543156 -0.3352080866 -0.9409950402 -0.04651744895
-0.01478626633 -0.00811423254 -0.04506645966 0.8307607578 0.544902641 0.113655951
-0.009586331367 0.04879338455 -0.07471377563 -0.6874227753 0.1941936059 -0.6998133833
-0.01606125641 -0.005223100185 -0.04531689072 0.8782822931 0.4631630618 0.1187442281
-0.01593488693 0.02144259262 -0.05447186279 0.6761164993 0.05605485008 -0.7346593313
-0.01678704643 0.02803975582 -0.05741020012 -0.5503773414 0.4049578941 0.7301327866
-0.01557626176 0.06060000229 -0.06937424088 0.7249179682 -0.5567090728 0.4056709845
0.009598623276 0.04638297272 -0.07879386902 -0.5209342482 -0.04929503999 0.8521722291
0.02044578743 0.02884898186 -0.05837941742 -0.6115551639 -0.6025781698 -0.5127375847
0.0146961031 -0.007512399673 -0.04826026917 0.8391836199 -0.5194868112 -0.1609481443
0.01609555626 0.01804713249 -0.05468228912 0.8829328074 0.0373591429 0.4680106324
0.01598997927 -0.004818863869 -0.04768203354 0.8760098982 -0.461157363 -0.1412109942
0.01253440094 -0.01109677537 -0.04529924647 0.7350907554 -0.6690881217 -0.1093739767
0.00697207737 0.03742399025 -0.07995652008 -0.3698887926 -0.01567003901 0.9289438794
-0.01070096159 -0.01292655849 -0.04492593765 -0.6205105717 -0.7764753366 -0.1097847077
-0.01050196552 0.05277215195 -0.07826104736 0.5104107871 0.1288635132 0.8502205734
-0.01344843292 -0.01009377956 -0.04513937759 0.7953525252 0.5973175502 0.1030829999
-0.01598997927 -0.004818864107 -0.04768203354 0.8779014672 0.4578019542 0.1403794308
-0.009106861115 0.02444105721 -0.07907545471 0.4132276602 0.002849959182 0.9106232913
-0.01432232666 0.03178470325 -0.07536347198 0.6859726223 -0.003019678506 0.7276210848
-0.01609555626 0.0180471344 -0.05468228912 0.8949829612 -0.05266268168 -0.4429809715
0.01702045059 0.00122405839 -0.05044762421 0 0 1
0.007164174676 -0.01499427295 -0.04574487209 0.398417799 -0.9048343946 -0.1501265326
0.005029175043 -0.01587946272 -0.04544577408 0.2982146218 -0.9404073954 -0.1634073745
0.002878374994 -0.01642819023 -0.04526037502 0.1717201259 -0.9774104751 -0.1232110445
-0.005029175043 -0.01587946272 -0.04544577408 -0.2743075614 -0.9488096519 -0.1565746028
-0.006455271721 -0.01533696461 -0.0456291008 -0.3761835636 -0.9140098348 -0.1518945302
-0.01340882111 -0.009824290276 -0.04673598862 0.8080658226 0.5713347561 0.1435486777
0.01595810604 0.05656983566 -0.07361064148 0.7296159583 0.1393171093 -0.6695157178
-0.01425257651 -0.008163744926 -0.04829172262 0.8244162051 0.5378427663 0.1762472112
-0.01702045059 0.001224058747 -0.05044762421 0 0 1
0.006128817558 0.04930840111 -0.08018714142 -0.4583124372 -0.1685984565 0.8726535798
0.01832647514 0.05594062805 -0.06990550232 0.9269390588 0.0483903778 -0.3720784226
0.02041373825 0.01055193424 -0.05499588013 0 0 1
0.0005459865332 0.05485587311 -0.08113944753 0.003434449858 -0.06522794161 -0.9978644799
0.0161575524 0.06025689824 -0.07207655843 0.7830819374 0.4251522037 -0.4539033851
0.01307769203 0.06009610558 -0.07180332947 0.5970472937 0.6483078386 -0.4724737828
0.0159089365 -0.004221951485 -0.05009664917 0.9209679388 -0.3252429508 -0.2145578678
0.01336552334 -0.009466435432 -0.04835462952 0.774822173 -0.6152672972 -0.145247214
0.01063655853 -0.01233852291 -0.04814892387 0.5972346216 -0.7756182819 -0.2042720922
0.00925084734 -0.0134645505 -0.04777502823 0.564516574 -0.80739908 -0.1715452222
-0.008779772123 -0.01371370252 -0.04794485219 -0.4891841985 -0.8502395873 -0.1944002677
-0.01505363146 0.06060000229 -0.07179129791 0.684924694 -0.5686935073 0.455484202
-0.02041373825 0.0105519352 -0.05499588013 0 0 1
-0.01832647514 0.05594062805 -0.06990550232 0.9086837215 -0.09023155378 0.4076176651
0.01561911774 0.04511225891 -0.06754923248 0.3527490279 0.01062904978 -0.9356576012
0.006065165758 -0.01490350223 -0.04843419552 0.3837044492 -0.8999619152 -0.2069769235
0 -0.01607102704 -0.04842825317 -0.01988855118 -0.9815415599 -0.1902120179
-0.005474347115 -0.01513400078 -0.04848409398 -0.3113595282 -0.9188354341 -0.2424802863
-0.0137345686 -0.008107865016 -0.05078793208 0.817355727 0.5380974941 0.2058657386
-0.0125456171 0.05959483719 -0.07221524811 -0.68240661 -0.09570155516 -0.7246809167
-0.01561911774 0.04511225891 -0.06754923248 -0.5099725738 0.009516120865 -0.8601380223
-0.01692155457 0.05956838608 -0.07224729156 0.7412621391 -0.4775383112 0.4716859151
-0.01877106285 0.04949932861 -0.06900363159 0.9264404421 0.1879585541 0.3261589936
0.003000311852 0.02701029587 -0.08097703552 -0.1450843851 -0.01116239341 0.9893563171
0.01724651527 0.05444137192 -0.07177370453 0.8990925922 0.004049286545 -0.4377397787
0.01193811798 -0.01025282001 -0.05108090591 0.7061078758 -0.6743021716 -0.2161671788
0.01625193214 0.05157282639 -0.07323390198 0.8903429685 0.02278064963 -0.4547201781
0.009203940392 -0.01284772491 -0.05023854446 0.5815745791 -0.7815639555 -0.2256740842
-0.003438795686 0.04094365311 -0.08088131714 0.1879597138 0.01340534778 0.9820852522
0.006670141888 -0.01402547112 -0.05075759277 0.3871652752 -0.8842117221 -0.2612904137
-0.003569094181 -0.01548520947 -0.04937933731 -0.2410885126 -0.9414549443 -0.2356669619
-0.008265340487 -0.01329480108 -0.05059337997 -0.4555983209 -0.8510619621 -0.2610051851
-0.009275372505 0.01876293373 -0.07892159271 0.444518398 0.04060961058 0.8948487321
-0.01102002525 -0.01102334468 -0.05132798894 0.6659900802 0.712403997 0.2212188016
-0.001713422298 0.04176395416 -0.08109654236 0.1050909865 0.0007595248443 0.9944623209
-0.01724750519 0.05442728043 -0.07176921082 0.8790890765 0.06589970681 0.4720801035
0.01758184052 0.04914655304 -0.07129354858 0.9174696117 -0.2939938975 -0.2679871261
0.0144452343 0.04431335449 -0.06974183655 0.9690040695 0.09589266171 -0.2276745718
-0.009168855667 -0.01230189419 -0.05191233444 -0.5118857315 -0.8190265922 -0.2591687464
-0.01189083862 -0.009665559769 -0.0527555809 0.668302652 0.7074778313 0.2298840657
-0.01595810604 0.05656983566 -0.07361064148 0.6984861246 -0.1539710152 0.698863406
0.004991890907 0.05232952881 -0.07692743683 -0.4115786921 0.7621899551 0.4996693432
0.00353041935 -0.01392485595 -0.05401087666 -0.2009824359 0.9185882084 0.3402965821
-0.01758184052 0.04914655304 -0.07129354858 0.9226420724 0.1712164982 0.3455669502
0.01051595688 0.05448358536 -0.07408385468 -0.4767110718 0.1385093124 0.8680793307
0.006353172938 -0.01335438093 -0.05307121913 -0.3755936527 0.8740305764 0.3082206347
-0.007750710487 -0.01266603279 -0.05328904343 0.4312641911 0.8431741811 0.3210428286
-0.01317816162 0.04589704514 -0.07144673157 0.8301551914 -0.3419030896 0.4403914572
-0.01424767542 0.05678055382 -0.07540786743 0.7453590139 -0.0833536889 0.6614318581
-0.01625329971 0.05155192566 -0.07322744751 0.8711465804 -0.03878769808 0.4894886617
0.01657403374 0.04612334824 -0.07276415253 0.8829314854 -0.08961172192 -0.4608706233
0.01506263256 0.05214487457 -0.07458412933 0.7333498754 0.08831912896 -0.6740902697
0.01368729401 0.05672262955 -0.07596614838 -0.6491113954 -0.1692657795 0.7416222032
0.00914392643 0.06060000229 -0.0777956543 0.3566266158 0.5114189881 -0.7818363483
0.003760022163 0.06060000229 -0.07841628901 0.1899653933 0.8440825327 -0.501435766
0 -0.01423801327 -0.05428733826 0.04377393182 0.9149968698 0.4010792578
-0.005962842464 0.05895864105 -0.0765944519 0.3888571526 -0.363379403 0.8466082473
-0.007095551491 0.05731412125 -0.07609864044 0.5689483367 0.1119981991 0.8147111105
-0.0084250892 0.06060000229 -0.07786651611 -0.3626987143 0.4764892409 -0.8008792955
-0.01657626915 0.04608909225 -0.0727537384 0.8939242341 0.1094880837 0.4346398777
-0.009141551971 0.04289544868 -0.07902028656 0.4486332611 0.001419615389 0.8937148213
-0.01839850807 0.03640306473 -0.06982060242 0.8769620685 -0.02298671189 0.4800095222
0.01890171814 0.02863163948 -0.06875143433 0.8606959703 0.006003063294 -0.5090838929
0.01336417866 0.05177253532 -0.07622924805 -0.4901148005 0.01208778183 0.8715740748
0.01207912254 0.05521043015 -0.07724108505 -0.4756560501 0.06719030194 0.877061449
0.01136791039 0.05890029907 -0.07775888824 0.4972070692 0.09611507099 -0.8622917276
0.0005366339286 0.06060000229 -0.07879075623 0.01672834318 0.6492402549 -0.7603994042
0.0005624875625 0.04640893936 -0.08114857737 -0.04904917923 -0.1104517146 0.9926704371
0.0119227066 0.04555991745 -0.07738088989 -0.5658052494 -0.1057443387 0.8177301233
-0.002683259368 0.06060000229 -0.07879330063 -0.2488284533 0.5615370349 -0.7891517973
-0.007783000231 0.0523810482 -0.07577901459 0.5220788066 -0.2023957333 0.8285346624
-0.01085478115 0.05797483635 -0.0780546608 0.477283878 -0.2422441693 0.8446998652
-0.01207915306 0.05520978355 -0.07724089432 0.4991072734 0.02258342743 0.8662458764
-0.0169128418 0.04039616776 -0.0722600708 0.8343846518 -0.1075416872 0.5405895286
0.01725304413 0.03462519073 -0.07179440308 0.8166110583 -0.0008600270399 -0.5771876989
0.01414651394 0.04751702881 -0.07556912994 -0.6701570338 0.001876292059 0.7422169693
0.009217240651 0.05781833776 -0.07895357513 -0.4738305744 -0.09215989966 0.8757803033
-0.004991890907 0.05232952881 -0.07692743683 -0.1531350784 0.245070832 -0.9573348082
-0.01414651394 0.04751702881 -0.07556912994 0.6858770943 0.02405886421 0.7273195876
0.01761576653 0.02848459625 -0.07127313995 0.8253166615 0.001514869566 -0.5646681445
0.01303013611 0.04666205597 -0.07650753784 -0.6935335034 -0.06175623808 0.7177725592
0.009303655624 0.05519036865 -0.0789546814 -0.3565989759 0.1215913839 0.9263113438
0.007015636921 0.05855408096 -0.07991759491 0.3561304594 0.261439576 -0.897117854
0.005901040554 0.05997251511 -0.08032404327 0.3396569999 0.5124437312 -0.7886916665
0.003745058298 0.06060000229 -0.08049860128 0.2425973168 0.9200768542 -0.3075794601
-0.002674952626 0.06060000229 -0.08049597422 -0.2878592522 0.617903021 -0.7316644775
-0.00594816637 0.0576989193 -0.08023905182 0.4016960476 -0.2741829339 0.8737642726
-0.01119840431 0.04927959251 -0.07784714127 0.5198744654 -0.1270007092 0.8447492883
-0.01467525037 0.0370291659 -0.07496776581 0.6882088185 -0.001301145588 0.7255114948
-0.01761576653 0.02848459625 -0.07127313995 0.8313006666 0.01426020542 0.5556400348
0.006554121971 0.0551905632 -0.08009571838 0.5325962364 -0.03114775786 -0.8457961138
0.003785627604 0.05765614573 -0.08078919729 -0.2488628426 -0.1976965065 0.9481473392
0.006321093082 0.04037943649 -0.08013667297 -0.3531810355 -0.006569695699 0.9355319317
0.0005381135146 0.05888624446 -0.08113509623 0.003482248114 -0.2331190598 0.9724419664
-0.008859696388 0.0518417263 -0.07915245056 0.5702090912 -0.04782836439 0.820106115
-0.0119227066 0.04555991745 -0.07738088989 0.5589263358 -0.08113500544 0.8252384274
-0.01620513153 0.03112797737 -0.0732980957 0.8150806786 0.02592700928 0.5787670322
-0.01804215431 0.0213366394 -0.0705194931 0.8190490711 0.01266871216 0.5735835797
0.01492951012 0.03188403702 -0.07476603699 0.7146640067 -0.006117771967 -0.6994411557
0.01156938219 0.03990767479 -0.07760357666 -0.5435292809 -0.001943778295 0.8393879571
0.009706663132 0.04320830027 -0.07870914968 -0.4710993991 0.005090225897 0.882065443
0.005515749693 0.05222836304 -0.08041286469 -0.4452562411 -0.06529565839 0.8930192365
0.003285823584 0.05399068069 -0.08090031815 -0.1117447093 0.125441308 0.9857878059
-0.008396690369 0.04853730774 -0.07939105988 0.4516122786 -0.1762524125 0.8746321723
-0.009599423409 0.04636183929 -0.07878793335 0.519800596 -0.06151039491 0.8520703091
-0.0108391819 0.04377697754 -0.07807099152 0.5158299946 0.006098584805 0.8566692617
-0.01156985235 0.03989653587 -0.07760050201 0.5510100601 0.003206111425 0.8344924413
0.01695110512 0.01758570862 -0.07209767914 0.7955715762 0.02355459289 -0.6054015595
0.01459047985 0.02620352459 -0.07509734726 -0.6965445265 0.0008971003265 0.7175130088
0.01233093071 0.03575853729 -0.07707356262 -0.5892930568 -0.006564632197 0.8078926902
0.0005541071494 0.05069884872 -0.08114394124 -0.03024903295 -0.0080258997 0.9995101705
-0.005028149128 0.04846126175 -0.08053536224 0.2300171425 -0.1347470209 0.9638129251
-0.007340773582 0.04579434586 -0.0798097229 0.3710790726 -0.01209627061 0.9285224834
-0.01233093071 0.03575853729 -0.07707356262 0.5620912184 -0.004420356334 0.8270634333
-0.01459047985 0.02620352459 -0.07509734726 0.7062944896 -0.01155376641 0.7078238513
0.01254626751 0.03058834839 -0.07691145325 -0.6191540279 -0.002165641779 0.7852665788
0.01119948959 0.03416425705 -0.07787104034 -0.5178291391 0.006590234515 0.855458679
0.00991399765 0.03696627045 -0.07862193298 -0.4696310508 -0.001387508464 0.8828616828
0.0086653862 0.0394168663 -0.07927869415 -0.432806053 -0.02931639239 0.9010102494
0.005687191248 0.04347737885 -0.0803649826 -0.2547597282 0.0008583411587 0.9670040042
-0.002819863359 0.04569301224 -0.0809572169 0.157160956 0.005491084174 0.987557736
-0.007456350327 0.0412586174 -0.07977137756 0.3407768041 -0.00392060928 0.9401360533
-0.0086653862 0.0394168663 -0.07927869415 0.3969721663 -0.001525193554 0.9178293812
-0.00991515255 0.0369356308 -0.07861362457 0.4806726783 -0.01547734824 0.8767634961
0.01423090363 0.02044323158 -0.07548088074 0.7122164531 -0.0246798358 -0.7015259295
0.008806984901 0.034611763 -0.07921702576 -0.4128198339 0.01288939973 0.9107214987
0.003439092278 0.0409244957 -0.08087620544 -0.1727168068 0.009094020515 0.9849295424
0.0005711407661 0.04197949727 -0.081153361 -0.04344837788 -0.006140523947 0.9990368023
-0.007575837612 0.03656942368 -0.07973173523 0.3838017258 -0.004947057514 0.9234022752
-0.0108218441 0.02795641994 -0.07809363174 0.5381339643 -0.01512511491 0.8427236008
-0.01217993975 0.02448836708 -0.07718666458 0.5547138172 -0.002525198487 0.8320373816
