# .PCD v0.7 - Point Cloud Data file format
VERSION 0.7
FIELDS x y z normal_x normal_y normal_z
SIZE 4 4 4 4 4 4
TYPE F F F F F F
COUNT 1 1 1 1 1 1
WIDTH 564
HEIGHT 1
VIEWPOINT 0 0 0 1 0 0 0
POINTS 564
DATA ascii
-0.01913969994 0.007493284225 -0.009298129082 0.8968821001 -0.4422576191 -0.003270589295
0.003631500959 -0.01669365025 -0.03900411415 0.2270993652 -0.9737578171 -0.01488596418
0.01596020412 0.01295349884 -0.01346303272 0.783619411 0.6211627893 0.009869538636
-0.002146565616 0.06060000229 -0.07879216957 0.007842847919 0.9069832235 -0.4210937213
0.01446979189 0.01462658358 -0.01502004433 -0.6915045489 -0.7223713276 0.001060086923
-0.0006328893304 0.02889591026 -0.04353686142 -0.004159864576 -0.001262699806 0.9999905505
0.00608889246 0.01964356995 -0.01738667011 -0.2979356029 -0.9545797966 -0.003433426103
0.004733949661 0.0200416832 -0.01682690239 -0.2192191312 -0.9756645575 0.004652295245
0.008270036697 0.05284129715 -0.07943411255 0.4410412755 0.1919521201 -0.8767194402
0.004271156788 0.04029722595 -0.04407254791 0.2594758288 0.01449154738 0.9656408697
0.01014710093 0.01791871357 -0.02106678772 0.5026565706 0.8643302403 -0.01641973791
0.003378366947 0.02028170013 -0.01694069099 -0.179635707 -0.9837154159 0.005915510076
0.001225629777 0.03909789276 -0.04358094025 0.06500389945 0.002363209158 0.9978822116
0.001350225091 0.02052634716 -0.01705674744 -0.09823026036 -0.9951475734 0.005667723092
-0.0006749589443 0.02056698799 -0.01707601547 0.03679514853 -0.999304928 0.005981467142
-0.002701994658 0.0203778429 -0.01698629761 0.1286654452 -0.9916809419 0.003756679843
0.007781764984 -0.01326918411 -0.05160237122 0.4544993827 -0.8430758011 -0.2874952257
-0.004733949661 0.0200416832 -0.01682690239 0.2334960134 -0.9723481088 0.004332088483
-0.006771530032 0.01942276716 -0.01728258324 0.355471617 -0.9346862312 -0.001256484157
-0.01448595619 0.05220467758 -0.07518736267 -0.7046210257 -0.1646356003 -0.6902204932
-0.01233645344 0.01643400764 -0.01511525869 0.6079920098 -0.7939280357 -0.004897974608
-0.01446979189 0.01462658358 -0.01502004433 0.6986966213 -0.7154091998 0.003564853092
-0.01596074295 0.01294381714 -0.01345842743 0.7835283537 -0.6212865036 -0.009295129417
-0.01908955002 0.007626765251 -0.01093266869 0.8957469112 -0.4444908774 -0.008082759509
0.01160261345 0.01695858002 -0.01687654877 -0.5554776851 -0.8314877291 0.008526298089
0.02015851784 0.05217022324 -0.05648635483 0.1255532109 0.2756195219 -0.9530321455
0.001464514285 -0.01700626087 -0.03342737198 0.07561821263 -0.9971365872 0.000715867533
-0.01595810604 0.05656983566 -0.07361064148 0.771052261 0.007300476884 0.6367300164
0.003658055544 -0.01668658257 -0.03354681396 0.2358882824 -0.9716776596 0.01411538091
-0.01357436657 -0.01039786434 -0.03895804977 0.7983180718 0.6022331336 0.001873248151
-0.007507191658 0.05840218735 -0.04147689438 0.782227996 -0.5786466772 0.2308406057
0.01020289135 0.01789003754 -0.0173133831 -0.4989101603 -0.8666501823 -0.002472548382
-0.01058188343 -0.01170218754 -0.05061081696 -0.6365068011 -0.7338886667 -0.2372056429
-0.007755779266 0.04665396118 -0.04537961578 -0.450277916 -0.0001659576298 0.8928884425
0.0047185812 0.02004596806 -0.01906840229 -0.2188776418 -0.9757448064 0.003827635262
0.003782174349 0.05772481918 -0.0808085022 -0.1400018259 -0.1465331674 0.9792484463
-0.01163882351 0.03718758774 -0.04813851929 -0.6821699823 0.005096927089 0.7311758588
0.003367405295 0.02028552914 -0.01917993355 -0.1791990802 -0.9837992494 0.005169777085
-0.004102285862 0.05267167664 -0.0440477829 -0.2359813084 0.003399754566 0.9717516472
0.02005249214 0.04931009293 -0.06530545044 0 0 1
-0.01894060898 0.008023198128 -0.01578718948 0.8859426516 -0.4636924717 -0.009742164726
-0.0006727705002 0.0205702095 -0.01931256676 0.03689598099 -0.9993095882 0.004362734689
-0.0007286557555 -0.01706986332 -0.03731387711 -0.06178980433 -0.9980891223 -0.0003522338602
0.01152573013 0.01701275826 -0.02140140533 0.5567560388 0.8306684053 0.003565626968
-0.008820160866 0.01857833862 -0.01763601685 0.4191973849 -0.9078951132 -0.0001261353502
0.001938937783 0.02198279762 -0.04361347961 -0.1163005893 0.0109446044 -0.9931537588
-0.01484335327 -0.008338802338 -0.04273131943 0.8098186035 0.5829206331 0.06631263077
-0.01020289135 0.01789003754 -0.0173133831 0.4922068927 -0.8704455001 -0.007550246771
0.00916267395 0.03897647095 -0.04619233322 0.5563242111 -0.001848718735 0.830963269
-0.01253449217 0.01629826069 -0.01707079506 0.6067848668 -0.7948613913 -0.002737525154
-0.00431564045 0.03703759384 -0.04407907104 -0.2577579784 -0.006963296346 0.9661844219
-0.01600340271 0.04423539352 -0.0547321167 0.9144561949 0.007808572733 -0.4046095572
-0.01592362595 0.01299157619 -0.01501554966 0.7797107594 -0.62612168 0.004772159754
-0.0190148325 0.007825641155 -0.01336800909 0.8911899485 -0.4535267449 -0.009693676813
0.01586758804 0.01307526016 -0.01734324551 0.7774682224 0.6289179121 0.002328753572
0.01442046547 0.01467687511 -0.01732524681 -0.6899662679 -0.7237829496 -0.009208203512
-0.009599423409 0.04636183929 -0.07878793335 0.4489967556 -0.002865719589 0.8935287914
0.01156406498 0.01698574448 -0.0191452589 -0.5520875916 -0.8337846769 -0.001550426731
0.01433900118 0.01475993299 -0.02113232422 -0.6846231708 -0.7288255768 0.01021727024
0.01130673218 0.04629592514 -0.04782592773 0.6609680116 0.005258121954 0.7503956555
0.007429852009 0.01921075058 -0.01942610931 -0.3654949139 -0.9308070829 -0.003412082632
0.01429088593 0.03124237633 -0.05121185684 0.8204113835 -0.005470194923 0.5717475307
-0.006749436855 0.01943179131 -0.01952843952 0.3361997633 -0.9417898742 -0.001245812107
-0.008800807953 0.01858983612 -0.01913847923 0.424249759 -0.9054891904 0.01007313618
-0.0108660388 0.01744417858 -0.01935771656 0.5269131519 -0.8499188262 0.0007205743572
0.01894060898 0.008023198128 -0.01578718948 0.8859426516 0.4636924717 0.009742164726
0.007699442387 0.03171865082 -0.0796907196 -0.3482219882 -0.001253136178 0.9374112633
-0.01250123048 0.06060000229 -0.04684148884 0.4642116509 0.8698130717 -0.1671309773
0.01735202026 0.01106626606 -0.01718315506 0.8544761522 0.5194894707 -0.001093236001
-0.01043210793 0.02150172234 -0.07832820892 0.514462309 0.02414324153 0.8571730493
-0.004572174489 0.06060000229 -0.04308772945 -0.3402064812 -0.8818591946 0.3264719147
0.01487644577 -0.008382129669 -0.04120398331 0.8273214126 -0.5604880209 -0.03731566263
0.01438776875 0.0147102108 -0.01885324097 -0.686774055 -0.7268204659 0.00856783007
-0.01943668175 0.02726391983 -0.05382660675 0.0192572023 0.157729927 -0.9872945003
0.01295663929 0.01600894928 -0.01944812202 -0.6013089295 -0.798968177 -0.008799063211
0.003219938159 0.06060000229 -0.07879429054 0.2149064306 0.8577117028 -0.4670608751
0.004703296661 0.02005023003 -0.02129767418 0.2116709811 0.977340166 -0.001263241744
0.003356510162 0.0202887764 -0.02140670967 0.1785473839 0.9839242432 -0.003730322708
-0.008523263931 -0.01353075409 -0.04926338005 -0.5022685734 -0.8336777203 -0.2295816607
-0.004286417484 0.02085672569 -0.08071927643 -0.2413487444 0.02869633248 -0.9700140742
-0.007962087631 0.02142062378 -0.07958500671 0.3639955832 0.02250385231 0.9311287731
0.01887410418 0.06060000229 -0.05524637477 0.3154068468 0.9393909046 0.1343995883
0.005093884945 -0.01630098343 -0.0368147583 0.2825166073 -0.9591717133 -0.01319056281
0.001341493517 0.0205327158 -0.02151833153 0.08903136757 0.995976493 -0.01020985034
-0.0006705940366 0.02057341194 -0.02153693581 -0.03684503078 0.9993179215 0.002476997986
0.01261505985 0.05574504089 -0.07682290649 -0.6353100116 0.1191117315 0.7630161103
-0.002684525251 0.02038400745 -0.02145028019 -0.1285578605 0.9917009021 0.001482323743
-0.01979968834 0.05811523056 -0.05508387375 0.7179677172 0.5421485089 0.4365745657
-0.006734788895 0.01943777466 -0.02101748466 0.3352712253 -0.9420513914 0.01150571001
0.00123848936 0.03580478668 -0.04357991409 0.0693254525 -0.002099811915 0.9975918867
-0.008771936417 0.01860698891 -0.0213798008 -0.4388836769 0.8981230702 -0.02749670831
-0.01630245781 0.05949650955 -0.05560322952 0.7040746678 0.5178662893 -0.4858944007
0.01593488693 0.02144259262 -0.05447186279 0.8992624806 0.003175929253 0.4373978789
-0.01438776875 0.0147102108 -0.01885324097 0.6936109413 -0.720340003 0.00376060924
-0.01735202026 0.01106626606 -0.01718315506 0.8540644309 -0.5201661703 0.001050268323
0.01889145088 0.008154039383 -0.0173894043 0.8839347546 0.4675520328 0.007378770741
0.00289264822 0.0584261322 -0.04021419907 0.01900166371 0.7479804512 -0.663448703
-0.002139920533 0.06060000229 -0.0804948082 -0.04434947748 0.6498870404 -0.7587357633
0.01857065678 0.06060000229 -0.05301588249 0.01659416281 0.9779774195 -0.2080499957
-0.002178342581 -0.01695018005 -0.03968894196 -0.1073358251 -0.9940239927 -0.01988272296
0.001146615297 0.06060000229 -0.04120162582 0.2004962841 0.8175376379 -0.5398457656
-0.0005733023286 0.06060000229 -0.04120152283 -0.5176426397 0.5791018325 -0.6298310609
0.01606125641 -0.005223100185 -0.04531689072 0.9074929912 -0.4098574557 -0.09205073001
0.008723867416 0.05409296417 -0.04593197632 0.4503808825 -0.2772510042 0.8486983807
-0.008560223579 0.05973031998 -0.04583488083 0.2948588764 0.6976727697 -0.6529249187
-0.001719928265 0.06060000229 -0.04120172882 -0.1302421697 0.955182031 -0.2658275096
-0.01539163971 0.05658715439 -0.0532246933 0.9154347571 -0.003372274434 -0.4024522744
0.01544938437 0.06060000229 -0.07063461558 0.004989128099 0.9973034446 -0.0732184946
0.008547451019 0.06060000229 -0.04496798325 -0.2681739954 0.8325770436 -0.4846629496
-0.00289264822 0.0584261322 -0.04021419907 -0.04145727283 -0.8454227514 0.5324863058
-0.004586886168 0.06060000229 -0.04120315552 -0.1369406495 0.9850158811 0.104837839
0.01795650673 0.04326866531 -0.07068080139 0.8640570453 0.3915926271 -0.3163236266
0.01084307861 0.02459243011 -0.04738054276 0.6761341168 -0.00566495761 0.7367567878
-0.006318675041 0.06017562103 -0.04101172256 0.1089429424 0.9717147432 0.209527786
0.007247031212 0.04294153404 -0.04515631866 0.4153045272 0.007843003162 0.9096486338
-0.01433900118 0.01475993299 -0.02113232422 0.6968437154 -0.7172213717 -0.001529773431
0.01884253311 0.008284244537 -0.01898383904 0.8812697398 0.4725681374 0.006557524159
0.0157759409 0.01319574833 -0.02118289757 0.7722165725 0.6353453007 -0.004232486137
0.01176521015 0.03496139717 -0.07747230148 0.5447053216 0.01290298154 -0.8385282498
0.001469110429 -0.01700450468 -0.0310662756 -0.08959577084 0.9946609507 -0.05120733431
0.002997300386 0.04592241669 -0.04377007675 0.1779154405 -0.01502344181 0.9839310912
0.0128988781 0.0160585289 -0.02246304703 -0.6024974993 -0.7980180306 0.01280570652
0.003669530988 -0.01668352795 -0.03118848801 0.188176445 -0.9820716845 0.01117282728
0.01150029564 0.01703108978 -0.02289747238 0.5583457579 0.8289865962 -0.0321128937
-0.01417041159 0.06060000229 -0.07081661224 0.02444108102 0.9989177733 -0.03957165406
0.005715534329 0.06060000229 -0.04308880234 -0.02926874354 0.9630543518 -0.2677118903
0.001143445268 0.06046706009 -0.04302692127 0.1023262067 0.6716732191 -0.7337468461
-0.01248782539 0.03071108913 -0.04899854279 0.732611143 0.00600700932 -0.6806209143
-0.0005719079673 0.06041377068 -0.04300314331 -0.06828602077 -0.5316155649 0.844228589
0.01020732975 0.04399179077 -0.04689388275 0.5943235977 0.002504460789 0.8042221017
0.00365043807 -0.01668861008 -0.03511231995 0.2359482438 -0.971761018 -0.002991673463
0.001429033786 -0.0158309083 -0.04926655388 0.05254598802 -0.9685522961 -0.243198209
0.001461463183 -0.01700742531 -0.03499470711 -0.08807905259 0.9961098361 -0.002697213574
0.003156718493 0.02956762505 -0.04380223083 0.1880998929 -0.002874991157 0.9821456942
-0.008584084511 0.06060000229 -0.04246571732 -0.01342296521 0.9845658306 0.174499138
-0.01150029564 0.01703108978 -0.02289747238 -0.5541214135 0.8314994316 -0.03947346344
-0.01577648067 0.01318592358 -0.02117848396 0.7721282781 -0.6354554918 0.003773605249
0.001412752241 -0.01417896175 -0.05430586433 -0.09027486292 0.9204800678 0.3802195338
-0.01724917889 0.01123320818 -0.02106134987 0.8464315406 -0.5324049144 0.009932487389
-0.01259693289 0.05721292877 -0.04913362503 -0.6572420383 -0.089884443 0.7483005345
-0.01884253311 0.008284244537 -0.01898383904 0.8812697398 -0.4725681374 -0.006557524159
0.01877020454 0.008469255447 -0.02135625172 0.8754526229 0.4832295265 0.008481140746
0.01429050446 0.01480937862 -0.02339874268 0.6793296777 0.7335283204 -0.02115164505
0.01085219193 0.06060000229 -0.043723526 -0.06791426578 -0.9593484977 -0.2739308534
0.007577721596 0.05560995483 -0.04150217819 0.7884630244 -0.08764381554 -0.6088058975
-0.007577696323 0.05561077499 -0.04150254059 0.6677585072 0.09673015518 0.7380662932
0.0130425148 0.05983529663 -0.04960989761 0.6296954451 -0.5548811552 0.5436823981
-0.006941803455 0.02915280533 -0.04500776672 -0.4009148392 -0.01360477165 0.9160143022
-0.008708563805 0.05660807037 -0.04194707489 0.7559086848 -0.5903110335 0.2830811615
0.02044578743 0.02884898186 -0.05837941742 0 0 1
-0.008615830898 0.06060000229 -0.07710827637 0.113497955 0.9929333289 0.03466436984
-0.01076712036 -0.01322693443 -0.04100776672 -0.6357522795 -0.7705107292 -0.04617634991
-0.00981643486 0.05794552612 -0.04254285431 -0.2153184613 -0.5865947552 -0.7807333434
-0.01429050446 0.01480937862 -0.02339874268 -0.6802473659 0.7326802445 -0.02105185385
-0.01877020454 0.008469255447 -0.02135625172 0.8754526229 -0.4832295265 -0.008481140746
0.01119974232 0.04922725296 -0.04773145676 0.6552012075 0.005549947408 0.7554340314
-0.008688260317 -0.01469295931 -0.03739981079 -0.5147315478 -0.8573164169 0.00774563731
0.01718797684 0.01133255768 -0.02336931038 0.8450890667 0.5346038969 0.004810690531
-0.01051653671 0.03456356812 -0.04711660767 -0.6389096489 -0.001449674304 0.7692804163
-0.01072936678 -0.013105093 -0.04334279442 -0.632678502 -0.7706677812 -0.07608603065
0.01311218643 0.06060000229 -0.04497834778 0.06873369578 0.9778452314 0.1977229945
0.01082902336 0.06060000229 -0.0449726181 -0.1112385619 0.9928794488 -0.04261903928
0.007649607182 0.05276398087 -0.04152811432 -0.3471168084 -0.5736911084 0.7418816842
0.007755663395 0.04665774918 -0.04538118362 0.4379473436 -0.002647370049 0.8989967273
0.005365141869 0.04735652542 -0.04437234497 0.3516814972 0.006964994487 0.9360938059
0.006280199528 0.060100914 -0.04474547195 -0.357124157 0.8432930317 -0.401645614
-0.01731336594 0.06060000229 -0.05724952316 -0.654335996 -0.739849424 -0.1564200568
0.00515850544 0.05914493942 -0.04432466888 -0.3411432076 0.7417185646 -0.5774728417
0.00273330307 0.05436276627 -0.0810034256 -0.1228855413 -0.0006537496592 0.9924206348
0.00402288723 0.05848982239 -0.04403614044 0.3829511735 -0.5110471655 0.7695318014
0.007257181883 -0.0154500041 -0.03712450409 0.4035163154 -0.9149368746 -0.008068380179
0.01061897278 -0.01214639091 -0.04896583939 0.6249578605 -0.7523116797 -0.2084581712
0.01758184052 0.04914655304 -0.07129354858 0.8588020719 0.006549223407 -0.5122656626
-0.002938080311 0.05199783325 -0.04375813293 -0.1983046676 0.001322846478 0.9801395354
-0.002305814564 0.05771068001 -0.0436931839 -0.1955072359 -0.2799322039 0.9399015278
0.002881212711 0.05783193588 -0.04374666214 0.2219801596 -0.3781636735 0.8987307966
0.01301022625 0.06060000229 -0.07369878006 -0.05111847809 0.9974325157 0.05015254525
0.01212591553 -0.01187552452 -0.04300906754 0.6934896152 -0.717087907 -0.06969280594
-0.0005773165226 0.05737168121 -0.04354389191 -0.05925350249 -0.190191448 0.9799572621
-0.00402288723 0.05848982239 -0.04403614044 -0.4151812517 -0.4276648869 0.8029491097
-0.002398990393 0.04575685883 -0.04370047379 -0.1395765901 0.0004230303281 0.9902111879
-0.009907524109 0.05517682648 -0.04259090424 0.966746937 0.2381807585 0.09311437082
0.00657884407 0.02850913429 -0.08010778809 -0.2993657198 -0.00521114323 0.9541242109
0.003439092278 0.0409244957 -0.08087620544 0.1649063431 0.01697308531 -0.9861631774
0.01684002876 0.02689804459 -0.05768470001 0 0 1
0.01183129787 0.01742370033 -0.07728934479 0.5401611737 0.005227613032 -0.8415453514
-0.01082902336 0.06060000229 -0.0449726181 0.1054405968 0.9939918128 -0.0293693152
-0.01208573055 0.0582931633 -0.04396333694 0.7706298463 0.6268485703 -0.1148499456
0.005485060056 -0.01537270673 -0.0473930397 0.3322783179 -0.9223080386 -0.197329677
-0.004972398281 -0.01458948708 -0.05117838669 -0.2823531523 -0.9104297518 -0.3023150085
0.003485775471 0.05527697754 -0.04389712143 0.2164277298 -0.001123770446 0.9762979949
-0.01311218643 0.06060000229 -0.04497834778 -0.1216187441 0.9636242334 0.2379857513
-0.004184968472 0.04661288834 -0.04405990982 -0.2513194826 -0.01028478359 0.9678495445
0.01869994545 0.008627938271 -0.02370289421 0.8746229771 0.4847986594 0.002215332902
0.01363961649 0.06060000229 -0.04684501457 -0.1224982895 0.9824715577 -0.1405126593
0.009667414665 0.06060000229 -0.04621427917 0.3589120639 -0.7394829293 0.5695148178
-0.01526380825 0.03594682693 -0.05294865799 0.9077844127 0.002509211707 -0.4194295697
0.01334235477 -0.009250588417 -0.04917201805 0.7673794234 -0.6141959259 -0.1840983032
0.008560223579 0.05973031998 -0.04583488083 -0.3135664759 0.7737602566 -0.5504281338
0.005774597168 0.05678115654 -0.04455167198 -0.1806413929 -0.007125318486 0.9835232163
0.001165227473 0.05456951904 -0.04358918571 0.0515482868 -0.002258344664 0.9986679498
-0.01709667969 0.06060000229 -0.06440281677 1.812746055e-13 1 1.942680907e-13
-0.0005830045938 0.05445828247 -0.04354080582 -0.07808911456 0.001443737667 0.9969453374
-0.0007094405293 -0.01486262226 -0.0525937767 -0.05095460417 -0.9430569886 -0.3287052547
-0.002328406096 0.05481241989 -0.04369495201 -0.1353971888 0.006519231331 0.9907699536
-0.005208767891 0.05627904129 -0.04433322906 -0.1799066082 0.09740075041 0.9788496852
-0.006340491295 0.05728078842 -0.04476903915 -0.1604551429 -0.3328623156 -0.929223776
0.0101082592 0.04701179123 -0.04682410812 0.6092844075 -0.00110953008 0.7929509945
-0.007458967686 0.05841078568 -0.04526073456 0.5268174406 0.2040714198 -0.8251171068
-0.008286699772 0.04895591736 -0.045690979 -0.4903212964 -0.002916798606 0.8715368716
-0.01022965384 0.06050072479 -0.04679288864 0.3625968799 0.8072914603 -0.4656221652
-0.01111134911 0.05383388138 -0.04328373337 0.5657178655 -0.6999088973 0.4359940734
-0.01458319092 0.06060000229 -0.04705495707 0.5508971017 -0.7628421439 -0.3385029495
-0.01589314842 0.03684920502 -0.0736849823 0.7600890083 0.005168255687 0.6497984215
0.001604918122 0.06060000229 -0.08049393463 0.04140305951 0.6372645188 -0.7695321434
0.01787361145 0.06060000229 -0.05725345039 0.2732004247 -0.832179097 -0.4825344324
0.02041373825 0.01055193424 -0.05499588013 0 0 1
-0.01869994545 0.008627938271 -0.02370289421 0.8746229771 -0.4847986594 -0.002215332902
0.008641249657 0.05693905258 -0.04588295746 0.8447340702 -0.04369107036 0.5333998885
0.00715384841 -0.01486800146 -0.04654933167 0.3944440408 -0.9016029918 -0.177555467
-0.005260043621 0.05335534286 -0.04434196472 -0.1922651137 0.05412678463 0.9798491809
0.007530844212 0.0555628891 -0.04529119873 0.8260720154 -0.2305548531 0.5142465218
0.005260043621 0.05335534286 -0.04434196472 0.2661225494 0.1352128187 0.9544088654
0.003520183086 0.05233475494 -0.04390295792 0.2239176249 0.01172678108 0.974537521
0.01285314465 0.03688699722 -0.04934702301 0.7297069669 -0.003050936101 0.6837531969
0.00117681995 0.05159914589 -0.04358651733 0.06583632634 -0.001383424724 0.9978294765
-0.003050302982 0.02188926506 -0.08097194672 0.159507031 -0.0005459025048 0.9871966415
-0.0005888085961 0.05148546982 -0.04353765488 -0.06466147755 0.004294127277 0.9978980177
-0.001764831305 0.05171282196 -0.04363537979 -0.1367115475 -0.0001528345183 0.990610887
-0.01154324627 0.05467452621 -0.07765888214 0.9246491795 0.2317641372 0.3021742538
-0.006966466427 0.05498204041 -0.04504140472 -0.1432779835 0.06939515665 -0.9872465405
-0.009727573395 0.05859667969 -0.04659557343 -0.5272081726 -0.4009536919 0.7491913505
0.006464506626 0.05147834396 -0.0448208847 -0.40817378 0.1709241418 -0.8967603376
0.01603402996 0.06060000229 -0.04953139369 -0.4012732168 0.8744898722 -0.2724835204
-0.01101649189 0.03904725266 -0.07797106171 0.5438113891 -0.0009142952948 0.8392069692
0.005588767529 0.03459117508 -0.04443939972 -0.3382934057 -0.008589838404 -0.9410014805
0.01377526792 0.06060000229 -0.04911176427 0.5105129116 -0.6307419645 0.5844152131
0.004407437325 0.03030960655 -0.04409518814 0.2415094745 0.01248720406 0.9703181146
0.00659368515 0.04543486786 -0.04487374496 0.3629662845 0.0003834870314 0.9318021943
0.01192691994 0.05993983078 -0.04841556549 0.5330154365 -0.6653072589 0.5227435276
0.01089097023 0.0576870079 -0.04745881653 0.7490073187 -0.1197822873 0.6516442589
-0.01553428078 0.03014073563 -0.05348312759 0.9253678813 -0.000701171164 -0.379069641
0.003059031248 0.0395894165 -0.04378252792 0.1814421767 -0.01486914114 0.9832891971
0.009819950104 0.05578550339 -0.04665102768 0.5830224457 0.01012604039 0.8123929413
-0.00916267395 0.03897647095 -0.04619233322 -0.5540524475 0.001200054271 0.8324808979
0.007103792429 0.04908779526 -0.04509919739 0.4008895228 0.001942383214 0.9161243462
0.005312059402 0.05038639069 -0.04435698318 0.3560580398 0.002895831745 0.9344593551
-0.01487417793 0.01792446899 -0.05187655258 0.9154900079 -0.04050170675 -0.4002969613
-0.00434047544 -0.01644809246 -0.0414125042 -0.2269799675 -0.9726640582 -0.04903798863
0.001188651025 0.04856772804 -0.04358389282 0.06363626263 -0.0019646033 0.9979712252
-0.004143203259 0.04967334366 -0.04405378342 -0.2217088079 -0.007606006493 0.9750832545
0.001200719416 0.04547710037 -0.04358292961 0.06436129247 0.002394127674 0.9979237908
-0.01089073658 0.05769220352 -0.04746101761 0.7444215243 0.2788884915 -0.6066776767
-0.01437322712 0.05498834229 -0.05134102631 0.8273313951 -0.007555887392 -0.5616633077
0.01073190403 0.02798721123 -0.04729068375 0.643589805 -0.008470948389 0.7653237262
-0.01247774649 0.06027050018 -0.0485573616 0.5762987426 0.6930391906 -0.4331009577
-0.0130425148 0.05983529663 -0.04960989761 0.6711343681 0.6143367049 -0.4149326126
0.01203645897 0.05722003937 -0.04851267242 0.5998362416 -0.04997003303 0.79856088
0.01360962963 0.06060000229 -0.07139225769 0.04130191304 0.9991186797 -0.00748437064
0.01237724876 0.04875535965 -0.04882088852 0.7273017218 0.004271690223 0.6863045666
0.009914151192 0.05291882706 -0.04670758057 0.6724481716 -0.04294958559 0.7388970088
0.00880812645 0.05119031143 -0.04598196793 0.5033718565 -0.01453294563 0.8639476648
0.01449425793 0.05240280533 -0.05155506516 0.8329353493 -0.001383946703 0.553368583
0.004184968472 0.04661288834 -0.04405990982 0.2584548467 0.006477646683 0.9660016213
-0.005365141869 0.04735652542 -0.04437234497 -0.3104782863 0.006515620272 0.9505581415
-0.01183129883 0.0174236927 -0.07728934479 -0.540161138 0.005227873802 -0.8415453727
0.001251630962 0.03243948936 -0.04357886696 -0.06103413223 0.007662568906 -0.9981062668
-0.006528681755 0.04847799301 -0.04484311676 -0.37771745 0.008970903333 0.9258774492
0.01749732399 0.06060000229 -0.05117667389 0.2105136684 -0.9639409563 0.1627938208
0.01315770626 0.0571997757 -0.04975205231 0.7261687946 -0.02535027516 0.6870489396
0.01414651394 0.04751702881 -0.07556912994 0.7049501675 -0.161792103 -0.690556715
0.008246048927 0.02720957947 -0.04562519073 0.4808499695 -0.01563797821 0.8766634248
-0.004536559979 -0.01569388612 -0.04728676478 -0.2676094034 -0.942750796 -0.199012924
0.01214809513 0.05444817734 -0.04861163712 0.7114871529 0.001625468009 0.7026972243
0.01198243523 -0.01075903893 -0.04942264938 0.6797602645 -0.7013445626 -0.214573501
0.01001023388 0.04999486923 -0.0467652626 0.5829776583 0.003671908361 0.8124798871
0.01249497604 0.04582957458 -0.04893060684 0.710740516 -0.00111702912 0.7034533895
0.008894080162 0.04822927094 -0.04603296661 0.510073894 -0.01164321319 0.8600517765
0.005419328213 0.04426364517 -0.04438802719 0.321903067 0.008275242182 0.9467364659
-0.0006069126129 0.04220889282 -0.04353534698 0.0675570309 -0.003496683628 -0.9977092867
-0.005962842464 0.05895864105 -0.0765944519 0.09027984205 0.9534866261 0.287598338
-0.004227610111 0.04348823547 -0.04406616211 -0.2278269856 -0.002750307336 0.9736977459
0.0006467619538 0.02178623009 -0.04353767014 0.01690908047 -0.01599612925 0.9997290667
0.01594307899 0.06060000229 -0.05279799779 -0.477488499 0.8665190039 -0.1454288455
-0.005419328213 0.04426364517 -0.04438802719 -0.3141033083 -0.004654492362 0.9493773999
-0.01654126167 0.05494345856 -0.05628060913 0.9403283255 0.005544065204 -0.3402233142
-0.01001023388 0.04999486923 -0.0467652626 0.5897740461 -0.005445868508 -0.8075499471
-0.006660668373 0.04230419922 -0.04489507294 -0.3849224733 0.009881016025 0.9228960153
-0.01271128464 0.05448743629 -0.04925653076 0.7354668665 0.005729111452 -0.6775364681
-0.01693141556 0.06060000229 -0.05117379379 0.1955942872 0.959487169 -0.2027985386
0.01425049686 0.05759370804 -0.05115694809 0.8064821228 -0.210246168 0.5526148156
0.01327502441 0.05451557922 -0.04989683151 0.754474988 -0.004169943768 0.6563155522
-0.00244854629 0.03939882469 -0.04370434761 -0.1410631231 0.005948892598 0.9899827301
-0.004271156788 0.04029722595 -0.04407254791 -0.2564695147 -0.002564485606 0.9665489183
0.01351630116 0.04899525452 -0.05019458389 0.7786224447 0.00274779882 0.6274866837
-0.00845256114 0.04284342575 -0.04577449608 -0.5008287768 -0.002422241078 0.8655429909
-0.008981784821 0.04520795059 -0.04608500671 -0.5309462142 -0.01677264453 0.8472395152
-0.0107069006 0.04666721153 -0.04733039474 -0.6034839686 0.005259326359 0.7973577862
-0.004845196724 0.06060000229 -0.07709020233 0.02620844619 0.9949396405 0.09699602659
0.001445818603 -0.0168957119 -0.0427986145 0.08633154291 -0.9938192835 -0.06978607661
0.0006206170917 0.0164841671 -0.08093859863 -2.383348131e-06 -0.2346516778 -0.9720795184
-0.01119880486 0.04924824524 -0.04774001694 -0.6514227909 0.009435402871 0.7586562599
0.01095668888 0.02112329674 -0.04747236633 0.6541801617 -0.04939691005 0.7547239637
0.003611387491 -0.01658343697 -0.04290653229 0.2211092007 -0.9726764176 -0.07079059345
-0.01282780886 0.05171014023 -0.04938176346 0.7504854928 -0.007066555343 -0.6608491423
-0.01520203781 0.06060000229 -0.05238805771 0.4764032 0.8500558758 -0.2245996416
-0.01687770653 0.06060000229 -0.05300609207 0.2428082053 0.9602489187 -0.1377177899
0.02055437374 0.04490703964 -0.05944307327 0.230965129 -0.6930084526 0.6829307386
0.01955500412 0.06060000229 -0.05726572418 -0.2365458866 -0.902458918 -0.3600193675
0.01526554775 0.05909073639 -0.05299852371 0.7363613175 -0.5829677812 0.3433956555
-0.004530530214 0.04455415154 -0.08065273285 0.2153398181 -0.005078249414 0.9765259721
0.01339453411 0.05178125 -0.05004431534 0.7692140725 0.001158494422 0.6389901161
-0.02044409752 0.02887138939 -0.05838698959 0 0 1
0.009071295738 0.04212437439 -0.04613811493 0.5484195967 -0.01328103878 0.8360978172
-0.01593488693 0.02144259262 -0.05447186279 0.89926248 -0.00317592881 -0.43739788
0.007913458824 0.04040782928 -0.04544352722 0.4455209027 -0.003105760969 0.8952661501
-0.002816535234 0.04583615875 -0.0809957428 -0.1201398825 0.02366058848 -0.9924749796
0.005531162739 0.03788032913 -0.04442039108 0.3354855439 0.002768698611 0.9420412858
-0.009548098564 0.02569863892 -0.04642167664 -0.5128542177 -0.0007754783855 0.8584753636
-0.0166242733 0.03151884651 -0.056623806 0.943562626 0.01325518653 -0.3309288003
-0.01692155457 0.05956838608 -0.07224729156 0.7698388412 -0.4743960681 0.4269619762
0.003703266144 0.03667921257 -0.04393401337 -0.1898009995 0.003634930624 -0.9818158523
0.01389586067 0.04031108475 -0.05066298676 0.8004662059 0.001504249042 0.5993760008
-0.0006196196675 0.03569656754 -0.04353608704 -0.07014329646 0.007428107493 0.9975092687
-0.001857359052 0.03591300583 -0.04362374115 -0.1035134364 -0.002954378518 0.9946236676
0.0156019249 0.04220519257 -0.07401525879 0.7050506924 -0.1594080415 -0.6910083917
-0.006728750706 0.03911957932 -0.04492187119 -0.38840454 -0.00151153681 0.9214877257
-0.007913458824 0.04040782928 -0.04544352722 -0.461176255 0.001732052272 0.8873068589
-0.008528505325 0.04406186676 -0.07933831024 0.4235459599 0.004427268446 0.9058637973
-0.01020732975 0.04399179077 -0.04689388275 -0.609607177 0.0131474911 0.792594621
0.01526380825 0.03594682693 -0.05294865799 0.9077844127 -0.002509211707 0.4194295697
-0.01066777134 0.04834931183 -0.07816759491 0.6817898588 -0.1726267025 0.7108886059
-0.0123768425 0.04876361084 -0.04882421112 0.7371592563 -0.008408369016 -0.6756667301
0.005115115643 -0.01629444885 -0.03369327545 0.2612963723 -0.9652571738 -0.00167160251
0.01736823368 0.06060000229 -0.0554382515 -0.5120537118 0.8458920556 -0.1492234117
0.01324861622 0.04188113022 -0.0763415451 0.6426400426 0.008155833667 -0.7661248319
0.01141586399 0.04330591965 -0.04792228699 0.6670913303 0.004246443897 0.7449638412
0.001197553337 0.02767333126 -0.0811417923 1.422195363e-05 -0.2415015544 -0.9704004323
-0.002154090762 0.05855253983 -0.08104128647 0.07596263711 -0.373551222 0.9244940034
0.007994117737 0.03720802689 -0.0454855957 0.4647930156 -0.009788603524 0.8853652556
-0.01580183125 0.02434396172 -0.05411865997 -0.4942482594 -0.03451993256 0.8686351549
0.01152720737 0.04025534058 -0.04802059937 0.6737856549 0.003942535289 0.7389163333
-0.0006261817217 0.03233353043 -0.04353647232 0.02915081736 0.002497818695 -0.9995719037
0.009329620361 -0.01416863871 -0.04297429085 0.5662368081 -0.821214458 -0.07058818
-0.002500263095 0.03276325417 -0.04370839119 -0.1254897136 -0.01854040807 0.9919216628
0.01612679863 0.04172234344 -0.0550794487 0.9211577913 -0.003954851143 0.3891692212
-0.006193512917 0.03522961044 -0.04469455719 -0.365982675 -0.002524148151 0.9306182409
-0.007994117737 0.03720802689 -0.0454855957 -0.4364200384 0.0004511196163 0.8997429336
-0.01091690016 0.04060344887 -0.04750104523 -0.616846758 0.004656099541 0.7870695
-0.01141441154 0.04333858871 -0.04793527985 -0.6571331325 -0.003092906674 0.7537681872
-0.0007309407592 -0.01706976891 -0.03497169876 -0.08040180248 -0.9967561104 -0.003578629827
-0.01249489212 0.0458312912 -0.04893128586 0.7270753411 0.0006949391129 -0.6865573286
0.01054007435 -0.01111502647 -0.05229224396 -0.6191071921 0.7308189638 0.2874194266
-0.01351630116 0.04899525452 -0.05019458389 0.7718663816 -0.008392941047 -0.6357293822
-0.01720127678 0.04677153015 -0.04932886505 0 0 1
-0.01849229145 0.06060000229 -0.05544560051 0.6362331448 0.769920991 -0.04928542379
-0.01963772964 0.06060000229 -0.05484792328 0.284484026 -0.9586807387 -0.0002832581392
0.01979968834 0.05811523056 -0.05508387375 0.7100518798 -0.6800379968 -0.1826873038
0.0144452343 0.04431335449 -0.06974183655 -0.460769952 -0.8783480553 0.1272625049
0.01630253983 0.05949530792 -0.05560276031 -0.7384672267 0.4949261816 -0.4579456627
0.01551992798 0.05403995895 -0.05345480347 0.9219787545 -0.0005329134295 0.3872400964
-0.0144452343 0.04431335449 -0.06974183655 0.460769952 -0.8783480553 0.1272625049
0.01461713219 0.04977659988 -0.05177495575 0.8411856377 -0.01080266661 0.5406385348
0.01364039612 0.04615600967 -0.05034772491 0.5860733731 -0.1032809143 0.8036485887
0.01261318684 0.04288344574 -0.04905746841 0.7166270572 -0.001875559345 0.6974540438
0.009255982399 0.03576208878 -0.04624769592 0.5750855045 -0.005026296737 0.8180778685
0.009430231094 -0.01426134205 -0.03522950745 -0.5622386495 0.8266602793 -0.02281410966
0.006941544056 0.02916293526 -0.04501169205 0.3744618533 -0.0002357202898 0.9272422903
0.0068688941 0.03256079102 -0.04498391342 0.3850853873 0.004177314101 0.9228714941
-0.002526979208 0.02933532429 -0.04371047783 -0.1458111009 0.006602971027 0.9892904142
0.0148071022 -0.008227581978 -0.04427693176 0.8626953365 -0.4996874196 -0.07790532194
-0.004407437325 0.03030960655 -0.04409518814 -0.2792657329 0.007729815078 0.9601827432
-0.006869253159 0.03254681778 -0.04497842407 -0.3946886091 0.002263234909 0.9188121569
-0.008076499939 0.03393986511 -0.04552856064 -0.4403502549 0.0041030933 0.8978166949
-0.01041140461 0.03776964188 -0.04704006195 -0.6200783574 0.01965494826 0.78429364
-0.01261318684 0.04288344574 -0.04905746841 0.7141763905 0.008253822033 -0.6999171077
-0.004279563427 -0.0152683692 -0.04945000648 -0.2433134755 -0.9384059491 -0.2453422656
-0.01419130087 0.04662969398 -0.05117325401 0.8104568631 -0.004302801129 -0.5857825185
-0.01551992798 0.05403995895 -0.05345480347 0.9219787545 0.0005329134295 -0.3872400964
0.01941158867 0.06060000229 -0.06145734406 0.08512899883 0.996204383 -0.01816262301
0.008396690369 0.04853730774 -0.07939105988 -0.386661973 -0.002223570323 0.9222188321
0.009351285934 0.03247896957 -0.04630424118 0.5615755603 0.004539040775 0.8274130089
0.01642014503 0.05724927139 -0.05594388962 0.7182589056 -0.07706919781 0.6914943841
-0.007197517872 0.05331670761 -0.076056427 0.9927729195 -0.07355859145 -0.09482122112
0.01564755154 0.05149433517 -0.05370695877 0.9313720384 -0.002969218885 0.3640567399
0.01273198605 0.03991470337 -0.04920082092 0.7228322614 -0.002400671088 0.691019362
-0.01486954308 0.04438175964 -0.05222666168 -0.6307016253 0.3701136679 0.6820786851
0.0116408329 0.0371422081 -0.04812092972 0.6810120859 0.004170827267 0.7322602974
0.01051653671 0.03456356812 -0.04711660767 0.6213770945 0.007082041424 0.7834796431
0.008160538673 0.03060513878 -0.04557405853 0.4698356851 0.01015591715 0.8826954664
0.005769071102 0.02429395294 -0.04450315475 0.3343640854 0.004507969152 0.9424332001
0.01746663666 0.06060000229 -0.07026727295 0.1715903616 0.9800247407 -0.1005398198
0.005707641602 0.02780220222 -0.04448143387 0.3373747925 0.003701043446 0.9413631349
0.004454647064 0.02684683418 -0.04410884857 0.244550076 0.003650193216 0.9696297935
0.003190734386 0.02607792282 -0.04380909348 0.1596518316 -0.004976501889 0.9871608416
-0.006392517805 0.02498870468 -0.04477045631 -0.3795909908 0.009632161235 0.925104265
0.02003106308 0.0365590477 -0.05581780243 0 0 1
0.01340882111 -0.009824289322 -0.04673598862 0.7734166094 -0.6172938681 -0.1441354529
0.001278800637 0.02548206806 -0.0435766964 0.09012378926 0.007794731939 0.9959000677
0.01585791874 0.06060000229 -0.06908648682 0.1256006691 0.9800873056 -0.1537964415
-0.00063974756 0.02538106728 -0.04353726196 -0.005106966508 0.007181748506 0.9999611699
-0.001917853713 0.02558306885 -0.04361613083 -0.1026627599 -0.009173508432 0.9946739187
-0.02054804134 0.04498568153 -0.0594708519 -0.2263148532 -0.7167796879 0.6595517161
-0.005707641602 0.02780220222 -0.04448143387 -0.3255320053 0.001323438102 0.9455300958
0.01065414429 -0.01253065491 -0.04733200836 0.6379054687 -0.74991763 -0.175214615
-0.008160538673 0.03060513878 -0.04557405853 -0.4719022792 -0.002275636767 0.8816479231
-0.009351285934 0.03247896957 -0.04630424118 -0.5531865048 0.009451805175 0.8330038141
0.00719350028 -0.0152990489 -0.04334963989 0.4071560137 -0.9102731104 -0.07501229929
-0.01376689148 0.04326185989 -0.05050382996 0.792969685 -0.006337905914 -0.6092281261
-0.01564755154 0.05149433517 -0.05370695877 0.9313771569 0.003431111005 -0.3640395846
-0.01641989517 0.05725294876 -0.05594531631 0.6941588306 0.1093045254 -0.7114745523
-0.01899443054 0.06060000229 -0.0572615509 -0.1280416304 0.96853841 0.2133979596
0.01951385307 0.06060000229 -0.05846845627 0.05123637479 0.9986436682 -0.009255149338
0.01799738884 0.06060000229 -0.05925581996 0.0543184593 0.9985001595 -0.006851021738
-0.001826777458 0.02240060234 -0.08109647369 5.112210027e-05 -0.2374866958 -0.9713907899
-0.00836848259 0.05144538879 -0.07550160217 0.2723122879 -0.4935188086 0.826005571
0.01854520226 0.04302638245 -0.05173127747 0.1655377977 0.08997372758 -0.9820906098
0.01654126167 0.05494345856 -0.05628060913 0.9402978087 -0.005685415282 0.3403053143
0.01207738495 -0.01159827328 -0.04537918091 0.6826401369 -0.7205140288 -0.1219097117
-0.005185345173 0.03952492142 -0.08050855255 0.2550987566 0.011572305 0.966845751
0.01486954308 0.04438175964 -0.05222666168 0.7127805416 0.290133124 0.6385661046
0.01175625801 0.03397710419 -0.04822817993 0.6885968756 0.004393644873 0.7251310494
-0.01695110703 0.01758568954 -0.07209767151 0 0 1
0.01062308311 0.03131012917 -0.04720272446 0.6369068587 -0.008807564405 0.7708904463
-0.01467177486 -0.007322996616 -0.04906800461 0.866255277 0.4749326379 0.1550509092
0.009448653221 0.02912475967 -0.04636201477 0.5737812718 -0.001434030843 0.8190073233
0.001418487698 -0.01480264807 -0.05261285782 0.08662682736 -0.9401759906 -0.3294918807
0.007015808582 0.02568955421 -0.04504009247 0.404797948 -0.009017545081 0.9143616928
0.004502919197 0.0233061409 -0.04412281799 0.2693111079 0.001525607954 0.9630520233
-0.004502919197 0.0233061409 -0.04412281799 0.2663160376 0.005657560463 -0.9638691613
-0.008246048927 0.02720957947 -0.04562519073 -0.4811296532 0.001197593714 0.8766486312
-0.01062308311 0.03131012917 -0.04720272446 -0.6221453903 -0.003465683915 0.7828940556
-0.0007147086263 -0.01588918114 -0.04924746323 -0.05920465038 -0.9646387679 -0.2568401388
-0.01175459576 0.03401473618 -0.0482425766 -0.6883173223 0.001011049323 0.7254090167
-0.01285314465 0.03688699722 -0.04934702301 0.7283222395 0.001702086569 -0.6852326746
-0.01389586067 0.04031108475 -0.05066298676 0.8210258424 -0.001792673282 -0.5708882136
-0.01854405403 0.04304228973 -0.05173736191 -0.1635949155 0.08991056338 -0.9824219024
0.01588432789 0.04667076492 -0.05437632751 0.904640504 -0.01084541145 0.4260374814
0.001423962384 -0.01536258173 -0.05092985344 0.08643359665 -0.9561419273 -0.2798604084
-0.01050196552 0.05277215195 -0.07826104736 -0.4899661877 -0.2737313942 -0.8276498406
-0.01625379181 0.03914274597 -0.05542346954 0.9250524644 0.003813756082 -0.3798202119
0.01402632427 0.03732173157 -0.05083278656 0.8073195343 0.001013548329 0.5901136689
0.01297673893 0.03379843521 -0.04949616241 0.742498933 0.001016956986 0.6698464751
0.005061356544 -0.01625281143 -0.04148084259 0.2718877569 -0.9611795902 -0.04701960263
0.0118740778 0.03074625015 -0.04833784103 0.6958113417 0.004899656509 0.7182078878
-0.01824123192 0.06060000229 -0.06322970963 -1.760947101e-13 1 -4.820475369e-15
0.009548098564 0.02569863892 -0.04642167664 0.5746578434 -0.007786631561 0.8183567262
0.007712596416 0.02293852997 -0.04537328911 0.4289842883 0.006101157708 0.9032913463
-0.0007347750664 -0.01706960964 -0.03104149055 -0.06869631419 -0.9971532681 0.03108337557
-0.002203445792 -0.01693939972 -0.03109106064 0.1095716761 0.9934700329 -0.03180159574
-0.01456036663 0.02502625656 -0.05164546585 0.8390406744 -0.007714346149 -0.5440140032
-0.004400331676 -0.01648652411 -0.03126347113 0.2235463173 0.9743827407 -0.02460322494
-0.01682794189 0.0491210289 -0.05780696869 0.9620797855 0.02986632264 -0.2711281784
-0.009449356079 0.05084215546 -0.07887078857 -0.5471117651 0.2202134863 -0.8075733632
-0.00583189106 0.02070625114 -0.04452536774 0.3116744169 0.04599908721 -0.9490748874
-0.00709179306 0.02213609886 -0.04506842804 -0.4198166072 0.003850146954 0.9076007893
-0.008333447456 0.02373909378 -0.04567744827 -0.5036582533 0.004844727314 0.8638893983
-0.004280125976 0.06060000229 -0.08050006104 -0.08212118465 0.6898206306 -0.7193077287
0.01467177486 -0.007322996616 -0.04906800461 0.8662552697 -0.4749326592 -0.1550508852
-0.01073190403 0.02798721123 -0.04729068375 -0.6360665254 0.002944587468 0.7716286054
-0.01297673893 0.03379843521 -0.04949616241 0.7412031556 0.003348049549 -0.6712724281
-0.01402632427 0.03732173157 -0.05083278656 0.8066917959 -0.001248105469 -0.5909710557
-0.01588332748 0.04668671417 -0.05438234711 0.8913823251 0.00572633526 -0.4532160186
0.01609555626 0.01804713249 -0.05468228912 0.9164354076 0.01859100445 0.3997505701
-0.0166438694 0.05290446091 -0.05673703384 0.6305309629 0.3046621547 -0.7138709101
0.01211728668 0.02407699966 -0.0485642128 0.6859459673 0.001330455604 0.7276512625
-0.01724066353 0.06060000229 -0.05964959335 5.058018832e-13 1 2.110123904e-13
-0.02015851784 0.05217022324 -0.05648635483 -0.1255532109 0.2756195219 -0.9530321455
0.0205510149 0.06029872131 -0.06135532188 0.08351722658 0.9962257545 -0.02364569668
0.01774258566 0.06060000229 -0.06144326591 0.08512899883 0.996204383 -0.01816262301
0.01600458908 0.04421645737 -0.05472505951 0.9138242371 -0.007834318629 0.4060343423
0.006368317127 0.03827855682 -0.08018130493 0.2817587965 0.003916950726 -0.9594772734
-0.007015636921 0.05855408096 -0.07991759491 0.3560430529 -0.359817776 0.8624178295
0.01513128281 0.03878755188 -0.05269505692 0.8961493816 0.01202308442 0.4435895978
0.0131028471 0.03064703941 -0.0496483345 0.7479454126 -0.001588577083 0.6637583417
0.002693840981 0.05840842819 -0.08100102997 -0.08494073881 -0.2592460685 0.9620688888
0.0119943924 0.02744699097 -0.04844982529 0.7035806515 0.005770695845 0.7105919828
0.01189083862 -0.009665559769 -0.0527555809 -0.680499175 0.6831159424 0.26509146
0.00964871788 0.02222621155 -0.04649374771 0.5966546201 -0.01448758562 0.8023673561
0.008422688484 0.02019466782 -0.04573223114 -0.4992158112 0.03095592755 -0.8659245374
-0.009293499947 -0.0139305315 -0.04534506226 -0.507122449 -0.8527896334 -0.1248065016
0.007294777513 -0.01543133998 -0.03323290157 -0.3898667091 0.9208407209 -0.00750439167
-0.006573034048 -0.01577834988 -0.03310259438 -0.3803570886 -0.9247427245 0.01339323278
-0.008016520977 -0.01508433008 -0.03336320877 0.4637602633 0.8856486853 -0.02351221921
-0.009131808281 -0.01168506527 -0.05359873962 0.5447349569 0.7723717223 0.3266584599
-0.008422455788 0.0202023983 -0.04573511124 0.4990746293 0.03994610787 -0.8656378127
-0.01084307861 0.02459243011 -0.04738054276 0.6417908448 -0.002972929238 -0.7668739618
-0.01692164803 0.04719496536 -0.05835164642 -0.03211169895 0.3151501224 -0.9484984128
-0.01261253834 0.02744874001 -0.04913041115 0.7513755166 0.008543687059 -0.6598195499
-0.006268293858 0.04292007828 -0.0802162323 0.3348730468 0.01360521811 0.9421650283
-0.0007247604728 -0.01702242661 -0.0412114296 -0.0592338972 -0.9971464495 -0.04680068078
0.01931303215 0.04173041153 -0.06773770142 0 0 1
-0.01415730762 0.0343118782 -0.05102046204 0.8123394888 0.005639434151 -0.5831575703
-0.01795650673 0.04326866531 -0.07068080139 0.8640695531 -0.388888041 0.3196089783
-0.01718646622 0.06060000229 -0.06143876266 9.069565906e-14 1 2.959888939e-13
-0.01227405739 0.05074523163 -0.07709729385 -0.5903144047 0.01914604307 -0.806946301
-0.01885514688 0.06060000229 -0.06145255661 0 1 0
-0.01340882111 -0.009824290276 -0.04673598862 0.7738239738 0.6188896144 0.134803942
0.01682794189 0.0491210289 -0.05780696869 0.9622596614 -0.02968256027 0.2705093154
0.01323155212 0.02743075371 -0.04980364227 0.7565950862 -0.0006581783185 0.6538833553
-0.01202365303 -0.01118111992 -0.04778291321 -0.6856975451 -0.7080804867 -0.1686443031
0.01085641384 -0.0131969862 -0.03484870529 0.632272927 -0.7746626546 -0.01134536362
-0.000732470572 -0.01706970596 -0.03340366364 -0.06212308188 -0.998039232 0.007642916843
0.005036178589 -0.01599127865 -0.04464403534 0.2793423145 -0.9512418703 -0.1307928725
-0.002196557999 -0.01694281578 -0.03345108032 -0.1014675669 -0.994823724 -0.005485525593
0.006998807748 -0.0155712862 -0.03914742661 0.4018057783 -0.9155497734 -0.01790890907
0.01839850807 0.03640306473 -0.06982060242 0 0 1
-0.004386585593 -0.01649051571 -0.03362004471 0.2486649302 0.9685758729 -0.005150818734
-0.008950622082 -0.01453647741 -0.0353872757 -0.5150557861 -0.8570985168 0.00998347068
0.01472043133 -0.007701802731 -0.04745253372 0.8747075354 -0.4692509523 -0.1212034295
-0.01095668888 0.02112329674 -0.04747236633 0.6529570386 0.03470538482 -0.7565993934
0.005268263817 0.0348134079 -0.08048981476 -0.2781377901 0.005977681044 0.9605225854
-0.01429088593 0.03124237633 -0.05121185684 0.8307772963 0.0009747546067 -0.5566041087
0.005697255611 -0.01476750946 -0.04961326981 0.3500647318 -0.9037954886 -0.2461877299
-0.01612542343 0.04174437714 -0.0550875473 0.9214089194 0.00328207104 -0.3885805339
-0.002159906626 -0.01656374645 -0.04521456146 -0.1235298429 -0.982836535 -0.1370135884
0.02043921089 0.04713203812 -0.05835892105 0.005981562941 0.4382700847 -0.8988234275
0.01692164803 0.04719496536 -0.05835164642 0.02834566612 0.3059282376 -0.9516325113
0.01625379181 0.03914274597 -0.05542346954 0.9248978536 -0.004717286946 0.3801864117
0.015397789 0.03307074738 -0.05321341324 0.9161303953 -0.001721274541 0.4008767092
0.01442458534 0.02815954208 -0.05142457581 0.8277710988 -0.006026005869 0.5610335954
0.01082336521 -0.01322438145 -0.0371608696 -0.6315409229 0.7753339681 0.003647012227
0.005104483604 -0.01629771996 -0.03525646973 0.2855979607 -0.9583490897 0.0009094479619
-0.002191985607 -0.01694508171 -0.03501771545 -0.09552234827 -0.9954266644 -0.001112115335
-0.004377460837 -0.01649316502 -0.03518439484 -0.2332988674 -0.9724040954 0.001383362479
-0.007699442387 0.03171865082 -0.0796907196 0.3652062843 0.003264501806 0.9309208951
-0.01276965714 0.02522480202 -0.0767432785 -0.6101661167 0.06893395463 -0.7892689148
-0.006552606106 -0.01578653812 -0.03544503403 -0.3840686099 -0.923291054 0.004993242589
-0.01286997271 0.02071437645 -0.04940259743 0.7649348964 0.02617940584 -0.6435753592
-0.01442458534 0.02815954208 -0.05142457581 0.8396730576 0.004197151657 -0.5430759985
-0.02043767929 0.04715099716 -0.05836579132 -0.002102365725 0.4546547767 -0.8906652649
0.01763086319 0.06060000229 -0.06499733353 -3.935017951e-13 1 1.081888371e-13
0.01703866386 0.0446462059 -0.05931905174 -0.05906000628 0.3518670663 -0.9341849299
0.0163836689 0.0365076828 -0.05576907349 0.4657250386 -0.07018069821 0.8821421983
0.01553428078 0.03014073563 -0.05348312759 0.9253711339 0.001130667015 0.3790606628
0.01456036663 0.02502625656 -0.05164546585 0.8588764313 0.006606346496 0.5121402464
0.01357436657 -0.01039786434 -0.03895804977 0.7893652355 -0.6138133631 -0.01164819099
0.007750710487 -0.01266603279 -0.05328904343 -0.4412931495 0.8341890362 0.3307400916
0.001456903964 -0.01700891209 -0.03733595085 0.08774195659 -0.9961431118 -0.0004998486148
0.003642844439 -0.01669063187 -0.03667290115 0.2450935097 -0.9694951859 -0.002873322694
0.01254575443 0.05959220886 -0.07221440125 -0.0889271496 0.9921600619 0.08780873274
-0.002185152173 -0.01694796085 -0.0373580246 -0.1133762585 -0.9935518717 -0.0007086971059
-0.004368364692 -0.01649580765 -0.03674382973 -0.2336224719 -0.972279569 -0.009642626245
-0.00653904438 -0.01579197407 -0.03700012589 -0.3886786208 -0.9213211982 -0.009807108776
-0.01219325447 -0.0119765873 -0.03915319633 0.7081129944 0.7058308535 0.01946261319
-0.01703163719 0.04475163269 -0.05935623169 0.1048576388 0.5342394677 -0.8388045462
0.01943668175 0.02726391983 -0.05382660675 -0.02134011361 0.1576100752 -0.9872708158
0.01650924301 0.03393267441 -0.05615777588 0.9348341926 -0.008967546386 0.3549712881
0.01567284107 0.02716422653 -0.05376116562 0.4544674012 -0.03585915153 0.8900412926
0.01469887543 0.02183003044 -0.05187079239 0.8690240677 0.02660080033 0.4940542149
0.01353181171 -0.01039497232 -0.04124655724 0.7754077427 -0.6300077497 -0.04281434236
0.01079036331 -0.01324917412 -0.03946459198 -0.6337319339 0.7733407681 0.01810779839
0.005078051805 -0.0163058548 -0.0391425705 0.2870152308 -0.9577542553 -0.01813956446
-0.008670486927 -0.01470512915 -0.03894253159 -0.512909782 -0.8582178494 -0.01963869837
-0.01079032993 -0.01324818993 -0.03946493912 -0.6269617284 -0.7788118184 -0.01926506221
-0.01253440094 -0.01109677537 -0.04529924647 0.752039845 0.6516348472 0.09903583962
0.01537512366 0.06060000229 -0.07333571116 -0.01735337021 0.998765907 0.04653518643
-0.01307267888 -0.01091589546 -0.0413164355 0.7542928903 0.654218846 0.05513562561
-0.01469887543 0.02183003044 -0.05187079239 0.8485814243 -0.02926613805 -0.5282547298
0.007228913784 0.05018418121 -0.07984683228 -0.3249709867 -0.004106638012 0.9457150698
-0.01567195129 0.0271797142 -0.05376662827 -0.4545598187 -0.03520499847 0.8900202129
-0.01650924301 0.03393267441 -0.05615777588 0.9348341926 0.008967546386 -0.3549712881
0.005106088638 0.04403467941 -0.08051373291 -0.2793484775 0.009599529063 0.9601418005
-0.01816504669 0.06060000229 -0.06559185028 7.728941943e-13 1 3.239742301e-13
