# .PCD v0.7 - Point Cloud Data file format
VERSION 0.7
FIELDS x y z normal_x normal_y normal_z
SIZE 4 4 4 4 4 4
TYPE F F F F F F
COUNT 1 1 1 1 1 1
WIDTH 556
HEIGHT 1
VIEWPOINT 0 0 0 1 0 0 0
POINTS 556
DATA ascii
-0.00299642396 -0.02032368406 -0.0006234809856 0.1677297857 0.9850138163 -0.04018084988
0.003917801142 -0.02017191505 -0.001064873705 0.1743847644 -0.9845537278 0.01561765049
0.02027618408 0.01446600342 -0.06327352524 0.9545226417 -0.06992033559 -0.2898235207
0.01296892948 0.003436907816 -0.07220733643 -0.6350982893 0.3546253784 0.6862149837
0.009004838181 -0.01810315437 -0.04523442993 0.4509450305 -0.8831248629 -0.129379504
0.01477276421 -0.01431690979 -0.0008626886848 0.737227778 -0.6753430821 0.02017237659
-0.005301839113 0.002694752693 -0.0762774353 0.2938520754 0.436630242 0.8502970008
-0.01428701591 -0.01476758893 -0.0008350304527 0.7069202746 0.7060491065 -0.04193309617
0.0165631218 -0.00682587862 -0.05797479248 0.7783470453 -0.522058206 -0.3487565147
-0.0111614337 -0.01725420475 -0.0008257842213 -0.5412640371 -0.8404758437 0.02517137945
0.01694863892 0.006586359262 -0.06900963211 0.794619998 -0.2746137729 -0.5414483674
0.01744693184 0.04915613556 -0.07148558807 0.8539977893 -0.1310709808 -0.5034959522
0.0006863193512 -0.02052166367 -0.005656573534 0.0392276297 -0.9992074821 -0.006752836735
-0.01708649731 -0.01150340986 -0.0271838665 0.820266032 0.5719749913 -0.002871587615
-0.007629086018 -0.01912774277 -0.001031837583 -0.3440325301 -0.9381322517 0.0393636439
-0.007603540659 -0.01914069748 -0.003385678291 -0.3431810015 -0.9392090805 0.01063500441
-0.005157516718 -0.01569462872 -0.05795955276 -0.2456405532 -0.8686933694 -0.4301540986
0.01486310649 -0.0141898253 -0.02979275608 0.7160503129 -0.6980442922 -0.002472972117
0 0.03260652924 -0.08118093109 6.409286084e-06 0.1997294359 -0.9798510868
0.01171636581 0.01667616653 -0.07729098511 -0.5699680149 0.08421425264 0.8173398447
-0.01685128307 -0.01183553314 -0.03615327454 0.8096712362 0.5868622253 0.005021729428
-0.01458835053 -0.01437909102 -0.04216867447 -0.7012822625 -0.7111828983 -0.04921456569
-0.002527272463 -0.02039743423 -0.002747316082 -0.1560264444 -0.9874460169 0.02461934929
0.01814287376 9.041041136e-05 -0.06226197624 0.884308069 -0.3094369679 -0.3496398176
0.01467062044 -0.01441676092 -0.005644797087 0.7284296493 -0.6850570049 -0.009335211175
-0.0167398119 -0.01185698819 -0.01216864514 0.820398642 0.5716397963 -0.01319133912
-0.01698435402 0.03919847107 -0.07216661072 0.7994003602 0.06392684814 0.5973879998
0.0006540004412 -0.003155842145 -0.0735627238 -0.03090788724 0.5837046902 0.8113775552
-0.01107324052 -0.01732106447 -0.006338431597 -0.5133357076 -0.8581877471 -0.0004920197788
0.01000214653 -0.01510536766 -0.05447877197 0.482954323 -0.8092642226 -0.3344346572
0.00950753994 -0.01730081596 -0.04829687805 0.4652117317 -0.8648342178 -0.1887851171
0.0006893624067 -0.02051825523 -0.002551184793 0.03078510303 -0.999523981 -0.00202210018
-0.008968025684 -0.01848978138 -0.006158427954 0.4165707966 0.9091022359 0.001376977654
0.006930341244 -0.01935228157 -0.001151338041 -0.3697473823 0.9288890908 -0.0212586515
-0.01493027282 -0.01411762428 -0.0268119874 -0.6995504606 -0.7144335748 -0.01462259813
0.00980019474 -0.006505377769 -0.06758879852 -0.5007058812 0.6014626715 0.6225241162
-0.0158901577 0.0153885746 -0.07326602173 0.7884500294 0.08000386799 0.6098737019
0.009747694016 -0.01809110641 -0.000480460301 -0.4975599462 0.8671442925 -0.02224580726
0 -0.01908513832 -0.05085358047 -0.00972227313 -0.9680997271 -0.2503765079
-0.008456355492 -0.00873886927 -0.06614803314 -0.3946372483 -0.6845767745 -0.6128752581
0.0006634906133 0.003619321903 -0.07744397736 -0.01745461093 0.4231226296 0.9059042868
-0.007569793224 -0.01915589333 -0.006499146223 -0.3514143232 -0.9361384542 -0.01235993608
0.01823220062 -0.009531587601 -0.03963096809 0.8785456217 -0.4773830228 -0.01621851081
0.006534887791 -0.004594738245 -0.07119260025 -0.3100801127 0.5966898269 0.7401429417
-0.008244769096 0.04875952148 -0.07945034027 0.3947886193 0.01258083839 0.9186858378
-0.01112342644 -0.01728413582 -0.003199426234 -0.5417898127 -0.8403898883 0.0144441842
-0.009008277416 -0.01846622849 -0.003032871127 -0.460913366 -0.8874448939 -0.0006551697912
-0.005516909838 -0.01980025911 -0.003730815291 -0.2800292114 -0.9599579276 0.008026077218
-0.008696021557 -0.01864406872 -0.02728927326 0.4203089531 0.9073770681 0.002690771699
0.004363884767 -0.02009617488 -0.003626762788 0.2296305675 -0.9728404075 0.02917780065
-0.006415205002 0.03032372284 -0.08016493225 0.3168861249 -0.02276583504 0.9481903293
-0.01702250576 -0.01142091703 -0.000952962935 0.8400681682 0.5408106479 -0.04253605519
0.006907177329 -0.01936338949 -0.003502225816 -0.3829261278 0.9237788822 0.0003968355654
0.00971468997 -0.01811414719 -0.002848653853 -0.4648387659 0.8853951457 -0.0005980011338
-0.005208650589 -0.006273924351 -0.07026059341 0.2526813132 0.6486700153 0.7178992723
0.01495533276 0.04528122902 -0.07470295715 0.7103912506 0.1191536874 -0.6936473671
-0.01522700405 -0.003949532986 -0.06411679077 0.7239949305 0.4947239096 0.4807073891
-0.007712604841 0.0009010284146 -0.07440437571 0.3529716799 0.4606208681 0.8143951185
0.01626384354 -0.01255492496 -0.0007405911684 0.7698513089 -0.6378744886 0.02109736808
0.01964121119 0.0002366184493 -0.05722643153 0.9244175085 -0.2889404082 -0.2489291273
0.01186617947 -0.01677462387 -0.001361202478 -0.546609716 0.8371570645 -0.0196435161
0.009307468796 -0.01826255264 -0.04192159348 0.447737206 -0.8919579653 -0.06278839437
0.01513898134 -0.01080238152 -0.05433030319 0.7557724193 -0.5977699727 -0.2673557742
0.01331551933 -0.01566894722 -0.0007797139883 -0.6454116494 0.7628272559 -0.03922219298
-0.01375350666 -0.01526512464 -0.003200765928 -0.6812088629 -0.7315922869 0.02696684807
0.01472149181 -0.01436703205 -0.003263149261 0.7370393916 -0.675835121 0.004452472642
-0.005724540393 -0.01973962593 -0.00654099528 -0.3147592919 -0.9491707484 0.001215942694
0.01807897854 -0.002202326417 -0.06009918404 0.8812841754 -0.3549993293 -0.311951404
-0.002746594727 -0.02036842203 -0.005577278852 -0.1549456613 -0.9879020688 -0.006429966602
0.0006506808201 -0.02045477231 -0.04232807859 0.03288356835 -0.9975045938 -0.06247604578
0.009217018604 -0.01838890553 -0.03871356964 0.4361980044 -0.899618209 -0.02045431461
0.01708820152 0.01006853008 -0.07025795746 0.8153848409 -0.2039687717 -0.5417972881
0.003891818126 -0.02018386841 -0.005739733219 0.1841881733 -0.9828745046 0.005694301058
-0.0138758502 -0.0151575489 -0.009129576445 -0.6699349239 -0.7420712935 -0.02274627674
0.01326951408 -0.01571417093 -0.003169574261 0.6433285421 -0.7654932315 0.01218603318
0.01153736067 -0.01703148365 -0.02066306114 0.553191409 -0.8329458903 -0.01343163679
0.02039843941 -0.002869826078 -0.02428678322 0.9979995829 -0.0565440706 -0.02827720965
-0.01696089602 -0.01151655269 -0.003388389051 0.8364033274 0.5480925 -0.004907687955
-0.00737381649 -0.01922726345 -0.02461326599 -0.3582119102 -0.9336402034 0.0004448801061
0.009671123028 -0.01814196062 -0.005980494976 0.4886247646 -0.8724805329 -0.004853775007
0.01778098869 -0.01028982258 -0.001166831255 0.85527096 -0.517182778 0.03214901428
0.009628007889 -0.01816798639 -0.00908313632 0.4547922489 -0.8905851639 0.004698527173
-0.01939439583 -0.006815276146 -0.0009969216585 0.8871929934 0.4613220742 -0.008398595777
-0.004969348113 -0.01927696673 -0.04723728053 -0.2308921749 -0.9574039354 -0.1733969665
-0.01390897274 -0.001942425966 -0.06774085236 0.6815804457 0.46768029 0.5627817004
-0.00287499404 0.03367226219 -0.0809637146 -0.1237471155 0.01724544348 -0.992163921
-0.01393963647 -0.01509537911 -0.00598797226 -0.697787894 -0.7161228579 -0.01612784816
-0.005473579764 -0.01982019758 -0.009143987417 -0.3109371264 -0.9504304042 -0.000387624457
-0.002734520674 -0.02037464571 -0.008657948017 -0.1548410078 -0.9879097956 -0.007648404096
-0.005169294477 -0.01828589153 -0.05126804733 -0.254892296 -0.9262242425 -0.277738312
-0.007536349058 -0.01917095184 -0.009584630489 -0.3465323843 -0.9380247754 0.004982711821
0.0006833037535 -0.0205250419 -0.008734019121 0.03095074691 -0.9995205794 0.0008139981184
-0.00537884891 -0.01985519838 -0.02120749331 -0.30831367 -0.9512616381 -0.006631497106
-0.008475900037 -0.01831194278 -0.0454300706 -0.4282990051 -0.8931477054 -0.1372848815
0.004105113626 -0.02015064859 -0.008544649601 0.2240868048 -0.9744922763 -0.01224366933
0.01536673927 0.001246926785 -0.06828799438 0.748213844 -0.3681719739 -0.5519288371
-0.009438362122 0.03641464615 -0.0788952179 0.4373927816 -0.008622191368 0.8992292324
0.01654614258 0.02976604462 -0.07281313324 0.7567393431 -0.05171857797 -0.6516676724
0.01612931728 -0.01273647833 -0.006367311954 0.7694542355 -0.6386851627 -0.004630596738
0.01177226067 -0.01684798908 -0.006874301195 0.5586530138 -0.829368828 0.007359161505
-0.008928138256 -0.0185131216 -0.009255706787 -0.4624991002 -0.8866195082 -0.000655762337
0.008426707268 0.05719181442 -0.07936589813 0.4127456591 0.0326584165 -0.9102606488
0.0132086525 -0.01577399731 -0.006331147432 0.641311774 -0.7672785045 -0.001704395073
-0.01934293175 -0.006952096939 -0.002674618959 0.8871929934 0.4613220742 -0.008398595777
-0.009741716385 -0.01601208496 -0.05256972885 -0.4625179848 -0.8421085055 -0.2773632613
-0.01815487099 -0.00954666996 -0.04253289032 0.8966153053 0.439981041 0.04997677252
-0.01495533276 0.04528122902 -0.07470295715 0.7103912506 -0.1191536874 0.6936473671
0.01295086479 0.01187759304 -0.07553253174 -0.6136470891 0.1878954626 0.7668980018
0.006846205711 -0.01939071655 -0.009694514275 0.3787038572 -0.9254957478 -0.006403845358
-0.01687941313 -0.01164303446 -0.006609388351 0.8284263727 0.5600786728 -0.004650287793
-0.007405778646 -0.01921657944 -0.02165709019 -0.35193206 -0.9360254239 0.000480514067
-0.005804083347 0.03678428841 -0.08032980347 0.2806167888 -0.001266334528 0.9598190529
-0.01079606756 -0.01750826391 -0.009010819753 -0.5106657018 -0.8597789699 0.0008148138114
0.01934293175 -0.006952096939 -0.002674618959 0.9038108304 -0.4279264389 0.002223918775
0.006291630586 -0.019308822 -0.0444643987 0.3133282368 -0.9434711672 -0.108109078
-0.008772014618 -0.01860447407 -0.02137865257 0.410945726 0.9116596863 0.0004759882181
0 0.04012091446 -0.08117234802 9.211523043e-06 0.1954089626 -0.980721845
-0.01655513 -0.007574784756 -0.05680428314 0.7915536781 0.5309664892 0.3025183663
-0.01929174232 -0.007088191032 -0.004343404293 0.8851132747 0.4653259934 -0.006797857851
-0.002698959708 -0.02038823795 -0.01773777914 -0.1520027279 -0.9882192306 0.01783039238
-0.01084213495 -0.01747776031 -0.02086614084 -0.5186669965 -0.8549711452 -0.002981205048
-0.005449582458 -0.01982971144 -0.01219885612 -0.2820105854 -0.9594055865 -0.003309123643
-0.002722555816 -0.02038044739 -0.01171124053 -0.152434541 -0.9882849147 0.007525831016
0.01309697008 -0.01404854465 -0.05121527958 -0.6272430032 0.7428099676 0.2340930733
-0.01913977051 -0.007492220879 -0.009297617912 0.8754773523 0.4831636954 -0.009604641616
0.01164062929 -0.01695081329 -0.01460113239 0.5573672583 -0.8301850916 -0.01159538613
-0.01143122625 -0.01707383156 -0.02710044034 0.5632846467 0.8262625278 0.0008011551068
-0.00731063652 -0.01924838066 -0.03045678139 -0.3619397222 -0.9322014737 0.0002231922742
0.0006803165277 -0.02052814611 -0.01178423993 0.03271985328 -0.9994609737 0.002678283998
0.00369431591 -0.005038645903 -0.07176113637 -0.1602915572 0.6260310074 0.763145985
0.004087138951 -0.02015745401 -0.01160102797 0.2231454377 -0.9747022728 -0.01271192263
0.01173244762 -0.01687908936 -0.009211327553 0.5840979024 -0.8116828947 -0.000720320343
-0.01677431679 -0.01194065189 -0.03909529305 0.8050425919 0.5929512354 0.01775549442
0.009377353191 -0.01830823231 -0.02714396858 0.4271906132 -0.9041591428 0.002103454451
-0.007904635429 0.03299531174 -0.07960821533 0.3778810522 0.005033294908 0.9258404702
0.013148386 -0.01583254147 -0.009463253021 0.6394178214 -0.7688496895 0.003873574516
0.0146033144 -0.01448255634 -0.008795899868 0.729788325 -0.6835843702 -0.01101859402
0.0006444654067 -0.01285278479 -0.06390651321 0.02981721064 -0.8048735434 -0.5926968137
0.01762846661 -0.01056670046 -0.006859921217 0.8491914027 -0.5280483132 0.006240234181
0.000659448425 -0.02054086325 -0.03315517044 -0.007540918313 -0.9999624373 -0.00427299308
0.01929174232 -0.007088191032 -0.004343404293 0.9034083148 -0.4287589367 0.004380733926
0 0.0479816246 -0.08116078949 8.992482891e-06 0.1911766688 -0.9815556435
-0.01921549225 -0.007290905952 -0.006829092503 0.8835437789 0.468237307 -0.01020857429
-0.01110395098 -0.01648705769 -0.04787040329 -0.5650201966 -0.8060492045 -0.1761728052
-0.01655737368 -0.01211288516 -0.009447665215 0.8199992984 0.5720880501 -0.01778801698
-0.01098746371 -0.01737997437 -0.01176060963 -0.5349257766 -0.8447958616 -0.0132047654
-0.002687309325 -0.02039197922 -0.02071348238 -0.1538055888 -0.9880955537 0.00331926453
-0.01655113729 -0.008857217789 -0.0544029185 0.7879489959 0.5526206198 0.2715636767
-0.01516885567 -0.006905569077 -0.06079379654 0.7366546182 0.5426001454 0.4036397598
0.003987876415 0.004200877786 -0.07731064224 -0.2159222143 0.3904672498 0.8949373856
-0.008888603687 -0.01853625488 -0.01232555532 -0.4562470251 -0.8898319233 0.006148199058
-0.007503249407 -0.01918400097 -0.01264205408 -0.3450152133 -0.9385861915 0.004523681975
-0.00540223062 -0.01984677362 -0.01822960472 -0.2810293162 -0.9596465345 0.01005247293
-0.009307468796 -0.01826255264 -0.04192159348 -0.436571285 -0.897450456 -0.06315213453
0.006816149235 -0.01940326071 -0.01274915743 0.3789236928 -0.9254082466 -0.006034252664
0.009585299492 -0.01819312334 -0.01215791988 0.4521164123 -0.8919501141 0.003967820911
0.003281933308 -0.001386376858 -0.0744982605 -0.143810846 0.5318815189 0.8345181187
0.006735715389 -0.00613386488 -0.06977016703 -0.3373373517 0.6286471936 0.7007183579
0.01169293213 -0.01690995693 -0.01153093481 0.561260124 -0.8275768746 -0.01017790784
0.01515588188 -0.007762383938 -0.05965779877 0.7508104554 -0.5486614928 -0.367769257
-0.01820686913 0.00208444047 -0.06382349396 0.8922739027 0.2734861685 0.3592389151
-0.01836660957 0.006314446211 -0.06622667694 0.8947045545 0.2198974425 0.3887786966
0.0160534296 -0.01283889341 -0.009541372776 0.7476698626 -0.664064139 0.002931871547
0.01921549225 -0.007290905952 -0.006829092503 0.9004615999 -0.4348929193 0.00608735507
-0.01983096123 0.005658660412 -0.0613731842 0.9341375891 0.1904399246 0.3018602322
-0.01381264639 -0.01521900678 -0.0122427268 0.6682755391 0.7439087881 -0.002742055907
-0.005425806284 -0.01983827782 -0.01522698331 -0.2823001455 -0.9592729059 0.01010543403
0.009256661892 -0.01836895895 -0.03585293961 0.4372745573 -0.8992595514 -0.01110048595
-0.008544040839 -0.002432119409 -0.07178568268 0.4221718987 0.5380617115 0.7295618429
-0.002710707009 -0.02038446522 -0.01473732495 -0.1524354028 -0.9881531165 0.01780074096
0.01298724709 -0.01494333363 -0.04830754929 0.6193136223 -0.7634020546 -0.1834882564
-0.007470486641 -0.01919495201 -0.01567224503 -0.3458844913 -0.9381635019 0.01460007844
-0.01173599315 -0.01108874726 -0.05997023296 -0.5681838079 -0.6970719657 -0.4373303501
0.0006773635149 -0.02053006713 -0.01480761735 0.03247404382 -0.9993961733 0.01235820897
0.004069334269 -0.02016333675 -0.01463056874 0.2216589814 -0.9750989657 0.007021614911
0.0130886755 -0.01589025736 -0.01256699562 0.6370982567 -0.7707824161 -0.0005275710028
0 0.01089660263 -0.07999333191 0.02947077879 0.2508172439 0.9675857499
0.0139029932 -0.01509695959 -0.0417234211 0.6714969125 -0.7395368712 -0.04665954067
0.01453661728 -0.0145477562 -0.01191845798 0.7269716649 -0.6866619301 0.002755380078
-0.0173315115 -0.01109759283 -0.01796052456 0.8358116741 0.548979148 0.006382832002
0.01756385803 -0.01068398571 -0.009271494865 0.8389232545 -0.5442210607 0.005586601812
-0.01093860698 -0.017412848 -0.01482169461 -0.5425452264 -0.8397283249 -0.02238342599
-0.007437999249 -0.01920581055 -0.01867700005 -0.3442410942 -0.9387692829 0.01450180888
-0.0182323122 -0.009529824257 -0.03963029289 0.9018984672 0.4314327038 0.02109447597
-0.002196226358 0.04069009781 -0.08105886841 -0.05530664978 -0.01535636997 -0.9983513191
0.0006686536074 -0.0205353152 -0.02372785664 0.03342641891 -0.9994410712 0.0004686625621
-0.008849411964 -0.01855918694 -0.01536879826 -0.4552179593 -0.8903800138 0.0002016461728
-0.01450690174 -0.005746545434 -0.06323655033 0.7107768208 0.5337169269 0.4581948853
0.006786377072 -0.01941470289 -0.01577708006 0.377428719 -0.9260269217 0.004658570581
-0.01864310646 0.01253452492 -0.06818294525 0.9121669599 0.1114821263 0.3943642641
0.009542998314 -0.01821703482 -0.01520552754 0.4501889357 -0.8929113873 0.006259123728
-0.002594961941 -0.02008004379 -0.04498078728 -0.1459338148 -0.982701833 -0.1140194246
0.01597824192 -0.01294036436 -0.01268618202 0.7433783598 -0.6688209894 0.008191356702
0.01749976444 -0.01080033731 -0.01166389275 0.8358534203 -0.5488704642 -0.009501225256
0.01527370787 -0.01366122246 -0.04261392784 0.7481409876 -0.6608729982 -0.05943015142
0.01913977051 -0.007492220879 -0.009297617912 0.8967041117 -0.4425751648 0.006997116866
0.0129131403 -0.0160494175 -0.0217123518 0.6112774827 -0.7914163397 0.0001276770775
0.01387875366 -0.003203679085 -0.06669223785 0.6538528608 -0.5060336027 -0.5625001594
-0.01375850058 -0.01090758324 -0.05714944077 0.6563238355 0.6562582912 0.3722419619
-0.01906469059 -0.00769182539 -0.01174517107 0.8727817766 0.487925137 -0.01345478046
-0.01375000191 -0.01527992105 -0.01532835078 0.6619588984 0.7493756481 -0.01570206684
-0.01991348267 0.007566282272 -0.06227578735 0.9328152122 0.1880434513 0.3074011064
-0.002574563185 -0.01672312069 -0.05692004903 -0.1376666231 -0.9058489489 -0.4006065184
-0.002783592582 -0.02038668022 -0.02992558708 -0.1574231422 -0.9875308145 0.0009190824456
0.0006744363705 -0.02053183111 -0.01780546665 0.03232673731 -0.9994018658 0.01228384167
-0.018772645 -0.008431363583 -0.02133952808 0.8794266685 0.4760242633 -0.003104116269
-0.01809445477 -0.009298056602 -0.04532088661 0.8823361552 0.4600709271 0.09908406137
0.004051680148 -0.02016917038 -0.01763450956 0.2206732438 -0.9753228784 0.00697153755
0.01706650543 -0.01153400707 -0.02794145966 0.8195178532 -0.5729654667 0.01005297283
0.01302949142 -0.01594746494 -0.0156433754 0.6290690175 -0.777321093 0.00664000659
0.01447051239 -0.01461237717 -0.01501332617 0.7221364409 -0.6917393471 -0.00395428722
-0.005282270551 -0.01988738823 -0.03360367203 -0.2261900019 -0.973985904 0.01376741929
0.01906469059 -0.00769182539 -0.01174517107 0.8948149485 -0.4464236943 0.003477509867
-0.01691816934 -0.01162883282 -0.01488898563 0.8191889076 0.5735223737 0.001273009007
0.01809445477 -0.009298056602 -0.0453208847 0.8742577435 -0.4777619797 -0.08612136039
-0.01089016819 -0.01744544077 -0.01785660839 -0.545407 -0.8380879987 -0.01181993534
0.01983096123 0.005658659935 -0.0613731842 0.9329698692 -0.2023336076 -0.297705113
0.0006532119314 -0.02053981368 -0.03955066935 -0.004338464802 -0.9998758781 -0.01514615862
-0.00881055212 -0.01858192539 -0.01838623619 0.4034021538 0.9150195858 -0.002420725155
-0.008584445477 -0.01869436932 -0.03598312378 0.4190700864 0.9078887332 0.01087707593
0.006756855249 -0.01942604971 -0.01877957678 0.3754902665 -0.926814846 0.004615287364
0.009501055956 -0.01824074411 -0.01822727203 0.4486184071 -0.8936094226 0.01427321285
0.01158877659 -0.0169913187 -0.01764490891 0.5475114055 -0.8367468176 -0.009274913816
-0.01885596085 0.0167560463 -0.06855529785 0.9129115516 0.07533651211 0.4011444987
-0.01659133403 -0.005105612278 -0.06025980632 0.7940143459 0.4741087091 0.3804762154
0.007600913525 0.01888312912 -0.07967807007 -0.373488896 0.06922121127 0.9250483601
0.0159037323 -0.01304091978 -0.01580261517 0.7678493383 -0.6404767307 0.01403392888
0.01741497231 -0.01095426273 -0.0148288579 0.8332734653 -0.5528024607 -0.008048072139
-0.002703585863 0.01127487421 -0.0799110527 0.1377942207 0.2341727529 0.962380317
-0.01896541977 -0.007955744028 -0.01498134184 0.8744426943 0.4848592918 -0.01616915485
-0.01694863892 0.006586360455 -0.06900963211 0.8048777547 0.2600255042 0.5334402845
-0.0158851881 -0.01306594658 -0.01657824326 0.7915319045 0.6111180161 0.003466208049
0.009115566492 -0.008427823544 -0.06606189728 0.4270579512 -0.678213251 -0.5980370327
-0.002668530703 0.005982004881 -0.07829156113 0.1450265518 0.3453340389 0.927206396
-0.01440192397 -0.01460639191 -0.01855504767 -0.6967853389 -0.71712077 0.01509942733
-0.01380060196 -0.0142182169 -0.04847480965 -0.6860407245 -0.7054964284 -0.1778283269
0.0006715332667 -0.02053358078 -0.0207786293 0.03235053865 -0.9994756086 0.001396559629
0.00916155982 -0.005137906671 -0.06928108025 -0.4501362704 0.5911562466 0.6692620041
0.004034171879 -0.02017495489 -0.02061362648 0.2198251606 -0.9754415079 -0.01381171621
0.01836660957 0.00631444478 -0.06622667694 0.8960511176 -0.2084094569 -0.3919922102
0.01297091055 -0.01600215149 -0.01869228268 0.6218270353 -0.7831227318 0.007065775679
0.01957903957 -0.003499196053 -0.05194919968 0.9187165108 -0.3551950736 -0.1726164319
0.01511743069 -0.01390851212 -0.01848643017 0.7220705895 -0.691819113 -0.000615438729
0.01896541977 -0.007955744028 -0.01498134184 0.8696877747 -0.4935193314 0.009046768069
0.006727575779 -0.01943730259 -0.0217574172 0.3620797123 -0.9321461861 0.001330276567
-0.01038037109 0.01865822029 -0.07828716278 0.5206682271 0.07024688762 0.8508642501
0.009459461927 -0.01826425552 -0.02122393656 0.441390802 -0.8971153084 0.01892837598
0.01240419197 -0.01368655014 -0.05387711716 0.6143596954 -0.7379961912 -0.2791483234
0.01733096027 -0.01110677338 -0.01796472645 0.8307490215 -0.5566380225 -0.003189860708
0.01499801278 -0.01404424024 -0.02380689383 0.7196325654 -0.6943547081 -0.0007142096846
-0.01886794949 -0.008204337597 -0.01817995548 0.8645692957 0.5021988084 -0.01778453476
-0.002505313373 -0.02042480202 -0.03339418182 -0.1571717262 -0.9875663815 0.003112976489
-0.0137659421 0.01523153782 -0.07546593094 0.6698556826 0.1023434936 0.7354040888
-0.01405623684 -0.01495870819 -0.02137255135 -0.6897386598 -0.7240364011 0.005645443726
-0.005355655432 -0.01986355686 -0.02416139984 -0.2765148661 -0.9609920475 -0.005814937921
-0.01206454396 -0.01237251782 -0.05726183987 -0.5685945789 -0.7235715907 -0.39133663
-0.002675753057 -0.02039568996 -0.02366518688 -0.1517959969 -0.9883875258 -0.006933547391
0.004016804934 -0.02018069363 -0.02356867218 0.2185431498 -0.975746322 -0.0125700713
0.0148183012 -0.01423156865 -0.02114601771 0.7156064229 -0.6984476613 0.008849402931
-0.01957903957 -0.00349919641 -0.05194919968 0.9101780589 0.3719297228 0.1823298722
0.01886794949 -0.008204337597 -0.01817995548 0.8842178255 -0.4670613548 0.003539489868
-0.0195894928 -0.002104608655 -0.05436942101 0.9182900978 0.3336283624 0.2131558398
-0.01724799538 -0.01125303364 -0.02107019901 0.8167556175 0.5769818641 0.001479784138
0.003940291047 -0.02020597506 -0.03658779621 0.2343079361 -0.9721421863 0.006273812586
-0.002607174009 -0.005018432975 -0.07198325729 0.1142355403 0.6285199452 0.7693587718
-0.0114816165 -0.01703850873 -0.02413654296 -0.5582871157 -0.8296252609 0.006117432932
-0.008733807087 -0.01862629509 -0.02434656143 0.41499965 0.9098108638 0.004413907722
0.006698531389 -0.01944846678 -0.02471135187 -0.3334130468 0.9427716662 -0.004162405657
-0.01138124593 -0.01710849762 -0.03004103915 -0.5613919544 -0.8273672296 -0.01739370245
0.009418214083 -0.01828730392 -0.02419615936 0.4348999855 -0.9004571903 0.006233059567
0.01217111421 -0.01658360672 -0.02418193579 0.6034651139 -0.7973814231 -0.00356685024
-0.007169825554 -0.01907869911 -0.04391384125 -0.3605885537 -0.9278673956 -0.0950683502
0.01225855541 -0.005605866671 -0.06619775645 0.6107936661 -0.5603938575 -0.5593655531
0.01724793816 -0.01125398779 -0.02107062721 0.8300941093 -0.5575728624 0.007501520085
0.01493027282 -0.01411762428 -0.0268119874 0.7196671423 -0.6942022007 -0.01274789037
0.005839889526 -0.01914902306 -0.0467291069 0.2899862339 -0.9437774048 -0.1587204916
-0.007635578251 -0.01656448059 -0.05385550079 -0.3595753649 -0.8735252354 -0.3281146446
-0.01379377365 -0.00745066452 -0.0623429451 0.6697725521 0.5772098181 0.4671547435
-0.01807897854 -0.002202326298 -0.06009918404 0.8688244963 0.372485713 0.3261876579
0.01127840424 0.04909352875 -0.07781780243 0.5163334018 -0.004709004908 -0.8563747097
-0.01499801278 -0.01404424024 -0.02380689383 0.7104116457 0.7037824741 0.002350087278
-0.00527649498 0.0514992218 -0.08047559357 -0.3214935087 -0.01719917591 -0.9467555715
-0.01574569702 0.01187736797 -0.07267573547 0.7603960345 0.1571978134 0.6301481716
-0.01544924641 0.003804448962 -0.06972939301 0.741629223 0.3343831181 0.5815273217
-0.00519671278 -0.01991072464 -0.0273999588 -0.2279637443 -0.9736565311 0.005048829898
-0.002664287835 -0.02039937162 -0.02659362602 -0.1509705452 -0.9885233996 -0.005420594692
-0.02002675819 0.009956197739 -0.06305750656 0.9484149439 0.1167879662 0.2947366031
0.005391793728 0.05992193604 -0.08044029236 0.2737242918 -0.07312519416 -0.9590243574
0.0006657965382 -0.02053703753 -0.02665388076 -0.004001344816 -0.999873676 -0.01538250245
-0.01831919098 -0.009371394157 -0.03665296173 0.9104348924 0.4134603172 -0.01260447639
-0.01159366989 0.01271458817 -0.07676182556 0.5752107646 0.1867370244 0.7964055876
0.00413025732 -0.02016235466 -0.02692661743 0.2169866756 -0.976173836 -0.001193559796
0.018772645 -0.008431363583 -0.02133952808 0.8796335192 -0.4756439849 0.002769763689
0.003865305225 -0.01471326923 -0.06038271141 0.1870249713 -0.849185677 -0.4938677415
-0.01716679859 -0.0113805089 -0.02414078331 0.8155038031 0.5785165942 -0.01649537464
-0.00734210515 -0.01923786259 -0.02754625797 -0.3652520991 -0.9309021908 0.003466295975
-0.01216985798 0.03029242706 -0.07719482422 -0.5572856652 0.01213896249 -0.8302320958
-0.01148740101 0.00893204848 -0.07574795024 0.5679485687 0.2737323664 0.7762119652
0.006669714928 -0.0194595418 -0.02764211273 -0.3304817849 0.9438099089 -0.002155419066
0.0006464064784 -0.01966039679 -0.04829649607 0.04464442732 -0.9803258911 -0.1922707008
0.009276461124 0.001336479694 -0.07383729935 -0.4226044272 0.432320577 0.7965578553
0.01211749697 -0.01662454939 -0.02715132856 0.6035908116 -0.7972064282 -0.01183398096
0.01216985798 0.03029242706 -0.07719482422 0.5744716291 0.01385421226 -0.8184072386
-0.01493557262 0.008955936432 -0.07267534637 0.713251509 0.244955521 0.6567108022
0.01716679859 -0.0113805089 -0.02414078331 0.8235095084 -0.567119493 0.01440729965
-0.0186782198 -0.0086562953 -0.02446995354 0.9240018775 0.382069079 0.0156124689
0.01272045517 0.04666254807 -0.07675450134 0.5752913117 -0.01710718386 -0.8177696809
0.0006629614234 -0.02053874588 -0.02955741405 0.03121633934 -0.9994795993 -0.008128390856
-0.005161514759 -0.01724156475 -0.05435302289 -0.2542510811 -0.907672454 -0.3338968464
0.003843279982 -0.02021888199 -0.03043228645 0.2186594595 -0.9757683042 0.008016059717
-0.002818359494 0.02643354416 -0.08097468185 0.1848971718 -0.002436570338 0.9827548519
-0.004959906101 0.02837146187 -0.08057128143 0.2313608386 0.005049217104 0.9728549058
-0.008834112167 0.01229154778 -0.07827618408 -0.4369953745 -0.1789083153 -0.881491269
0.0186782198 -0.0086562953 -0.02446995354 0.9218434834 -0.3869563494 -0.0216650818
-0.008658550739 -0.01866096115 -0.03020897007 0.4179756299 0.9084525148 0.003225091097
-0.005304866433 -0.01988065338 -0.03072331667 0.2759514039 0.9611211944 -0.009842373587
0.00667259868 -0.01544641081 -0.05742629623 0.3576705102 -0.8389208803 -0.4102237959
0.006641133308 -0.01946986723 -0.03055012989 -0.3293242944 0.9442163299 -0.001015631398
0.009336819649 -0.01832862663 -0.03006881762 0.4187874955 -0.9080840737 0.0005905154099
0.00065154924 -0.005178162495 -0.07202349345 -0.02948548849 0.6308366417 0.7753552331
0.01206432462 -0.01666460037 -0.03009722614 0.606216328 -0.7952140162 -0.0116804183
0.01009853554 0.008095402718 -0.07641227722 0.4989046631 -0.2799838668 -0.8201848398
0.01710648918 -0.01147281265 -0.02642627335 0.8190759195 -0.5736361751 -0.007495115598
-0.02027618217 0.01446599579 -0.06327352905 0.9545226438 0.06992033933 0.2898235127
0.004509903431 -0.0158519001 -0.0580086937 0.2401498984 -0.864016395 -0.4424971134
0.009243354797 0.02878533745 -0.07900714874 -0.4940784038 -0.00135362058 0.8694162977
-0.02039843941 -0.002869826078 -0.02428678322 0.9979995829 0.0565440706 0.02827720965
0.0006456673808 -0.01112647502 -0.06613107469 0.02277489757 -0.7688242097 -0.639054488
0.01991807079 -0.005227137804 -0.03652700806 0.935369147 -0.3535102417 0.01072697073
-0.01858464813 -0.008879194736 -0.02757210064 0.9281588166 0.372174088 0.002767567575
-0.01486310649 -0.0141898253 -0.02979275608 -0.6945808727 -0.7192863929 -0.01358294001
0.01960520077 -0.004953118563 -0.04811794472 0.9255265444 -0.3648559561 -0.101394018
-0.007812615633 -0.007530667543 -0.06786555481 -0.3563279409 -0.6682764523 -0.6530214253
0.01858464813 -0.008879194736 -0.02757210064 0.926451443 -0.3764053177 -0.002600107175
-0.01189538503 -0.01678276348 -0.03951489544 -0.556444356 -0.8308143932 -0.01082232626
-0.008268396795 -0.01118431079 -0.06325580883 -0.3887415773 -0.7433612669 -0.5443289565
-0.02029321194 -0.00345942831 -0.02682163239 0.9552347735 0.2952162105 -0.01933692204
0.01288873037 -0.007913169384 -0.0629378039 0.6268282541 -0.6008130863 -0.496094724
-0.01116268349 -0.004447377205 -0.06841036987 0.5578668388 0.5480690905 0.623221359
-0.01700703621 -0.01162229776 -0.03020057964 0.8177776483 0.5754175695 -0.01159045513
-0.0113269389 -0.01715361731 -0.03320409175 -0.5585443474 -0.829474633 0.0002126687576
-0.008621361256 -0.01867772675 -0.03310669327 0.4158100987 0.9094371835 0.005096190328
-0.002995932341 0.04913115501 -0.08093692398 -0.1282149052 -0.02512319299 -0.9914281433
-0.00727940321 -0.01925881958 -0.03334552956 -0.3489656421 -0.937130948 0.002926940109
0.01612496185 0.05493595886 -0.07341847992 0.7107392482 0.1154086872 -0.6939240276
-0.01518586016 -0.0129140563 -0.04801968575 0.7347358617 0.6628265282 0.1443059493
0.01958465958 -0.004339037895 -0.0500711441 0.9226662321 -0.3582150475 -0.1427200188
0.003957073271 -0.02020042992 -0.03373222923 0.237707804 -0.9712743329 0.01100773418
0.006612781644 -0.01947935295 -0.03343607903 0.3691559417 -0.9293648938 0.002187450636
0.009296592474 -0.01834886742 -0.03297157955 0.4578361074 -0.8890289 -0.003703188692
0.01186898499 -0.016807061 -0.03335114212 -0.5748002206 0.8182803451 0.004688640088
-0.002613785416 -0.02041159773 -0.03950088406 -0.1575791191 -0.9873652531 -0.01669365639
0.01700703621 -0.01162229776 -0.03020057964 0.8094211549 -0.5872250668 0.002028534925
0.02029321194 -0.00345942831 -0.02682163239 0.9552347735 -0.2952162105 0.01933692204
-0.01127425941 -0.01718259494 -0.03633622106 0.5551638426 0.8317106448 -0.007107122541
0.01243629456 0.03822027206 -0.07699423981 -0.5880652014 -0.01707245351 0.8086333225
-0.01849506187 -0.009050411224 -0.0306264658 0.9227965742 0.3852849285 -0.001416516221
-0.0153241539 -0.0002076668739 -0.06727490234 0.755106376 0.3960031374 0.5224900728
-0.01492819271 -0.01412839222 -0.03313365402 -0.6918633764 -0.7220274676 0.001185105748
-0.002580035478 -0.01876611328 -0.05143183327 -0.1170346369 -0.9527145574 -0.280424439
0.01801289082 -0.006353563547 -0.05430253983 0.8728605578 -0.4364562295 -0.2182210035
-0.00975957489 -0.009528017044 -0.06431803894 -0.4515425699 -0.697942737 -0.555864411
0.01408542204 -0.01498722267 -0.03304542923 0.6770126179 -0.7356622454 0.02133016338
-0.01127894402 0.04911024857 -0.07781434631 -0.5160693002 -0.004855010505 -0.8565330737
0.01549003983 -0.01355583858 -0.03319247055 0.7501417212 -0.6612296201 0.007923869888
-0.01439624977 -0.01424138184 -0.04524158325 -0.6981664596 -0.7084259152 -0.1034230023
0.01849423122 -0.00906348896 -0.03063182735 0.909008887 -0.4159031228 -0.02697101566
-0.02019463158 -0.003959578991 -0.02930075264 0.9500530455 0.3112425869 -0.02296220467
-0.002453485465 -0.01119005222 -0.06587735596 -0.1030818775 -0.7687634302 -0.6311710663
0.01544924641 0.003804449797 -0.06972939301 0.7583956886 -0.3238458529 -0.5656499297
-0.01692883873 -0.01172960806 -0.03318868828 0.8139564599 0.5808542968 -0.009119606962
-0.007248398304 -0.01926918316 -0.03621318436 -0.3381283828 -0.9410983558 -0.001755391568
-0.005259838939 -0.01989407444 -0.03646306992 -0.2324690494 -0.9725954551 -0.004027636866
-0.01187040472 -0.002584722012 -0.06929815292 0.5641609598 0.5098335553 0.6494552773
-0.002624837637 -0.02041203976 -0.03667011261 -0.1572132466 -0.9875212004 0.009266816475
0.0006559652487 -0.02054296207 -0.0367223746 -0.00626024116 -0.9999599369 0.006397973909
0.01433216667 0.01159429359 -0.07417412567 0.6908865281 -0.2131539007 -0.690826476
0.006584636807 -0.01948877001 -0.03630097389 -0.3275355004 0.9448338841 0.00307039539
0.003876177192 -0.01123632574 -0.06548269463 0.1964216768 -0.7532549745 -0.6277144798
0.01692883873 -0.01172960806 -0.03318868828 0.8022210795 -0.5970269942 -0.0003283572865
0.02019463158 -0.003959578991 -0.02930075264 0.9501338907 -0.3109933007 0.02299471089
-0.02012942123 -0.00429043293 -0.03094070816 0.9467034659 0.3217925226 -0.01421689359
-0.01158696238 -0.01664617284 -0.0448902092 -0.5405375743 -0.8358151107 -0.09608450191
-0.0184073534 -0.009202324867 -0.03364823723 0.9170962942 0.398318755 -0.01662999138
-0.01471298647 -0.01435254669 -0.03641742039 -0.6934543524 -0.7203316592 0.0156000615
0.0006440229416 -0.01364128335 -0.06277932358 0.0136558185 -0.8257964846 -0.5638028775
0.01194694996 -0.01675211811 -0.03664295387 0.608060747 -0.7938425936 0.008721501258
0.01805145073 -0.008774170876 -0.04799923325 0.8792176556 -0.4566368559 -0.1358642552
0.01402303362 -0.01504725981 -0.03596818542 0.673633925 -0.7389337464 0.01393748925
0.01840601921 -0.009223411083 -0.03365666771 0.9038883539 -0.4270975342 0.023948695
0.01350205493 -0.01508771825 -0.04526395321 -0.655682293 0.7463078032 0.114478791
0.02012942123 -0.00429043293 -0.03094070816 0.9468745394 -0.321283354 0.01433921773
-0.02003492451 -0.004744963884 -0.03336695862 0.9412334339 0.3375931123 -0.01051253497
0.01965010357 -0.005510018826 -0.04541927528 0.9296761407 -0.3626274337 -0.06483531221
-0.009217018604 -0.01838890553 -0.03871356964 -0.4236528143 -0.9055079703 -0.02395012595
-0.00523758316 -0.01989970732 -0.03930177784 -0.24129077 -0.9701819402 -0.02292961324
0.003901579738 -0.006634537935 -0.07035443115 -0.2151931147 0.6459772981 0.7323969236
-0.01396633673 0.02048695278 -0.07569992828 0.6615178525 0.04750816684 0.7484230788
-0.007217614174 -0.01927947235 -0.03906040573 -0.3472057572 -0.9376047066 -0.01858968213
0.003923665285 -0.02020866489 -0.03942201424 0.2162721516 -0.9760726735 -0.02254978
0.01804665375 -0.003657814264 -0.05841381073 0.8621234682 -0.4041768145 -0.3055883313
0.006556692481 -0.01949811983 -0.03914547539 -0.3283696054 0.9443446715 0.01966071611
0.01540293932 -0.01365783358 -0.03686665535 0.7469677448 -0.6648597639 0.0008261861426
-0.01670425606 -0.01193574286 -0.04197459602 0.8006274194 0.5972259225 0.04813452853
0.01685128307 -0.01183553314 -0.03615327454 0.7966275367 -0.6044661907 -0.002278607366
0.02003492451 -0.004744963884 -0.03336695862 0.9415251448 -0.336783502 0.01035734057
-0.01464775324 -0.01441778398 -0.03932295799 -0.6970021182 -0.717044189 -0.005973128545
0.01549545646 -0.008819047451 -0.05719312954 0.7469782299 -0.5707954579 -0.3409047804
0.01189538503 -0.01678276348 -0.03951489544 0.6054243758 -0.7958081705 -0.01227521756
0.01831851959 -0.009382043362 -0.03665711975 0.8966852696 -0.4424047278 0.01528346075
-0.01991807079 -0.005227137804 -0.03652700806 0.9350567939 0.3543235414 -0.01111846043
-0.007188842773 -0.01921939754 -0.04186083221 -0.3616205713 -0.9301348027 -0.06387340005
0.01533440065 -0.01372871447 -0.03977656746 0.7428140218 -0.669022024 -0.02523609317
-0.005217076898 -0.01981822395 -0.04208738327 -0.243733529 -0.9681741187 -0.05685809305
-0.002603586555 -0.02032685375 -0.04227978039 -0.1566303656 -0.9857557492 -0.06125790927
0.003908423245 -0.02012180376 -0.04220226479 0.2153892325 -0.9743288054 -0.06550463663
-0.00556918939 0.006330780983 -0.07775049337 0.268777088 0.3495246459 0.8975474355
0.006530640364 -0.01943410349 -0.04194206238 0.3188114117 -0.9464791937 -0.05036287956
-0.004655594349 0.004437050819 -0.07725624084 0.232266367 0.3832791991 0.8939515592
0.01677431679 -0.01194065189 -0.03909529305 0.7943454674 -0.6072822667 -0.01495082227
-0.01184825873 -0.01671562862 -0.04232970715 -0.5511939572 -0.8325416192 -0.05531431891
0.01184825873 -0.01671562862 -0.04232970715 0.5731692013 -0.8174880913 -0.05648262716
0.01815487099 -0.00954666996 -0.04253289032 0.874408791 -0.4830099063 -0.04594231882
0.01105882835 -0.01259851837 -0.05836668396 0.5419403745 -0.7354780256 -0.4066604288
0.007904635429 0.03299531174 -0.07960821533 0.373486471 -0.01494540793 -0.927515224
-0.01980822849 -0.005617637873 -0.03962298584 0.9305655118 0.3657904043 0.01565912878
-0.005199544191 -0.01958418322 -0.04479854965 -0.2361372235 -0.9653852073 -0.1107727999
-0.007600913525 0.01888312912 -0.07967807007 0.3353198946 0.06787077788 0.9396563871
-0.01721594429 0.01303173351 -0.07095243835 0.8194046445 0.1426819109 0.5551737573
0.0006485367616 -0.02020552508 -0.0450268116 0.04181766015 -0.9900237571 -0.1345520112
0.003895434439 -0.01987874222 -0.04490684414 0.2039219896 -0.9716714078 -0.119459187
0.01670425606 -0.01193574286 -0.04197459602 0.7885953664 -0.613028286 -0.04810061091
0.01980822849 -0.005617637873 -0.03962298584 0.9306518757 -0.3655632331 -0.01583063131
0.007153554678 -0.01883391285 -0.04591917229 0.368355183 -0.9188354694 -0.1416186404
-0.002578691542 -0.01272095871 -0.0638686676 -0.1488778828 -0.8064969247 -0.5721871078
0.0006559509039 -0.001662292997 -0.07456465149 -0.02752642001 0.5376587562 0.8427130936
0.0006439830263 -0.018077473 -0.05394347318 0.0319710713 -0.93694581 -0.3480091948
0.01158696238 -0.01664617284 -0.0448902092 0.5518743643 -0.8281508309 -0.09798411807
-0.01971872997 -0.005715842009 -0.0425854454 0.9276795024 0.3704600277 0.04658442626
-0.01664711952 -0.01171493864 -0.04475635529 0.7834507048 0.6159812456 0.08229275978
-0.01247489166 -0.01593395805 -0.04557063675 -0.6105678022 -0.7833997176 -0.1161543859
-0.002586421867 -0.01953752263 -0.0482530702 -0.1059198697 -0.9720932213 -0.2093221207
0.01000401134 -0.01207765293 -0.0604056366 0.4883394423 -0.7377313712 -0.4661298242
0.003753805542 -0.01941941719 -0.0479344841 0.1633185017 -0.9688556089 -0.1861340273
0.0152239604 -0.01339499712 -0.04536137009 0.7325322482 -0.6724091991 -0.1061243345
0.009643336296 0.0444301796 -0.07877015686 -0.444109277 -0.004015972461 0.8959636277
0.01664711952 -0.01171493864 -0.04475635529 0.7991834391 -0.5964715939 -0.07434694566
0.0006477819681 -0.008684751034 -0.06885619227 0.0276120655 -0.7099434497 -0.7037171819
0.01971872997 -0.00571584177 -0.0425854454 0.9276896244 -0.370431001 -0.04661367036
-0.0124450105 -0.01542674478 -0.04819604238 -0.6018909464 -0.775311567 -0.1913616018
-0.008451984008 -0.01781020546 -0.0483366642 -0.4256200671 -0.885036046 -0.1885702939
-0.005395042578 -0.018829422 -0.04892575073 -0.2484272001 -0.9418504735 -0.2262777317
0.006482565522 -0.01856571198 -0.04860260773 0.318884623 -0.9223475008 -0.2181460175
0.01111073208 -0.01661019325 -0.04721549988 0.5230707133 -0.8382609987 -0.1539984643
-0.01965010357 -0.005510018349 -0.04541927528 0.9296761373 0.3626274423 0.06483531327
-0.01612581253 0.05495469284 -0.07341443634 0 0 1
-0.01659496943 -0.01111184629 -0.04809846751 0.7805727542 0.6110700073 0.1315280259
0.004526239872 -0.01894649315 -0.04942772293 0.2223156843 -0.9486056961 -0.2252176056
0.01603132572 -0.01183273029 -0.0480669548 0.7719450299 -0.6157729072 -0.1578752595
-0.01805145073 -0.008774170399 -0.04799923325 0.8730772899 0.4666586682 0.1413001527
-0.008214658499 0.01517420244 -0.07905655289 0.3772004037 0.1471409873 0.9143682985
-0.011613764 -0.015230513 -0.05119811172 -0.572528457 -0.7811744866 -0.2489529824
-0.008435669502 -0.01717607848 -0.05088919258 -0.418774972 -0.8757168941 -0.2403069793
0.0009672178626 -0.0187896924 -0.05178325081 0.06841257854 -0.9561161613 -0.2848887594
0.01116268349 -0.004447378635 -0.06841036987 -0.5312687332 0.5590949432 0.6365268082
0.003872927964 -0.01857063103 -0.0513652029 0.2110312407 -0.9353196393 -0.2839770904
0.006470216274 -0.01792677641 -0.05114558697 0.3130375617 -0.9087556533 -0.2759903035
0.009092472076 -0.01690293169 -0.05079586887 0.4381205465 -0.8659289655 -0.2412828493
0.01681288719 0.00287703073 -0.06715097809 0.8070627965 -0.3358316775 -0.4856611236
-0.005166314602 0.04345022964 -0.08050891113 -0.3022608217 -0.02943249854 -0.9527707614
0.01074411225 -0.01575065088 -0.0514424305 0.4954096833 -0.8255713799 -0.2701872357
-0.01515433947 -0.01201167138 -0.05122790909 0.7350425209 0.6412941359 0.2201234283
-0.01377689648 -0.01351606607 -0.05103527641 -0.6643378689 -0.714504504 -0.2194048988
-0.01801289082 -0.006353563547 -0.05430253983 0.8780726986 0.4264049529 0.2171799993
0.01550753117 -0.01160645008 -0.0510913744 0.7561241659 -0.6244316773 -0.1958604759
-0.0176548605 -0.008302430749 -0.05139631748 0.8630391263 0.4668469799 0.1929180236
-0.01656710625 -0.01039078617 -0.05068177032 0.7973722162 0.5718664463 0.1927856748
0.006641052008 0.003305875301 -0.07613457489 -0.3366678772 0.4134230473 0.8460118938
-0.002576716453 -0.01795552874 -0.05390325832 -0.1448780184 -0.9329486757 -0.3295711278
0.006703306834 -0.009356479327 -0.06654578145 0.347117687 -0.7009928339 -0.6229914592
0.003996652651 -0.01759370728 -0.05419490967 0.1880293569 -0.9237482414 -0.3336677201
0.01343428969 -0.009190993309 -0.06043425655 0.6455998763 -0.626331272 -0.4369324175
0.006460452 -0.01688222249 -0.05423514239 0.3084424831 -0.893855644 -0.3254002493
0.000643443505 -0.01684646416 -0.05695914205 0.00819468886 -0.9059671224 -0.4232687329
0.008421986103 -0.01639503956 -0.05338687897 0.4160899559 -0.8587154435 -0.2991269556
0.01802078756 -0.00774909989 -0.05121203995 0.8710159687 -0.4600455371 -0.1723057925
-0.01958465958 -0.004339037895 -0.0500711441 0.9188404012 0.3666618608 0.1459157188
-0.01431203251 -0.01173614712 -0.05421515579 0.7089202488 0.6487354779 0.2767207265
-0.01173329782 -0.0141372757 -0.05402468109 -0.5688831434 -0.7694057607 -0.2904939665
-0.009295308431 -0.0154502786 -0.05468312327 -0.4243940903 -0.830346636 -0.3611289522
0.01376073329 -0.01235865784 -0.05413839086 0.6535200806 -0.6913492925 -0.3081357819
-0.01193977699 -0.005851495838 -0.06631187286 -0.57713483 -0.5816232262 -0.5732624275
0.01655707932 -0.009962423325 -0.05194915009 0.7711135536 -0.5944058423 -0.228178838
0.004169910987 -5.630717675e-05 -0.07509330241 -0.2231300643 0.4913832789 0.8418761474
0.003541718185 -0.01659378004 -0.05687895489 0.1642894571 -0.8985156258 -0.4070364167
0.01655113729 -0.008857217789 -0.0544029185 0.7807709988 -0.5561719272 -0.2847269479
-0.005182982445 -0.009523135185 -0.06704472733 -0.2931337344 -0.71417156 -0.6356347981
-0.01105785656 -0.01351696348 -0.05658838654 -0.5521987578 -0.7495946018 -0.3649444681
-0.008604780946 -0.01463614069 -0.05723724365 -0.4179455938 -0.8147855892 -0.4018033403
0.01381999922 -0.005983081102 -0.06399903107 0.6564160519 -0.5501850797 -0.5161534122
0.004032546401 0.008867092133 -0.07903928375 -0.2365076204 0.2787916727 0.9307735217
-0.00515814805 -0.01624919128 -0.05676908493 -0.2335579098 -0.8875936597 -0.3970241783
0.01526993704 -0.002192253888 -0.06571974945 0.7401586426 -0.4396115759 -0.5088288966
0.005805810928 -0.01609389114 -0.05671978378 0.2894628867 -0.8748154418 -0.3884703077
0.009733787673 -0.01409786252 -0.05706700025 0.4664398698 -0.7989164578 -0.3796924298
0.01294326973 -0.01174134369 -0.05699591141 0.6248238885 -0.6895284976 -0.3662588693
-0.003459517717 0.02000300407 -0.08087585449 0.1730724036 0.04279210276 0.9839790542
-0.01514223194 -0.009233801842 -0.05732274501 0.7258616049 0.5975014402 0.3407593866
0.0195894928 -0.002104609191 -0.05436942101 0.9231105714 -0.3228446074 -0.2088976601
-0.01753810438 -0.005557364782 -0.05711274974 0.8523804047 0.4457693731 0.2733812569
0.01669704628 -0.0007604290247 -0.06462050629 0.7905790729 -0.4044007986 -0.4598311903
-0.007631392002 -0.01375932045 -0.05982009048 -0.3725462661 -0.801534692 -0.4677086882
-0.00515921402 -0.01441918262 -0.06029361343 -0.2407509908 -0.8380848265 -0.4895434445
-0.002574927191 -0.01491491524 -0.06044371414 -0.129342093 -0.8615637778 -0.4908955894
0.000643531945 -0.01504076841 -0.06048168988 0.02291589772 -0.8668116096 -0.4981089188
0.01493557215 0.008955937386 -0.07267534637 0.7229780916 -0.2486033166 -0.6445921734
0.006457778215 -0.01404693651 -0.06018091202 0.3099288094 -0.8188373877 -0.483166085
-0.009994344711 0.003662275553 -0.0746627121 0.4565844539 0.3886756656 0.8002886126
0.008415759563 -0.01364621115 -0.05937531853 0.4092736334 -0.791180683 -0.4544537598
0.01802559566 -0.004923108339 -0.05668172836 0.8750259395 -0.4077492291 -0.2609026089
-0.01964121119 0.0002366183003 -0.05722643153 0.9273392949 0.280836062 0.2473316366
-0.01411849713 -0.008768890142 -0.05996183109 0.7054397859 0.590730237 0.3916535402
0.01698435402 0.03919847107 -0.07216661072 0.7935752214 -0.06629988471 -0.6048493145
-0.009297112147 -0.0124234457 -0.06060109711 -0.4436890882 -0.7665218081 -0.4643105758
0.01240762615 -0.01061853075 -0.0598280201 0.6173698088 -0.6698854417 -0.4124415283
-0.01804665375 -0.003657815218 -0.05841381073 0.8762547463 0.3810585659 0.2949101371
-0.01241905117 -0.009450796127 -0.06154750061 -0.5985827927 -0.6523541021 -0.4649008128
-0.01140937972 0.006114987969 -0.07477442932 0.5685503541 0.2980338847 0.7667635219
-0.01107356167 -0.01042097473 -0.06183390427 -0.5626252426 -0.6756168612 -0.4764396008
-0.005381947676 -0.01241749763 -0.06332854207 -0.2931114296 -0.7750497086 -0.5598067872
-0.004514870644 -0.01317169285 -0.06264186859 -0.1996717522 -0.8175745467 -0.5400954101
-0.002576901436 -0.01351313877 -0.06274193192 -0.1404426912 -0.8269777127 -0.5444113456
-0.01744693184 0.04915613556 -0.07148558807 0.8539977893 0.1310709808 0.5034959522
-0.01385244656 -0.004377722263 -0.06562717438 0.6699990342 0.5142956139 0.5353515815
0.003868302345 -0.01330801487 -0.06268191338 0.2205337189 -0.8089609243 -0.544928529
0.007505960941 0.01425123882 -0.07925990295 -0.3954213604 0.1456424048 0.9068793953
-0.005219563007 -0.005050988913 -0.07130897141 0.2362161275 0.6058523145 0.7597005424
0.006597451687 -0.01193123989 -0.06337035065 0.3416138916 -0.7626516018 -0.5492380934
0.009310196718 -0.01085369253 -0.06287448184 0.4329861638 -0.7356862267 -0.5208538738
-0.01973851967 0.003291074991 -0.05990081596 0.9259329277 0.2447144185 0.2876857085
0.00387106359 -0.01250990009 -0.06380790901 0.211856071 -0.7997886937 -0.5616538531
0.01064526685 -0.009268491109 -0.06378701146 0.4966082231 -0.6803476786 -0.5389872994
0.01519380426 -0.005510010958 -0.0624740696 0.7407301276 -0.506434212 -0.4414105424
-0.01126949549 0.0004984697402 -0.07196693611 0.5686602775 0.4273917844 0.7028241256
0.0006494487921 -0.007034026623 -0.07045806376 -0.01157900442 0.6764013239 0.7364422419
0.01973851967 0.003291074753 -0.05990081596 0.9314849266 -0.237783393 -0.2753087169
-0.01766093127 -0.000193202734 -0.06304815292 0.8556548585 0.3483699664 0.3827442092
-0.0166476326 -0.002569812059 -0.06302559853 0.7923533187 0.4337367415 0.4290089246
-0.005174025893 -0.01092151999 -0.0653942318 -0.2432720925 -0.7476782131 -0.6178964142
-0.005194627881 -0.007968211412 -0.06866521263 0.2425826591 0.6842578157 0.6877098918
0.005823907852 -0.01075035334 -0.06534623718 0.278044738 -0.7513765872 -0.5984349153
0.01617408975 -0.003029718876 -0.06338932927 0.7754337008 -0.4567237859 -0.4360114207
-0.01110707092 -0.007736602783 -0.0651832962 -0.5585826727 -0.6094989531 -0.5625801489
0.01110707092 -0.007736604214 -0.0651832962 0.5389092039 -0.6262103569 -0.5634158845
-0.01480620925 -0.002529394428 -0.06604391225 0.7129627478 0.462546027 0.5270059707
-0.003233690262 -0.009993144035 -0.06717353821 -0.1589630857 -0.7379037773 -0.6559182516
