# .PCD v0.7 - Point Cloud Data file format
VERSION 0.7
FIELDS x y z normal_x normal_y normal_z
SIZE 4 4 4 4 4 4
TYPE F F F F F F
COUNT 1 1 1 1 1 1
WIDTH 567
HEIGHT 1
VIEWPOINT 0 0 0 1 0 0 0
POINTS 567
DATA ascii
0.005299196482 -0.01988234329 -0.03144607735 0.2591970559 -0.9658008514 0.006752896525
-0.01530543423 -0.0008824806809 -0.06675876617 0.7254182677 0.4245540324 0.541776901
0.009545349757 -0.01822717094 -0.03123556964 0.4757265031 -0.8795379419 0.009864229567
0.01136065388 -0.01716951847 -0.03103583431 0.5699808058 -0.8216424261 -0.005060106876
0.0141640625 -0.01491154575 -0.02936128998 0.6676363746 -0.744462878 0.006057599128
-0.0160242335 -0.01287936401 -0.03096550878 0.7428480792 0.6693744922 0.01070141518
-0.0138938632 -0.002573052287 -0.0672165451 0.6614323743 0.4820449483 0.5745780034
0.003864468455 -0.01536573744 -0.05922028351 0.1920822833 -0.8635391716 -0.4662665499
-0.01413250923 -0.01494190979 -0.03083948898 -0.694266618 -0.7197098158 -0.00341234616
-0.01272906303 -0.01618935585 -0.03135666275 -0.5939122686 -0.8045112698 0.005462045776
0.007825432062 -0.006445777655 -0.06894153214 -0.403721477 0.6233279592 0.6696799417
-0.008621361256 -0.01867772675 -0.03310669327 -0.4219189285 -0.9066235432 -0.004262468256
0.008923356056 0.01609716225 -0.07885321045 -0.4408485608 0.09702297276 0.8923223012
-0.0165631218 -0.00682587862 -0.05797479248 0.8101037093 0.4871975881 0.3261448916
0.003725120942 -0.000727216204 -0.07479692841 -0.1651703641 0.5195969486 0.8382945555
-0.00727940321 -0.01925881958 -0.03334552956 -0.3587663122 -0.9334035996 0.006667346812
0.009747483253 -0.01643538666 -0.05132923889 0.4808201861 -0.8398443481 -0.2519393171
-0.01124971676 -0.0172517395 -0.03755675125 -0.5150804164 -0.857139187 0.002139831244
-0.005952504158 -0.01969776154 -0.03280849838 -0.2862577609 -0.9581501991 -0.002165688368
-0.0046232934 -0.0200736599 -0.03296397018 -0.2118829711 -0.9772384622 -0.01051639578
-0.01464837551 -0.01442013454 -0.03932331657 0.7169123515 0.6970776139 0.01093071117
0.003299274683 -0.02032441711 -0.03306754303 0.1306603981 -0.9914271786 9.948350872e-05
-0.0006556664109 -0.001704361439 -0.07457486725 -0.02789058731 -0.5506458341 -0.8342729053
0.0113758707 0.004948174953 -0.0743542099 -0.5543570318 0.3469706942 0.7565048702
0.001318800688 -0.02052832031 -0.03315174103 0.0319645506 -0.9994869168 0.002042241307
0.015489995 -0.01355589104 -0.03319436646 0.7384198498 -0.6743338622 0.003157162749
0.01108269596 -0.009581653595 -0.06296208572 0.552570641 -0.6611722833 -0.5074612285
0.005287898779 -0.01988571072 -0.03288623428 0.267855375 -0.9633880704 -0.01170145048
0.00727940321 -0.01925881958 -0.03334552956 0.3630384253 -0.9317675063 -0.003523624123
0.01554265785 -0.01349422312 -0.03097288895 0.7400435919 -0.6724713582 -0.01085147463
0.018538867 -0.008979007244 -0.02910833931 0.8670162418 -0.4982664655 0.003655939307
-0.02026022339 -0.003626797676 -0.0276512394 0.997998458 0.05656636568 0.02827232061
-0.01408542204 -0.01498722267 -0.03304542923 -0.6940735859 -0.7198907537 -0.004377227542
-0.005914577007 -0.01971046638 -0.03710172272 -0.278034106 -0.9605703035 -0.001314521613
-0.006492985606 -0.00859890914 -0.06747378349 -0.3270154692 -0.6921021475 -0.6434714449
-0.01270119762 -0.01620965004 -0.03281840515 -0.5962959962 -0.8027639495 -0.001061281788
-0.005933494806 -0.01970412922 -0.03496028137 -0.2850820448 -0.9584916623 -0.00468625748
-0.007212882042 -0.002957183361 -0.07214581299 0.3564110468 0.5494531173 0.755693349
-0.002630411506 -0.02041024971 -0.03524641228 0.1254489712 0.9920654859 0.008284163564
0.003288759947 -0.02032906914 -0.03521355057 0.1373930433 -0.9904869868 -0.007660327831
0.001291235 -0.01938018322 -0.04957897758 0.07215948757 -0.9707330271 -0.2290641799
0.001314615339 -0.02052945137 -0.03529465008 0.03975816185 -0.9992032973 0.003472652025
0.01270119762 -0.01620965004 -0.03281840515 0.6321456517 -0.7746793825 -0.01623974832
0.02026022339 -0.003626797676 -0.0276512394 0.997998458 -0.05656636568 -0.02827232061
-0.01241905117 -0.009450796127 -0.06154750061 -0.6008319301 -0.6546404193 -0.4587449326
-0.01380232573 -0.006965919733 -0.06289533043 0.6606237426 0.5799302183 0.4767150225
0.003597970247 0.03418471146 -0.08085932922 -9.452107421e-05 0.1997702457 -0.9798427629
-0.01644922415 -0.01233836905 -0.033190581 0.8026401764 0.5957479753 -0.0292078257
-0.01265960646 -0.01623993969 -0.03500011444 -0.6145775889 -0.7886994062 -0.0157363847
0.004791860104 0.01594087505 -0.08031347656 -0.2373810444 0.1441422418 0.9606629242
-0.01128638697 -0.01722728252 -0.0353958416 -0.5400814646 -0.8415689138 0.008589227442
-0.009939575195 -0.01803768539 -0.03500381851 -0.4879816862 -0.87283612 -0.00556611213
-0.01326719379 0.02081544113 -0.07635386658 -0.7088071122 0.1274198408 -0.6937987186
-0.007256121635 -0.01926660156 -0.03549885559 -0.3579521476 -0.9337139096 0.006971012138
-0.006508414745 -0.007001531601 -0.06908873367 0.3118232664 0.6593130608 0.68415827
0.01124685478 -0.000369661063 -0.07149343109 -0.5635351473 0.4502981683 0.6925746872
0.007924881458 -0.01897841263 -0.03538274002 0.3938146515 -0.9191059029 0.01242415377
0.009406628132 0.007449621201 -0.07656173706 -0.4695015892 0.3021080332 0.8296378692
0.01128638697 -0.01722728252 -0.0353958416 0.5393679203 -0.8420062793 0.01037652054
0.0112153759 -0.001824030519 -0.07048165894 -0.551759869 0.4916808383 0.6736549564
0.01847208786 -0.009103633881 -0.03139114571 0.8635509263 -0.5042616244 0.0001086813872
0.02019463158 -0.003959578991 -0.02930075264 -9.071550693e-06 -0.9802501974 0.1977613471
-0.01656209278 -0.01017660475 -0.05131546021 0.7979766627 0.5617313905 0.2183828992
-0.01842919159 -0.009164500237 -0.03289585495 0.8512625989 0.5246949267 -0.006871805509
-0.01543766928 -0.01361716461 -0.0354016304 0.7345118118 0.6785949976 -0.001107954882
0.009732197762 -0.0130288167 -0.05918644714 0.4854177366 -0.7598660181 -0.4324040419
-0.01375716305 -0.01183495808 -0.0553599205 -0.6546921886 -0.6796082337 -0.3309241406
-0.009907522678 -0.01805525398 -0.03715804672 -0.4863744488 -0.87372447 -0.006741370656
-0.009738945007 -0.01579717016 -0.05318885994 -0.4733502065 -0.8293615588 -0.2968147349
-0.008566087246 -0.0187026453 -0.03741356277 -0.4189501518 -0.9079968906 0.004734654085
-0.004563547134 -0.005249531269 -0.07135956573 0.234795282 0.6117985539 0.7553632934
0.009643336296 0.0444301796 -0.07877015686 0.3794712291 -0.06054006202 -0.9232207142
-0.00262205565 -0.02041293335 -0.03738069153 -0.1257290409 -0.9920640817 -0.001032548333
0.001310449898 -0.02053057671 -0.03742733192 0.04677654115 -0.9989047098 -0.001155825409
0.003936110497 -0.02020735645 -0.03729912758 0.1694234188 -0.9855312659 -0.004881499267
0.005914577007 -0.01971046638 -0.03710172272 0.289388196 -0.957180704 0.0077182883
-0.002703585863 0.01127487421 -0.0799110527 0.1549371425 0.2200501667 0.9631056048
0.01517651749 -0.006453437328 -0.06135691261 0.7436364115 -0.5305511046 -0.4068419999
0.008124283155 -0.01889235179 -0.03725154622 0.3963954981 -0.9180351988 0.009054443187
0.01109215403 -0.01619599438 -0.04916343689 -0.5433010011 0.8139726445 0.205602909
0.01403857231 -0.01503230667 -0.03524022675 0.6692064328 -0.743075017 -0.001506466947
-0.0006442526579 -0.0128833189 -0.06391533279 -0.04865074696 -0.816684419 -0.5750301423
-0.01698884964 0.007630197048 -0.06945040131 0.8295281657 0.2285765043 0.5095447026
0.01842798233 -0.00918359375 -0.03290354156 0.8620773429 -0.5067766768 -0.000234100352
0.01150405788 0.00965850544 -0.0760499649 -0.5737339566 0.2441803214 0.7817962124
-0.008497654438 -0.01859106445 -0.04303063583 -0.4191950743 -0.9050396809 -0.07196294665
-0.01959502411 -0.001711037397 -0.05496133041 0.9220070701 0.3163349872 0.223237852
0.02012942123 -0.00429043293 -0.03094070816 0.9979991096 -0.05655356423 -0.02827492908
-0.009845874786 -0.01803375721 -0.04141184807 -0.4779731071 -0.8773460279 -0.04249301399
-0.02003492451 -0.004744963884 -0.03336695862 0.9979991366 0.05655291522 0.02827527574
-0.002575198859 -0.0145896678 -0.06102472496 -0.1157686326 -0.8517471379 -0.5110033628
-0.01261821938 -0.01627008057 -0.03717113876 -0.6037730499 -0.7971070998 -0.008853005529
-0.01829725266 -0.009413275719 -0.03740103912 0.8580511767 0.5135639809 -0.0004644188633
-0.0006537363529 -0.003194737434 -0.07357232666 0.05908056837 0.5687540655 0.82038302
-0.007217614174 -0.01927947235 -0.03906040573 -0.3549886939 -0.9347190284 -0.01683345185
0.005895770788 -0.01971676731 -0.03923054504 0.2929452656 -0.9560956714 -0.008008646101
-0.006455550909 -0.01532868338 -0.05784507942 -0.3148336354 -0.8505590566 -0.4212233058
0.01261821938 -0.01627008057 -0.03717113876 0.609710168 -0.7925863105 -0.00777504646
0.003686355511 -0.006283273538 -0.07071774801 -0.1603115248 0.6567956884 0.7368308074
-0.005060885429 0.03574832535 -0.08054079437 0.0001156831795 0.1996900644 -0.9798591046
0.01687059784 -0.01180915356 -0.03541498184 0.8291234816 -0.5590044459 0.008263277639
-0.008476891518 -0.01839401817 -0.04506122971 -0.4166066401 -0.901819652 -0.1147180138
0.0183267746 0.005333655834 -0.06577550507 0.8544887698 -0.2653199444 -0.4466030333
0.02003492451 -0.004744963884 -0.03336695862 0.9979991366 -0.05655291522 -0.02827527574
-0.01683196831 -0.01186191273 -0.03689156723 0.8159292188 0.5779872904 0.01379137746
-0.0125771203 -0.01629915142 -0.0393287735 -0.6106161394 -0.7918805778 -0.008548731791
-0.009875621796 -0.01807274055 -0.03930202103 -0.485313683 -0.8742946941 -0.008911617904
0.009819010735 -0.01791576958 -0.04348280334 0.4781288912 -0.8752430729 -0.0730912223
-0.008538663864 -0.01871500969 -0.039550354 -0.4173905761 -0.9086813218 -0.00913030307
0.01825332642 -0.00950023365 -0.0388926239 0.8555107508 -0.517767348 -0.004281198037
-0.0006517221928 -0.0205350275 -0.04095611572 -0.05862784684 -0.9977493869 -0.03254130614
0.009875621796 -0.01807274055 -0.03930202103 0.4894935501 -0.8719906014 -0.005334376796
-0.01994582367 -0.005126627445 -0.03574847031 0.9979980683 0.05657329852 0.0282722053
-0.007195789337 -0.01924308586 -0.04116632462 -0.3558105286 -0.9337194772 -0.03958289599
-0.01806686974 -0.002710250139 -0.05954245377 0.8452031019 0.4073661442 0.3459545363
-0.001930191994 -0.01563242912 -0.05930215836 -0.07819369503 -0.8822184741 -0.46430196
0.007858675957 -0.01896506691 -0.04106027794 0.3804918758 -0.9239439408 -0.03941480361
-0.002668530703 0.005982004881 -0.07829156113 0.1364447607 0.3515872272 0.9261583282
0.009845874786 -0.01803375721 -0.04141184807 0.4803180581 -0.8766625778 -0.02751886041
-0.010619102 0.001530516446 -0.07309746552 0.5211287693 0.4241156081 0.7406421246
0.01164022223 -0.01691994603 -0.04122652054 0.5851313092 -0.8099893226 -0.03922560778
0.01394568062 -0.01512169743 -0.03959199524 0.6576696096 -0.7532510991 -0.009135992358
0.007767385006 -0.01665415716 -0.05347273827 0.3701943274 -0.8725530679 -0.3187590055
0.0153510704 -0.01371857166 -0.03905463791 0.7493729159 -0.6620304636 -0.01248591573
0.01677431679 -0.01194065189 -0.03909529305 0.8255674625 -0.5639941153 -0.01868161706
-0.004708611488 0.009175296783 -0.07897060394 0.2125681099 0.2829506764 0.9352826917
0.007762564898 -0.01594527149 -0.05530222893 0.3755782157 -0.8565342288 -0.3539634428
-0.01375850058 -0.01090758324 -0.05714944077 -0.6573995077 -0.6639877004 -0.3562951319
0.01829673195 -0.009421543121 -0.03740424347 0.8572675554 -0.5148708874 -0.0005547058965
-0.01484071445 -0.01418426005 -0.04114377085 0.7210512504 0.6919190024 0.03651285271
-0.01466547966 0.02015846443 -0.07504598999 0.7088603638 -0.1277695359 0.6936799913
-0.01812377739 -0.0005359645486 -0.06173329544 0.8521765201 0.3641917148 0.3757120885
-0.01253892517 -0.01626676369 -0.04145277405 -0.609100602 -0.7924649456 -0.03155576983
-0.005866772652 -0.01962474442 -0.0427165184 -0.2828857715 -0.9570442032 -0.06357698868
-0.00260110414 -0.02029919147 -0.04296982384 -0.1275352394 -0.9895624024 -0.06708959993
-0.01817186165 -0.009579325676 -0.04182332993 0.8539263425 0.5192016247 0.03520617113
0.006415205002 0.03032372284 -0.08016493225 -0.3489926984 0.02735837633 0.9367260089
0.0139169302 -0.0151105442 -0.04101651382 0.6658500987 -0.7456111265 -0.02660251869
0.01989031792 -0.005327648163 -0.03730554581 0.9979991869 -0.05655199877 -0.02827533091
-0.005969176769 0.002955528975 -0.07621657562 0.277468059 0.4218859364 0.8631475731
-0.01821107483 -0.009562941551 -0.04036931229 0.8564387202 0.5160678486 0.01366361175
-0.01251489544 -0.01621522522 -0.04285136032 -0.6086447828 -0.7915685797 -0.05450423912
-0.01864310646 0.01253452492 -0.06818294525 0.868059189 0.1479851033 0.4738920274
0.01864310646 0.01253452301 -0.06818294525 0.8678825607 -0.1482811817 -0.4741229293
-0.01115933704 -0.01715341949 -0.04319995117 -0.5110458355 -0.856707926 -0.0698833571
0.00980019474 -0.006505377769 -0.06758879852 -0.4839028578 0.6162170796 0.6213811512
-0.0006483260095 -0.02023474407 -0.04503756332 -0.05177652047 -0.989475266 -0.1351217594
-0.009819010735 -0.01791576958 -0.04348280334 -0.4717820705 -0.8779320766 -0.08159011537
0.01384298134 -0.0148353529 -0.04517357635 0.6560076936 -0.7459756987 -0.1147787566
-0.004546555281 -0.01974448299 -0.04485742187 -0.2040906212 -0.9717787442 -0.1182923946
0.001296968147 -0.02019091558 -0.04502143574 0.04812734808 -0.9911051184 -0.1240741817
-0.01514083958 -0.01106755829 -0.05371720123 0.7172314592 0.6410062849 0.2732946701
0.003895434439 -0.01987874222 -0.04490684414 0.1751117932 -0.9771952897 -0.1201050613
0.005857122421 -0.01949791908 -0.04406904602 0.2869012661 -0.9520713063 -0.1060560756
-0.01248482943 -0.01600537682 -0.04489202881 -0.6082301901 -0.7859837952 -0.1108400175
0.01183711624 -0.01668432236 -0.04302565575 0.5839261566 -0.8088172691 -0.06960509226
0.01387730074 -0.01502587843 -0.0431186657 0.6588475045 -0.7494341331 -0.06533334508
0.01672037506 -0.01196003914 -0.04126582336 0.8232654339 -0.5670805265 -0.0255675936
0.01821107483 -0.009562941551 -0.04036931229 0.8562026599 -0.5164439744 -0.01423469517
0.01983507347 -0.00552772522 -0.03885530472 0.9979999409 -0.05653793747 -0.02827683723
-0.01667401886 -0.01185343266 -0.04337765312 0.8045518778 0.5914054989 0.05418313263
-0.009796154022 -0.01768629932 -0.04550293159 -0.4600571391 -0.8775207848 -0.1352948668
-0.00650325799 -0.01914045048 -0.04533388901 -0.3418961874 -0.9312043718 -0.1263543233
-0.001939146519 -0.01961359215 -0.04828057861 -0.07454575479 -0.9767756551 -0.200878695
0.0118089447 -0.01646811914 -0.04506031609 0.5811892912 -0.8060202086 -0.1120287067
0.01667401886 -0.01185343266 -0.04337765312 0.8185572577 -0.5713347708 -0.05950290404
-0.01243789673 -0.01529206944 -0.04884892082 -0.6205062874 -0.7620381166 -0.1851211931
0.01975989723 -0.005718954086 -0.04112621307 0.9979993837 -0.05654833963 -0.02827570267
-0.01813788033 -0.009514014244 -0.04324245071 0.8501261278 0.523936171 0.05269208262
-0.0152239604 -0.01339499712 -0.04536137009 0.7225419603 0.6829035655 0.1075910581
-0.008459492207 -0.01808829117 -0.04704411125 -0.4230866528 -0.8908578063 -0.1654389713
-0.007118889332 -0.01755394363 -0.05170847702 -0.3501842585 -0.8947001287 -0.2772772345
-0.008137806177 0.01160131216 -0.07843042755 0.4022190191 0.1951157312 0.8945108787
-0.006490238309 -0.01882107258 -0.04730592537 -0.3319598916 -0.9287931998 -0.1647598933
0.003237444878 -0.0197266922 -0.04693684006 0.1524591724 -0.975062332 -0.1612750741
0.01966475296 -0.005598277569 -0.04472570801 0.997999185 -0.05655181526 -0.02827576599
-0.01453254795 0.05432380295 -0.07515129089 -0.7107456958 0.1154277355 -0.6939142554
0.001294234842 -0.01990166759 -0.04699951363 -0.05494138582 0.9839724108 0.169645922
0.004534077406 -0.01934093857 -0.04749136734 0.2180424064 -0.9563672355 -0.1944716427
0.001292661607 -0.0196565237 -0.04829580879 0.06005640645 -0.9782261084 -0.198662802
0.005836318016 -0.01902716541 -0.0473794899 0.2845453 -0.9420955358 -0.1774541455
-0.004520220757 -0.0184406023 -0.05132076073 -0.2033117467 -0.9388508547 -0.2778909972
-0.01897949791 0.04795736694 -0.06857408142 0 0 1
0.007801825404 -0.01835163546 -0.04713823605 0.3645337906 -0.9160771023 -0.1670863791
0.00611852932 0.01310566139 -0.07951048279 -0.2867050601 0.1827921375 0.940418653
0.0152239604 -0.01339499712 -0.04536137009 0.7480278759 -0.6551161058 -0.1061940904
0.001287095904 -0.01470143533 -0.06105814743 0.04738129125 -0.8574605979 -0.5123634807
-0.019699049 -0.00570132637 -0.04330913162 0.9979993496 0.05654897272 0.02827564276
-0.01809445477 -0.009298056602 -0.04532088661 0.8497696624 0.5207321056 0.08203410938
-0.01663433838 -0.01163445854 -0.04544077301 0.8217153802 0.5606299897 0.1023613626
-0.01245923805 -0.01569609547 -0.04689028549 0.6164790119 0.7738741579 0.1451634101
-0.01044374704 -0.01698472977 -0.04734854889 -0.5126508512 -0.8424225785 -0.1658713478
-0.002800144275 -0.01934206518 -0.04910565694 -0.1517787828 -0.9624956043 -0.224867545
-0.01779296684 0.024861269 -0.07097842407 0 0 1
0.003663222631 -0.01921166992 -0.04906018957 0.1819156509 -0.955096764 -0.2338736142
-0.01744693184 0.04915613556 -0.07148558807 0 0 1
0.01178498507 -0.01615314436 -0.04705289268 0.5801241199 -0.7993683156 -0.1564170755
0.01536673927 0.001246926785 -0.06828799438 0.7283561663 -0.38155025 -0.5691368041
0.01663433838 -0.01163445854 -0.04544077301 0.8184176403 -0.5676434029 -0.08929464258
0.01809445477 -0.009298056602 -0.0453208847 0.8491230482 -0.5213238251 -0.08492065892
-0.01966475296 -0.005598276615 -0.04472570801 0.9979991803 0.05655189338 0.02827577464
-0.01042641783 -0.01656727028 -0.04929241371 -0.5146967551 -0.8332823614 -0.2018111901
-0.008444403648 -0.01770742035 -0.04899514771 -0.4145592977 -0.8873333927 -0.2019406818
-0.006478867769 -0.01843217754 -0.04924835587 -0.2964425651 -0.9319092782 -0.2089662719
-0.004526239872 -0.01894649315 -0.04942772293 -0.2029065185 -0.9504058244 -0.2357068383
0.00978408432 -0.007592412949 -0.06651517487 0.4827755764 -0.6397699258 -0.5980152046
-0.0006454651952 -0.01942268753 -0.04959383011 -0.05187874181 -0.9705095023 -0.2354143201
0.007787998915 -0.01796765518 -0.04908610153 0.3839091686 -0.9019826379 -0.1975881351
0.01384078407 -0.0049313519 -0.06508876038 0.6480117033 -0.5441921106 -0.5328562462
0.009760681629 -0.01693854618 -0.04942139053 0.4742323324 -0.8559343551 -0.2061069496
0.01243789673 -0.01529206944 -0.04884892082 0.6099789577 -0.7704322754 -0.1853639129
-0.01272341251 0.004510744572 -0.07306149292 0.6215297037 0.3504782235 0.7006181858
0.01519360065 -0.01306758213 -0.04736800003 0.7285495869 -0.6670020002 -0.1559609926
0.01187039948 -0.002605422974 -0.06930292511 -0.5793053955 0.5036731337 0.6408733362
-0.01963545418 -0.005421760082 -0.04611284256 0.9979990467 0.05655407748 0.02827612198
-0.01806039238 -0.008933926582 -0.04734069061 0.8459838032 0.5185214072 0.1242857798
-0.01379395771 -0.014057374 -0.04912055206 -0.6677828572 -0.7201000374 -0.1884727881
-0.008433062553 -0.01720279694 -0.05089829636 -0.4228177771 -0.8704017018 -0.2522419571
-0.006253991922 -0.018051054 -0.05095795695 -0.2922084161 -0.9191501773 -0.2641537299
-0.002580035478 -0.01876611328 -0.05143183327 -0.1205726284 -0.9536457488 -0.2757209223
0.001289522737 -0.01887402248 -0.05146852589 0.0548727227 -0.9582383848 -0.2806566981
0.006288634777 0.0231397171 -0.08020912933 -0.3417106706 0.02796129989 0.9393891543
0.003872927964 -0.01857063103 -0.0513652029 0.1857352926 -0.9446978988 -0.270274455
0.005818368196 -0.01813118076 -0.05121533394 0.2840460348 -0.9205134651 -0.2682774881
-0.002849586566 -0.000393363146 -0.07517413076 0.1423708142 0.5099737246 0.8483262058
0.007125239372 -0.01789080048 -0.05044320297 0.3313297263 -0.9115807801 -0.2433949337
0.02002675819 0.009956196785 -0.06305750656 0 0 1
0.01379395771 -0.014057374 -0.04912055206 0.6479618976 -0.7362909197 -0.1949898994
0.01513784218 -0.01022239733 -0.05554100227 0.7324036196 -0.6063706472 -0.3096765671
0.01517099714 -0.01259557724 -0.04931841278 0.7217696083 -0.6665715961 -0.1863623882
0.01961383438 -0.0008041567206 -0.05611114502 0.9238523295 -0.3055578647 -0.2305022009
0.0165942173 -0.01112474251 -0.04810347366 0.8122860517 -0.5656194959 -0.142358548
0.01806039238 -0.008933927536 -0.04734069061 0.846844804 -0.5171788897 -0.1240156198
0.01514083958 -0.01106755924 -0.05371720123 0.723292155 -0.6307131995 -0.2811571062
-0.01833414459 0.03543326187 -0.0699574585 0 0 1
0.01963545418 -0.005421760082 -0.04611284256 0.9979990619 -0.05655382757 -0.02827608513
-0.0196134758 -0.00513636446 -0.0474593811 0.9979990596 0.05655387436 0.02827607247
-0.01541905308 0.00289718318 -0.06925922394 0.730347257 0.3554119642 0.5833311409
-0.01803605175 -0.00841471529 -0.04930201721 0.8444634612 0.5120554339 0.1571009078
-0.0104122982 -0.01606391859 -0.0512030735 -0.4990390095 -0.8303669313 -0.247892772
-0.0006439617276 -0.01832031631 -0.05333955383 -0.05265648146 -0.9452695199 -0.3220137105
0.01107711315 -0.01569245052 -0.05107690811 -0.5556241905 0.7957037386 0.2411168168
-0.00527649498 0.0514992218 -0.08047559357 0.0001547983476 0.1913740667 -0.9815171637
0.01241704369 -0.01458102322 -0.05139528275 0.6144594905 -0.7487025588 -0.2487649753
-0.003831003666 0.05803801727 -0.08079888153 3.708501778e-05 0.1870061404 -0.9823587441
0.01657829857 -0.01079883862 -0.04940726471 0.8119383855 -0.5564270792 -0.1764793579
0.00496041584 0.02840520859 -0.08056414795 0.0009634708727 0.2030216332 -0.9791737783
0.009313338757 0.003157765865 -0.07478330612 0.4549286451 -0.3970945674 -0.7970921104
0.01803605175 -0.00841471529 -0.04930201721 0.8455913041 -0.5092927402 -0.1599882849
0.0196134758 -0.00513636446 -0.0474593811 0.9979990596 -0.05655386391 -0.02827609399
-0.008421986103 -0.01639503956 -0.05338687897 -0.4103599435 -0.8540260051 -0.3197566254
-0.004511847258 -0.01425228739 -0.06092334175 -0.2015480964 -0.8409425945 -0.5021891254
-0.006679338296 -0.01712107658 -0.05339858119 -0.3313051234 -0.8883869532 -0.3178136823
0.001287046522 -0.01736262703 -0.05576009941 0.05964479682 -0.9203576127 -0.3865027335
-0.00257743609 -0.01817017365 -0.05328960609 -0.1005158355 -0.9415659412 -0.3214811739
0.001288225085 -0.01827795219 -0.05332540894 0.05793856801 -0.9457075098 -0.3198131144
0.009730388165 -0.01427034235 -0.05682698059 0.4745144191 -0.79227995 -0.3835733919
0.003869014621 -0.01797501183 -0.05322461128 0.1660500431 -0.9323971422 -0.3210341919
0.005812447071 -0.01753668022 -0.05307854843 0.2871434365 -0.9049601737 -0.3139995714
0.005389014959 0.009564224243 -0.07888409424 -0.2890833333 0.255322675 0.9226273126
0.01515405846 -0.01201699257 -0.05122976685 0.7305869081 -0.6480650346 -0.2150685488
0.01656209278 -0.01017660475 -0.05131546021 0.8124983165 -0.5453624383 -0.2059764466
0.01959079266 -0.00455445528 -0.04942382622 0.9979992458 -0.05655096876 -0.02827531141
-0.004512325048 -0.01717155647 -0.05501487732 -0.1950914573 -0.9088734373 -0.3686304359
0.001288824439 -0.01283751774 -0.06390210342 0.06200123978 -0.8141618202 -0.577318263
-0.01574569702 0.01187736797 -0.07267573547 0.7449203811 0.1717219206 0.6446744975
0.003675679763 -0.008180090904 -0.06894846344 -0.1625136699 0.687708618 0.7075635405
-0.002575996816 -0.01774088383 -0.05451691055 -0.1278593945 -0.9264552273 -0.3540235685
-0.0006436024904 -0.01789112473 -0.0545661087 -0.03287508786 -0.9338975748 -0.3560260501
0.001287506104 -0.0178487463 -0.05455217934 0.04774538371 -0.9342454835 -0.3534200827
-0.008570584297 -0.0007479752898 -0.0729684906 0.4091013109 0.4939686333 0.7672229837
0.003220583916 -0.01767539978 -0.05449557114 0.1447605487 -0.9230706408 -0.3563495132
0.004081363837 -0.01717712402 -0.0552446022 -0.1996143534 0.9042480789 0.3774778428
0.005808172941 -0.01686216545 -0.05491427994 0.284654246 -0.8900936903 -0.3559567148
0.01376251841 -0.01262050772 -0.05352762604 0.6523900128 -0.7003698645 -0.28960201
0.01514508533 -0.01158739758 -0.05248850632 0.7385192678 -0.6300238369 -0.2401234182
-0.01957893181 -0.003809307575 -0.05133276749 0.9195331423 0.3566341226 0.1651390406
0.009828084469 -0.004756869555 -0.06918081665 -0.490898988 0.5726339284 0.6565885832
-0.01801296234 -0.006962441206 -0.05308208084 0.8829144172 0.4321081184 0.1836973214
-0.01469156806 -0.008475227038 -0.05940895335 0.711901272 0.5835612803 0.3907080893
-0.01240080404 -0.01316889429 -0.05509507561 -0.6118234749 -0.7232301227 -0.3203283084
0.01398590755 0.0009462504983 -0.06976591492 0.6577157308 -0.4238682056 -0.6226923492
-0.00257508111 -0.01725414085 -0.05572518158 -0.1258200889 -0.914798401 -0.3838140054
-0.0006433722377 -0.01740523338 -0.05577388763 -0.05255602192 -0.9220101816 -0.3835819203
-0.0138407836 -0.004931353092 -0.06508876038 0.6449237468 0.5452514167 0.5355130749
0.01105933571 -0.01407328558 -0.05538658714 0.5331699213 -0.7712834347 -0.3476373087
0.007686556339 -0.0007350921482 -0.07342513021 -0.3755038288 0.490804161 0.7861985437
0.016552742 -0.009434196472 -0.05318325043 0.8076343172 -0.5433130876 -0.2292110348
0.009750939369 -0.01038466263 -0.06319461441 0.4798785488 -0.703811314 -0.5237997831
-0.01958155441 -0.002843632579 -0.05317157173 0.9209376564 0.3333521685 0.2018667005
-0.01669704628 -0.0007604299784 -0.06462050629 0.8206506126 0.376415962 0.4299344085
-0.01513784218 -0.01022239685 -0.05554100227 0.7238389181 0.6122578165 0.3181156815
0.005301839113 0.00269475174 -0.0762774353 -0.2703428771 0.4259397308 0.863417671
-0.009730388165 -0.01427034187 -0.05682698059 -0.4608791401 -0.7975112692 -0.3893150314
-0.008414460659 -0.01487591314 -0.05701829147 -0.4169053258 -0.8210159635 -0.3900291488
-0.002574304223 -0.01645761061 -0.05751748276 -0.1017917647 -0.8999540162 -0.4239353787
-0.0006431762576 -0.01660990429 -0.05756541061 -0.05129992139 -0.9047532094 -0.4228356041
-0.004586500168 -0.002543094397 -0.07341196442 0.2093096401 0.557531886 0.8033353414
-0.005806454182 -0.01429013824 -0.06025405121 -0.2821329712 -0.8297171126 -0.4816331588
0.003864333689 -0.01625969028 -0.05745511532 0.185823889 -0.885737324 -0.4253691046
0.005805810928 -0.01609389114 -0.05671978378 0.2837856169 -0.8745620414 -0.3932009148
0.00797829771 -0.01495727857 -0.05727210999 0.3929829381 -0.8279213504 -0.4001382861
0.01375716305 -0.01183495808 -0.0553599205 0.6506157603 -0.6929308438 -0.3107184869
-0.009737709045 -0.01197251225 -0.06092257309 -0.4729163679 -0.7356584435 -0.4849296479
0.01958155441 -0.00284363234 -0.05317157173 0.9209376497 -0.3333521747 -0.201866721
-0.01801391029 -0.00603174305 -0.05490751648 0.8822045949 0.4101638048 0.2312589587
-0.01240001202 -0.01199326372 -0.05748902893 -0.6145653548 -0.7005728047 -0.3626391733
-0.0110576849 -0.01322394657 -0.05718475723 0.5401144208 0.7430652653 0.3951334254
0.005805130005 -0.01553735733 -0.05791041183 0.2893860932 -0.8556591581 -0.4290723648
0.01195256964 -0.01240349134 -0.05738760503 0.5823497882 -0.7173847041 -0.3823975818
0.01375850058 -0.01090758276 -0.05714944077 0.6684788981 -0.6522845471 -0.357296561
0.01801391029 -0.00603174305 -0.05490751648 0.873158093 -0.4250931947 -0.2385177569
0.007584607283 -0.008340505759 -0.06717591858 0.3471651228 -0.6902903852 -0.6348035614
-0.01802083015 -0.005307346344 -0.05609392929 0.8467900842 0.4546009311 0.2761965725
0.005838301659 -0.008835022926 -0.0675378952 0.3005664504 -0.698485956 -0.6494437452
-0.01514049435 -0.009267564774 -0.05733259201 0.7195000044 0.5941123703 0.3596529371
0.001315987855 -6.239080953e-05 -0.07555121231 -0.05066864895 0.5116218615 0.85771543
0.01295086479 0.01187759304 -0.07553253174 -0.6423423488 0.1886226208 0.7428444076
-0.0103962667 -0.01264489627 -0.0590686903 -0.5028104945 -0.7470568131 -0.4348421835
-0.003218575716 -0.01549839115 -0.05926122665 0.1704121148 0.8705244656 0.4616783144
0.001286693007 -0.01567574167 -0.05931551743 0.06738859156 -0.883251212 -0.4640324064
0.01673674202 0.000571672976 -0.06565888977 0.8181686794 -0.3560606052 -0.4514652339
0.007543150743 -0.01411078676 -0.05928945033 0.3730901661 -0.8130894908 -0.4468659843
0.01106033564 -0.01226097584 -0.05895093346 0.5362785834 -0.7344994535 -0.4158314968
0.01802083015 -0.005307347298 -0.05609392929 0.8384434991 -0.4668307757 -0.2812143768
-0.01243620872 -0.008144422531 -0.06323523331 -0.6138646664 -0.61456354 -0.4954612261
0.01959502411 -0.001711037755 -0.05496133041 0.9220070709 -0.3163349882 -0.2232378472
-0.01961383438 -0.0008041567206 -0.05611114502 0.9238523528 0.3055578283 0.2305021559
-0.01803036118 -0.004538869381 -0.05726952744 0.8790694778 0.3916807134 0.2717040152
-0.01376477909 -0.00987430954 -0.05890977478 0.6681852291 0.6354795709 0.386903366
-0.008416542053 -0.0133227787 -0.0599605217 -0.4135400811 -0.7867272086 -0.4583065575
-0.000643394053 -0.01474531841 -0.06107135391 -0.05008093091 -0.8553874244 -0.5155620763
0.00386572361 -0.01438703513 -0.06096392536 0.1759744727 -0.8474124043 -0.5009243475
0.005806454182 -0.01429013824 -0.06025405121 0.2876860207 -0.8288266854 -0.4798781919
0.008416542053 -0.0133227787 -0.0599605217 0.397664866 -0.7960205739 -0.4563046135
0.01376477909 -0.009874310493 -0.05890977478 0.6597628051 -0.6475034928 -0.3813820496
0.01515176105 -0.008144316912 -0.05907742119 0.7177088461 -0.5773065687 -0.3893727493
-0.01267192173 0.002653582096 -0.07212319183 0.6261778694 0.3836410252 0.6787642004
0.0165631218 -0.00682587862 -0.05797479248 0.8174457192 -0.4794038003 -0.3193031357
-0.002044389725 0.01453220081 -0.08061675262 0.1105045046 0.176368021 0.9781017716
0.01803036118 -0.004538869381 -0.05726952744 0.8829730801 -0.3829292917 -0.2715210809
0.01678435707 0.002050247669 -0.06666594696 0.8245244823 -0.3228082495 -0.4647087391
-0.01243629456 0.03822027206 -0.07699423981 0.5911398673 0.04891155618 0.8050846645
-0.01657481956 -0.006009781837 -0.05912785339 0.810283855 0.4783904389 0.338500609
0.01963881874 0.0001991287172 -0.0572359314 0.9979991473 -0.05655210183 -0.02827652213
0.01116268349 -0.004447378635 -0.06841036987 -0.5231328511 0.5685736187 0.6348669627
-0.01062778823 -0.01094545269 -0.06153104401 -0.5099269094 -0.7073160332 -0.489569787
-0.008420334816 -0.01259879112 -0.06110950851 -0.4092009032 -0.7676184194 -0.4932713077
-0.006460009575 -0.01335552263 -0.06133538818 -0.3317059044 -0.7982922353 -0.5026934454
0.007765650272 -0.01287012768 -0.06119054413 0.3783278562 -0.7800809198 -0.498339033
-0.01249873352 -0.004547503948 -0.06705817413 0.6193340955 0.5324249473 0.5770172906
-0.01171636581 0.01667617035 -0.07729098511 0.5317069199 0.1067039342 0.8401797556
0.009737709045 -0.01197251225 -0.06092257309 0.4847648297 -0.7352529942 -0.4737152039
0.01272045517 0.04666254807 -0.07675450134 0.7090588822 0.1164145289 -0.6954733346
0.01151697159 -0.01062255383 -0.06097689311 0.558684103 -0.6845765275 -0.4682168846
0.01377118206 -0.009137047768 -0.06007201767 0.6633571767 -0.6158976769 -0.4250027148
0.01991348267 0.007566283226 -0.06227578354 0.9979991227 -0.05655193223 -0.02827772941
-0.01967098045 0.001314882994 -0.05833221817 0.9979992105 0.05655138694 0.0282757223
-0.01659959126 -0.004653527498 -0.06082578278 0.8191280251 0.4406364985 0.3672448156
-0.01517651749 -0.00645343709 -0.06135691261 0.7268086628 0.5447820633 0.418284199
-0.001932068825 -0.0135819416 -0.06276190567 -0.07381494148 -0.8350937021 -0.5451328857
-0.0137821455 -0.008301820755 -0.06120773315 0.6465074996 0.6129640365 0.4542060578
-0.01255432987 -0.002005208015 -0.06914535522 0.6222875681 0.4756802013 0.6216804072
-0.00224233675 0.04856119156 -0.08104790497 -8.754384912e-06 0.1911265708 -0.9815653997
-0.008424363136 -0.01186538982 -0.06225884247 -0.413396649 -0.7494342578 -0.5171571365
-0.00451650548 -0.01277064705 -0.06320461273 -0.1928681906 -0.8041136099 -0.5623194496
-0.002793039044 -0.01296208445 -0.06348643112 -0.1502238281 -0.8088945477 -0.5684385737
0.007441500187 0.01091107655 -0.07858467102 -0.3580792302 0.2236789877 0.9065026064
-0.000643815577 -0.0136709547 -0.06278803253 -0.05305993438 -0.8249576138 -0.5626984795
0.001287942201 -0.01362644768 -0.0627749691 0.06349928758 -0.8301511436 -0.5539105697
0.003869682968 -0.01290895748 -0.06324491119 0.19312131 -0.809268857 -0.5547865145
0.007552774111 -0.01195904891 -0.06274129995 0.3478206697 -0.7702926743 -0.5344810357
0.009742925644 -0.01122088814 -0.06206951904 0.4890173713 -0.7154254682 -0.4990274642
0.01241905117 -0.009450797081 -0.06154750061 0.6002736494 -0.6570435021 -0.456032216
0.01378214645 -0.008301817894 -0.06120773315 0.6458945349 -0.6166173952 -0.4501146941
0.0165893383 -0.005141805172 -0.06026913452 0.8142897563 -0.4524050587 -0.363678231
0.01806686974 -0.002710250378 -0.05954245377 0.8468344501 -0.4053883047 -0.3442843832
0.01967098045 0.001314883351 -0.05833221817 0.9979992038 -0.0565514641 -0.0282758032
-0.01809108734 -0.001694402456 -0.06065591431 0.8463526669 0.3973588446 0.3546732467
-0.004616303444 0.0006263515949 -0.07538738251 0.2225350144 0.4926780896 0.841276689
-0.008431243896 -0.01103275204 -0.06338176727 -0.4194955972 -0.7295574783 -0.5401567641
-0.01525315952 -0.002827210188 -0.0651968689 0.7312352059 0.4545969161 0.5085633859
0.01198864905 -0.008328215122 -0.06351712545 0.5762621452 -0.6402311865 -0.5079625655
-0.01467632341 0.001096587121 -0.06902695847 0.7228673942 0.391346358 0.5694828869
0.01660984421 -0.004165248871 -0.06138243103 0.8208442186 -0.4271074828 -0.3792017496
0.01809108734 -0.001694402456 -0.06065591431 0.84657404 -0.3976393077 -0.3538295858
-0.003459517717 0.02000300407 -0.08087585449 0.0002400930689 0.2079869275 -0.9781315762
0.01971194267 0.002568644524 -0.05939400101 0.9979992285 -0.05655109318 -0.02827567309
-0.01976509666 0.004013505459 -0.06040763092 0.9979996263 0.05654706982 0.02826967823
-0.0166476326 -0.002569812059 -0.06302559853 0.8191604774 0.4136593709 0.3973185587
0.01574569702 0.01187736511 -0.07267573547 0.7497997187 -0.1712461222 -0.6391206048
-0.01521521664 -0.004484125376 -0.06357245064 0.7236187155 0.5088777329 0.4662825405
-0.01021269925 -0.00861244456 -0.06497291311 -0.5008961158 -0.6545298374 -0.5662983075
-0.008438146591 -0.01019748592 -0.06450823975 -0.4175380319 -0.710148064 -0.5668789281
-0.004524143934 -0.01109268665 -0.06544222641 -0.2064392717 -0.7597411222 -0.6165843449
0.001289865494 -0.01201086473 -0.06502203751 0.05898681034 -0.7867785667 -0.6144103216
0.004092705329 -0.01104084365 -0.06565388743 0.1953493625 -0.7632506478 -0.6158628705
0.005823907852 -0.01075035334 -0.06534623718 0.290885606 -0.7443058694 -0.6011608246
0.007565793037 -0.0102650636 -0.06498232015 0.3597350061 -0.7247335673 -0.5876665567
0.01521521664 -0.004484125614 -0.06357245064 0.7266524718 -0.5096706264 -0.4606647781
-0.01818441963 0.001400613397 -0.0633070755 0.8542988077 0.3268052948 0.4041928333
-0.004545629978 -0.007615474701 -0.06925090027 -0.2231579547 -0.6787516871 -0.6996403894
-0.00258334738 -0.01101078224 -0.06609753036 -0.1138096273 -0.7663175352 -0.6323011973
0.01246813345 -0.006182507753 -0.06543789291 0.6027292992 -0.5819121092 -0.5459813999
0.01818441963 0.001400615096 -0.0633070755 0.8542988683 -0.3268052323 -0.4041927557
0.01983096123 0.005658659935 -0.0613731842 0.9979993006 -0.05655031959 -0.02827467835
-0.01068802643 -0.006283446948 -0.06707140096 0.5267662651 0.5993789709 0.6027123287
-0.004531912327 -0.009698750496 -0.0670927124 -0.2001403695 -0.7270534283 -0.6567626244
-0.002586435914 -0.01006711388 -0.06719358444 -0.105132711 -0.7377834702 -0.666800318
-0.0006461724043 -0.01023717594 -0.06723999023 -0.05184285689 -0.7490894203 -0.6604372481
0.001292676985 -0.01018913078 -0.06722681046 0.06609564115 -0.7423729616 -0.6667186454
0.01113194227 -0.006172480106 -0.06681270218 -0.5320906197 0.5938953341 0.6034632587
0.01285961056 0.00904224205 -0.07478160095 -0.660711531 0.2449740478 0.7095406885
0.01669704628 -0.0007604290247 -0.06462050629 0.8206505844 -0.3764160503 -0.429934385
-0.02002675819 0.009956197739 -0.06305750656 0 0 1
-0.01673674202 0.000571675241 -0.06565888977 0.8077506086 0.3547488605 0.470842012
-0.0084721241 -0.007221509457 -0.06778207397 -0.410831257 -0.6398016425 -0.6495163866
-0.006614316225 0.001465148091 -0.0751876564 0.3341969899 0.4551376163 0.8253254644
-0.00259202528 -0.008539922833 -0.06881771851 -0.1012921427 -0.7038459248 -0.7030937462
-0.0006475504041 -0.008718402386 -0.06886519241 -0.05484384414 -0.7060506456 -0.7060344458
0.001295448154 -0.008667925358 -0.0688516922 0.06115851956 -0.7062567779 -0.7053091515
0.00453827095 -0.008690629005 -0.06817799377 0.2062216329 -0.7083962945 -0.6750165391
-0.0006577783227 -0.0001263006628 -0.07556642914 0.02930335932 0.5035857268 0.8634481623
0.01249873352 -0.004547503948 -0.06705817413 0.606894272 -0.5456700654 -0.5778611618
0.01530543423 -0.0008824797571 -0.06675876617 0.7307172454 -0.4250802212 -0.5341901467
-0.02027618217 0.01446599579 -0.06327352905 0 0 1
-0.01636258984 0.009577118397 -0.07109554672 0.778400963 0.2034719131 0.5938780358
-0.01252544403 -0.003304012299 -0.06810510254 0.6197502775 0.5117895517 0.5949630647
-0.01027295081 -0.004653704166 -0.06892400106 0.4972815681 0.5713969159 0.6528526683
0.005852059841 -0.007244213104 -0.06915290833 -0.2862984845 0.6648828473 0.6899014257
0.01252544403 -0.00330400753 -0.06810510254 0.6135760477 -0.5091875017 -0.6035333643
-0.01840644455 0.007295235157 -0.06667784882 0.8606259927 0.2237315774 0.4574571914
-0.01258814716 -0.000585218668 -0.07016214752 0.6056812383 0.4539238267 0.6535314814
-0.01394536114 -0.0005449803472 -0.06876100159 0.666724348 0.4383266921 0.6027838375
-0.01118646908 -0.003205636263 -0.069460495 0.5453106654 0.523621028 0.6545664957
-0.008503974915 -0.004905183315 -0.06990418243 0.4248886346 0.5888573163 0.6875439689
-0.007179102421 -0.005565325737 -0.07007637024 0.3405683263 0.6148570756 0.711311459
-0.005863274097 -0.006077421188 -0.07020957184 0.2960567444 0.6330500645 0.7152608056
-0.004554027081 -0.006470427513 -0.07031161499 0.1958583212 0.6482284274 0.7358256749
-0.002601448059 -0.006271956444 -0.070941782 0.1150657293 0.6552861037 0.7465654695
-0.0006498802006 -0.006461791992 -0.07099053192 0.05467268042 0.6644010962 0.7453737864
0.007841539145 -0.005235252857 -0.06999027634 -0.3883777248 0.5997633482 0.6996046519
-0.0142341671 0.008826166153 -0.07341755676 0.6918285526 0.2375846248 0.6818554098
0.01394536114 -0.0005449829698 -0.06876100159 0.6605648913 -0.4365934799 -0.6107701349
0.01840644455 0.007295233727 -0.06667784882 0.8606260023 -0.2237315929 -0.4574571657
-0.01053870058 -0.002321689188 -0.07060958481 0.5051699174 0.5118008092 0.6948836495
0.004563547134 -0.005249531746 -0.07135956573 -0.2209705342 0.6230044351 0.7503582457
0.00587557888 -0.004852446556 -0.07125837708 -0.2918953918 0.5995705601 0.7451927426
0.007858520031 -0.003988361597 -0.07103738785 -0.3696740168 0.5759718052 0.7291074001
0.01850450706 0.009571126938 -0.06751142883 0.867796865 -0.1749091471 -0.4651186852
-0.01056757975 -0.0008909338713 -0.07162511063 0.4932787983 0.4938589985 0.7160861099
-0.004574508667 -0.003931735277 -0.07239031982 0.2095760507 0.6001097488 0.7719754973
-0.0006520344615 -0.004576963902 -0.07255219269 0.05886459644 0.609627954 0.7904990304
0.005897964239 -0.002809683323 -0.07279493713 -0.2839251735 0.5518748375 0.7841050055
0.00988830471 -0.001412206173 -0.07175679016 -0.489934683 0.4949772919 0.7176081709
0.01698884964 0.00763019371 -0.06945040131 0.8268439227 -0.2301816846 -0.5131720176
-0.01555064487 0.006745709419 -0.07109712982 0.7416129795 0.2685501857 0.6147283843
-0.009919682503 0.0001536160707 -0.07274517059 0.5024988819 0.4557831879 0.7346812637
-0.00724454236 -0.0007286498845 -0.07365345001 0.3590352237 0.4965494256 0.7902736084
0.009919682503 0.0001536144316 -0.07274517059 -0.4831874039 0.4652514125 0.741667753
0.01128382874 0.001236022949 -0.07247663116 -0.5607798225 0.419213097 0.7139932563
-0.01355672264 0.02849316025 -0.0760998764 -0.7092849417 0.1244715359 -0.693845594
0.01708820152 0.01006853008 -0.07025795746 0.8330470135 -0.1834941843 -0.521883663
0.01885596085 0.0167560463 -0.06855529785 0 0 1
-0.01721594429 0.01303173351 -0.07095243835 0.8369056264 0.1353431815 0.530350069
-0.01415531063 0.006482540607 -0.0725763092 0.6736652804 0.2991240876 0.6757957311
-0.008598546982 0.0008479510546 -0.07395629883 0.4239729377 0.4540535792 0.7836340315
0.001311759561 -0.001641258776 -0.07455954361 -0.05957565355 0.5393727101 0.8399570352
0.005924804688 -0.0005333034992 -0.07429145813 -0.2982336172 0.502581442 0.8114607838
0.009954375267 0.001825008631 -0.07371829987 -0.4868095098 0.4181194422 0.7669371769
0.01347046661 0.006556912422 -0.0732624588 -0.6689260662 0.2916818326 0.6837101919
0.01721594429 0.01303173447 -0.07095243835 0.8411710435 -0.1164737888 -0.528076824
0.01945368004 0.02747218323 -0.06732398987 0 0 1
-0.01740420914 0.0171084919 -0.07139521027 0.8511181196 0.2431588542 0.4652652127
-0.0127856226 0.006631276131 -0.0739486084 0.6261828877 0.2953056038 0.7215882424
-0.01070908737 0.005348602533 -0.07495727921 0.5001382377 0.3522692865 0.7910550506
-0.009994344711 0.003662275553 -0.0746627121 0.4974540014 0.3805638146 0.7795580155
-0.008632332802 0.002653253555 -0.07490390015 0.4209744269 0.4165485635 0.8057715719
0.005280964375 0.0008826925457 -0.0753263588 -0.2889600213 0.4707031291 0.8336310157
-0.01433216667 0.01159429646 -0.07417412567 0.66927077 0.1839424989 0.719890126
-0.01218183422 0.009350374699 -0.07541578674 0.5987402655 0.2344008212 0.7658761973
-0.008670503616 0.004618728161 -0.07582619476 0.4331453358 0.3724833558 0.8207565216
-0.0006603185534 0.001652613997 -0.07652067566 0.01113487085 0.4626570521 0.8864674088
0.007312927246 0.003656221628 -0.07605257416 -0.3644767953 0.4144112644 0.833918443
0.009356404305 0.005183878422 -0.07569327164 -0.4646187577 0.3612083829 0.8084911343
0.01143372154 0.007131470203 -0.07523455048 -0.5719708753 0.2978606452 0.7642829017
0.01433216667 0.01159429359 -0.07417412567 -0.6752481349 0.1900410622 0.7126881162
0.0158901577 0.01538857269 -0.07326602173 0.7686171959 -0.1008214388 -0.6317140521
0.01779296684 0.024861269 -0.07097842407 0 0 1
-0.01613556099 0.02092056274 -0.07340336609 0 0 1
-0.01446041298 0.01503142929 -0.0747935257 0.7009466225 0.138552 0.6996264544
-0.0006663544178 0.005666793346 -0.07836266327 0.02512239961 0.3623989914 0.931684408
-0.01009853458 0.008095396042 -0.07641227722 0.4843040604 0.2980222259 0.8225766408
-0.008714720726 0.006803841591 -0.0767111969 0.4320096821 0.3296519355 0.8394624685
-0.004655594349 0.004437050819 -0.07725624084 0.2320335725 0.3801991646 0.8953262068
-0.002655315161 0.003844118953 -0.07739250946 0.1214766555 0.4093279298 0.9042643795
-0.0006631420851 0.00356721735 -0.07745597839 0.03135691511 0.4121107407 0.9105940266
0.003320158482 0.003964705229 -0.07736504364 -0.165296344 0.3949057795 0.9037292426
0.00734824419 0.005752109051 -0.07695426178 -0.3656589491 0.3544029866 0.8606346821
0.0137659421 0.01523153782 -0.07546593094 -0.6670030349 0.1142218425 0.7362474599
0.01613475227 0.02090445709 -0.0734072113 0 0 1
-0.01654815483 0.02980613327 -0.07280374908 0 0 1
-0.01307147121 0.01543164635 -0.07613833618 0.6022574489 0.1319189911 0.7873267079
-0.01159366989 0.01271458817 -0.07676182556 0.55682818 0.1831567351 0.8101826882
-0.01016682625 0.01081885052 -0.07719456482 0.5136256012 0.2150806705 0.8306196765
-0.008767676353 0.009304902077 -0.07753939056 0.4008274114 0.2625347533 0.8777316729
-0.006710387707 0.007732325792 -0.07789597321 0.3291297264 0.3087683494 0.8923764506
-0.004679833412 0.006653207302 -0.07813980103 0.2220564919 0.3341440255 0.9159905483
0.003336816311 0.006119774818 -0.07826065826 -0.1555106509 0.3573368249 0.9209380169
0.007390533447 0.00814602375 -0.07780252075 -0.3733334279 0.2757577787 0.8857650925
0.008767676353 0.00930490303 -0.07753939056 -0.4127400668 0.264512773 0.871595451
0.01016682625 0.01081884575 -0.07719456482 -0.4896612883 0.2286793643 0.8413902609
0.01466547966 0.02015846443 -0.07504598999 0.7088567478 0.1277457702 -0.6936880634
0.01654614258 0.02976604462 -0.07281313324 0 0 1
0.005276946545 0.05152932358 -0.08046964264 -5.135525139e-05 0.1912783229 -0.9815358376
0.01897949791 0.04795736694 -0.06857408142 0 0 1
-0.01698435402 0.03919847107 -0.07216661072 0 0 1
-0.01025392437 0.01412839031 -0.0778644104 0.498821964 0.1448895982 0.8545078423
-0.00606941843 0.009953155518 -0.07879758453 0.2853002802 0.2509992924 0.924988165
-0.003356481314 0.008558891296 -0.07910796356 0.1783662552 0.277641458 0.9439813027
0.001341117948 0.008182080269 -0.07919100189 -0.04888589391 0.2929216195 0.9548859064
0.003356481314 0.008558891296 -0.07910796356 0.1615101643 -0.2857707232 -0.9445896255
0.008834112167 0.01229155064 -0.07827618408 -0.4349713906 0.1798448622 0.8823013742
0.01171636581 0.01667616653 -0.07729098511 -0.5583187577 0.1013265302 0.8234155082
0.01326719379 0.02081544113 -0.07635386658 0.7088071122 0.1274198408 -0.6937987186
0.01698435402 0.03919847107 -0.07216661072 0 0 1
-0.01460706139 0.03655601883 -0.07506503677 0 0 1
-0.01191514492 0.02271346283 -0.07738658142 0.5384713062 0.0277274105 0.8421875344
-0.0007622431517 0.05619974518 -0.08114870453 -1.429690443e-06 0.1869421489 -0.9823709243
-0.01038037109 0.01865822029 -0.07828716278 -0.4743886549 -0.05827247173 -0.8783847239
-0.008923356056 0.01609716606 -0.07885320282 0.4418371612 0.0865030535 0.8929149706
-0.007505960941 0.01425123882 -0.07925990295 0.3470260223 0.1458472258 0.9264456415
-0.00474436903 0.01216571999 -0.07971627808 0.2428213751 0.1951448619 0.9502401079
-0.0006749685407 0.01089660263 -0.07999333191 -0.03704838686 -0.2342790049 -0.9714632082
0.00474436903 0.01216572666 -0.07971627808 -0.2216932631 0.198654685 0.9546666503
0.0007308447957 0.04012091446 -0.08117234802 -5.13616626e-06 0.1954629217 -0.9807110921
0.007505960941 0.01425123882 -0.07925990295 -0.3548653394 0.146960072 0.9232948219
0.00618445158 0.0171320076 -0.08005674744 0.3066964167 -0.1115150306 -0.9452521917
0.01191514492 0.02271346283 -0.07738658142 -0.5384152392 0.0286321718 0.8421931067
0.01535428524 0.03658088684 -0.07429610443 0.7097900091 0.1223418255 -0.6937078785
-0.01796373749 0.06024101639 -0.07064450073 0 0 1
-0.01058199787 0.0255181179 -0.0782348938 -0.4608940176 -0.03353182286 -0.886821471
-0.009058525085 0.02154743767 -0.07909963989 0.4500956291 -0.02105290783 0.8927321545
-0.007600913525 0.01888312912 -0.07967807007 0.3727242783 0.03248886731 0.9273732182
-0.00618445158 0.0171320076 -0.08005674744 0.3169248906 0.1059615114 0.9425130088
-0.004102306604 0.01548415184 -0.08041198349 -0.2038930535 -0.1413585981 -0.9687339003
-0.0006808817387 0.01426711559 -0.0806737442 0.05071709374 0.1709648167 0.9839709385
0.002044389725 0.01453220177 -0.08061675262 -0.1179187617 0.1652501302 0.979176981
0.003412753105 0.01502742672 -0.08051049042 -0.1898935339 0.141240441 0.9715922929
0.007600913525 0.01888312912 -0.07967807007 -0.372653442 0.03242182319 0.9274040314
0.009058525085 0.02154743767 -0.07909963989 -0.4500956388 -0.02105286839 0.8927321505
0.01058136654 0.02549869919 -0.07823917389 0.4605966697 -0.03363538288 -0.8869720226
0.01216985798 0.03029242706 -0.07719482422 -0.5530574244 0.03071114313 0.83257691
0.01796373749 0.06024101639 -0.07064450073 0 0 1
-0.01612581253 0.05495469284 -0.07341443634 0 0 1
-0.01418137264 0.04504919815 -0.07553510284 -0.7103144334 0.1188301555 -0.6937815217
-0.01080470562 0.03305488968 -0.07809642792 -0.473202287 -0.0328253642 -0.8803420307
-0.005391759396 0.05991963196 -0.08044074249 0 0 1
-0.009243354797 0.02878533745 -0.07900714874 0.4583976988 -0.03351068594 0.888115186
-0.007745733738 0.02562932205 -0.07967923737 -0.4389459285 -0.03770448162 -0.8977220304
-0.006288634777 0.0231397171 -0.08020912933 0.341830528 0.0279007041 0.9393473483
-0.004863528252 0.02132771873 -0.0805943222 0.2434777601 0.05514974286 0.9683372791
-0.002071150303 0.0193066864 -0.08102320862 4.834706549e-05 0.2076972382 -0.9781931583
0.001380287319 0.01908657169 -0.08106999207 -4.401104333e-05 0.2074674512 -0.9782419204
0.003459517717 0.02000300407 -0.08087585449 -0.0005596185107 0.2084564449 -0.978031491
0.004863574982 0.02133081055 -0.08059365082 -0.2718145742 0.03971152319 0.9615299435
0.007745733738 0.02562932205 -0.07967923737 0.4378058904 -0.03698731898 -0.8983083772
