# .PCD v0.7 - Point Cloud Data file format
VERSION 0.7
FIELDS x y z normal_x normal_y normal_z
SIZE 4 4 4 4 4 4
TYPE F F F F F F
COUNT 1 1 1 1 1 1
WIDTH 504
HEIGHT 1
VIEWPOINT 0 0 0 1 0 0 0
POINTS 504
DATA ascii
0 0.01766601753 -0.001110138814 -0.0001641028026 -0.9640161588 0.265843598
-0.006149913073 0.01891302395 0 0.3976028155 -0.7988420017 0.4514016586
0.002936323464 -0.02022974682 -0.0427526722 0.1241784186 -0.9891722729 -0.07821722892
-0.003074704528 0.0189107542 0 -0.1914095182 0.8241322595 -0.5330744931
-0.006137738228 0.01591221428 -0.004525301278 0.4304377946 -0.8956573909 0.1118979136
0.006149913073 0.01891302395 0 -0.3974273158 -0.7988103121 0.4516122385
-0.003097153127 0.01676904535 -0.0101170454 0.2268526206 -0.973926458 -0.002267816291
0.01513685608 -0.01388571612 -0.04019184494 0.7134203998 -0.7002677466 -0.02562061857
-0.01513685608 -0.01388571612 -0.04019184494 0.7132184368 0.7007244492 0.017455879
-0.01797080612 0.00837579298 0 0.8296720316 -0.3638291847 0.4234060042
0.006358800888 -0.01955202484 -0.01316400051 0.3226774648 -0.9465073303 0.001768437286
0.003074704528 0.0189107542 0 0.1915018448 0.8239395093 -0.5333392246
0.009880857468 0.01390455341 -0.001002559304 0.4788622926 0.8575371945 -0.1879384603
-0.008448414326 0.01481559467 -0.007408724546 0.5096948544 -0.8602081793 -0.01590734321
-0.002900244534 -0.02036868095 -0.03379176044 -0.09567481441 -0.9953810167 -0.007934826719
0.01597733736 -0.0118060205 -0.0008486808389 0.6909793775 -0.5993730675 0.4041032366
-0.01219197226 0.0153399663 0 -0.5276742661 0.7626038715 -0.3741593299
-0.002793007851 -0.01717820644 0 0.06218215856 0.7896096567 -0.6104506279
0.01476045767 0.008992328962 -0.0008597099185 0.7707912985 0.5003092961 -0.3944253826
-0.0201419735 -0.004206243992 -0.02213072968 0.9442946007 0.3283890786 0.02164070348
0.01643843365 -0.0123494401 -0.006622060537 0.7811068708 -0.6237967506 0.02738010843
-0.00888985157 0.01517092578 -0.0004846274853 -0.53397777 0.7484619117 -0.3932842584
0.009076877117 -0.01518888998 -0.05555124092 0.4513373693 -0.8193683239 -0.3534545641
-0.01781166649 0.004980846643 0 0.7509443599 -0.1846723451 0.6340178967
-0.007017891407 -0.008902509689 -0.06691387177 -0.320948896 -0.6938034059 -0.6446926711
-0.0116663034 -0.01693765259 -0.03080934095 -0.5834732803 -0.8120343134 -0.01261765194
-0.006111353517 0.01592051768 -0.001126712043 0.469047501 -0.8524038902 0.2310888354
0.008277704239 -0.01632464981 -0.05378613281 0.3893841741 -0.8662328032 -0.31308257
-0.003063647032 0.01676747322 -0.001532651305 0.1345757327 -0.9371527642 0.3219224576
0.01500163651 -0.003214651346 -0.0652156601 0 0 1
0.003063640296 0.01676676512 -0.00153231135 -0.134559879 -0.9370372115 0.3222652684
0.01215077043 0.01194370103 -0.004274005771 -0.67384298 -0.7253718416 0.1406105604
-0.0156852684 0.006671382189 -0.001665752023 0.9371667331 -0.2447497623 0.2486283739
-0.008746991634 -0.0186169405 -0.03407803917 -0.4283892505 -0.90359427 -0.0002128364398
-0.00562912488 -0.01977397251 -0.01058901048 -0.2469103982 -0.9688206485 0.02053792345
0.006111353517 0.01592051768 -0.001126712043 -0.4689825246 -0.8524228513 0.2311507607
0.003528506955 -0.02024189377 -0.01357869657 0.1838254043 -0.9828956778 0.0111493179
0.00888985157 0.01517092578 -0.0004846274853 0.5339833878 0.7484506721 -0.3932980207
0.008412094116 0.01483036089 -0.003995665789 -0.4419724986 -0.8941611969 0.07166634134
0.01753263664 -0.009365311623 -0.04937337112 0.839930318 -0.5187778425 -0.1593317637
0.01152139346 -0.01704226557 -0.03748087819 0.5946788448 -0.8039398 -0.006153825073
0.01219197226 0.0153399663 0 0.5276638756 0.7625988386 -0.3741842405
0.003717832088 -0.01896925545 -0.05001780319 0.2008057732 -0.9448729801 -0.2586350574
0.01781166649 0.004980846643 0 0.7924147001 0.1660625269 -0.5869430809
0.01797080612 0.00837579298 0 0.8297252288 0.3638021011 -0.423325024
-0.01268701553 -0.01568360662 -0.04592265701 -0.5986133777 -0.7919070687 -0.1206035598
-0.01476044718 0.008992105484 -0.0008596001963 0.7707649479 -0.5002908722 0.3945002387
0.009635015297 -0.01779200478 -0.0009431553841 0.4953998454 -0.8136995307 0.3040922014
-0.01510626888 0.01182716703 0 0.6687220656 -0.5738101728 0.4728135832
0.007017891407 -0.008902510643 -0.06691386414 0.2931958804 -0.7023170643 -0.6486809053
0.003003837943 -0.01758803844 -0.05473597908 0.1846219147 -0.9165951228 -0.3546380259
0.01001786828 -0.01795902061 -0.01908059978 0.4945353081 -0.8691567838 -0.00114642247
-0.01438273144 0.009151766777 -0.007115654945 0.8283989621 -0.5599803444 -0.01331065207
-0.01210573077 0.01213196683 -0.0009890395105 -0.629269739 0.6785378249 -0.3789538439
-0.009880862236 0.01390468502 -0.001002622604 -0.4788533981 0.8575620574 -0.187847653
-0.003083669901 0.01676888561 -0.006661345482 0.226295353 -0.9738961463 0.01779633469
0.01210572791 0.01213188291 -0.0009889987335 0.629233429 0.6786091003 -0.3788865013
0.01832098961 -0.009373678207 -0.01911756134 0.8928453446 -0.4498294097 0.02192470962
0 0.01705152607 -0.006801197052 -0.0004688183258 -0.9988263949 0.04843153059
0.006157664537 0.01590584517 -0.007092227697 -0.389074365 -0.9211430597 0.01079824816
0.01510626888 0.01182716703 0 0.6687573229 0.5738636822 -0.4726987596
0.02004664516 -0.004606444836 -0.01931659889 0.9410358442 -0.3380797873 -0.0123934414
-0.009912322998 0.01388053751 -0.003530670762 0.5145677158 -0.8461493927 0.1387489498
0.003097120702 0.01676544571 -0.01011522579 -0.2267763202 -0.9739444824 -0.002155420399
-0.002913990021 -0.02036640263 -0.03730811977 -0.1003916035 -0.9949472836 -0.001195286041
0.01433868456 0.009217450142 -0.004609588623 0.7936312441 0.5789803802 -0.1868988166
-0.0198277626 -0.005525344372 -0.01285508156 0.9271375471 0.3747067545 0.003288895423
-0.008412094116 0.01483036089 -0.003995665789 0.4420389028 -0.8941279792 0.07167123028
-0.005594317595 -0.01979969279 -0.03739730708 -0.2464810502 -0.9691474093 -0.0006252247412
0.01693671608 0.001973176003 -0.0001629443616 0.6026082292 0.09529000688 -0.7923276701
-0.003073624134 0.01676826191 -0.004087961674 0.2125461039 -0.9381546516 0.2732947189
0 0.01704776382 -0.004224084377 -0.0002555203057 -0.9749476579 0.2224342579
0.003073605776 0.01676637173 -0.00408704257 -0.2124928525 -0.9381282315 0.2734267889
-0.01172255945 -0.01689953136 -0.03433393574 -0.5856562023 -0.8103880336 0.01667476462
-0.01839275837 -0.00922760582 -0.02176487541 0.9170478918 0.3987154678 0.007009989755
0.01912966633 0.00164608252 0 0.5625877028 0.1118026026 -0.8191430002
0.01396064949 -0.01510225868 -0.03286793518 0.6687876822 -0.7433744475 -0.01083821708
0.01839153767 -0.009246902943 -0.02175348091 0.9017263699 -0.4321316153 -0.01232155852
-0.01986701202 0.001646287322 0 -0.13579823 0.009380584594 -0.9906921042
0.009897774061 -0.0180324014 -0.02808716456 0.4939821528 -0.869469523 0.002093144701
0.006137738228 0.01591221428 -0.004525301278 -0.4303013436 -0.8957163905 0.1119504421
0.01369431877 -0.01533651257 -0.01897770691 0.6636871244 -0.7479431147 -0.0100248716
0.009912307739 0.01388007402 -0.003530443668 -0.5145786149 -0.8461388008 0.1387731202
0.009892477512 -0.01802020073 -0.009969554186 0.4995021127 -0.8662943851 -0.005628298112
-0.01433862877 0.009216251373 -0.004608988762 0.7936060335 -0.578973974 0.1870256697
0.01922500992 -0.005806240559 -0.04900851631 0.9086198825 -0.3928261017 -0.1417658737
-0.008724910855 -0.01780915833 -0.0008539486527 -0.4697380078 -0.8230064737 0.3193846399
-0.01215077043 0.01194370103 -0.004274005771 0.6739477024 -0.7252656837 0.1406562562
0.003083642125 0.01676597643 -0.006659906268 -0.2262309354 -0.9739097211 0.01787229965
0.00285342592 -0.02036983967 -0.02179706764 0.1460659994 -0.9892716832 -0.002502125337
0.0156852684 0.006671382189 -0.001665752023 0.9425362733 0.2200640958 -0.2513904679
0.006661209583 -0.01893985748 -0.04637411499 0.3350257417 -0.9286777043 -0.1591083714
-0.0176759634 0.001683683515 -0.0008427507281 -0.2846051537 -0.03420983034 -0.9580342342
-0.005415173054 -0.019843551 -0.0135397536 -0.2418993671 -0.9701322533 0.01811372975
-0.01693671608 0.001973176003 -0.0001629443616 -0.2846051537 -0.03420983034 -0.9580342342
-0.009954564095 0.01384811687 -0.006924970388 0.5562810554 -0.8309938689 -0.0007597296904
0.01591980934 -0.01161433983 -0.04967631912 0.73913213 -0.6412586419 -0.2060850518
-0.01432441568 -0.01350502443 -0.04928526497 0.707297474 0.6866327687 0.1681241335
-0.006157664537 0.01590584517 -0.007092227697 0.3892913801 -0.9210527033 0.01068358761
0.008998437405 -0.01669035339 -0.05165835762 0.4173725908 -0.8694223877 -0.2643952197
0 -0.02045670891 -0.04259409904 -1.499931014e-16 -0.9964921902 -0.08368581101
0.003837863111 -0.02019460754 -0.01872626495 0.1905719213 -0.9816096418 -0.01117380502
0.008448414326 0.01481559467 -0.007408724546 -0.5088465964 -0.8606166096 -0.02035172166
-0.008955251217 -0.0173636322 -0.04932620049 -0.4234286299 -0.8811289305 -0.2105231654
0.009954535007 0.01384720802 -0.006924515724 -0.5568825911 -0.8305900935 0.001369752909
-0.0196940937 -0.001631958485 0 0.0002324419688 0.02973815005 -0.9995576964
-0.01823227882 -0.001631555915 0 0.0002324419688 0.02973815005 -0.9995576964
0.009857254267 -0.01802175617 -0.03403267193 0.4838321937 -0.8751454211 -0.005186548273
0.006177734733 0.01589943099 -0.009677674055 -0.3909891601 -0.9203029805 0.01303459722
0 -0.01939038086 -0.04971439362 0 -0.9762561927 -0.216619127
-0.01522825813 -0.01139358139 -0.05263210678 0.7251567479 0.6477916459 0.2334816361
-0.01573171425 0.006574385643 -0.004125039101 0.8706174864 -0.4559276175 0.184811255
-0.006177734733 0.01589943099 -0.009677674055 0.3831658247 -0.9236651891 0.005154537813
-0.01693642006 -0.01128867321 -0.001200363755 0.7919598171 0.5373105329 -0.2899948953
-0.01244254875 0.01164634228 -0.007243026574 0.7000115281 -0.7141182025 -0.004365019332
0.02051664162 -0.00143847537 -0.03080141068 0 0 1
0 0.01705657959 -0.01026232243 -0.0005765004671 -0.9999509512 -0.009887511022
0.01244254875 0.01164634228 -0.007243026574 -0.6982795337 -0.7157486856 -0.0104647893
0.01573171425 0.006574385643 -0.004125039101 0.9423701929 0.2367023731 -0.2364538141
-0.008574294448 -0.01868843317 -0.01947550392 -0.3912147348 -0.92014298 0.01696843041
0.01695960617 0.00172148931 -0.001685501456 0.8634673406 0.1648709541 -0.476698773
-0.005887702465 -0.01954041958 -0.04323417568 -0.2528982383 -0.9649060882 -0.07070164023
0.01896318626 -0.0016317572 0 0.1575052653 -0.02072575234 -0.9873006303
-0.008531291008 0.01478189945 -0.01519674397 -0.4103324076 0.911922423 -0.004980937919
-0.01948892975 -0.006031963348 -0.001020863195 0.9167041827 0.2525421396 -0.3096383522
0.01522825813 -0.01139358091 -0.05263210678 0.7251567421 -0.6477916382 -0.2334816755
-0.01735074997 -0.004851956606 0 0.81583373 0.2375818485 -0.5272287835
-0.01577846909 0.006476745367 -0.006600646734 0.8855797048 -0.464487064 -0.0005947780243
-0.02004664516 -0.004606444836 -0.01931659889 0.9406127202 0.3392535236 0.01244014836
-0.01441229534 0.009108538628 -0.008796030045 0.8283989621 -0.5599803444 -0.01331065207
-0.01224181962 0.01186573768 -0.01021117616 -0.6874887635 0.7261941881 0.001096017807
-0.002866606772 -0.02037043142 -0.02517636776 -0.09747647364 -0.9952371237 -0.001185226603
-0.009997166634 0.01381541777 -0.01034832382 0.5490073705 -0.8355310191 -0.02188202866
-0.008475850105 0.01480443954 -0.00998694706 0.4988181465 -0.8666466687 -0.01019844765
-0.005766605377 -0.0197440691 -0.02813694954 -0.2457717734 -0.9692490589 -0.01234897313
0.008475850105 0.01480443954 -0.00998694706 -0.5008696344 -0.8654610074 -0.0103370188
0.00542138195 -0.01085773563 -0.06545098877 -0.2490552781 0.7526334431 0.6095197854
-0.01881435966 -0.00833199501 -0.03724108505 0.8819509995 0.4712020272 0.01144919146
0.009997123241 0.01381406021 -0.01034762955 -0.5496977571 -0.8350524091 -0.0228002171
0.01224181962 0.01186573768 -0.01021117616 0.6847954063 0.7286972977 0.007449829244
0.002949946761 -0.01994218063 -0.04566465378 0.1091725269 -0.9840913501 -0.14016267
0.008531291008 0.01478189945 -0.01519674397 0.426091205 0.9046345987 -0.009084489265
0.01438281727 0.009153616905 -0.007116594791 0.8283732849 0.5600161464 0.01340211573
0.008955251217 -0.0173636322 -0.04932620049 0.4234286376 -0.8811289458 -0.2105230861
0.01577846909 0.006476745367 -0.006600646734 0.8856953659 0.4642663936 0.0006592684681
0.005887702465 -0.01954041958 -0.04323417568 0.2528982383 -0.9649060882 -0.07070164023
-0.00877835536 -0.01860395718 -0.03672999191 -0.4348386628 -0.9003851602 -0.01489633267
0.01662650681 -0.004851408958 0 0.804606739 -0.1804965561 0.565711047
0.01913544559 -0.005737098575 -0.0007656473964 0.9186391848 -0.2177554254 0.3296735094
0 -0.02057068062 -0.03982917404 3.551675605e-17 -0.999682232 -0.02520783604
-0.0116124649 -0.01682737986 -0.04300753657 -0.5862213632 -0.807990572 -0.05912485891
-0.01720235729 -0.00801763773 0 0.7778484199 0.4026096336 -0.4825529179
-0.0197377243 -0.005880280256 -0.0101510148 0.922018618 0.3870076807 0.01033068963
-0.008503488064 0.01479320335 -0.01258409929 0.4759724352 -0.8794342956 0.006749860413
0.006984882474 -0.01933356333 -0.004398118854 0.3659842109 -0.9240154575 0.1106841975
-0.006204691529 0.01589081478 -0.0131502986 0.4026566987 -0.9153448263 0.003381115074
-0.003110754967 0.01676913118 -0.01360333443 -0.2459878969 0.9692580285 -0.005369242978
0 0.0170603981 -0.01287733173 -0.0006480734709 -0.9999893903 0.004560619283
0.003110718668 0.0167649107 -0.01360115433 0.2458641591 0.9692888054 -0.005479689556
-0.008902083397 -0.01802028704 -0.0461133461 -0.4365555308 -0.8877764189 -0.1458502605
-0.02024509335 -0.003703561902 -0.02503534317 0.9506323503 0.3097780571 0.01832184401
0.006204691529 0.01589081478 -0.0131502986 -0.3915130318 -0.9201667234 0.003278261092
0.008503488064 0.01479320335 -0.01258409929 -0.4809121601 -0.876730387 0.008205048296
0.01441240215 0.009110825539 -0.008797204971 0.8251520223 0.5648364564 -0.009160658046
0.01120646763 -0.01636808586 -0.04819184494 0.5116282401 -0.8403771478 -0.1788932457
0.01648432541 -0.008016740799 0 0.7393790868 -0.3685620649 0.5634541421
-0.01591980934 -0.01161433983 -0.04967631912 0.7391321318 0.6412586448 0.2060850362
-0.005719852567 -0.01975778389 -0.0221769352 -0.2416578364 -0.9703089839 0.01009781335
0.01792038918 -0.00801853466 0 0.7393790868 -0.3685620649 0.5634541421
0.005949945688 -0.01854238033 -0.04940530205 0.3238166389 -0.920133968 -0.2202186762
-0.0113804276 -0.01712516785 -0.01293761611 -0.5576632077 -0.8300643559 0.002216284753
-0.01420992708 -0.01112539673 0 0.6288605008 0.5677350434 -0.5312357208
-0.01077987719 0.01320826101 -0.01263245678 -0.5763488806 0.8171918423 0.004411430933
0 0.01706424427 -0.0155120244 -0.0006903957393 -0.999344943 0.03618298202
0.00519053793 -0.01908127785 -0.04810058975 0.2359728522 -0.9511541737 -0.1990541407
0.01002929687 0.01378901863 -0.01293360806 -0.5349723807 -0.8448690454 -0.0009208771774
0.01153040409 0.01262580681 -0.01233042431 0.6768630348 0.7360988904 -0.003854313212
-0.005746463776 -0.01974997759 -0.02556931734 -0.2418693581 -0.970236555 0.01184233491
0.01349857044 -0.01112436867 0 0.5958803503 -0.5129096895 0.6179403357
0.01546011305 -0.01359088278 -0.03120892143 0.7573673415 -0.6529510432 0.007045928279
0.01784681797 -0.01017610598 -0.001301844418 0.8379688941 -0.4371742458 0.3266294711
-0.01120646763 -0.01636808586 -0.04819184494 -0.5116282401 -0.8403771478 -0.1788932457
0.01688488293 -0.01178964281 -0.02538066196 0.8027261974 -0.5963461321 0.00139382048
-0.01954824829 -0.006433707714 -0.004073499203 0.8791062855 0.3961280142 -0.265056098
0.0163073082 -0.006725820065 -0.05879855728 0.7839167397 -0.5022014486 -0.3650592421
-0.0163073082 -0.006725819588 -0.05879855728 0.7839168073 0.5022013641 0.3650592131
-0.01394571171 -0.01477859383 -0.0009612246752 0.6794891174 0.6637850778 -0.3125442526
-0.01126993847 -0.01417986679 0 0.6291131522 0.6067215198 -0.4859070272
-0.01005093384 0.01377414989 -0.01466877747 -0.5403832494 0.8414175156 0.001583754881
-0.006225060225 0.01588430548 -0.01577422857 -0.380495462 0.9244663058 -0.02419200059
0.009986784935 -0.01184470558 -0.06085030746 0.4920002994 -0.7355473499 -0.4657314692
-0.003121032953 0.01676919651 -0.01623770905 -0.2396436994 0.9708372813 0.006772776103
0.006409819365 -0.0195433197 -0.01895591354 0.3244586057 -0.9458179573 -0.01245009587
0.00312099731 0.01676498795 -0.01623550034 0.2395086609 0.9708732387 0.006384027674
0 -0.02056444931 -0.03105227661 1.135582318e-16 -0.9999125498 -0.01322470093
0.006225060225 0.01588430548 -0.01577422857 0.3924045684 0.9197878633 -0.002990195565
0.003084498882 -0.01217550182 -0.0644631691 0.2104704052 -0.7823551741 -0.5861933044
0.01005087185 0.01377222633 -0.01466776752 0.5420676832 0.8403332046 0.001652926621
0 -0.01877640915 -0.05200577164 0 -0.958800282 -0.2840810081
0.01056502914 -0.01417882729 0 -0.5220907882 0.6637072974 -0.5356433816
0.005353456497 -0.01377510834 -0.06134089661 0.2690157746 -0.8277252045 -0.4924444119
0.01302084827 -0.01490452552 -0.000813697964 0.6489775717 -0.6725520155 0.355671053
0.01730891418 -0.01101870346 -0.04271883011 0.8315699194 -0.5517266716 -0.06394645442
0.01392669582 -0.01513212299 -0.03109711647 0.6683463714 -0.7438434808 -0.003162896217
-0.01643843365 -0.0123494401 -0.006622060537 0.7949427473 0.6066758603 -0.003229403133
0.01481000662 -0.01422788668 -0.00077566576 0.6047029722 -0.640722765 0.4730841932
0.01954824829 -0.006433707714 -0.004073499203 0.9295729592 -0.2552367229 0.26598558
0 -0.0152265892 -0.06026066589 -5.998358012e-08 -0.8573260743 -0.514773739
-0.009076877117 -0.01518888998 -0.05555124092 -0.4513373534 -0.8193683449 -0.3534545356
-0.01962633324 -0.006237831116 -0.006642502069 0.9186634387 0.3948022258 -0.01373640905
-0.01186410459 -0.01680075137 -0.02772135798 -0.5825047449 -0.8125719007 -0.02037470091
0.01825110245 -0.00949926281 -0.01650640488 0.8871601438 -0.461408885 0.006979970952
-0.0179355669 -0.01001948261 -0.004623510838 0.8663913906 0.490042183 -0.09604487073
-0.01898641396 -0.00773006916 -0.04308407211 0.8895343077 0.4554895237 0.03546842547
-0.002808387458 -0.02036578417 -0.01024745345 -0.1775409643 -0.984040097 0.01201222519
-0.01119272947 -0.01709960461 -0.0008394358084 0.4565070843 0.7901245888 -0.4090286251
-0.005586411953 -0.01718007851 0 0.1364000421 0.8449608882 -0.5171422685
0.01387615442 -0.01517657757 -0.02846114922 0.6671996305 -0.7448074868 0.01031797714
0 -0.01717758179 0 0.07918638966 0.6774384788 -0.7313047402
0.003491332054 -0.01717862256 0 -0.08316273434 0.6468601148 -0.7580606516
0.008399494171 -0.01355424786 -0.05959110641 0.3992191703 -0.807980803 -0.4333486772
0.006983386278 -0.01718148327 0 -0.3198935567 0.7193539569 -0.6166019763
0.01190677786 -0.01674638176 -0.001028880462 -0.5835876714 0.6895177722 -0.4289413382
-0.01087954903 -0.008819877148 -0.06404918098 -0.4616381282 -0.6984533336 -0.5468575494
0.01793485355 -0.01003102064 -0.004617352366 0.8659089866 -0.4862058883 0.1174966431
0.01962633324 -0.006237831116 -0.006642502069 0.9246973256 -0.377699132 0.04773072046
0.01709941101 -0.01148364496 -0.03432060051 0.8121091798 -0.583376683 0.01226074386
0.01873689365 -0.008516527176 -0.03443740082 0.8759675844 -0.4823453778 -0.004871098415
-0.0163798542 -0.012417243 -0.004149459362 0.7949410009 0.5881001804 -0.1490200758
-0.0143866663 -0.01467849223 -0.004005674918 0.6977628649 0.6809156169 -0.2224430421
0.01116261196 -0.01679834557 -0.04605677795 0.5539981738 -0.8232467992 -0.1238980671
-0.007654802084 -0.01911576939 -0.001339892238 0.2890978063 0.9066089298 -0.3073803944
0.009893137932 -0.01384695148 -0.05747348785 0.4798279963 -0.7804742372 -0.4007805622
-0.005553901196 -0.01978550529 -0.0009775626808 0.269013123 0.8579859317 -0.4375980813
-0.002772024512 -0.02024682808 -0.000727429539 0.06218215856 0.7896096567 -0.6104506279
-0.01166987419 -0.01693217723 -0.01580386702 -0.5688114286 -0.8222795184 -0.01760545955
0.01196107531 -0.01671479416 -0.00423781085 0.5691160197 -0.8140929948 0.1155835285
0 -0.02033895493 -0.0006771114469 -0.05697692588 0.7622721066 -0.644744031
0.003466456493 -0.02016483466 -0.0007719919135 -0.1311765962 0.8142616371 -0.5654827027
0.01809981918 -0.002120195866 -0.06013698196 0 0 1
0.01740557766 -0.01043813896 -0.04586164665 0.8341757588 -0.5406187539 -0.1090053501
-0.008715928555 -0.01862979984 -0.03145147085 -0.4336326153 -0.9009958451 0.01300930904
-0.005603804946 -0.01977785492 -0.007353863597 -0.2522583115 -0.9676332628 0.007184223678
0.006953642011 -0.01934296608 -0.001216950469 -0.2485569943 0.8679141575 -0.4300516665
0.01487592554 -0.01422450256 -0.003983914256 0.6876900806 -0.6861209164 0.2373192809
-0.00542138195 -0.01085773563 -0.06545098877 0.2718880546 0.757386539 0.5936686924
0.0163798542 -0.012417243 -0.004149459362 0.7685227456 -0.622060743 0.1497104592
-0.00285342592 -0.02036983967 -0.02179706764 -0.1374416322 -0.9903989069 -0.01482575217
-0.01800255394 -0.009903456688 -0.007135056973 0.8900733705 0.4556326133 -0.01297369321
-0.012012012 -0.01534503889 -0.04983763885 -0.6030240163 -0.7667128621 -0.2202576284
0.01206704235 -0.01664295133 -0.04013090642 0.5907579889 -0.806392776 -0.02712359458
-0.0185588913 -0.008939854622 -0.02799368095 0.8652559841 0.5013302408 0.0002675786117
0 -0.02055191135 -0.01339586973 -0.01879978879 -0.9997122942 0.01489620221
-0.007724199533 -0.01908578205 -0.007744853973 -0.3554152812 -0.9347030482 0.003192124656
-0.01123860002 -0.01720691442 -0.003968895912 -0.5681206569 -0.8131980594 0.1262847391
0.00302390635 -0.01640184402 -0.05748976707 0.147217787 -0.8951973161 -0.4206526933
0.01004403718 -0.01794053904 -0.003833493233 0.5046460799 -0.8403761581 0.1977378239
0.016677351 -0.01207087421 -0.01670277166 0.7885096266 -0.6149543294 0.00915103985
0.01340814781 -0.01558647156 -0.004049196243 0.6436088024 -0.7534566778 0.1344274677
0.01800144958 -0.009921269417 -0.007125408649 0.8753829416 -0.4834300131 0.0003577805752
-0.008998437405 -0.01669035339 -0.05165835762 -0.4173725774 -0.8694223834 -0.264395255
0.003187116981 -0.02029948425 -0.0164232285 0.1509398334 -0.9885144058 0.007512411088
0.0197377243 -0.005880280256 -0.0101510148 0.9227875442 -0.385182128 -0.009893252031
-0.005353456497 -0.01377510738 -0.06134089661 -0.2690158783 -0.8277251814 -0.4924443942
-0.003078236977 -0.02033460681 -0.01875191371 -0.1858953866 -0.9824228612 -0.01697724943
0 -0.02054731178 -0.006919099808 -0.02057141884 -0.9997828568 -0.003325052674
-0.01807013321 -0.009786408424 -0.009668755054 0.8954812735 0.4449652787 0.01091739387
-0.01420021653 -0.01485453486 -0.006872540236 -0.6805558692 -0.7326959642 0.0005770135528
-0.009099862099 -0.01842354774 -0.00410051775 0.3746832326 0.9204984009 -0.1108835839
0 -0.02054504585 -0.003728258133 -0.0624302478 -0.961349347 0.268160208
-0.007689307928 -0.01910173607 -0.004526336908 -0.3429918003 -0.934504087 0.09517739442
0.01010109591 -0.01791533852 -0.02502037668 0.4913107688 -0.8709559133 -0.007037441519
-0.005578733087 -0.0197816987 -0.004150361896 -0.2380216242 -0.9479632219 0.2114507892
0.008496516228 -0.01095687485 -0.06343473816 0.4070638063 -0.735702805 -0.541332098
-0.00278338033 -0.02036038017 -0.003830386817 -0.100750082 -0.9491689826 0.2982074167
-0.002924410105 -0.02036389351 -0.03997170258 -0.1047743252 -0.9940006701 -0.03138484583
0.003481256604 -0.02023958906 -0.003897198876 0.1878128617 -0.9696796801 0.1563574336
0.01345495272 -0.01554563379 -0.006490941048 0.6575845476 -0.7531942861 0.01676097138
0.01494548035 -0.01416343594 -0.007254139423 0.7496951505 -0.6616552506 0.01301962972
-0.01344535637 -0.003398448706 -0.06705210114 0 0 1
0.01268701553 -0.01568360662 -0.04592265701 0.5986133896 -0.7919070616 -0.1206035469
0.01806863022 -0.009810555458 -0.009655464172 0.8728793353 -0.4878425761 -0.009554421752
0.002866606772 -0.02037043142 -0.02517636776 -0.1557953059 0.9877893613 -1.622144024e-05
-0.01651720333 -0.01225826645 -0.00994693327 0.7956046798 0.605776899 0.006895076264
-0.006074871778 -0.01517120314 -0.05839838219 -0.3157786871 -0.8474278262 -0.4267902296
0 -0.02056261444 -0.02846888733 0 -0.9998488733 0.01738478219
-0.01129002881 -0.01717732382 -0.007202076316 -0.5514474059 -0.8341229925 0.01202463703
-0.009130759239 -0.01841188526 -0.006512487888 -0.4219679151 -0.9063687941 0.02094487164
0.009847456694 -0.01804181719 -0.006719257355 0.5000718374 -0.8659750654 0.003917092235
0.01201590347 -0.01668289852 -0.007478125811 0.5688912514 -0.8223966638 0.005145037798
0.01651720333 -0.01225826645 -0.00994693327 0.784622509 -0.6199736404 -0.000451295719
0.0198277626 -0.005525344372 -0.01285508156 0.9278915067 -0.372838491 -0.00296840219
-0.01992097092 -0.005134042978 -0.01560663509 0.9333763854 0.3587292358 0.0110389557
0.00610385561 -0.01962933795 -0.03988291931 0.2905287353 -0.9564724847 -0.02744886045
-0.01816104603 -0.009628942013 -0.01307734823 0.9023762529 0.4307975336 0.01142730306
0.01423143291 -0.01433841515 -0.04593902206 0.7039009343 -0.7019407557 -0.1086400025
-0.01426686144 -0.01479525924 -0.01016618919 -0.6837452895 -0.729619896 0.01213204367
-0.01109422906 -0.01731572215 -0.01009894721 -0.5527121639 -0.833241937 0.01473561241
-0.00279582268 -0.02036306906 -0.007023227453 -0.1775220398 -0.9840856402 0.007834417237
-0.01873689365 -0.008516527176 -0.03443740082 0.8759675844 0.4823453778 0.004871098415
0.003496850848 -0.02024042543 -0.007092544476 0.1703132029 -0.9853894662 0.001006380728
-0.00888081948 -0.01854885737 -0.0249066658 -0.4284173825 -0.9034913925 -0.01272203245
0.00701645112 -0.01932317686 -0.007610701323 0.3600659789 -0.9326569985 0.02243688908
-0.01581066704 -0.0125621357 -0.04624877357 0.7417947912 0.6562481015 0.1381264532
0.01351788282 -0.01549072695 -0.009773906708 0.6558429595 -0.7548122226 -0.01133671529
0 -0.01285464478 -0.06395418549 6.072774764e-08 -0.7909736836 -0.6118501711
0.01501584005 -0.01409979153 -0.01055847168 0.7468005665 -0.6650129283 0.006835136433
0.01815901089 -0.009661484718 -0.0130590663 0.8756431874 -0.4826935114 -0.01599944988
0.01992097092 -0.005134042978 -0.01560663509 0.9340194577 -0.3570549326 -0.01092829564
-0.01659679127 -0.01216614437 -0.01330639505 0.7962000336 0.6049163213 -0.0119059131
0.005814298987 -0.01973007822 -0.03421685123 0.2685862374 -0.9630813918 0.01832118492
-0.00917229414 -0.01839620781 -0.009754939079 -0.4165926718 -0.9089538825 -0.01591807736
0.01205736542 -0.01665877914 -0.009928503036 0.5598075292 -0.8285865701 -0.007734734781
0.01659679127 -0.01216614437 -0.01330639505 0.7853456005 -0.6189805183 0.009767585508
-0.01825295734 -0.009469748974 -0.01652331686 0.9091885613 0.4162559134 -0.01035251195
-0.01407744916 -0.01497171561 -0.01308098888 -0.6886280114 -0.7249747448 0.01425066026
-0.007750584602 -0.01907371712 -0.01017871475 -0.3799870642 -0.9249373 -0.01004101743
-0.01481129527 -0.01424090099 -0.03696938992 0.7112583138 0.7027419713 0.01628903619
0 -0.02054959965 -0.01014131594 -0.02061747487 -0.9997815745 -0.003423880174
-0.002949946761 -0.01994218063 -0.04566465378 -0.1091725269 -0.9840913501 -0.14016267
0.003512598952 -0.02024126975 -0.01031934373 0.177223779 -0.9841699585 -0.001106751534
0.006808346748 -0.01939504178 -0.01053616937 0.3602138125 -0.9325381101 0.02487332957
0.01209917736 -0.01663445377 -0.01239956045 0.5841988589 -0.8115305206 -0.01139769114
-0.002879932463 -0.02037102985 -0.02859280682 -0.09763544491 -0.9951430082 0.0125583907
0.01673888016 -0.01198905277 -0.0192786808 0.7911754641 -0.6115140251 -0.009590731638
0.01358145809 -0.01543525791 -0.01309051943 0.6574511774 -0.7534970709 -0.0003369028928
-0.01730891418 -0.01101870346 -0.04271883011 0.8315699241 0.5517266651 0.06394644936
0.0150694313 -0.014044631 -0.0130619278 0.7347358822 -0.6783447468 0.00340408737
0.0190646801 -0.007217988968 -0.04526540756 0.8981227249 -0.4324785342 -0.07961085662
-0.016677351 -0.01207087421 -0.01670277166 0.801692446 0.5974769719 -0.01762072829
-0.01438470674 -0.01468199539 -0.01601579499 -0.6920824403 -0.7218173935 -0.001243502774
-0.00849571991 -0.01872096205 -0.01283155823 -0.382485965 -0.9236032858 -0.0257188071
-0.01132971954 -0.01716859881 -0.02520214462 -0.5746662829 -0.8182557626 0.01470272824
-0.01832252884 -0.009349246025 -0.01913177872 0.9093937433 0.4158159863 -0.01000425431
0.007777192116 -0.01906155205 -0.0126330843 0.4016895428 -0.9157385 0.00827712172
-0.01147431564 -0.01706775045 -0.0187806921 -0.5724531808 -0.8197577959 -0.0171613494
0.00993796277 -0.01799812698 -0.01325285196 0.4973727488 -0.8674942878 0.008602872929
-0.008857187271 -0.0184294939 -0.04310398865 -0.4456351029 -0.8910513345 -0.08623731446
0.005594317595 -0.01979969279 -0.03739730708 0.2610434339 -0.965288545 0.008622669155
0.01512371397 -0.01398480606 -0.01558976412 0.7509709759 -0.6603351792 0.0002109670859
-0.002821080863 -0.02036818361 -0.01350422978 -0.1845557833 -0.9827280061 0.01359517997
0.01469656754 -0.008539587021 -0.05941830444 0.6974557705 -0.6066232568 -0.3815280756
0 -0.0205687933 -0.03717061615 1.202039009e-16 -0.9999973686 0.00229406709
0.01215540552 -0.0166017437 -0.0157226162 0.5747582017 -0.8183179118 -0.002967286964
0.0136456995 -0.01537918472 -0.01644182587 0.6593305772 -0.7518399464 0.00445925515
0.0201419735 -0.004206243992 -0.02213072968 0.944602851 -0.3275117164 -0.02148324035
-0.01673888016 -0.01198905277 -0.0192786808 0.8061128111 0.5916625824 0.01084086388
-0.01469612249 -0.01437814426 -0.01898828634 -0.6943029801 -0.7195137469 -0.01559935348
-0.008534802318 -0.01870478296 -0.01613621235 -0.424243022 -0.9055417914 0.003452878136
-0.005907123566 -0.01969457436 -0.01582162984 -0.2804407933 -0.9598298471 -0.008923346829
0.006380557775 -0.01954831123 -0.0156339922 0.325484727 -0.945506994 -0.008730223414
0.007812972784 -0.01904519176 -0.01593365431 0.3791937029 -0.925105032 -0.01981957452
0.009737358411 -0.0181072642 -0.01621463648 0.4979439948 -0.8671527553 0.009893284154
0.0171654377 -0.01138259315 -0.03705828094 0.8293990322 -0.5586019812 0.007814852631
0.01519702435 -0.01389896011 -0.01899357605 0.7545898616 -0.6561858911 -0.00377055398
0 -0.00809774971 -0.06948584747 -6.088045006e-08 -0.6019928303 -0.7985014917
-0.005693560839 -0.01976396418 -0.01882185268 -0.236151482 -0.9716348541 -0.01257727326
0.02024509335 -0.003703561902 -0.02503534317 0.9507936025 -0.3092879544 -0.01823421829
-0.0168011179 -0.01190404892 -0.02187982273 0.8067200575 0.590739206 0.01516374725
-0.002596070925 -0.02040361214 -0.01649866962 -0.08761940228 -0.9960488686 0.01447383144
-0.01848729706 -0.009063859463 -0.02530940151 0.9179224104 0.3960882268 -0.02307736944
0 -0.02055424595 -0.01668375349 0.01779193381 -0.9998358911 0.003411456254
0.01221235466 -0.01656566715 -0.01908237076 0.5800498684 -0.8143614671 0.01890902199
-0.01116261196 -0.01679834557 -0.04605677795 -0.5539981588 -0.8232468071 -0.1238980819
0.0168011179 -0.01190404892 -0.02187982273 0.7941054313 -0.6077291453 -0.007864476787
-0.01449109999 -0.01456591765 -0.03380221558 -0.706919888 -0.7070902691 -0.01695945836
0.01527113867 -0.01381217194 -0.02243476486 0.7448317228 -0.6671358993 0.0124658197
-0.02035141563 -0.003164129496 -0.02798786545 0.9982656287 0.05265525819 -0.02632789886
-0.01450726008 -0.01455276561 -0.02198563576 -0.694380918 -0.7194235443 -0.01627589102
0.007849128962 -0.01902865887 -0.01926882172 0.358155738 -0.9336325142 0.007402414283
0.0137433815 -0.01529335928 -0.02153650665 0.6604703038 -0.7508516062 -0.0009182932334
0.01701241589 -0.01161435509 -0.03070851707 0.8043511491 -0.5938666545 -0.01848311975
0.01848651123 -0.009076238155 -0.02530194759 0.8991441175 -0.4369665136 0.02449738751
0.00517067194 -0.01948097038 -0.04599146271 0.2539252644 -0.956094126 -0.1463078341
0.02035141563 -0.003164129496 -0.02798786545 0.9982656287 -0.05265525819 0.02632789886
0.01013441086 -0.008303132057 -0.06540301514 0.4574041094 -0.705014885 -0.541973701
-0.02051664162 -0.00143847537 -0.03080141068 0 0 1
-0.01494897397 -0.01410462952 -0.03117165311 -0.7068666638 -0.7072858677 0.009285522463
-0.01688488293 -0.01178964281 -0.02538066196 0.8072486379 0.5900852537 -0.01220778008
-0.01215071583 -0.01344259214 -0.05493205261 -0.5918652354 -0.7370096533 -0.3263622436
-0.01152841759 -0.01703108931 -0.02217035866 -0.573603112 -0.8189462878 0.01750564552
0 -0.0205560112 -0.01917105484 -0.02968128972 -0.999548091 0.004757613192
0.01030173969 -0.01780439822 -0.02197674624 0.5011714452 -0.8653412899 -0.003410948028
0.01227015877 -0.01652356911 -0.02248159885 0.5823975719 -0.8129029744 -0.001349964939
-0.01431534608 -0.01473902067 -0.02499957593 -0.699566926 -0.7145670074 0.0003285643337
-0.008367736499 -0.01878662554 -0.02249710083 -0.3829926114 -0.9235918253 0.01716973818
-0.01207475328 -0.01454588413 -0.05226505089 -0.5952063375 -0.7548081257 -0.2756702906
0 -0.02055779362 -0.02168031979 0.004921077808 -0.9999248661 -0.01122698085
0.005719852567 -0.01975778389 -0.0221769352 0.2826787404 -0.9591135513 0.01392571149
0.007885671616 -0.01901195049 -0.02263965034 0.3762357129 -0.9265093726 0.005202964363
0.0145513382 -0.01071736336 -0.05594408035 0.7086633018 -0.6352937802 -0.3069171509
0.01380939817 -0.01523529339 -0.02497954082 0.6702331486 -0.7421250334 -0.006161273969
-0.01701241589 -0.01161435509 -0.03070851707 0.8169613407 0.5764313589 0.01735097094
0.0153272419 -0.01374647522 -0.02503964615 0.7487326887 -0.6628710612 -0.00114762799
0.0185588665 -0.008940264702 -0.02799342918 0.8428892415 -0.5380863979 -0.0008688886425
-0.01863469315 -0.008759980679 -0.03073851013 0.8696192209 0.4937124992 0.003221615451
-0.01694830513 -0.01170301914 -0.02803134537 0.8126235833 0.5827564804 -0.006147878391
-0.0146300149 -0.01442836761 -0.02806515646 -0.7024992779 -0.7115182895 0.01537817416
0.01881435966 -0.00833199501 -0.03724108505 0.8819509949 -0.4712020362 -0.01144917528
0.01231390667 -0.01649170876 -0.02505426598 0.5770682813 -0.8165394971 -0.01598275646
-0.008277704239 -0.0163246479 -0.05378613281 -0.3893841743 -0.8662328022 -0.3130825725
-0.005786935091 -0.01973810482 -0.0307285533 -0.2435435094 -0.9697947423 -0.01359105808
0.01538387537 -0.01368015766 -0.0276691637 0.7523652748 -0.6587252933 -0.005242252897
0.01694830513 -0.01170301914 -0.02803134537 0.8019974177 -0.5973235537 -0.002171245378
0.01241748905 -0.01641627026 -0.03114554214 0.5925535371 -0.8054983245 0.007263260466
0.01863469315 -0.008759980679 -0.03073851013 0.8483245702 -0.5294631124 -0.00377309818
0 -0.0205601902 -0.02505607605 -3.647832565e-17 -0.9999938073 -0.00351928005
0.005746463776 -0.01974997759 -0.02556931734 0.2680181323 -0.9633865675 0.007252748444
0.00791332674 -0.01899930573 -0.02519065857 0.4112822679 -0.9115080167 0.0001776592257
0.01235806131 -0.01645955086 -0.02765080452 0.5772028769 -0.8165577497 -0.00838333605
-0.008674900889 -0.01864678526 -0.02798234081 -0.4300823038 -0.9027134741 -0.01173011772
0.007941236258 -0.01898654461 -0.02776516724 0.3804343839 -0.9247415362 0.01108019722
-0.002987179279 -0.01846808434 -0.05222979164 -0.1435648757 -0.9388988572 -0.3128227333
-0.01709941101 -0.01148364496 -0.03432060051 0.8221007428 0.5692969531 -0.007165744563
0.002879932463 -0.02037102985 -0.02859280682 0.1481810117 -0.9889289661 0.007866874325
0.005766605377 -0.0197440691 -0.02813694954 0.2770454453 -0.9607075076 -0.01693829962
0.009744919014 -0.0180927166 -0.03127865067 0.4943573104 -0.8692281057 0.007304098166
0.005786935091 -0.01973810482 -0.0307285533 0.2781943997 -0.960248792 -0.02302462616
0.01314142323 -0.009392211914 -0.06072373962 0.6188780429 -0.6370955984 -0.4594552934
0.00796935463 -0.01897368622 -0.03035890961 0.3836058481 -0.9234214268 -0.01180770222
0.01475632524 -0.01429774714 -0.03426935577 0.718797501 -0.695152235 -0.009670710036
-0.01889420033 -0.008121730328 -0.04009063148 0.8895691264 0.4562469629 0.02248284137
-0.0171654377 -0.01138259315 -0.03705828094 0.8272831241 0.5616708692 -0.01133434279
-0.00289003396 -0.02037037277 -0.03117969131 -0.09881096094 -0.9951061041 0.0004853466987
0.00289003396 -0.02037037277 -0.03117969131 -0.1313757759 0.991303012 -0.007664456179
0.01247760201 -0.01637249088 -0.03468056679 0.6007120779 -0.7994361928 0.006839095118
-0.009986784935 -0.01184470558 -0.06085030746 0.4943096929 0.7364894985 0.461780409
0.01481129527 -0.01424090099 -0.03696938992 0.717295596 -0.6963277833 -0.0247920575
0.01889420033 -0.008121730328 -0.04009063148 0.8895691282 -0.4562469593 -0.02248284607
-0.01723308849 -0.01126463127 -0.03983456039 0.8314316451 0.554595485 0.03384180016
-0.005814298987 -0.01973007822 -0.03421685123 -0.2451085614 -0.9694078281 0.01304821819
-0.003003837943 -0.01758803844 -0.05473597908 -0.1846220161 -0.9165951089 -0.3546380091
0 -0.02056630135 -0.03366008949 -2.025764507e-16 -0.9998841601 -0.01522058835
0.002900244534 -0.02036868095 -0.03379176044 0.09567481441 -0.9953810167 -0.007934826719
0.01723308849 -0.01126463127 -0.03983456039 0.831431632 -0.5545955049 -0.03384179725
-0.01152139346 -0.01704226557 -0.03748087819 -0.5891808453 -0.8079969431 0.002621369826
0.012012012 -0.01534503889 -0.04983763885 0.6030240594 -0.7667128393 -0.2202575898
0.00877835536 -0.01860395718 -0.03672999191 0.4402375435 -0.8978404958 -0.008564424364
0.0116124649 -0.01682737986 -0.04300753657 0.5862213756 -0.8079905631 -0.05912485758
0.01898641396 -0.007730069637 -0.04308407211 0.8895343106 -0.4554895174 -0.03546843371
0.01949293327 -0.002770703793 -0.05391080856 0.9101621559 -0.3733592285 -0.1794651398
-0.0190646801 -0.007217989445 -0.04526540756 0.8981227244 0.4324785364 0.07961085034
-0.008496516228 -0.01095686722 -0.06343474579 -0.4073155442 -0.733703898 -0.5438498299
-0.01206704235 -0.01664295133 -0.04013090642 -0.5918666634 -0.8056121466 -0.02613277706
0.002913990021 -0.02036640263 -0.03730811977 0.1003916035 -0.9949472836 -0.001195286041
0.00235751009 -0.007323540211 -0.07006952667 -0.0430861553 0.8563797171 0.5145457835
-0.01922500992 -0.005806240559 -0.04900851631 0.9086198953 0.3928260564 0.1417659171
-0.01740557766 -0.01043813896 -0.04586164665 0.8341757628 0.5406187458 0.1090053597
-0.01468099721 -0.01421483866 -0.04298392487 0.7155475899 0.6957720477 0.06239314275
-0.008821422815 -0.01856036139 -0.04031843662 -0.433082303 -0.9008520926 -0.03008697516
-0.00610385561 -0.01962933795 -0.03988291931 -0.2905287353 -0.9564724847 -0.02744886045
0.008821422815 -0.01856036139 -0.04031843662 0.433082303 -0.9008520926 -0.03008697516
0.01468099721 -0.01421483835 -0.04298392359 0.7155475894 -0.695772048 -0.06239314525
0.002924410105 -0.02036389351 -0.03997170258 0.1047743252 -0.9940006701 -0.03138484583
0.01581066704 -0.0125621357 -0.04624877357 0.7417947877 -0.6562481102 -0.1381264305
-0.006910445213 -0.01265114307 -0.06217651749 -0.3489520482 -0.7769542649 -0.5239986052
-0.01949293327 -0.002770702124 -0.05391080856 0.9101621946 0.373359123 0.179465163
-0.01753263664 -0.009365311623 -0.04937337112 0.8399303147 0.5187778473 0.1593317658
0.006910445213 -0.01265114307 -0.06217651749 0.3539249846 -0.7774281781 -0.5199447406
-0.01423143291 -0.01433841515 -0.04593902206 0.7039009341 0.7019407548 0.1086400099
-0.002936323464 -0.02022974682 -0.0427526722 -0.1241784186 -0.9891722729 -0.07821722892
0.008857187271 -0.0184294939 -0.04310398865 0.4456351029 -0.8910513345 -0.08623731446
-0.0176497612 -0.008123981476 -0.05210569382 0.8529414836 0.4706900483 0.2257026894
0.008902083397 -0.01802028704 -0.0461133461 0.4365555308 -0.8877764189 -0.1458502605
0.01432441568 -0.01350502443 -0.04928526497 0.7072974748 -0.6866327631 -0.1681241528
0.0176497612 -0.008123981476 -0.05210569382 0.8529414434 -0.4706901176 -0.2257026968
-0.01780647278 -0.006239765167 -0.05531480026 0.843825845 0.4556554957 0.283436082
-0.006661209583 -0.01893985748 -0.04637411499 -0.3350257417 -0.9286777043 -0.1591083714
-0.00517067194 -0.01948097038 -0.04599146271 -0.2539252644 -0.956094126 -0.1463078341
0 -0.02001273537 -0.0465254097 1.281613778e-16 -0.9859136415 -0.1672551686
0.01780647278 -0.006239765167 -0.05531480026 0.8438257681 -0.4556556069 -0.2834361321
-0.01809981918 -0.002120194912 -0.06013698196 0 0 1
-0.01613463783 -0.00912745285 -0.05518021393 0.7483788055 0.6016509841 0.2791867775
-0.005949945688 -0.01854238033 -0.04940530205 -0.3238166592 -0.9201339407 -0.2202187601
-0.01224693155 -0.011871068 -0.05796345901 -0.6030081695 -0.7067583027 -0.3699646592
-0.00519053793 -0.01908127785 -0.04810058975 -0.2359728522 -0.9511541737 -0.1990541407
0.002987179279 -0.01846808434 -0.05222979164 0.143564803 -0.9388988767 -0.3128227081
-0.002716782649 -0.01946534157 -0.04843793233 -0.1177486607 -0.9715370644 -0.2055504451
-0.01469656754 -0.008539587021 -0.05941830826 0.6992775671 0.6121027045 0.369244043
0.002716782649 -0.01946534157 -0.04843793233 0.1177486607 -0.9715370644 -0.2055504451
0.01207475328 -0.01454588413 -0.05226505089 0.5952064004 -0.7548080748 -0.2756702942
0.01613463783 -0.00912745285 -0.05518021393 0.7483787853 -0.6016509952 -0.279186808
-0.0145513382 -0.01071736431 -0.05594408035 0.7086633073 0.6352937852 0.3069171279
-0.00623581473 -0.01766036288 -0.05219840622 -0.2970937516 -0.9125186 -0.2811496176
-0.003717832088 -0.01896925545 -0.05001780319 -0.2008057732 -0.9448729801 -0.2586350574
0.00623581473 -0.01766036288 -0.05219840622 0.297093707 -0.9125186225 -0.2811495916
-0.01314142323 -0.009392211914 -0.06072373962 -0.6190218565 -0.638587527 -0.4571847673
0.01215071583 -0.01344259214 -0.05493205261 0.5918652949 -0.7370096021 -0.3263622512
0.01224693155 -0.011871068 -0.05796345901 0.6020249526 -0.7038950509 -0.3769585039
-0.01500163651 -0.003214648962 -0.0652156601 0 0 1
-0.009893137932 -0.01384695148 -0.05747348785 -0.4798279167 -0.7804743017 -0.4007805318
-0.006030909777 -0.0165309763 -0.05551024437 -0.3091265784 -0.8763957436 -0.3692847942
0 -0.01791573524 -0.05449577713 0 -0.9436611122 -0.3309134407
0.006030909777 -0.0165309763 -0.05551024437 0.3091265316 -0.876395742 -0.3692848372
-0.008399494171 -0.01355424786 -0.05959110641 -0.3992191717 -0.8079807168 -0.4333488367
-0.00302390635 -0.01640184402 -0.05748976707 -0.1472178154 -0.8951972894 -0.4206527401
0 -0.01677780151 -0.05721197128 -2.406522022e-08 -0.9063397711 -0.4225496649
0.006074871778 -0.01517120314 -0.05839838219 0.3157786781 -0.8474278131 -0.4267902623
0.01162468719 -0.009336632729 -0.0626953392 0.5322101678 -0.7013824365 -0.4741466177
0.01344535637 -0.003398453951 -0.06705209351 0 0 1
-0.00304915297 -0.01475156116 -0.06061423874 -0.1722578508 -0.8488046973 -0.4998577984
0.00304915297 -0.01475156164 -0.06061423874 0.1722578142 -0.8488046327 -0.4998579208
-0.003084498882 -0.01217550468 -0.0644631691 -0.210470542 -0.7823553845 -0.5861929745
-0.00235751009 -0.007323539734 -0.07006952667 0.04308630455 0.856379054 0.5145468747
