# .PCD v0.7 - Point Cloud Data file format
VERSION 0.7
FIELDS x y z normal_x normal_y normal_z
SIZE 4 4 4 4 4 4
TYPE F F F F F F
COUNT 1 1 1 1 1 1
WIDTH 560
HEIGHT 1
VIEWPOINT 0 0 0 1 0 0 0
POINTS 560
DATA ascii
0.0163073082 -0.006725820065 -0.05879855728 0.7649421267 -0.5952161376 -0.2461326722
-0.0007658038139 0.01704278564 -0.0008146438599 0.1079986089 -0.9217022425 0.3725604336
-0.01062051678 0.01332895136 -0.0007252761722 -0.4842175944 0.7079554177 -0.5141327142
0.004960255146 -0.0199871006 -0.01619690514 0.2248299815 -0.9743948855 -0.002467108757
0.009441872597 -0.01829445267 -0.03079965401 0.4608073292 -0.8874777899 0.006306969162
0.001531084418 0.01696859741 -0.0007792805135 0.0699453559 0.9209032461 -0.3834642858
-0.01744193459 -0.01017774296 -0.04695965576 0.8495276653 0.5169057546 0.1054096143
0.0169909153 -0.01164482403 -0.02981213951 0.8366499307 -0.5477250983 -0.003756347792
0.01426568699 0.009323032379 -0.0004629045129 0.7130112595 0.4423658689 -0.5439920788
0.0196940937 -0.001631958485 0 0.01629686673 -0.007115327362 -0.9998418796
-0.01064298677 0.01331168795 -0.002404743791 0.5732955893 -0.770612003 0.2783690144
0.01492800522 -0.01417877865 -0.006432504654 0.7114075615 -0.7026758007 0.01208306462
0.003824290514 0.01663938141 -0.000622312963 -0.01748700382 -0.8147692944 0.5795215281
0.01573171425 0.006574385643 -0.004125039101 0.8717032472 0.4879331561 -0.04532862277
-0.002211325645 -0.02005309105 -0.04558602142 -0.1018724511 -0.9855520299 -0.1353114924
0.01347112274 -0.01491457558 -0.04645500946 0.6641330014 -0.735525252 -0.1339028009
0.01661679268 -0.01214299297 -0.01415066624 0.8190610032 -0.5735762137 0.01222293363
-0.008385046005 0.01484135818 -0.001453882456 -0.4168071419 0.893752133 -0.1657677028
-0.01061266088 -0.01764419365 -0.01018416929 -0.5005044879 -0.8657243236 0.004080813231
0.005346490383 0.01618299294 -0.0004047783017 -0.2737811442 -0.7620568478 0.586782111
0.001395565093 -0.02050721931 -0.006139751911 0.08480831582 -0.9963784584 -0.006125129877
0.003491891384 -0.02025709152 -0.006280285835 0.1852555025 -0.9826572576 0.008069255146
-0.002301346779 0.01689555359 -0.002443638086 0.170810837 -0.9597020815 0.2231492164
0.001539599091 -0.01267441988 -0.0640892067 -1.625025714e-05 -0.5997386659 -0.8001959337
0.007621553898 0.01549839067 -7.818061858e-05 0.3760834422 0.7377726773 -0.5605824837
0.01359392357 0.01182495928 0 0.4717522031 0.361275646 -0.804319443
0.01995217896 -0.005003029823 -0.01652789307 1.459009829e-07 -0.9900388386 -0.140794524
-0.006877802372 0.01565558147 -0.001846128345 0.3860014984 -0.8961446322 0.2189238256
0.01827431107 -0.009457557678 -0.01737353897 0.8530402038 -0.5218421027 -0.001797360865
-0.01455617015 -0.01452538617 -0.01223619874 0.7094837783 0.7046559803 -0.009629009479
-0.004380370498 -0.02010831833 -0.03836809349 -0.208041904 -0.9781053368 0.00534006791
0.01249271774 -0.01636148262 -0.03556945419 -0.5878131952 0.8089245567 -0.0108032031
0.009904476166 0.01533662128 0 0.2391610853 0.6515045798 -0.7199609418
-0.01792038918 -0.00801853466 0 0.5647233804 0.1972049128 -0.8013724016
0.01584290314 -0.01231913948 -0.04733501816 0.7666628662 -0.6264993783 -0.1404513392
0.01109083843 -0.01727105713 -0.0420997467 0.5652397537 -0.8231521814 -0.05407871263
-0.01586258507 0.01182832909 0 0.4352932359 -0.4905696933 0.7548914987
0.003849225283 0.01663776398 -0.005736655235 -0.2402556787 -0.9705851271 0.01554734598
-0.009607370377 -0.01805452538 -0.04336435699 -0.4596776641 -0.8847356745 -0.07706640831
0.01872100258 0.008376771927 0 0.1196493272 -0.01440159663 -0.992711757
-0.01714338398 -0.01141634512 -0.03614387512 0.843241385 0.5375173725 -0.004363589969
-0.01651720333 -0.01225826645 -0.00994693327 0.8036162283 0.5950395873 0.01135108483
-0.01300748634 -0.01165139961 -0.057170681 -0.6005440597 -0.7142656155 -0.3594043168
-0.0143499527 0.01182600498 0 -0.5350289729 0.334403403 -0.7758339785
-0.002306347132 0.01689635849 -0.004150353909 0.1416397593 -0.9899147344 -0.002645233635
-0.006284843445 -0.01718070221 0 0.1483163911 0.4616604896 -0.8745695172
-0.01283789444 0.01182391357 0 -0.4740257006 0.3698794928 -0.7990549393
-0.01780647278 -0.006239765167 -0.05531480026 0.8292171988 0.4897916022 0.269263855
0.02001501465 -0.004739237785 -0.01838282585 -0.07859116124 -0.986602028 -0.1429680651
-0.01013441086 -0.00830312252 -0.06540302277 -0.4534390306 -0.6866687261 -0.5682245208
-0.008045559883 -0.01893884277 -0.03738838196 -0.3756972341 -0.9267384425 0.002728997256
0.0128541317 0.01120312977 -0.002220076203 0.7100896738 0.6614815721 -0.2412774025
-0.003840901136 0.01664016533 -0.004025569439 0.2254228455 -0.9742609607 0.0003480235837
0.01630246162 -0.01250682449 -0.0008826884627 0.7010972834 -0.5971799656 0.3896648406
0.004932162285 -0.01999078083 -0.01209124565 0.2432109924 -0.9699722782 -0.001480800559
-0.01620377668 0.007817154408 -0.0002827106913 -0.5027892587 0.1875279408 -0.8438223941
-0.01249271774 -0.01636148262 -0.03556945419 -0.6157703617 -0.7878709449 -0.009286328735
-0.005358046055 0.01618151283 -0.002099580288 0.344058373 -0.906548345 0.2445279824
-0.00383258009 0.01663991737 -0.002320436478 0.2682099907 -0.9498518364 0.1607634589
-0.01438574839 -0.01467837715 -0.01601785183 0.7101391335 0.7039086063 0.01466577741
0.003840878487 0.01663830566 -0.004024664879 -0.1965861948 -0.9804604123 -0.007158759868
-0.004887980461 -0.0171794548 0 0.1190799838 0.3417871666 -0.9322024942
0.00950937748 -0.0182689743 -0.03606941986 0.4759358347 -0.8794732567 0.003445580004
-0.0007674683928 0.01704526901 -0.002515772581 0.109407144 -0.9696968375 0.2184447759
-0.01547928333 -0.01356843472 -0.03209899902 0.755782822 0.6547483552 -0.009844659338
-0.01068829918 0.01327943945 -0.005785912275 0.6344387732 -0.7727469073 0.01869920557
0.01567704391 -0.01329225826 -0.04119192123 0.7624345282 -0.6464473231 -0.02827452292
0.01569536018 0.007538324594 -0.0004240660369 0.6838058434 0.4570046745 -0.5688200911
-0.01469656754 -0.008539587021 -0.05941830826 -0.7066537282 -0.4375575666 -0.5560430598
0.001534403533 0.01696984673 -0.002479433537 -0.09240484133 -0.9473823777 0.3064767132
0.01889420033 -0.008121730328 -0.04009063148 0.8864215995 -0.4624525612 -0.01985891632
0.003832566977 0.01663884544 -0.002319920778 -0.1710964576 -0.9361037499 0.3073040376
0.005358046055 0.01618151283 -0.002099580288 -0.3617629147 -0.85985219 0.3602524184
0.01205736542 -0.01665877914 -0.009928503036 0.5847983713 -0.8111785756 0.000428213417
0.01136016941 0.01275315952 -0.0004479015768 -0.5742103692 -0.600938818 0.556017076
0.007750584602 -0.01907371712 -0.01017871475 0.3759837097 -0.926539372 0.01269023713
-0.01426568127 0.009322912216 -0.0004628459513 0.72208746 -0.4834738731 0.4948158386
-0.0128541317 0.01120312977 -0.002220076203 0.650646039 -0.6896188559 0.3179395627
-0.00668702507 -0.01853005409 -0.04849406433 -0.3228791449 -0.9255095579 -0.1979422036
-0.008412094116 0.01483036089 -0.003995665789 0.4846168665 -0.8747261964 -0.0007576756677
0.01444367599 -0.01216145897 -0.05302785492 0.7054830069 -0.6619202052 -0.2532891014
0.01379280281 -0.01524989033 -0.02411401558 0.6535325487 -0.7568963963 -0.001747280319
-0.006892580032 0.01564863586 -0.003542684793 0.3521650608 -0.9356233341 0.02426410096
-0.002341964722 0.01690208817 -0.01630729866 -0.1377453586 0.9898243204 -0.03569357006
-0.02020983315 -0.003882461548 -0.02405615616 0.9982664874 0.05263741458 -0.02633102138
-0.0007691400051 0.01704776382 -0.004224084377 0.06039068403 -0.9981727474 -0.002032634935
0.001537736535 0.01697110081 -0.004186752319 -0.0907583941 -0.9958643002 -0.00414842892
0.007905589422 0.01510311921 -0.003844672124 -0.4588130857 -0.8881788177 0.02507867992
0.01138415718 0.01273448944 -0.00212369442 -0.6560226989 -0.6829795848 0.3212057055
0.01722060966 0.008374814034 0 0.4914425922 0.1873982207 -0.8505093095
0.01665700912 -0.01209644318 -0.01584818935 0.8225710536 -0.5684932083 -0.01386844806
-0.01706813049 0.004980269432 0 -0.6230832171 0.03026188093 -0.7815699093
-0.002331675053 0.01690043259 -0.01279523945 0.1486867531 -0.9888191591 -0.01135429806
-0.006997818947 0.01559916973 -0.01562489223 -0.4094105379 0.9116600559 -0.03548174147
0.001414551944 -0.02051371384 -0.01588150406 -0.06330660358 0.9979545896 0.008883190521
0.003539394855 -0.02026387024 -0.01603108215 0.1867337548 -0.9823785074 0.007935550323
-0.01066557121 0.01329492521 -0.004091454625 0.6341976546 -0.7731695362 -0.001484316397
0.009764432907 -0.01619118881 -0.05201737976 0.4721299971 -0.8394853609 -0.2689936703
0.01382599354 -0.01522069645 -0.02584506607 0.65588123 -0.754838723 -0.006189856143
-0.006914870977 0.01563815832 -0.006101861715 0.3659345938 -0.9306405624 -0.0001294316575
-0.002813921332 -0.02036727142 -0.01187124109 -0.1554461014 -0.9878359462 0.004080811429
-0.00538130331 0.01617853355 -0.005510638714 0.3109780199 -0.9503795309 0.008450936206
-0.003849257469 0.01664041519 -0.005737959385 0.2192414013 -0.9756523805 0.005969950024
-0.002311368704 0.0168971653 -0.005864338875 0.1436798129 -0.9895970395 0.007335586937
-0.0007708187699 0.01705026817 -0.00593969059 0.06153221361 -0.9981050276 0.0003748618645
-0.01720981407 -0.01131467342 -0.03889833832 0.8466827561 0.5320976416 0.0006405627338
-0.01645802498 -0.01232676315 -0.007449036121 0.8138770894 0.5810370748 3.210718951e-05
0.001541083843 0.01697236061 -0.005901347637 0.09170885851 0.9957202257 -0.01143316946
-0.0007210806906 -0.0205638361 -0.03018954372 -0.05759772121 -0.9983227095 -0.005854068936
-0.01965275955 -0.006167788982 -0.007504394054 0.9982659057 0.05264985786 -0.02632819643
0.005154114246 -0.01970681953 -0.04401896667 0.2457844115 -0.9642485561 -0.09906939521
0.00538130331 0.01617853355 -0.005510638714 -0.3033146593 -0.9528100838 0.01237585208
0.007423012575 0.0153652064 -0.006251841863 -0.4212543207 -0.906864954 -0.01186391877
0.01337714863 -0.01561351776 -0.002432043314 0.6044844468 -0.7731537559 0.1919161882
-0.0157007103 0.006639134407 -0.002483371973 0.849989148 -0.5165672981 0.1033279967
0.005082685471 -0.01995864677 -0.03406483078 0.2248598579 -0.9743363431 0.01033125724
0.009922820091 0.01387189198 -0.004375400543 -0.5533481981 -0.8329467398 -0.002345271006
0.01140830326 0.01271738434 -0.003807225943 -0.670267201 -0.7420738043 0.008267297309
0.01429479218 0.009280935287 -0.002116225243 0.8163185717 0.4791441418 -0.3225598872
0.01706813049 0.004980269432 0 0.6052120424 0.07586407479 -0.7924411814
0.003781671286 -0.01622701836 -0.05761904144 0.2019103005 -0.8769175086 -0.4361741782
0.01855520248 0.004981423855 0 0.09064905036 0.007208089085 -0.9958568136
-0.01839232063 0.001645877719 0 -0.3376504356 0.06349866767 -0.939127309
0.01510548496 -0.01400615215 -0.01474339581 0.7374993267 -0.6753394614 0.003369715425
-0.01344535637 -0.003398448706 -0.06705210114 0 0 1
0.01695960617 0.00172148931 -0.001685501456 0.4419059081 0.08445009759 -0.8930774599
-0.01693671608 0.001973176003 -0.0001629443616 -0.3534319432 0.05545551112 -0.9338150501
-0.01432396793 0.009237687111 -0.00377572298 0.8524024839 -0.5225482496 0.01879713361
-0.006601283073 -0.01946120644 -0.04059316254 -0.3260827433 -0.9448186693 -0.03142811855
-0.01289456654 0.01116450691 -0.004734024525 0.7393238095 -0.6729436641 -0.02339080243
-0.01096790727 0.01306553078 -0.007959129175 0.6366362748 -0.7709380759 0.01867449672
-0.01876260567 -0.008455278397 -0.03536798096 0.878157203 0.4783177022 0.007218210506
0.01150588512 0.01264735889 -0.01061260509 -0.6534738124 -0.7569155851 0.007125550665
-0.008439295769 0.01481930256 -0.006551802158 0.4954647774 -0.8686087524 -0.005787020748
-0.01694830513 -0.01170301914 -0.02803134537 0.8183781178 0.5746165835 0.008546247556
-0.01212721872 -0.01661814117 -0.01405679321 -0.6223301109 -0.7827498521 -0.002811070612
0.006344394684 -0.01955448151 -0.01152852154 0.3184712417 -0.947920025 -0.00486768818
-0.005398884058 0.01617628193 -0.008089080334 0.3209696511 -0.9470885958 -0.001294154979
0.006997818947 0.01559916973 -0.01562489223 0.4093678593 0.9116724743 -0.03565466804
0.00736290741 -0.019095397 -0.04264143181 0.3400502554 -0.9381090056 -0.06570629609
-0.003857641459 0.01663998413 -0.007457378387 0.2194999124 -0.975594045 0.006003982252
0.0157007103 0.006639134407 -0.002483371973 0.834795831 0.5171515014 -0.1888656804
-0.01954824829 -0.006433707714 -0.004073499203 0.9115419883 0.4111939102 0.003282040556
-0.01112487793 -0.01707909012 -0.04404086304 -0.5409751026 -0.8357992195 -0.09373154728
-0.002316411972 0.01689797783 -0.00758570528 0.1328643765 -0.9911299342 0.00291736269
0.006301606655 -0.01956178284 -0.006670969009 0.3161251541 -0.9486914301 0.007032591026
-0.0007169059515 -0.02056079292 -0.02590459442 -0.05453991698 -0.9985053906 0.003518873403
-0.0007725047469 0.01705278397 -0.007662703514 0.0576197986 -0.9982625045 0.01232602388
0.0180911026 -0.00977352047 -0.01050179386 0.8461423977 -0.5329568863 1.434791881e-05
0.006431977272 -0.01953872299 -0.02146979523 0.3234263825 -0.9462149921 -0.008518443921
-0.00222852397 -0.01923526382 -0.0498260231 -0.1007503745 -0.9650500827 -0.2419249883
-0.006245521545 -0.0195713501 -0.0003038077652 -0.3691887652 -0.8427324189 0.3917929629
0.001544445604 0.01697362614 -0.007623332024 -0.09021621582 -0.9958196988 0.01428851952
0.005416566849 0.01617401886 -0.01068253517 -0.3210074142 -0.9469745431 -0.01390880425
-0.008399494171 -0.01355424786 -0.05959110641 -0.4109146134 -0.7864483781 -0.4611378635
-0.008331920624 -0.01516218567 -0.05651190186 -0.4044764746 -0.8323440967 -0.3789486591
0.003857607841 0.01663722038 -0.00745600462 -0.2421963798 -0.9702271237 0.0004920482525
0.006844043732 -0.01471194839 -0.05873714828 0.3251474343 -0.8358275886 -0.4423475874
0.005398884058 0.01617628193 -0.008089080334 -0.2992583166 -0.954165394 0.003586186809
0.009943933487 0.01385545921 -0.006072409153 -0.554291029 -0.8323226693 0.0006552377548
0.0197377243 -0.005880280256 -0.0101510148 0.9982640567 -0.05268707293 0.02632385656
0.003519432545 -0.02026102161 -0.01193350554 0.1865563079 -0.9824440813 0.0006092348944
0.001408150256 -0.02051270866 -0.01260080624 0.0679966611 -0.9976842981 0.001579675037
0.00542138195 -0.01085773563 -0.06545098877 0.314115979 -0.7571723463 -0.5727313416
-0.01463109827 -0.01442465353 -0.0280674181 0.7186896074 0.6951668137 0.01511123422
0.003571887493 -0.020268507 -0.02270064354 0.177438393 -0.9841284782 0.002599044084
0.001427563697 -0.02051492786 -0.02254687309 0.05867324714 -0.9982667912 0.004567665987
0.01143263912 0.01270262241 -0.005499019146 -0.6747804877 -0.7380156523 0.002047045509
0.005452301502 0.01616944122 -0.01592356491 0.3072433423 0.9503753014 -0.04887038976
-0.01428978348 -0.01385333347 -0.04811476135 0.6985648483 0.6952476601 0.169227196
0.01551784897 -0.01352327442 -0.03388962555 0.757125706 -0.6532668692 -0.001750104322
0.01289456654 0.01116450691 -0.004734024525 0.7644665983 0.6445785367 0.01045610436
0.0145513382 -0.01071736336 -0.05594408035 0.7086484946 -0.6392338584 -0.2986593132
0.01432401371 0.009238669395 -0.003776211262 0.8524099604 0.5225369531 -0.01877210686
0.01766451836 0.001809526861 -8.147218078e-05 0.393450786 0.07145025438 -0.9165649678
-0.01047696877 -0.01718632317 0 0.4019552204 0.5908928437 -0.699483844
-0.01343929958 -0.01555929184 -0.00567432642 -0.6292977102 -0.7771624217 0.001721134378
0.004983007908 -0.01998360252 -0.01952109718 0.2478489619 -0.9687528168 -0.009427199965
0.01986701202 0.001646287322 0 0.4472630575 0.0160599445 -0.89425826
-0.01795781898 -0.009980941772 -0.005457783699 0.8407690125 0.5413933123 0.0008654712207
-0.00640246582 -0.01954457474 -0.01812107849 -0.3143320623 -0.9492976789 0.00541030233
-0.0196940937 -0.001631958485 0 0 -0 -1
-0.01823227882 -0.001631555915 0 -0.2067660715 -0.06766394159 -0.9760478383
0.01645802498 -0.01232676315 -0.007449036121 0.8108598279 -0.5852232495 -0.004481935972
-0.01695960617 0.00172148931 -0.001685501456 -0.3791024774 0.07742235592 -0.9221101292
0.004904408455 -0.01999441719 -0.008035171509 0.2405673907 -0.9706278706 0.002977808955
-0.01573171425 0.006574385643 -0.004125039101 0.8842899281 -0.4669382057 0.0001874779323
0.0129086237 -0.01314660263 -0.05420336914 0.608825619 -0.7270732784 -0.3173260366
0.007858215809 -0.01902450371 -0.02010702133 0.384266311 -0.9231938229 0.007250349615
-0.0143532896 0.009194815636 -0.005442254543 0.8547041623 -0.5188195737 0.01752269805
-0.008584219694 -0.01868432426 -0.02031473923 -0.4164743159 -0.9091113756 0.008102532463
0.0129488945 0.01111261368 -0.008111746788 0.7661886918 0.6425679151 0.007833456924
-0.01292167282 0.01113861465 -0.00641931963 0.7441157478 -0.6675590269 -0.02562614691
-0.008457532883 0.01481188679 -0.008265646935 0.5094580409 -0.8603601757 -0.01526016411
-0.01500163651 -0.003214648962 -0.0652156601 0 0 1
-0.006937289238 0.0156276207 -0.00867565918 0.3760448364 -0.9266004935 -0.001344049545
-0.01809981918 -0.002120194912 -0.06013698196 0 0 1
-0.003870285273 0.01663888931 -0.01005128717 0.2275179915 -0.9737705888 -0.00253060944
0.01216953564 -0.01659352303 -0.01655769157 0.5923645972 -0.8056695363 0.0008844415734
-0.01116261196 -0.01679834557 -0.04605677795 -0.5427043645 -0.8283931936 -0.1386963939
-0.002324020982 0.01689920139 -0.01018280363 0.18506734 -0.982724955 -0.001320051577
-0.0007741981149 0.0170553112 -0.009393237114 0.0533405541 -0.9985740111 0.002174787393
-0.01067400837 -0.01760841179 -0.01430296898 -0.4967055571 -0.8678741608 0.008833489877
0.005029327869 -0.01997200584 -0.0262795887 0.2262093269 -0.9740785493 -0.0005659453191
0.001807390392 0.01694809786 -0.009918026924 -0.1173025624 -0.9930938005 0.002193706438
0.003870254874 0.01663640022 -0.01005002975 -0.2218964671 -0.9750106113 0.01078265943
0.01823227882 -0.001631555915 0 0.2966828949 -0.07513401581 -0.9520158295
0.00769741106 0.01521975374 -0.008470653057 -0.45682957 -0.8893484851 -0.01913154615
-0.0109675169 -0.01742657185 -0.03398730469 -0.5390419308 -0.8422764407 -0.002048005487
0.009965136528 0.01383895683 -0.007776622295 -0.5543606862 -0.8322327727 0.008534737967
0.007768292904 -0.01906562042 -0.01181218529 0.3815836212 -0.9243341818 -0.0005102916883
0.0176497612 -0.008123981476 -0.05210569382 0.865176461 -0.4590559873 -0.201834813
0.003891508102 0.01663502121 -0.01440927887 0.2410560176 0.9704778617 0.008044650664
0.01146927643 0.01267830753 -0.008050126076 -0.6774273325 -0.7355679426 -0.005657831009
0.01297623158 0.01108650017 -0.00981141758 0.7618143004 0.6477954521 -0.0001547599892
0.01292167282 0.01113861465 -0.00641931963 0.7693052033 0.6386933195 0.01550315821
0.01435335541 0.009196230888 -0.005442965984 0.8547153309 0.5188019696 -0.01749912706
0.01686382294 -0.01181840706 -0.02450047874 0.8294694296 -0.5583620214 0.01457114977
-0.01807499313 -0.004852504253 0 0.4289228648 0.1592238048 -0.8891979285
-0.01216953564 -0.01659352303 -0.01655769157 -0.6191899117 -0.7852182318 0.006015120583
-0.01662650681 -0.004851408958 0 0.1295604376 0.04001195104 -0.9907639158
0.004948971748 -0.0199885788 -0.01454790401 0.2256904856 -0.974194009 0.003136494853
-0.01576284218 0.006509379387 -0.005773234367 0.8853497251 -0.4649254417 -0.0004449065749
-0.0129488945 0.01111261368 -0.008111746788 0.738010575 -0.6746755169 -0.01238297544
0.01356548214 -0.01544919682 -0.01225708008 0.6401007103 -0.7682877265 0.002247198898
-0.01074617767 0.01323549318 -0.01005069447 -0.636240616 0.7713314732 0.01567281368
-0.01949686813 -0.006558859825 -0.002375654221 0.9360952903 0.2849671257 -0.2062021936
0.01349857044 -0.01112436867 0 -0.2394407343 0.2176690743 -0.9461967601
-0.008475850105 0.01480443954 -0.00998694706 0.4904239672 -0.871352743 -0.01512381045
0.009778128147 -0.01718523026 0 -0.4108295552 0.6732087245 -0.6148244383
-0.006952321529 0.01562055492 -0.01040145779 0.4029150601 -0.9152121383 0.006796787014
0.009486745834 -0.01827751541 -0.03430271912 0.469016129 -0.8831833154 0.00333199254
-0.01208519268 -0.01664258957 -0.01157307529 0.6204152328 0.7842212993 0.009049454104
-0.005416566849 0.01617401886 -0.01068253517 0.3196557938 -0.9475336618 0.0003649640557
-0.00838060832 -0.01718320084 0 0.2522430856 0.4926986059 -0.832839426
-0.0007767531574 0.01705912304 -0.01200436974 0.06027327776 -0.9981812917 -0.001113928717
-0.0007548335195 -0.01677780151 -0.05721197128 -0.06187890326 -0.9077516628 -0.4149191728
0.001295045912 0.01700425402 -0.01226697985 -0.06502651726 -0.9978772837 0.003532530939
0.005353456497 -0.01377510834 -0.06134089661 0.3003989982 -0.824862476 -0.4789178819
0.001500642955 -0.01782785702 -0.05456014442 0.07058485995 -0.9298623672 -0.3610730612
-0.01690594292 -0.01176087856 -0.02626084518 0.8122911505 0.5832509948 0.001167878496
0.007714085817 0.01521249723 -0.01019420242 -0.4595865143 -0.8881007798 -0.007565768855
0.01131922436 -0.01489546204 -0.05294842148 0.5547101776 -0.7802363465 -0.2890118725
-0.006638988972 -0.01920371437 -0.04437164307 -0.3268696343 -0.9399257064 -0.0984678053
0.01540282536 -0.01365796757 -0.0285490036 0.7505784796 -0.6605993846 0.01550480588
0.009986430168 0.01382238293 -0.009488150597 -0.5621276819 -0.8270261582 0.006340573127
0.005586411953 -0.01718007851 0 -0.1944784326 0.4514044838 -0.8708686074
0.01439760971 0.009132221222 -0.007956899881 0.8548143864 0.5186761972 -0.01635136885
0.006476977825 -0.01952402496 -0.02656450462 0.315275001 -0.9489957284 0.002963292585
-0.00628045702 -0.01956539059 -0.004269900799 -0.2990365181 -0.9542394829 -0.00204210291
0.01576284218 0.006509379387 -0.005773234367 0.885459924 0.4647154689 0.0005059346688
-0.008290642262 -0.01881959279 -0.01579153633 -0.4134198491 -0.9105008713 -0.008496568166
-0.0007837464809 -0.00809774971 -0.06948584747 -5.482152979e-08 -0.6019928303 -0.7985014917
0.01735074997 -0.004851956606 0 -0.528280156 0.1797953056 -0.8298154764
-0.01262167835 -0.01613199234 -0.04288199997 -0.5992834536 -0.7979023166 -0.06489403223
0.01952415657 -0.004853691101 0 -0.528280156 0.1797953056 -0.8298154764
0.01834446049 -0.00933150053 -0.01999452496 0.8564868274 -0.5161653783 -0.001901742913
-0.01944576454 -0.006683339119 -0.0006869353652 0.7919050069 0.1492143573 -0.5921330388
-0.01648432541 -0.008016740799 0 0.3835861894 0.1589690905 -0.9097199919
0.01675958729 -0.01196077108 -0.02014411449 0.816012828 -0.5780130717 0.004894225344
0.01212721872 -0.01661814117 -0.01405679321 0.5630697878 -0.8263026191 0.01328141025
0.001522634894 -0.01510826874 -0.06034873581 -0.05190546382 0.8766086005 0.478396472
0.004877009153 -0.01999800682 -0.004030822992 0.2246002093 -0.9744509379 -0.0003400978688
-0.01579409599 0.006444111347 -0.007428059101 0.88609895 -0.4634959767 -0.0003610767545
0.0198277626 -0.005525344372 -0.01285508156 0.9982652823 -0.05266225367 0.02632704248
-0.01297623158 0.01108650017 -0.00981141758 0.7360216075 -0.6768405646 -0.01261123709
-0.01001860666 0.01379896164 -0.01207117653 0.5395510589 -0.8418945767 -0.009908408266
-0.02028035355 -0.003524662256 -0.02601453018 0.9982665068 0.05263701017 -0.02633109456
0.01514194298 -0.01396345997 -0.01643613243 0.7192371735 -0.6946301308 0.013670026
-0.00849424839 0.01479695988 -0.01171581936 0.5009487193 -0.8654749879 -0.001850928923
-0.0198277626 -0.005525344372 -0.01285508156 0.9982652823 0.05266225367 -0.02632704248
-0.006967419624 0.01561345768 -0.01213485241 0.3956585319 -0.9183974519 0.000668189514
-0.01085043335 -0.01749910927 -0.02613502121 -0.5053753967 -0.8628995933 1.817689192e-05
-0.005428425312 0.0161724987 -0.01242170715 0.3126579445 -0.9498261635 -0.008675767083
-0.003883003473 0.01663778687 -0.01266048145 0.2344454972 -0.9720960029 -0.008041770509
0.006967419624 0.01561345768 -0.01213485241 -0.39408682 -0.919054169 -0.005917164466
0.00849424839 0.01479695988 -0.01171581936 -0.5071081274 -0.8617851204 -0.01295196219
-0.01572448921 -0.01310538197 -0.043132164 0.7642859207 0.6424372404 0.05604840367
-0.01103385735 -0.01738547134 -0.03843648529 -0.5318748355 -0.8468086374 0.004928579627
0.01001855659 0.01379737806 -0.01207035828 -0.5465072094 -0.8374206214 -0.007521498371
0.001485472143 -0.01931282234 -0.04977020836 0.07396547837 -0.9677738055 -0.2407134591
0.01720235729 -0.00801763773 0 -0.6374556485 0.2781260354 -0.7185375458
0.01944576454 -0.006683339119 -0.0006869353652 0.8703530065 -0.2023415969 0.4489359891
0.01126993847 -0.01417986679 0 -0.4254619503 0.3839623189 -0.8194846347
0.006717107296 -0.01794725037 -0.05075382996 0.3311946854 -0.9073003612 -0.2590678193
-0.01782499313 -0.0102110014 -0.000477806747 0.7537206454 0.4677674196 -0.461626288
-0.009893137932 -0.01384695148 -0.05747348785 -0.4851315674 -0.7738700544 -0.4071516932
0.003480238795 -0.02025542831 -0.003888393402 -0.1766474721 0.9842201002 -0.0103181884
0.001392457247 -0.02050586414 -0.004544241667 0.08244594154 -0.9965891927 0.003556354772
-0.01634454155 -0.01112868786 0 0.5122330387 0.3498345621 -0.7843679578
-0.006454396009 -0.01953140163 -0.02400789452 -0.31924466 -0.9476721431 -0.0005967981663
-0.01492128372 -0.01112642479 0 0.5022689835 0.3181091335 -0.8040724143
-0.01349857044 -0.01112436867 0 0.2461376155 0.2482304148 -0.9369087124
0.01359743404 -0.01542131901 -0.01392395878 0.6343416337 -0.7730319768 -0.0056793171
-0.009555150986 -0.01824840164 -0.03963619995 -0.4575757433 -0.8890271348 -0.01597475098
-0.01300368786 0.01106027508 -0.01151844311 0.6987130836 -0.7151887877 -0.01746495817
-0.004318892717 -0.02012055874 -0.02789497662 -0.1923954779 -0.9812381971 -0.01247319875
0.01192028713 -0.01673852348 -0.001827263713 -0.5771553666 0.7814640865 -0.2370771272
-0.01153040409 0.01262580681 -0.01233042431 -0.6359401628 0.7715879664 0.01523546283
-0.00215144372 -0.02047029686 -0.025962286 -0.06659282577 -0.9977632624 -0.005819594913
-0.008512727737 0.01478944683 -0.01345237923 0.4963587082 -0.8681131642 0.002750803679
-0.01988976288 -0.005265056133 -0.01468537712 -0.2029967875 -0.9703607403 -0.1311195556
0.009607370377 -0.01805452538 -0.04336435699 0.4610437485 -0.8838532422 -0.07900701346
0.00486071682 -0.02000014114 -0.001649784088 -0.2554306398 0.895366414 -0.364793329
-0.006982584953 0.01560632992 -0.01387595749 0.4139448197 -0.9101728474 0.01533212727
-0.005440336227 0.01617097282 -0.01416867733 0.315737474 -0.9486925487 0.01709665343
-0.01056502914 -0.01417882729 0 0.3720683319 0.3473058991 -0.8607809064
-0.006301606655 -0.01956178284 -0.006670969009 -0.2853257605 -0.9584098946 0.006299553315
0.004971596718 -0.01998561478 -0.01785448647 0.2461284747 -0.9692284375 -0.004124294949
-0.003891533136 0.01663704681 -0.01441033077 -0.2285902593 0.9734957381 0.00724853423
-0.002336808205 0.01690125847 -0.01454728603 -0.1424607478 0.9897923922 0.003994463394
0.01124984837 -0.01722124163 -0.02008555158 0.5488809877 -0.8357135403 -0.01767880032
0.009555150986 -0.01824840164 -0.03963619995 0.4672331445 -0.88386996 -0.02161208921
-0.0007793235183 0.01706295776 -0.01463112926 0.06396291979 -0.997949948 0.002155504956
0.001558041066 0.01697874451 -0.01458746099 0.09318395944 0.9956475456 0.001647624717
-0.01413728809 -0.01487285423 -0.04193227768 -0.672775156 -0.7387279559 -0.04067673399
-0.01916197968 -0.006420731544 -0.04765597916 0.9021700927 0.4128011363 0.125237158
0.005440336227 0.01617097282 -0.01416867733 -0.3196152666 -0.9473607748 0.01880541508
0.006982584953 0.01560632992 -0.01387595749 -0.4129463922 -0.910678572 0.01182436995
0.008512727737 0.01478944683 -0.01345237923 -0.4959774395 -0.8683168738 -0.005673286775
0.01153040409 0.01262580681 -0.01233042431 0.6381337325 0.76991898 0.003178631786
-0.009986784935 -0.01184470558 -0.06085030746 -0.4902362018 -0.7261715777 -0.4820200267
0.01300368786 0.01106027508 -0.01151844311 0.7277001731 0.6858941546 0.001291002419
0.01563291264 -0.01112755632 0 -0.5583523876 0.3515507094 -0.7514351003
-0.02001501465 -0.004739237785 -0.01838282585 0.07859116124 -0.986602028 -0.1429680651
0.01782492065 -0.01021219254 -0.0004771879911 0.8098542812 -0.4736663975 0.3460869646
-0.0007253121138 -0.02056692123 -0.03453266525 -0.05117426386 -0.9986103967 0.01258850119
0.01707749176 -0.01151719284 -0.03341173172 0.8387862021 -0.5443942831 -0.008518908997
-0.0007810474634 0.01706553078 -0.01639291954 -0.06033851263 0.9981455205 -0.008048836489
0.01949686813 -0.006558859825 -0.002375654221 0.9043819819 -0.3020457408 0.3014325816
-0.01786904144 -0.01013470745 -0.002129288673 0.8427614616 0.4552198832 -0.2872768296
-0.01818389702 -0.009589362144 -0.01393411541 0.8523405391 0.5229871371 0.0002446396805
-0.01630246162 -0.01250682449 -0.0008826884627 0.6787269877 0.6043242821 -0.4172790892
-0.01479582691 -0.01418584538 0 0.6599212241 0.5344460986 -0.5280827072
-0.01267997217 -0.01418207598 0 0.3220525809 0.297082496 -0.8989016218
-0.008531291008 0.01478189945 -0.01519674397 -0.4677312633 0.8837410975 -0.01513730141
-0.01995217896 -0.005003029823 -0.01652789307 -1.459009829e-07 -0.9900388386 -0.140794524
-0.005452301502 0.01616944122 -0.01592356491 -0.3111094842 0.9498233076 -0.03235078341
-0.003900101185 0.01663630486 -0.01616811943 -0.2318545288 0.9725387671 -0.02029344608
-0.008466657162 -0.01873299313 -0.01037415028 -0.393182954 -0.9193945847 0.01098918752
-0.002266141415 -0.01657666969 -0.05736049271 -0.09787883168 -0.9033755382 -0.4175312819
0.0163798542 -0.012417243 -0.004149459362 0.8087718857 -0.5880983327 0.005328048794
0.001561481774 0.01698052025 -0.01634838295 0.09606898319 0.9930353475 -0.0682022653
-0.01866008186 -0.008699500084 -0.03165742111 0.8709769968 0.4912827768 0.00634856303
0.003900078535 0.01663446617 -0.01616715431 0.248692761 0.9683380592 -0.02175577426
0.008531291008 0.01478189945 -0.01519674397 0.4679914997 0.883602177 -0.01520358383
-0.008496516228 -0.01095686722 -0.06343474579 -0.4216823334 -0.7157487602 -0.5566755984
-0.004390931368 -0.02010017776 -0.0401534214 -0.2084636549 -0.9775632859 -0.03021467686
0.01005087185 0.01377222633 -0.01466776752 0.5444468585 0.8387728855 -0.006137161463
0.01338509655 -0.01418324566 0 -0.3473960599 0.3998218433 -0.8482089785
-0.004849924088 -0.02000155449 -7.244923711e-05 -0.1089045478 -0.7135751117 0.6920623957
-0.01057622051 -0.0176648941 -0.007736505032 -0.5213946582 -0.8532631396 -0.009467046278
-0.0145061512 -0.01455645609 -0.02198112011 0.7109211129 0.7032402821 0.006654087403
-0.004465349197 -0.01876198101 -0.05016717148 -0.1946663678 -0.9525501345 -0.2339941162
0.01479582691 -0.01418584538 0 0.6363098538 -0.500726182 0.5868415975
0.01786871529 -0.01014001942 -0.002126500845 0.8644144717 -0.4540917399 0.2158432599
-0.01225562954 -0.01653415108 -0.02162717819 -0.6278286567 -0.7783143564 -0.007611858889
0.01954824829 -0.006433707714 -0.004073499203 0.9118882674 -0.410425949 -0.003213746876
-0.01959990692 -0.006307873249 -0.005780610085 0.9982602506 0.05276124923 -0.02631962414
-0.008485999346 -0.01872498608 -0.01200964308 -0.4100964596 -0.9120418628 0.0007310141534
0.01069881153 -0.01759304428 -0.01596636868 0.5281239331 -0.8491519282 -0.005110203448
-0.0007608349919 -0.0152265892 -0.06026066589 -0.05632228878 -0.8748155645 -0.4811709965
-0.0007136080861 -0.02055838966 -0.02251971436 -0.05175285608 -0.9986172601 0.009230908583
-0.01791331482 -0.01005802345 -0.003789237976 0.8771734916 0.4796550925 0.02230824855
-0.002251322985 -0.01773997879 -0.05462451172 -0.09686107768 -0.9295868127 -0.3556491097
-0.01634106255 -0.01246214485 -0.002512034893 0.8045682721 0.5743958939 -0.1507953997
-0.01813819504 -0.009668521881 -0.01222058105 0.8503041194 0.5262903805 -0.001157529931
-0.006793110371 -0.01614100075 -0.05579561615 -0.3300093376 -0.8674940674 -0.3722202038
-0.01482418633 -0.01426992798 -0.00155133152 0.7232530817 0.5358652748 -0.4356069181
0.006330060959 -0.01955692673 -0.00990127182 0.3116466585 -0.9501920488 -0.003380925755
-0.004877009153 -0.01999800682 -0.004030822992 -0.2552416709 -0.9668602296 -0.005743338843
-0.002204269409 -0.02027537918 -0.04361989975 -0.1040214852 -0.9903507384 -0.09156934811
0.01657678986 -0.01218929577 -0.01246212387 0.8178482716 -0.5753150154 0.01169776186
-0.00235751009 -0.007323539734 -0.07006952667 2.355615702e-13 -0.6019927121 -0.7985015808
0.009893137932 -0.01384695148 -0.05747348785 0.4851316255 -0.7738700307 -0.4071516689
-0.01261978436 -0.0161973362 -0.0005266228765 -0.4839574478 -0.7495109334 0.4516841258
-0.002793007851 -0.01717820644 0 -0.07803019567 -0.3176971044 0.9449761047
0.007646228313 -0.01911884117 -0.0005473191142 0.3673079497 -0.8732353549 0.3202263028
-0.01928804016 -0.005191749573 -0.05036105347 0.8981228659 0.4146179027 0.1465172773
-0.000698233366 -0.01717758179 0 -0.0002637767372 -0.2552016689 0.9668878108
-0.0190646801 -0.007217989445 -0.04526540756 0.8957734632 0.4357983085 0.08757703467
0.00139647913 -0.01717773819 0 0.0005592165737 -0.256438326 0.9665604338
0.003491290808 -0.0171785183 0 0.1100410316 -0.2649007427 0.9579762878
0.007681929111 -0.01718226433 0 -0.2586853405 0.6366997589 -0.726426398
0.01189326859 -0.01675424004 -0.0002304972112 -0.4866667579 0.718727272 -0.4965748436
0.01482418633 -0.01426992798 -0.00155133152 0.6650197119 -0.6036515811 0.4397198556
0.01500163651 -0.003214651346 -0.0652156601 0 0 1
0.01634106255 -0.01246214485 -0.002512034893 0.8105125624 -0.5770695885 0.1002999313
0.01791273117 -0.01006747818 -0.003784222841 0.8771235414 -0.4797572394 -0.02207451943
0.01720981407 -0.01131467342 -0.03889833832 0.8466827561 -0.5320976416 -0.0006405627338
0.01959990692 -0.006307873249 -0.005780610085 0.9982602506 -0.05276124923 0.02631962414
-0.0007055156231 -0.02055249214 -0.01421362686 -0.04312397786 -0.9990422294 0.007412586295
-0.0197377243 -0.005880280256 -0.0101510148 0.9982640567 0.05268707293 -0.02632385656
0.001492357194 -0.01869684696 -0.05206355858 0.07438839959 -0.9509090065 -0.3003971161
-0.0163798542 -0.012417243 -0.004149459362 0.8094063891 0.5872257939 -0.005211939516
-0.01487592554 -0.01422450256 -0.003983914256 0.712963674 0.7011872796 -0.004381615622
0.02020983315 -0.003882461548 -0.02405615616 0.9982664874 -0.05263741458 0.02633102138
-0.02051664162 -0.00143847537 -0.03080141068 0 0 1
-0.01264871788 -0.01617602062 -0.002129653513 -0.5745510753 -0.7820991448 0.2412716096
0.009059029579 -0.01843895912 -0.0009128980637 -0.374353016 0.8814035726 -0.288075618
-0.008352628946 -0.01877890015 -0.0007301085889 0.3359978864 0.7759555632 -0.5338523994
0.006417172909 -0.01954206467 -0.0197907486 0.3238262839 -0.9461102617 -0.003451170615
-0.0007287422419 -0.02056941986 -0.03805334091 -0.06265342232 -0.9980285539 -0.003681612576
0.01818173409 -0.009623916626 -0.01391460991 0.8498510803 -0.5270227522 -0.0003999361837
0.00640246582 -0.01954457474 -0.01812107849 -0.3098959224 0.9507691284 0.001606820772
-0.002769926071 -0.02013527679 0 0.05573679316 -0.4135367616 0.9087798175
-0.0006924633384 -0.02013455009 0 0.02005191983 -0.4549904817 0.8902705106
0.01517859745 -0.01392053795 -0.0181380043 0.7210478951 -0.6928852211 5.804550851e-05
0.01300748634 -0.01165139961 -0.057170681 0.6005441434 -0.7142655454 -0.3594043162
-0.01055208778 -0.01767860413 -0.006115548611 -0.5224658414 -0.8525372354 0.01448126025
0.01353369522 -0.01547693062 -0.01059880638 0.6384359011 -0.769637908 0.007555843848
-0.004915465832 -0.01999296951 -0.00965111351 -0.2569425564 -0.9663377484 -0.01311025655
0.001384938806 -0.02013473225 0 0.02660964283 -0.4490726622 0.8930989145
0.003462437868 -0.02013563919 0 0.08703131235 -0.6656189967 0.741199637
0.009638660431 -0.01781261253 -0.04534682083 0.4705700795 -0.8751476579 -0.1126071807
0.005547722816 -0.01978645229 -0.0001881285012 -0.173407694 0.7436678769 -0.6456685376
-0.008371386528 -0.01877198505 -0.002317680955 -0.4012136429 -0.8925487862 0.2058744203
0.009779895306 -0.01807530212 -0.001901439428 0.4467933746 -0.8839476729 0.1378847057
-0.01417825381 -0.01487404188 -0.01813326391 -0.6966818937 -0.7173774113 0.001997191707
0.01487592554 -0.01422450256 -0.003983914256 0.7141557383 -0.6999855595 -0.001340876961
0.01795697594 -0.009994563103 -0.005450481892 0.8394637683 -0.5434156612 -3.100959722e-05
0.01375979519 -0.01527892303 -0.02239253426 0.6488964257 -0.7607697575 0.0127594995
-0.01402915382 -0.01504200459 -0.0364407196 -0.6700205235 -0.7423403463 0.001818885855
0.01965275955 -0.006167788982 -0.007504394054 0.9982659057 -0.05264985786 0.02632819643
-0.0006960732937 -0.02054561043 -0.004522120476 -0.03503674594 -0.9993860239 -4.146394743e-05
-0.01641884232 -0.01237211704 -0.005795084953 0.8124625002 0.5829402912 0.009235940352
0.01846262932 -0.009119153023 -0.02440966606 0.8607061417 -0.5091019968 -0.0003074640866
-0.01802504063 -0.009864510059 -0.007978123903 0.8439837379 0.536368166 -0.0008004572895
-0.003813871145 -0.01451317406 -0.06079167175 0.2074547147 0.8446937845 0.4934115441
0.01418121433 -0.01466627979 -0.0438873291 0.6768603873 -0.7320754944 -0.07697718229
-0.00219227314 -0.02046548653 -0.03990166092 -0.09881856815 -0.9949207861 -0.0191708098
-0.01244343281 -0.01633868663 -0.004174939315 -0.6203098834 -0.7843286479 -0.00664985518
-0.006259442329 -0.01956897545 -0.001884209633 -0.3322877852 -0.8637610966 0.3788160449
-0.01409858894 -0.01497872353 -0.04005763245 -0.6754521434 -0.737051932 -0.02277831131
-0.01090209293 -0.01746710396 -0.02959962654 -0.516121527 -0.8564581693 -0.009898161133
-0.00486071682 -0.02000014114 -0.001649784088 -0.1712496581 -0.8705611456 0.4612990856
-0.0007152525187 -0.02055958748 -0.02420755768 -0.0471254639 -0.998846799 0.00917947421
-0.002544149478 -0.02039376831 -0.001962705255 -0.1072288907 -0.9552187692 0.2757880854
0.01348633814 -0.01551824951 -0.008128281355 0.6372699013 -0.7706175422 0.005972995004
-0.0006937566698 -0.02054392052 -0.002144309342 -0.02216361727 -0.971282106 0.2368962739
0.007663375854 -0.0191126976 -0.002132465363 0.382203575 -0.9031219392 0.1956813485
0.001387825355 -0.02050384235 -0.002166249156 0.05991775662 -0.9752308986 0.2129191322
0.003468660355 -0.02025377655 -0.001511737823 0.1750992522 -0.9573800332 0.2297035566
0.006259442329 -0.01956897545 -0.001884209633 0.3394388365 -0.9092417162 0.2409580416
-0.005268709183 -0.01692095184 -0.05522487259 -0.2619073975 -0.8896114686 -0.3741603267
0.01050417614 -0.01770582199 -0.002897406101 0.5175230843 -0.8541913326 0.05026951854
0.01340814781 -0.01558647156 -0.004049196243 0.6262874042 -0.779587165 -0.002817714044
0.01641884232 -0.01237211704 -0.005795084953 0.8115365204 -0.584237514 -0.008660441156
0.007680627823 -0.01910570526 -0.003725642204 0.3794235297 -0.9251869042 -0.008183975925
0.01525250721 -0.01383398914 -0.02156970596 0.7441613258 -0.667863327 -0.01350916876
0.01544094276 -0.01361333084 -0.03031884384 0.7520646767 -0.6590734202 0.004576998351
-0.002792696953 -0.02036239338 -0.006221138716 -0.1539591898 -0.9880601947 0.005798230096
-0.0007270222306 -0.02056816673 -0.03628789139 -0.04833235956 -0.9988300849 0.001563467471
0.01802380371 -0.009884429932 -0.007967271566 0.8422056642 -0.5391546486 0.001372648167
-0.01492800522 -0.01417877865 -0.006432504654 -0.7061138764 -0.7078609256 0.01833312819
-0.00517067194 -0.01948097038 -0.04599146271 -0.2487723856 -0.9591385108 -0.1347798844
-0.01052807331 -0.01769224739 -0.004502555847 -0.5256086317 -0.8506464445 0.01167015942
0.01753263664 -0.009365311623 -0.04937337112 0.8541660859 -0.4990242706 -0.1462021722
-0.008390244961 -0.0187646265 -0.003913079977 -0.389266603 -0.9210954293 -0.007397418763
0.005125315666 -0.01993805504 -0.04026509857 0.2314783631 -0.9723750016 -0.03007696364
-0.003016439597 -0.02032565816 -0.004114383221 -0.1533324169 -0.9881579376 0.005749802186
0.009099862099 -0.01842354774 -0.00410051775 0.4412973253 -0.8973599104 0.00136452184
0.01052807331 -0.01769224739 -0.004502555847 0.5183848487 -0.8551303279 0.005410268297
-0.0007111590207 -0.02055660439 -0.02000599003 -0.04169738788 -0.9991301589 0.0005033168324
0.01343929958 -0.01555929184 -0.00567432642 0.6275050391 -0.7786083768 -0.002534042753
-0.01809273911 -0.009747253418 -0.01051631927 0.8485534613 0.5291090896 0.0007710941605
-0.01496295547 -0.01414809322 -0.008075774193 0.714512216 0.6996111363 0.00406831707
0.007049761613 -0.019313495 -0.03595877838 -0.3306524178 0.9437406102 -0.004758078903
-0.01348633814 -0.01551824951 -0.008128281355 -0.6344093123 -0.7729772181 0.005571772755
-0.0120021286 -0.01669091225 -0.006664049625 -0.6120846202 -0.7907760495 0.00506530434
0.009580233574 -0.01817945099 -0.04147531509 0.4803985218 -0.8755964362 -0.05047911621
-0.008177949588 -0.01886778069 -0.005989723523 -0.3909145906 -0.9203622422 -0.01091448811
-0.0007690671086 -0.01285464478 -0.06395418549 -1.190873384e-07 -0.5997835311 -0.8001623059
0.007706710815 -0.01909377861 -0.006131645918 0.3794997839 -0.9251532861 -0.008444596082
-0.006417172909 -0.01954206467 -0.0197907486 -0.319241981 -0.9476569894 -0.005548694888
0.009120427132 -0.01841578484 -0.005705878735 0.4433621665 -0.8963037414 -0.00834221645
0.01055208778 -0.01767860413 -0.006115548611 0.5071227343 -0.8618547934 -0.005731263139
-0.0143514595 -0.01471373558 -0.01433367729 0.7119048423 0.7022620604 -0.004415217246
0.0120021286 -0.01669091225 -0.006664049625 0.5824531596 -0.8128378084 0.006558513797
0.01496295547 -0.01414809322 -0.008075774193 0.7137719784 -0.7003736528 0.002511839991
0.01202967834 -0.0166748848 -0.008292201996 0.5940588807 -0.8043615206 0.00982804653
0.01651720333 -0.01225826645 -0.00994693327 0.8156918951 -0.5784864872 0.0003412745484
-0.01426588917 -0.01479709148 -0.01016308069 -0.6864371705 -0.7270489678 -0.01427618285
0.009532140732 -0.0182603817 -0.03784644699 0.4639069191 -0.8858839175 0.0002349109763
-0.01202967834 -0.0166748848 -0.008292201996 -0.5908100302 -0.8068019271 0.003762787638
0.02051664162 -0.00143847537 -0.03080141068 0 0 1
-0.008678638458 -0.01862996864 -0.008270945708 -0.4317883993 -0.9019358324 0.0083983562
-0.0007185684443 -0.020562006 -0.02761096382 -0.06349538461 -0.9979682052 -0.005272340316
-0.004893405914 -0.01999585915 -0.006427185535 -0.2531115636 -0.9673860759 0.009935617669
0.006315798759 -0.0195593605 -0.008282128334 0.3115771559 -0.9501452184 0.01198915138
0.01372696781 -0.01530779552 -0.02068047905 0.6491425627 -0.7606555502 0.004131255939
-0.0006976276636 -0.02054674339 -0.006117512226 -0.03750955002 -0.9992766848 -0.006256271321
0.004893405914 -0.01999585915 -0.006427185535 0.227494498 -0.9737633638 0.005582542026
0.009182729721 -0.01839226913 -0.0105695858 0.4468128191 -0.8945765034 0.00954904278
0.01057622051 -0.0176648941 -0.007736505032 0.5090720963 -0.8606880653 -0.007852070498
0.01499808311 -0.01411725235 -0.009727355003 0.7152656899 -0.6988065243 -0.008027109476
-0.002310131073 -0.01249419975 -0.06422422791 -1.34754866e-06 -0.5997922975 -0.8001557348
-0.0007236118317 -0.02056568146 -0.03278751373 -0.04143007814 -0.9991153125 0.00722086256
0.01813628769 -0.009699052811 -0.01220352268 0.8477555793 -0.5303856134 0.001256553714
-0.01898641396 -0.00773006916 -0.04308407211 0.8925196366 0.4485102669 0.04740505023
-0.01657678986 -0.01218929577 -0.01246212387 0.8048864309 0.5933951153 -0.006330121912
-0.01205736542 -0.01665877914 -0.009928503036 -0.6082527069 -0.7937192896 -0.006191438602
-0.006315798759 -0.0195593605 -0.008282128334 -0.3002710352 -0.9538264213 0.007243163858
-0.01661679268 -0.01214299297 -0.01415066624 0.8009114345 0.5985328737 -0.01729951323
-0.004904408455 -0.01999441719 -0.008035171509 -0.2186483487 -0.9757852693 -0.006000648926
-0.01399480152 -0.01507221985 -0.034649086 -0.6692616426 -0.7430087467 0.005182292894
-0.002798948407 -0.02036374474 -0.007825316191 -0.161495007 -0.9868721319 0.001660720015
0.01072374439 -0.01757759857 -0.01763850784 0.5194991667 -0.8544359149 -0.007738417024
0.01714338398 -0.01141634512 -0.03614387512 0.843241385 -0.5375173725 0.004363589969
-0.0006991896033 -0.02054788017 -0.007720687389 -0.02911726787 -0.9995756965 -0.000782150241
0.001398688048 -0.02050858116 -0.007743043661 0.09126556496 -0.995824071 0.002239687482
0.003499710321 -0.02025820732 -0.007885232449 0.1816815629 -0.9833517059 -0.003351452531
0.01061266088 -0.01764419365 -0.01018416929 0.5105326022 -0.8598579396 0.0008864593737
0.01505151415 -0.01406348085 -0.01222575808 0.7173388433 -0.6966950164 0.006406087492
0.00373549819 -0.0183188839 -0.05233823776 0.1802596849 -0.9391758258 -0.2923272384
-0.01822985268 -0.009509767532 -0.01565706348 0.8540498985 0.5201907448 -0.0005998812267
-0.01131922436 -0.01489546204 -0.05294842148 -0.5295551428 -0.7972906809 -0.2896531045
-0.006330060959 -0.01955692673 -0.00990127182 -0.2977057875 -0.9545592574 -0.01370723377
0.007440567493 -0.0181771307 -0.04874593163 0.3594939719 -0.9121815843 -0.1966947929
-0.002572695176 -0.02040089353 -0.00995694383 -0.1236505864 -0.9922950186 -0.00781847048
-0.0007015480101 -0.02054959965 -0.01014131594 -0.03201020582 -0.9994861003 0.001697646416
0.001403403416 -0.02051063776 -0.01016384292 0.05939619022 -0.9982183785 0.0056711066
0.003507567883 -0.02025932884 -0.009498091698 0.1810201737 -0.9834703076 -0.004225014981
0.004915465832 -0.01999296951 -0.00965111351 0.2416676364 -0.9703040163 -0.01033776753
0.01682194138 -0.01187560844 -0.02275009727 0.8268873649 -0.562231176 0.01238508786
0.01208519268 -0.01664258957 -0.01157307529 0.5865438003 -0.809906962 -0.00413318844
0.01822789383 -0.009540967941 -0.01563927078 0.8515762465 -0.5242307476 0.0001398417351
-0.00879867363 -0.01858181254 -0.01814759254 -0.4384416814 -0.8987200904 0.008431551845
-0.002156446934 -0.02046970749 -0.02767038918 -0.08083522521 -0.9967274677 -0.0001465704117
-0.02007827568 -0.004473651886 -0.02025037193 0.9982642063 0.05268440128 -0.02632353069
0.01898641396 -0.007730069637 -0.04308407211 0.8925196402 -0.4485102567 -0.0474050792
-0.01827606201 -0.009429730415 -0.01738957024 0.8553615975 0.5180309151 0.0007131274653
-0.01665700912 -0.01209644318 -0.01584818935 0.8047078291 0.5935533712 0.01181969994
-0.006344394684 -0.01955448151 -0.01152852154 -0.298150194 -0.9544126755 -0.01424453381
-0.004462575118 -0.0200810496 -0.01231017335 -0.1890968764 -0.9819361714 0.006612607436
0.01162468719 -0.009336632729 -0.0626953392 0.5218505107 -0.6860554737 -0.5069516066
0.009203705788 -0.01838435173 -0.01220710087 0.4475132233 -0.8942769967 0.0007537070088
0.005064743042 -0.01996313858 -0.03144689178 0.2491887099 -0.968438109 -0.00571103026
0.009224789619 -0.01837639236 -0.01385296345 0.4408822515 -0.8975646633 -0.0007179292425
0.01064934731 -0.01762335205 -0.01264837456 0.5286720243 -0.8488237749 0.002022324456
-0.0201419735 -0.004206243992 -0.02213072968 0.9982659807 0.05264806029 -0.02632894961
-0.01834589386 -0.009308776379 -0.02000781059 0.8582085183 0.5133005572 0.0008228534976
-0.01753263664 -0.009365311623 -0.04937337112 0.8541661168 0.4990242353 0.1462021117
-0.01669769287 -0.01204530525 -0.01755735397 0.7980659231 0.6025675003 -0.001786047302
-0.008505440474 -0.01871693802 -0.01365347338 -0.4116870601 -0.9112879402 -0.008249520933
0.01219798183 -0.01657613564 -0.01823714256 -0.6032783514 0.7975173583 0.004614527235
-0.006366040707 -0.01955078888 -0.01398591757 -0.3138112202 -0.9494853511 0.0002935758937
0.006454396009 -0.01953140163 -0.02400789452 0.3196866595 -0.9475211072 -0.002047232465
-0.0007039221525 -0.02055133057 -0.0125781126 -0.04816961643 -0.998813023 0.007227247062
0.006366040707 -0.01955078888 -0.01398591757 0.314624401 -0.9492159268 0.0007814165221
-0.000708727181 -0.02055483246 -0.01750996971 -0.0550813145 -0.998481867 0.0001000008245
-0.01148637676 -0.01209073639 -0.05875623703 -0.5392201348 -0.7252765796 -0.4280368316
-0.01069881153 -0.01759304428 -0.01596636868 -0.497992053 -0.8671557012 -0.006701119066
0.01067400837 -0.01760841179 -0.01430296898 0.5295526025 -0.8482741042 0.00225507103
0.01362955379 -0.01539329433 -0.01559957123 0.6389159369 -0.769276377 0.0005303500231
0.01669769287 -0.01204530525 -0.01755735397 0.8170324429 -0.5765887299 0.001850324828
-0.008746991634 -0.0186169405 -0.03407803917 -0.4252953171 -0.905041233 0.004925437732
0.0201419735 -0.004206243992 -0.02213072968 0.9982659807 -0.05264806029 0.02632894961
-0.01675958729 -0.01196077108 -0.02014411449 0.797076738 0.6037910006 0.01025189798
-0.004240174532 -0.02012565231 -0.01446662855 -0.1806983766 -0.9835229563 0.005539950691
