# .PCD v0.7 - Point Cloud Data file format
VERSION 0.7
FIELDS x y z normal_x normal_y normal_z
SIZE 4 4 4 4 4 4
TYPE F F F F F F
COUNT 1 1 1 1 1 1
WIDTH 563
HEIGHT 1
VIEWPOINT 0 0 0 1 0 0 0
POINTS 563
DATA ascii
0.01348949051 0.01050864887 -0.03240241241 0.7895906276 0.6135211091 0.01176815597
-0.01989332771 -0.005301064014 -0.02300664711 0.9710447843 0.2388448506 0.00501639126
0.01642481804 -0.004571318269 -0.007280552864 0.9620101339 -0.2730137389 2.568029907e-05
0.01525814772 -0.007600243568 -0.006722253561 0.8814437113 -0.4722365175 0.007046649387
-0.02006935024 -0.004491457582 -0.01854954147 0.9727597618 0.2317293376 -0.006321383779
0.01398064041 -0.009762735367 -0.002760284662 0.7697142014 -0.5520410068 -0.3206100046
-0.01886379242 0.008225070953 -0.01754870224 0.9093948866 -0.4159335649 -0.0004581201261
0.01214716848 -0.01315743701 -0.0004115555286 0.6558867304 -0.58894532 -0.4721821757
-0.002718863249 0.05202066994 -0.04019358444 -0.180877823 0.001233660614 0.9835047998
-0.005165229321 0.0519306097 -0.04070031929 -0.2173111024 0.002442508112 0.9760993387
-0.01932435417 0.00714596796 -0.04150846863 0.9394877268 -0.339682674 -0.04448024582
0.01698831654 0.001554324836 -0.01485342216 0.9951019438 0.09845488822 0.008874477281
0.01020133829 -0.01411736965 -0.0004556900263 -0.4826721896 0.715076264 0.5056614422
0.00905755806 0.02802496624 -0.04210390854 0.4006514754 0.009312183932 0.9161832123
0.01393277073 0.009840589523 -0.005852462769 0.7827632004 0.6174758829 -0.07749390999
-0.01837797403 0.03757511139 -0.05139099026 0.8829974628 0.004526282475 -0.4693559348
0.01522788954 -0.007661904335 -0.009897472382 0.8791273725 -0.4763613644 0.01465992594
0.01454974365 0.04873828697 -0.04605786133 -0.6402776148 -0.000431211509 -0.7681434697
-0.01446011043 0.01292428327 0 0.6715396595 -0.4828671451 -0.5620265171
-0.02027089119 0.004122009277 -0.05759910583 0.9960290578 0.05924502387 0.06645406823
0.009962623835 -0.01632499552 0 -0.4825711578 0.708705783 0.5146466659
0.01133543491 0.01277241135 -0.004183095455 -0.6262245243 -0.7446619778 0.2309142351
0.01699189949 -0.001607868642 -0.02858947372 0.9953167187 -0.09655818227 0.004598579658
-0.02056153011 0.009873507023 -0.05683439827 0.9981785502 -0.01414830279 -0.05864646143
0.006890072664 -0.01650535647 0 -0.2703148882 0.7457354585 0.6089404627
-0.01842323685 0.01293947077 -0.04845643425 0.9093052426 -0.3026163283 -0.2856349657
0.01271398449 0.011364995 -0.006784935474 0.7483239091 0.6633303827 0.00203233964
-0.01993106174 -0.00427409637 0 0.884664293 0.1720928184 -0.4333049164
-0.01112120914 -0.01698905373 -0.04485924149 0.5864950055 0.8084684849 -0.04901344097
-0.01096302843 0.02500312805 -0.04318431473 -0.547716576 0.01070184009 0.8365954955
0.01326061344 0.01068738985 -0.009447190762 0.760545663 0.6488686463 -0.02323304357
-0.01070792866 0.01756200218 -0.02132905006 0.5540455614 -0.8323330212 -0.01597678751
0.009315704346 -0.01433689499 -0.00681616497 0.5905184099 -0.8070226142 0.001583576759
0.01558509827 0.006937842846 -0.01220440769 0.912923976 0.4080473019 0.008198382845
0.01621713257 0.005416440487 -0.01339746857 0.9438936889 0.3301104252 -0.009581812246
0.01153655052 0.03654279327 -0.04353643227 0.5449558398 0.009970008219 0.8384054697
0.01326061344 -0.01068738985 -0.009447190762 0.7610292768 -0.6483227291 -0.02262915752
-0.005701054573 -0.01977886391 -0.03289064026 -0.3769858601 -0.9261540737 0.01096781729
-0.01974383545 0.03699291992 -0.05480034256 0.9555390619 -0.003380778706 -0.2948451654
-0.008163600564 0.04042124653 -0.04172801876 -0.399453996 -0.01443806121 0.9166395406
0.003639169037 0.05244390297 -0.04038147736 0.2054642842 -0.007507835783 0.978635816
0.01698831654 -0.001554324836 -0.01485342216 0.9950690073 -0.09880419201 0.008683456535
-0.02040865135 0.04645149422 -0.05817320824 0.9974450191 0.014478705 -0.06995570735
0.01271398449 -0.011364995 -0.006784935474 0.7486317845 -0.6629825625 0.002138461878
0.01691556549 0.005933404922 -0.05089219666 0.9952201371 0.07589086454 0.06146100788
0.01134270096 -0.01277298641 -0.004196795464 0.6265654975 -0.7445157761 -0.2304602711
0.01707618141 -0.0008186282516 -0.03598287582 0.99922099 -0.03933552602 -0.003182690674
0.004087954362 0.02474689547 -0.04044225057 -0.2089170006 0.01722648203 -0.9777816398
0.006614151478 0.01847344112 0 0.2335533888 0.5347501379 -0.8120930394
-0.01525446796 0.01376464128 -0.02431232738 0.7552399209 -0.6553687644 0.01021981283
0.006890072664 0.01650535647 0 0.2355068659 0.7456441509 -0.6233388456
0.01679686546 0.01111461926 -0.05463008499 0.9975334226 0.02822819074 0.06426694424
0.01121236038 0.01286995697 -0.007183805943 -0.6387760302 -0.7693774441 -0.004850957108
0.01707618141 0.0008186282516 -0.03598287582 0.9992506347 0.03842356301 0.004668932496
0.01319665813 0.01077331972 -0.01262505388 0.7671840373 0.6413997363 -0.005918717985
0.01636569023 -0.004805890083 -0.02735687923 0.9533217403 -0.3018474968 -0.008108523895
-0.01977225304 0.04280474281 -0.05492066383 0.9569782199 -0.01415515757 -0.2898142822
0.01518714523 0.007753284454 -0.0147643261 0.886536647 0.4626581936 0.0004116392375
0.003568841696 -0.01938220151 0 -0.2566439493 0.7796957068 0.5711466432
-0.01101510429 0.01735257339 -0.01682022285 0.562716761 -0.8265826205 0.01053652271
0.01659486198 0.003910117149 -0.01744946861 0.9760281722 0.2175124083 -0.007573589633
-0.01934999084 0.006991230965 -0.03271154785 0.936098788 -0.3516837989 0.006128998253
0.01698918915 0.001567376554 -0.01820159149 0.9989057391 0.04602256188 0.008321555107
0.01698918915 -0.001567376554 -0.01820159149 0.9988702603 -0.04679857914 0.008252037058
0.01691885567 0.00777050066 -0.05894380951 0.9877646734 -0.07245254496 -0.1380998868
0.006614151478 -0.01847344112 0 0.1967142504 -0.4771452902 -0.8565254671
0.01658938026 -0.003909988642 -0.01743902588 0.9735528174 -0.227646192 -0.01929049063
0.01518714523 -0.007753284454 -0.0147643261 0.8885935713 -0.4581825101 -0.0216853043
-0.0199295845 0.001424629331 0 0.825749611 -0.08800717972 -0.5571286353
0.01319665813 -0.01077331972 -0.01262505388 0.7627803721 -0.6458552279 -0.03220448096
-0.02051571846 0.001507530242 -0.02145367527 0.9969989069 -0.07739067731 -0.001965388253
0.01122278023 -0.01287078857 -0.007203660488 0.6387590335 -0.7693881229 0.005367815835
-0.01106558609 0.01932864761 -0.04286099339 -0.6392256527 0.3506879048 0.6844037977
0.009468245506 -0.01422998619 -0.003857976675 0.6001228606 -0.7832145568 -0.1625654028
0.01450847054 0.0581047554 -0.04603019333 0.6394413802 0.0006996110657 0.7688395358
-0.01843471384 0.04582835484 -0.05151238537 0.88290746 -0.01516154583 -0.469302189
-0.003262723327 0.01896320581 0 0.0009611483022 0.7763818443 0.6302620947
0.006960160255 0.01561364746 -0.002277617455 0.3205401045 0.8917774457 -0.3193540806
-0.02049457169 -0.001432817757 -0.002304345965 0.9751998661 0.0647728289 -0.2116357761
-0.01870705223 -0.008587611198 -0.03435717392 0.924016774 0.3818191836 -0.02017702474
-0.0164538269 0.01231843472 -0.004398779869 0.8075165196 -0.5786375179 -0.1144364167
0.009315704346 0.01433689499 -0.00681616497 -0.5907746618 -0.8068353019 -0.001447295001
-0.01716903305 0.011363307 -0.02166879082 0.853250451 -0.5214950641 0.002562407642
0.0110874548 0.01296898937 -0.01023025608 -0.6138602252 -0.7893201088 0.01222251321
-0.01889665604 0.01047273827 -0.04718024063 0.9230750774 -0.3179784568 -0.2163841551
0.01378313923 0.01008158875 -0.01542510509 0.8104736639 0.5843273938 0.04115746528
0.006807821035 0.03118426228 -0.04118202591 0.349663686 -0.008929821767 0.9368327305
-0.015064785 -0.01404951954 -0.01125974274 0.7239142788 0.6898637183 -0.006013913178
0.01515573406 0.007817435265 -0.0180704689 0.8801144464 0.4747609706 0.000762898341
0.0127655611 -0.01131750679 -0.03276305199 0.7653164905 -0.6431448118 -0.02560117983
0.01638777447 0.00472516048 -0.02044505501 0.9542536486 0.2987527459 -0.0121149061
0.01210402393 -0.008502885103 -0.05464438438 0.7713803809 -0.5780972212 -0.2660374238
-0.002575184464 0.02750958252 -0.04016634178 -0.1643214657 0.004307977559 0.9863974337
-0.005015185475 0.02746035528 -0.04064569855 -0.2179900623 -0.0004069416262 0.9759509041
-0.01934345627 -0.007067389011 -0.03704422379 0.9366164238 0.3500702417 0.01415982367
0.01699007797 0.001580647051 -0.02160594082 0.9906021192 0.1361906857 -0.01263085562
0.01638111877 -0.001699393004 -0.05174771309 0.9659976901 -0.2312919286 -0.1155530464
0.01638450336 -0.004725083113 -0.02043875599 0.9579795333 -0.2863828716 -0.01612652214
0.01515573406 -0.007817435265 -0.0180704689 0.888009407 -0.459441459 -0.01878400667
0.01299758482 -0.0110394783 -0.02246858311 0.7490117628 -0.6618715235 0.03012417037
0.01110103035 -0.01297008228 -0.01025640011 0.6136151066 -0.7895219938 -0.01146831782
-0.01189349079 0.01675369835 -0.00392695713 0.5499573649 -0.810589001 -0.2012271559
-0.0187184906 0.008586863518 -0.03432804489 0.9077693704 -0.4192437846 -0.01376296603
0.006960160255 -0.01561364746 -0.002277617455 -0.3981080894 0.866918408 0.2999373652
0.007533619881 -0.01534732151 -0.03494486237 -0.5274827311 0.8495603351 -0.003034051695
-0.01100846171 0.03391979885 -0.04322054005 -0.5517033945 0.001333640342 0.8340393192
0.003293166816 0.01912969208 0 0.2513800011 0.802662914 -0.5408699858
0.01472350216 0.008652229309 -0.02065173149 0.8635227077 0.5043079042 -0.001439093335
0.003292000651 0.01691836071 0 0.2513800011 0.802662914 -0.5408699858
0.006561203718 0.01577478886 -0.006406718016 -0.5050118416 -0.8630372532 0.01139032254
-0.009970305443 0.01800958633 -0.03092464066 0.4891231248 -0.8721265981 0.01240023137
-0.01581799316 0.01314596462 -0.02901548576 0.7868645384 -0.6170611423 -0.008929997879
0.009067156792 0.02471842957 -0.04210903549 0.4087402438 0.0002649987109 0.9126507234
0.009131690979 0.01444276047 -0.009761928558 -0.5741397829 -0.8186181121 0.01509623172
-0.02050374889 -0.001507690728 -0.02148339176 0.9970950687 0.07612512259 -0.002527763723
0.006113176823 0.01593464565 -0.01052904606 0.487912717 0.8726762629 -0.01942474634
0.01096062946 0.01306954479 -0.01332353783 -0.6201524961 -0.7844797078 0.001571509235
-0.02051819992 0.03426247406 -0.06237136841 0.9994491057 -0.004835178078 -0.03283452687
0.01247959709 0.01163963223 -0.01628163147 0.7241211104 0.6896725431 -0.0006330443952
0.0170759697 -0.0008258660436 -0.03969210052 0.9990980391 -0.04160812241 -0.008477758211
0.01552410507 0.007113066196 -0.0222110157 0.9086873928 0.4172876643 0.01257884782
0.01372291183 -0.002588199854 -0.06025631714 0.8446645131 -0.4042657175 -0.3508718997
0.01637655354 0.004765185714 -0.02387130928 0.9515124828 0.3074744167 -0.009136636037
0.006817859411 0.0278893652 -0.04118361092 0.3524346609 0.01235298501 0.9357548897
0.00373974812 0.03101042938 -0.04037711334 0.1949901629 0.0009508530591 0.9808047371
0.0169909811 0.001594142258 -0.0250680294 0.9903094576 0.138665398 -0.007686709989
0.0169909811 -0.001594142258 -0.0250680294 0.9953992535 -0.09570131534 0.004645903288
0.01637619591 -0.004765177131 -0.0238706131 0.9540956598 -0.2990054595 -0.01723969448
-0.0204986763 -0.001461820304 -0.009734634399 0.9962239456 0.08676083334 0.003226132672
0.01512380362 -0.007882647753 -0.0214313736 0.8883363446 -0.4587459763 0.02026494765
-0.008754157066 -0.01853874588 -0.04209700012 0.5189894161 0.8540870759 0.03442749991
0.01306502008 -0.01094931746 -0.01913407326 0.7439659108 -0.6681836491 0.006733108445
0.01097740459 -0.01307090664 -0.01335619164 0.610936801 -0.7916145762 -0.01012856848
0.01515753174 -0.001432404339 -0.05787370936 0.8907856286 -0.3576840607 -0.2802910571
-0.01993106174 0.00427409637 0 0.741931011 -0.2363789263 -0.6274259942
0.009131690979 -0.01444276047 -0.009761928558 0.5736191209 -0.8189922824 -0.0145857984
0.003016714493 -0.01740296173 0 -0.2566439493 0.7796957068 0.5711466432
0.008944958687 0.01455018997 -0.0127512331 -0.5545287371 -0.8316636795 0.02886873509
-0.01519690704 -0.01389909744 -0.007270921707 0.7340853778 0.6787830121 -0.01929457276
-0.02033480358 -0.001611665905 -0.04791596031 0.9872480462 0.145895734 0.0636846141
0.01083183384 0.01317166138 -0.01646486092 -0.6677905643 -0.7443337079 -0.004805573951
-0.00955644989 -0.01824619293 -0.0359851532 0.4783508394 0.8777365424 0.02755061755
0.01239894962 0.011734128 -0.01954922676 0.710248777 0.7039423834 -0.003434474307
0.0136781826 0.01024879074 -0.02206704521 0.7886353626 0.6148252155 0.006649748883
0.01467959213 0.008724459648 -0.0240381012 0.8698173851 0.4933456293 0.005273206008
-0.01361872196 -0.015394454 -0.007221761227 -0.6373159615 -0.770564911 0.007621231294
0.01469339991 0.001736585677 -0.06239144325 0.8735076882 -0.3153963151 -0.3708227111
-0.01299071693 0.02503098297 -0.04465792084 -0.6498079063 -0.00434055134 0.760086077
0.01550308895 0.007173442841 -0.02565898895 0.9063947737 0.4224275732 -0.001860021052
-0.0001008625329 0.05216802311 -0.04005681229 -0.02356315954 0.01203699039 0.9996498829
0.01699189949 0.001607868642 -0.02858947372 0.992660347 0.120925209 -0.001590386938
-0.02054767227 0.02501858234 -0.06203554535 0.9990739777 0.0007362343723 -0.04301912413
0.01509134054 -0.007948951244 -0.02484854507 0.883241395 -0.4686730066 0.01517402677
0.009803644657 -0.01391626215 -0.01614470863 -0.5688907859 0.8221878798 0.01924484426
-0.01106587696 -0.01734623337 -0.01670448494 -0.5627646574 -0.8265362349 -0.01156688058
0.008944958687 -0.01455018997 -0.0127512331 0.5516546706 -0.8332505889 -0.03702135115
0.01039374161 -0.01099059963 -0.05294402695 0.6727286191 -0.6834331344 -0.2834702027
0.001819548011 0.01697459412 -0.001988124728 0.1882172366 0.8444881759 -0.5014119989
-0.01306565857 -0.01591746807 -0.01969955254 -0.6653716918 -0.7464847694 -0.006403180947
0.008755436897 0.01465922356 -0.01578516579 -0.5264756033 -0.8498592461 0.02372131925
-0.01202305508 -0.01670353127 -0.03834737015 -0.599175691 -0.7996266082 -0.03982183761
0.01070101643 0.01327538013 -0.01965547371 -0.6555091834 -0.7551830454 0.002505663185
0.01015645218 0.01370714378 -0.03293741226 -0.6244317084 -0.7810789506 0.0008452233827
0.01231698704 0.01183016586 -0.022870121 0.7222364781 0.6915632672 -0.01071060666
0.01463494587 0.008797901154 -0.02748128891 0.8611371896 0.5083400467 0.005756531308
0.01580680561 0.006441869259 -0.02981251717 0.9303480522 0.3665990543 -0.007591783968
0.007749446869 -0.01522855949 -0.03163552666 -0.572234225 0.8200693382 -0.005854260639
-0.005328875542 -0.01985877419 -0.004154572964 0.3779758235 0.8825730867 -0.2796408831
0.016573349 0.004045518398 -0.03133744621 0.9742634525 0.2253186438 0.0064987518
-0.02005240631 -0.00458720541 -0.02671609974 0.961941395 0.2725581403 0.01951442353
0.016992836 0.001621832609 -0.03217195129 0.9921695441 0.1246546019 0.007799102603
0.01635471439 -0.004847295046 -0.03090250111 0.9513434481 -0.3079434132 0.01079342492
0.004851356983 0.01637561798 -0.02191359901 0.3916057145 0.9201225175 -0.004417822028
-0.0198436985 0.05450557327 -0.0552090416 0.9602567197 -0.001435748675 -0.2791146196
0.01503353643 -0.008053627968 -0.03007017422 0.868796171 -0.49475092 -0.02036517363
0.01463494587 -0.008797901154 -0.02748128891 0.8733658546 -0.4869916896 -0.008436719206
-0.01757180119 0.01068541193 -0.02469967175 0.8612052985 -0.5082421791 -0.003914239265
0.01362270069 -0.01033437347 -0.02546759415 0.8190972199 -0.573642667 -0.003719520782
4.991994798e-05 0.02270685053 -0.04004738903 0.02257752115 0.03102177488 -0.9992636814
-0.008370178064 0.01617328103 0 0.3075968753 -0.6207836775 -0.7211184286
-0.02024973106 -0.003660932064 -0.01033284664 0.9831192799 0.1829348155 0.003366714132
0.009643692017 -0.01402360344 -0.01928334713 -0.5570773631 0.8304605732 0.0002185424541
0.006113176823 -0.01593464565 -0.01052904606 -0.4872159304 0.8730675092 0.01933291296
-0.01075939274 -0.01755551338 -0.02121033096 -0.5550888496 -0.8317723948 0.005572463758
0.000608221213 -0.01786630313 -0.0006649132172 -0.02812971638 0.8688728699 0.4942354247
-0.01897241974 0.007894817352 -0.002220093966 0.8370731606 -0.4346444202 -0.3322540471
8.955299854e-07 -0.0197801981 0 -0.06520783927 0.8596143273 0.5067653757
0.0004850316867 0.01704785442 -0.00428633666 0.4120021212 0.7709247905 -0.4857254569
0.0164570961 -0.002535732508 -0.04992670822 0.9595224516 -0.2556233391 -0.1182090243
0.01592089272 0.01136933422 -0.06510643768 0.928902567 -0.144004961 -0.341178241
0.005809083462 0.01604314804 -0.01332703304 0.4744573892 0.8800782474 -0.01877403439
0.008563057899 0.01476990128 -0.01886485481 -0.519994015 -0.8541251549 -0.008743230962
0.01451775599 0.007002822876 -0.06624495316 0.8799415738 -0.2267692881 -0.4174667851
0.01056812668 0.01338074398 -0.0228966732 -0.6471070095 -0.7623968566 0.00188450072
-0.01855461693 0.05998064804 -0.05178280258 0.8926240271 -0.03622393457 -0.4493441585
-0.01682439804 0.01188090229 -0.03917360306 0.8473658116 -0.5287550603 -0.04888013387
0.01355690861 0.0104207983 -0.02890649223 0.7856920809 0.6185069253 0.01171056523
0.01458954144 0.008872589111 -0.0309828701 0.8710962566 0.4910568263 -0.00738275029
0.0119389019 0.01222784328 -0.03664080811 -0.6880862056 -0.7255517741 -0.01058285274
0.01452070856 0.05554456329 -0.04603878784 -0.6395732327 -0.0008646793759 -0.7687296874
-0.01785085964 0.01018427563 -0.006650976896 0.8640322051 -0.5032065183 -0.01521671428
0.01578229618 0.006497352123 -0.03338120651 0.924639588 0.3808406238 0.001432321314
0.006681564093 0.05774998665 -0.041152174 0.3577798865 0.002721224222 0.9338019853
0.01656991196 0.004080894947 -0.03496489334 0.9688279795 0.2477071793 -0.003674148542
0.01690730858 0.002453433752 -0.03564331436 0.9912025244 0.1313992858 0.01586768057
-0.005121392488 0.04618863678 -0.04068538475 -0.2040396697 0.0005351907203 0.9789624746
0.01350132179 0.000869764626 -0.06397605515 0.8370561321 -0.3524784032 -0.4184447478
-0.01943078232 0.006769402027 -0.02012239838 0.9441074636 -0.3296378167 8.364085185e-05
0.01690730858 -0.002453433752 -0.03564331436 0.9899980955 -0.1405149703 0.01262196571
0.01634354687 -0.00488941884 -0.03450973511 0.9664882544 -0.2565875809 0.007954087288
0.01043310642 0.01348779583 -0.02618979645 -0.6390770594 -0.7691413157 0.001465838949
0.01499510527 -0.008122643948 -0.03362558937 0.8697119585 -0.4933903663 0.01292500123
0.01289529085 -0.01117429209 -0.02757612419 0.7444632678 -0.6676558179 0.003186169567
0.009479577541 -0.0141324563 -0.02246743679 0.5353862593 -0.8435969839 0.04129990452
0.005809083462 -0.01604314804 -0.01332703304 -0.4778127234 0.8781338436 0.02399904178
0.01230341411 -0.001733895421 -0.06343172741 0.8022710893 -0.4117034141 -0.432274679
-0.01837154484 -0.001427669615 0 0.7519890064 0.03513519776 -0.6582385982
-0.01996123505 0.005591896534 -0.04433077621 0.971274627 -0.2313515982 -0.05569593258
0.0004850316867 -0.01704785442 -0.00428633666 0.07134166302 0.9067339016 0.4156248295
-0.02050978947 -0.001573716879 -0.03839255524 0.9936891462 0.1121687844 0.0002110214518
0.005500814438 0.01615313911 -0.0161634388 0.4168038576 0.9089652886 -0.007526519964
0.008364382744 0.01488194847 -0.02198461533 -0.5080684992 -0.8612582867 -0.01002814403
-0.01894610977 0.007974803925 -0.005932633877 0.907453585 -0.42015008 0.001378927391
0.01454279995 0.008948526382 -0.03454334259 0.8610570971 0.5085074524 -0.0009199683134
0.01575736046 0.006553800344 -0.03701200676 0.9301632822 0.3667850643 0.01627836212
0.01690487862 0.002475092888 -0.03934435272 0.9878678015 0.1551488052 -0.006786380784
0.01613154459 -0.005014928818 -0.04535048866 0.9363077619 -0.3428054659 -0.07623770479
0.008951505661 0.0521484108 -0.04204725647 0.393067906 -0.001091742932 0.9195087979
-0.02008643341 0.00431228447 -0.003260815978 0.9615134511 -0.2072139861 -0.1804279558
0.0170759697 0.0008258660436 -0.03969210052 0.9987671578 0.0491275437 -0.007116812694
-0.005192679882 0.05522235107 -0.04070944977 -0.2128313497 -0.001211229476 0.9770881995
-0.005029564738 0.03070495653 -0.04065158749 -0.2102480363 0.001973628873 0.9776460853
-0.01557918024 0.03405418396 -0.04714096832 0.7739910551 0.009590386053 -0.6331238987
0.01690487862 -0.002475092888 -0.03934435272 0.9901566728 -0.1398335165 0.006029173956
0.01656641579 -0.004116896152 -0.03865641403 0.9765374825 -0.2152387133 0.006844095828
-0.01973321152 0.03450917625 -0.05475385666 0.9548161453 0.009422576274 -0.297047713
-0.02004033184 -0.00463681972 -0.03094447327 0.9691648026 0.2464009019 0.002486151253
0.0160979538 -0.005747667789 -0.03770427704 0.9573227015 -0.288875702 -0.009169189202
0.01541676712 -0.007359932899 -0.03631973648 0.9057072493 -0.42366524 0.014217701
0.01214266014 -0.01202656555 -0.02966480064 -0.7039442129 0.7102216589 0.006909440188
0.01017250729 -0.01370851803 -0.03297078705 0.6115555306 -0.7911239297 -0.0110797478
0.009210373163 -0.0143007741 -0.02730972767 0.5471124304 -0.8367595141 0.02239428687
0.01657518387 0.007613516808 -0.05017798996 0.9907022737 0.09872026679 0.09361257346
0.005500814438 -0.01615313911 -0.0161634388 -0.45041099 0.8926585028 0.01705102479
-0.01574982691 0.05540619278 -0.0473632164 0.7922331464 0.01489527851 -0.6100366976
-0.003532775879 -0.01773917643 0 0.1795195753 0.976293574 0.1209279927
-0.005139550209 0.04864680767 -0.04069162846 -0.2220989215 -0.006277284832 0.9750039306
-0.0179048357 0.01008054018 -0.002880890369 0.825392825 -0.4755210339 -0.3043130474
-0.004073685646 0.0167529335 0 -0.20811279 0.7734019138 0.5987808834
0.005188271046 0.01626465607 -0.01903917122 0.4028516014 0.915236253 -0.007293045122
0.01587382793 0.009266854286 -0.04870526505 0.9466573831 0.285267247 0.1498746037
0.008162560463 0.01499570656 -0.02515205574 -0.5150164751 -0.856602326 -0.0314719783
-0.002556670666 0.02264192963 -0.04016395569 0.1654269365 -0.005291732838 -0.9862078514
0.01333579254 0.01068788338 -0.03954291153 0.7925360921 0.6078648091 0.04885608022
0.0102959013 0.01359658051 -0.02953623009 -0.6315718894 -0.7753164577 0.001157118544
0.01341329479 0.01059750366 -0.0359423027 0.7889271233 0.6144699863 0.004542043432
-0.01954523849 0.006430674076 -0.0008945928812 0.8520131006 -0.3150637305 -0.4181010908
0.008999316216 0.04296142769 -0.04207279396 0.396615405 0.009462702853 0.9179360968
-0.01863896847 -0.008636695147 -0.002991802812 0.8556937633 0.4488779595 -0.2574815739
-0.01692237091 0.01174621296 -0.03462260818 0.8374102494 -0.5465687222 0.002589626711
0.01449474239 0.009025751114 -0.0381644516 0.8577278476 0.5140947569 -0.003085525689
0.01538558674 0.007424211502 -0.03999493408 0.9167854703 0.3966703715 0.04644370644
0.01660499382 0.004154591084 -0.04250048828 0.9742748762 0.2216759871 0.04059830344
0.01699980545 0.001665370077 -0.04331167603 0.997196446 0.07481777822 -0.001244212227
0.01149517918 0.04659299088 -0.04351018143 0.5571362967 -0.01775368241 0.8302312652
0.01705784988 -0.0008331440091 -0.0434309082 0.998017974 -0.06259980892 -0.006433311218
0.01695618439 -0.000840133369 -0.04706357193 0.992831707 -0.1104780375 -0.04560487722
0.01458707619 0.04027185631 -0.04609167862 -0.6416428684 0.0002461384032 -0.7670034999
0.01628875828 -0.004974955082 -0.0418506546 0.9518482737 -0.3044041843 -0.03637246905
0.01494016457 -0.008224981308 -0.03907969284 0.8758370988 -0.4824172894 -0.01352535295
0.01414160252 0.004366042137 -0.06540371704 0.8617751749 -0.2935181118 -0.4137519378
0.01267609835 -0.01141267347 -0.0362915554 0.7608410224 -0.6489156024 -0.005429516087
-0.0001240107119 0.05547441101 -0.04006075382 -0.01838863618 0.01024109816 0.9997784644
0.01031971073 -0.01359859943 -0.02958517838 0.623568352 -0.7817145358 0.009213838435
0.006796508312 0.03448374748 -0.04117994881 0.3650544545 -0.009223427498 0.930940478
0.008162560463 -0.01499570656 -0.02515205574 -0.4280786729 0.9036219062 0.01470035731
-0.005691010952 0.01671660995 0 -0.206462981 0.7706590185 0.6028745431
0.01457133102 0.009111275673 -0.04210982513 0.873388277 0.4835606353 0.05798301124
0.0079576087 0.01511122799 -0.02836860085 -0.5320489865 -0.8458038112 -0.03924014336
-0.01327355385 0.0157369194 -0.01540060806 0.6250280263 -0.7805493661 -0.009091388935
-0.01924410343 0.01300305176 -0.05091077995 0.928824734 -0.2079887528 -0.3066354387
0.01606938982 0.00668427825 -0.04522218132 0.9550668022 0.274096565 0.1127762223
-0.02020639038 -0.003899928331 -0.03480583572 0.9835035246 0.1807333099 -0.007502521354
0.01685774612 0.004198357582 -0.04685971451 0.9914244691 0.1185305539 0.05502753641
-0.01969935799 0.02460728931 -0.05459607697 0.9515849866 -0.01344621329 -0.3070915378
0.01706453133 0.001681340992 -0.04728892708 0.9999724707 0.007381249032 -0.0007582612526
0.01672520256 -0.002516946793 -0.04658367157 0.9831246346 -0.1709446126 -0.06514516335
-0.02035231972 0.02476670361 -0.05764163399 0.9940193068 -0.01450992942 -0.1082362211
0.01481357574 -0.008292844057 -0.04261276436 0.8535437649 -0.5194343729 -0.04063217505
0.004851356983 -0.01637561798 -0.02191359901 0.4325649632 -0.9016015743 0.001467568632
-3.006695211e-05 0.04065498829 -0.04004747391 -0.01924082713 -0.00625208805 0.99979533
-0.02048820114 0.04018073273 -0.06265888977 0.9997693275 -0.007399523678 -0.02016280611
-0.005691656828 -0.01744478893 0 0.3151701868 0.7942592866 -0.5194419496
-0.01129470682 -0.0144238553 0 0.5209319851 0.6077971162 -0.5993434177
-0.005693702698 -0.0196300106 0 0.3531014348 0.7674851523 -0.5350569294
0.01449985886 0.05981433868 -0.046023983 0.6389694815 0.0004544461694 0.7692319515
0.01550188875 0.006978155851 -0.06417555809 0.9131770836 -0.2289650643 -0.3371685237
0.01453589964 0.05213764191 -0.04604904366 -0.6400548297 -0.0006201649918 -0.7683289857
-0.01889129639 -0.008139904976 -0.01359548759 0.9078766876 0.4191585849 -0.008124091172
0.01457138395 0.04365324974 -0.04607552338 -0.6409276228 -5.752759856e-05 -0.7676013151
0.01460149193 0.03689611816 -0.04610652161 -0.6425719135 0.0002776558901 -0.7662253317
-0.009152711868 -0.01840116882 -0.006403399467 -0.4759710372 -0.8785531189 0.03994983065
0.01461463737 0.03352555275 -0.04612005615 -0.6431735527 0.0002685068133 -0.7657203857
0.01462370491 0.03100059891 -0.04612939072 -0.6436392147 0.0003264847291 -0.7653289846
0.01463198328 0.02847835541 -0.04613791466 -0.6441047914 0.0001340911837 -0.7649372521
0.01626887989 0.001720582545 -0.05754129982 0.9460085051 -0.2351917357 -0.2230532575
0.01464197111 0.0251186285 -0.04614819908 -0.6444559348 2.492790958e-05 -0.7646414503
-0.02049593449 0.00143280229 -0.002301166534 0.9753390376 -0.06528885361 -0.21083436
-0.00533321619 0.01985817909 -0.004145446777 -0.2741110262 0.8983465439 0.3432734075
-0.00861052529 0.01813266563 -0.0006338006655 -0.3588929824 0.8330190185 0.4210405467
3.262515366e-05 0.02758834362 -0.0400474081 -0.02225732143 0.01453640287 0.9996465899
-0.005221912742 0.05852255726 -0.04071902657 0.2146725831 0.004090900453 -0.9766775039
0.004491957188 0.01648622131 -0.0247904644 0.3832486276 0.923645189 -0.0002329632452
-0.01155799898 0.01321615187 0 -0.5286422368 0.6448846346 0.5519612246
0.01413688278 -0.004284260273 -0.05702429199 0.8255208468 -0.4758000323 -0.3035286819
0.007749446869 0.01522855949 -0.03163552666 -0.581080324 -0.8138127586 -0.007379089251
-0.009154805183 0.01840089417 -0.006398845673 0.476420853 -0.8781897168 -0.04249696525
0.01001469612 0.01381953621 -0.03639482498 0.6318586188 0.7750022713 0.01123233084
-0.01398939514 0.04568992106 -0.04554502741 -0.6891478891 0.01923281236 0.7243654367
0.01182187366 0.01233009243 -0.04019138336 0.721687716 0.6899274928 0.05627517389
4.304811358e-06 0.0341115551 -0.04004743767 -0.0160488157 0.01454959542 0.9997653449
0.01147068214 0.05164014435 -0.04349463654 0.5409924042 0.01031029953 0.8409642777
0.01408320522 0.01083438778 -0.04494295502 0.860882104 0.4744692864 0.1837413924
0.01707106972 0.004241923332 -0.05121808624 0.9955133033 0.08920682004 0.03155005769
0.01701170158 0.001696416438 -0.05109243393 0.995044176 -0.08667260552 -0.04873343056
-0.01445781469 -0.01148704743 0 0.6071932554 0.4766537867 -0.6357023818
-0.02007648182 0.004355885148 -0.006977992535 0.9830944883 -0.1830374453 -0.004745604264
0.01579334641 -0.005050233126 -0.048532547 0.9138570245 -0.3834517999 -0.1335292322
-0.008078490496 0.02499968815 -0.04168525887 -0.3970903804 0.008326370694 0.91774174
0.01452017021 -0.008353372574 -0.0458587265 0.8399464293 -0.5372883184 -0.07623161378
0.01312095737 -0.01077085018 -0.04292007828 0.7496713935 -0.6600232262 -0.04860187955
-0.01433266377 0.01897523308 -0.04559469986 0.7260084817 -0.2063599228 -0.6559933435
0.01002288437 -0.01382024384 -0.0364120369 -0.6230493712 0.7820265439 -0.01561939972
-0.02009107018 -0.004312127352 -0.003249989867 0.959915672 0.2144006767 -0.1805387839
0.004491957188 -0.01648622131 -0.0247904644 -0.4239548786 0.905682653 0.001092270784
0.01231981119 -0.004877088547 -0.05994865799 0.7799862217 -0.4901134185 -0.3891148043
-0.00840758419 -0.01754458618 -0.0003805470467 0.4018308071 0.7906526964 -0.4619527207
0.01143797731 0.05839782143 -0.04347979164 -0.545643247 -0.03884412764 -0.8371168262
-0.01655338478 0.01219062614 -0.0005975064635 0.672072847 -0.4821520925 -0.5620030676
-0.02006083965 0.00444572413 -0.01463723707 0.9673267358 -0.2535223541 -0.002324245945
0.0114832859 0.04911432648 -0.04350263596 0.5563682154 0.0008162410535 0.8309354624
0.01359464836 -0.005978401661 -0.05584659576 0.8235132957 -0.486124316 -0.2924192217
0.01151009464 0.04323680687 -0.04351964569 0.5586295831 -0.01581227922 0.8292665197
0.01514140129 0.004351163387 -0.06337892914 0.9023792573 -0.2530629903 -0.3488134157
0.01152388334 0.03988690758 -0.04352839661 0.5572677963 0.01311705951 0.8302292129
-0.01775103474 -0.01034909821 -0.01249340153 0.8704851463 0.4921740827 0.004503591475
0.01154535198 0.03403805542 -0.04354201889 0.5595360238 0.0004910773959 0.8288058862
-0.01785105515 -0.01021619797 -0.03654715729 0.8664446454 0.4982953091 -0.03123237745
0.01155345821 0.03153639221 -0.0435471611 0.5599341473 -0.01831584094 0.8283346429
-0.0123319521 0.01649503517 -0.03341736221 0.6159552176 -0.787778303 0.002124895491
0.01156334066 0.02820458984 -0.04355343246 0.5606829041 -0.001187856043 0.8280297519
0.01157211542 0.02487685776 -0.04355900192 -0.5404112048 0.003429318628 -0.8413940632
0.01157800674 0.02238333702 -0.04356274033 -0.5226944797 0.01564707153 -0.852376472
0.009024943352 0.0371400795 -0.04208648682 0.3980100623 7.620220616e-05 0.9173810465
0.007533619881 0.01534732151 -0.03494486237 -0.5841837908 -0.8114395648 -0.0171793832
0.00987057209 0.01393380642 -0.03991001129 0.6358853659 0.7712396852 0.02896807406
0.01643484116 0.01279794884 -0.0538633194 0.9948430107 0.04789353318 0.08940689881
0.01696640778 0.0094134655 -0.05498802948 0.9989315339 0.02653410846 0.03783823083
0.01707106972 0.006849817038 -0.05520759964 0.9993975382 -0.03325867412 -0.009920744409
0.01699813461 0.004278959751 -0.05505042648 0.9963162066 -0.06402242358 -0.05705388475
0.006665561676 0.06026441193 -0.04114790344 -0.3432089882 0.008887419068 -0.9392170166
-0.008672907829 -0.01863838959 -0.01102140713 0.5289949358 0.8485295648 0.01272539099
-0.01937752342 0.006915635586 -0.02842137718 0.940017169 -0.3408224143 0.01441540424
0.01675788403 0.001709635913 -0.05453858566 0.983822224 -0.1399214424 -0.1118741322
0.0158893919 -0.001709401727 -0.05470268822 0.9312778956 -0.30861024 -0.1936006225
-0.02015670681 0.006453822613 -0.0484099617 0.9736385982 -0.200699135 -0.1083869794
-0.01948224258 -0.006629384041 -0.01217638969 0.9512538112 0.3082842328 -0.008776020666
-0.01419925531 -0.01412772814 0 0.5427474273 0.548543321 -0.6360231561
0.015312253 -0.005081675053 -0.05146674347 0.8844747151 -0.4285770689 -0.1844618507
-0.01880887222 -0.005704836845 -0.05202227402 0.9405869009 0.3167337798 0.1223764465
0.01440415955 -0.007583215714 -0.04953834534 0.8444476654 -0.504214542 -0.1807645873
-0.02050076962 -0.001476779997 -0.01356712294 0.9931717489 0.1166344431 0.00250675579
0.01365303802 -0.009226659775 -0.04794345856 0.8087474439 -0.5706313041 -0.1425043395
0.01270332909 -0.01084184361 -0.04592673874 0.7422017855 -0.6597216991 -0.1179143301
-0.02051176167 0.001556584686 -0.03401371956 0.9968073672 -0.07983536222 -0.001177974456
-0.0109525404 0.02257715559 -0.04317778015 -0.5852890641 0.05419521482 0.8090114895
0.01150654602 -0.01241898918 -0.04338508987 0.7278907798 -0.6810706793 -0.07948422778
-0.008122692704 0.03391406631 -0.04170794964 0.3971950483 -0.001783446828 -0.9177324844
0.01099467754 -0.01249430466 -0.04621320343 0.7131253985 -0.6893928088 -0.1272388356
-0.01570688057 0.01329478931 -0.03344423676 0.780960635 -0.6245213605 0.008576527075
0.009870776176 -0.01393382454 -0.03991044617 -0.639068943 0.7691453794 -0.002504285533
-0.008903569221 -0.0151949892 0 0.3430514848 0.5435284099 -0.7660891243
0.008902859688 0.06055130386 -0.04202621078 0.353268414 0.02170904506 0.935270092
0.008917133331 0.05802479172 -0.04203056145 0.3732764562 0.0179214108 0.9275470394
1.921853423e-05 0.03084766722 -0.0400474205 -0.01515669218 0.02157270069 0.9996523862
0.008936905384 0.05466386032 -0.04203965569 0.3717719545 0.001227082457 0.9283232778
0.008965447903 0.0496377697 -0.04205470276 0.3950173305 -0.01399416653 0.9185670754
-0.00828177464 0.0551600132 -0.0417876339 -0.3733542187 0.002284983641 0.9276860494
-0.01455332994 -0.01449061298 -0.00332345736 -0.6877286102 -0.6880443524 0.2315692721
-0.01644956207 -0.01204358196 -0.04454206467 0.8089905733 0.5848940949 0.05859308863
0.008983001232 0.04629622841 -0.04206407928 0.3969528587 -0.01143466627 0.9177677682
0.009014398575 0.03963286972 -0.0420808506 0.3810427978 0.01035493977 0.9244994113
-0.00818559742 0.01888119507 -0.01575004196 -0.5137122778 0.8578717896 -0.01247750562
-0.01635211563 0.0124490099 -0.008282323837 0.8124608021 -0.5830116559 0.002203213522
-0.01673535824 0.03086117363 -0.04860622978 0.7941531652 -0.009889754712 -0.6076371803
-0.01815881157 0.009674542427 -0.01535432816 0.8802246099 -0.4744628796 0.009466359304
0.009034723282 0.03465065575 -0.04209171104 0.407617024 -0.005757173874 0.9131348294
0.009046748161 0.03133554649 -0.04209813309 0.4066428616 -0.003679767832 0.9135797953
0.009073600769 0.02224078941 -0.04211248016 -0.3746594789 0.02530194806 -0.9268171806
-0.01129693198 0.01586831021 0 -0.43472531 0.7473359572 0.5024966388
-0.01748752499 0.01620415759 -0.04866993809 0.8422924498 -0.2444881752 -0.4803841808
0.01707106972 0.01469628525 -0.05928432465 0.9989317714 0.01841095523 0.04238340356
-0.0004439848065 0.05849179967 -0.04006822713 0.02579230632 0.003563270188 -0.9996609726
0.01707106972 0.01296587467 -0.05928026581 0.9999274261 -0.009208448296 -0.007768331407
0.01703937721 0.01036949587 -0.05920703888 0.9994730495 -0.01467154324 -0.02895460563
-0.008676522255 0.01863791275 -0.01101345158 -0.5299316194 0.8479566569 -0.01191582059
0.003702998638 0.04004621887 -0.04037730408 0.1948599163 0.001125958511 0.9808304365
0.01680537033 0.006039279461 -0.05869774246 0.9798137474 -0.1078456302 -0.1683280737
0.01466400719 -0.005108561039 -0.05409221268 0.8580401308 -0.4536660181 -0.2407369476
0.01298231252 -0.008737785021 -0.05182007853 0.7793756201 -0.5833441655 -0.2286552589
0.01208666801 -0.01090078735 -0.04855804443 0.7346824905 -0.6558754037 -0.1734044201
0.009536736488 -0.0140335331 -0.04308183289 0.6637112963 -0.7436646197 -0.08031344026
-0.01878477859 -0.008402457237 -0.02577171135 0.9128635476 0.4082569219 0.002535571694
-0.01129809761 -0.01659067917 0 0.4425446838 0.6638367471 -0.6028888587
-0.0130538044 0.0372153511 -0.04473456001 -0.6326815157 0.002050684048 0.7744093842
-0.002672765732 0.04544954681 -0.04018234634 -0.1898641366 0.001955613797 0.9818084259
0.006711420536 0.05273484612 -0.04115987968 0.3504727494 -0.002393391488 0.9365698712
0.006729711533 0.04940130615 -0.04116444588 0.3602025152 -0.01048215861 0.9328152402
0.006746811628 0.0460751133 -0.04116875458 0.3437962826 0.001039681681 0.9390436812
0.01414307117 -0.0008649349809 -0.06118016052 0.848352791 -0.3746370764 -0.374091704
0.00676262188 0.04275572205 -0.0411725769 0.3449733539 0.01203510144 0.9385353171
-0.01755482292 -0.01068665648 -0.02474129868 0.8557361486 0.5174030506 0.003118840277
0.006777140617 0.0394426384 -0.04117589951 0.3464703264 0.01479853723 0.9379441968
0.006787225246 0.03696149063 -0.0411780777 0.3481987509 0.0002742245476 0.9374206925
0.006832411766 0.02213277054 -0.04118521118 -0.3768380488 0.0270133297 -0.9258851792
0.0167506218 0.01306203175 -0.06272448349 0.9852594367 -0.03879548094 -0.1666095825
0.01632538064 0.01016302745 -0.06318860245 0.9618109519 -0.1317892964 -0.2398984665
0.003727557302 0.03429167461 -0.04037738705 0.1954274831 -0.01268212425 0.980636152
-0.002589536071 0.03075970078 -0.04016819 -0.174778438 0.009767901895 0.9845593358
0.01630354595 0.006946326017 -0.06174010277 0.9368775541 -0.1864468846 -0.2958006218
0.01597959709 0.00433235836 -0.06103249359 0.9187490948 -0.2441451846 -0.3103115044
0.01557096434 0.001729460984 -0.06014217377 0.9111844996 -0.2960310004 -0.2865457283
0.01131318855 -0.01095021343 -0.05089266586 0.7212672411 -0.6574787319 -0.2179341274
-0.01562237501 0.04059188271 -0.0471992588 0.7838910666 0.01306645042 -0.6207608747
0.01024074745 -0.01255209541 -0.04856386948 0.6740740863 -0.71735679 -0.1761344999
-0.01208670235 -0.01224491692 0 0.5427474273 0.548543321 -0.6360231561
0.003592451334 0.05993396759 -0.04038434982 -0.2028638495 -0.01838498814 -0.9790343461
-0.008224717498 0.04859081936 -0.04175872707 -0.374855771 0.005463234363 0.927067044
0.00393714118 0.05774139023 -0.04044740931 0.2031430322 0.02700982011 0.9787764699
0.003290823619 0.05545928192 -0.04031895447 0.1843164498 -0.01066396955 0.9828090995
-0.0149095211 -0.01420543098 -0.01538493538 0.7372112732 0.6756162588 -0.007887304474
0.003657715559 0.04912805557 -0.04037988567 0.1901180266 0.001820914963 0.9817595532
0.003674896896 0.04581960106 -0.04037809563 0.1912952618 0.01670262534 0.9813904142
-0.02035382271 0.01897118187 -0.05752396011 0.9958757538 -0.01246113796 -0.08986769768
0.00369113344 0.04251814842 -0.04037703323 0.1935718209 0.0188142795 0.9809056902
0.003714009941 0.03757801342 -0.04037742329 0.2104083776 -0.004701612029 0.9776022757
0.003751176775 0.02773389244 -0.04037790203 0.1957450281 0.01542070897 0.9805335719
-0.02023999214 0.003661206961 -0.010356143 0.9830774517 -0.1831570186 0.003497217376
0.003440784375 0.02254157448 -0.04031867218 -0.1978789745 0.0531468043 -0.9787846181
-0.01367511368 0.01509715652 0 -0.5838653874 0.6602280691 0.4724405848
-0.01471891244 0.01028633785 0 0.672072847 -0.4821520925 -0.5620030676
-0.01519871044 0.01389891148 -0.00726680994 0.7308644256 -0.6824893694 -0.006741808785
0.01264849281 -0.005999927998 -0.05789551544 0.794213045 -0.5070925938 -0.3347876049
-0.002623085737 0.03727418327 -0.04017250824 -0.1765782094 -0.009256980389 0.9842430819
0.01147401619 -0.007695311785 -0.05738545418 0.7428471509 -0.5898098512 -0.31670562
-0.01160761833 0.01694860268 -0.008123087883 0.5894341498 -0.8077746627 0.008214461754
-0.01163203907 -0.01694561195 -0.008068717957 -0.5899887982 -0.8073764161 -0.007519360337
-0.02052617931 0.006582552433 -0.0569075489 0.9989317778 0.02166437199 0.0408161533
-0.01379718399 0.015227561 -0.003241092205 0.664126204 -0.7144479247 -0.2202283996
-0.01524156189 0.007887203217 0 0.5238144999 -0.2791888121 -0.8047807011
0.01385332108 0.002614948988 -0.06476042175 0.8547847947 -0.3157023518 -0.4119162291
-0.01524241495 -0.008604566097 0 0.558487394 0.3193966339 -0.7655570658
-0.002744453907 0.05531780243 -0.04019940948 -0.172472888 0.01231608919 0.9849372654
-0.01558191395 -0.01344825459 -0.03800588608 0.773518189 0.6335835057 0.0155419616
0.0007370797396 0.05968142319 -0.04005414963 -0.03754867269 0.006223053073 -0.9992754229
-7.926492393e-05 0.04886952686 -0.04005288124 -0.03187070672 0.01510085552 0.9993779176
-0.0147461195 0.0143654089 -0.0196157093 0.7069172264 -0.7072950116 0.001342224053
-0.01767479992 0.0105096488 -0.01847130871 0.8516192023 -0.5240914661 -0.008536363013
-5.913960934e-05 0.04557843113 -0.04004911804 -0.0290969591 0.02065716235 0.9993631215
-0.01950398445 0.006561745167 -0.008336338997 0.9512165479 -0.3085209071 0.001388836919
-4.447886348e-05 0.04311459351 -0.04004749107 -0.0321312776 0.001340712956 0.999482758
-1.21216327e-05 0.03738049793 -0.04004745579 -0.01948623937 -0.002584529627 0.9998067847
-0.02050442982 0.001461754948 -0.009720873833 0.9961434737 -0.08766616276 0.003581008587
4.174089432e-05 0.02514643764 -0.04004739761 -0.02550920191 -0.01534142031 0.9995568625
-0.007609582424 0.01914067268 -0.0207757225 -0.4573675835 0.8892262709 -0.009567276339
0.01270221901 0.002621573448 -0.0664675827 0.8228861239 -0.3361944707 -0.4580739078
-0.02045316792 0.04358207512 -0.06288788033 0.9999205403 -0.01063052175 -0.006775332158
-0.01131490993 0.01714816856 -0.01241957188 0.5761086655 -0.8173247573 0.008890816842
-0.0136266613 0.01539355755 -0.007203875542 0.6489441897 -0.7607583616 -0.0108698643
-0.01954520416 -0.006430675507 -0.0008946712017 0.8604353864 0.3180984478 -0.3980757759
-0.002642296433 0.04053953552 -0.04017498016 -0.1717860299 -0.0005719724969 0.9851341192
-0.01530860996 0.01375371933 -0.003407865524 0.7239695683 -0.659776189 -0.2014036856
-0.01759346151 0.007147028565 0 0.7485612755 -0.2669759145 -0.6069430599
-0.00999712944 -0.01800613785 -0.03086124992 -0.455534068 -0.8900867749 0.01530509769
-0.01759084558 0.004287797034 0 0.7690113423 -0.1963354324 -0.6083370393
0.012356493 0.0008719882369 -0.0656880188 0.8060239932 -0.3742867185 -0.4585136582
-0.01759084558 -0.004287797034 0 0.7694941233 0.2396022015 -0.5920047121
-0.01759138711 -0.00786225613 -6.841165324e-06 0.7859653407 0.3983419058 -0.4728448047
-0.01162608767 -0.01693905067 -0.02501820183 -0.5603704247 -0.8273670771 -0.03806188272
-0.01668514442 -0.01146227837 -0.000297885865 0.6211342903 0.4844158702 -0.6160628686
-0.007599019051 -0.01914209175 -0.02079952049 0.4507902753 0.8925649667 0.01076605252
-0.006799321651 0.01943707275 -0.02644040489 -0.4183100246 0.9082944459 -0.004233553695
-0.01345230961 0.01556328297 -0.01125564766 0.6369609664 -0.7708172956 -0.01101926181
-0.0199295845 -0.001424629331 0 0.8247292736 0.08785648443 -0.5586616717
-0.01837154484 0.001427669615 0 0.7145209464 -0.05763348144 -0.6972361142
-0.01697706127 -0.01155056524 -0.003203008533 0.7890701956 0.5524002409 -0.2687418842
-0.002771752596 0.0586233387 -0.04020537186 0.1796241546 -0.05215424215 -0.9823518199
-0.00269497025 0.04873142052 -0.04018789864 -0.1794589096 0.01235579568 0.9836878743
-0.02001823139 0.004739424348 -0.03968469048 0.9653381963 -0.2609699414 -0.004105671641
-0.01474141979 -0.01436590862 -0.0196268158 -0.7057321648 -0.7084295023 -0.008351757691
-0.002605501294 0.03401440239 -0.04017024422 -0.1748520565 0.0004724607623 0.9845946044
-0.00256542635 0.02507459068 -0.04016508484 -0.1666129995 0.0063466834 0.9860019412
-0.005652681351 0.01978549576 -0.03300223541 0.3766343201 -0.9263173952 -0.009092426342
-0.01506258011 0.01404974937 -0.01126482773 0.7228744217 -0.6909574903 -0.005506093724
-0.01783994198 -0.01018511009 -0.00667633152 0.8695861438 0.4936903442 -0.009475365658
-0.02038433075 0.04871256638 -0.06329742622 0.9999350592 -0.008933813222 0.007075611438
-0.01636280441 -0.01244801426 -0.008257665634 0.8093732683 0.5872749795 -0.004796984592
-0.01325507832 -0.0157390461 -0.01544322777 -0.6250610997 -0.780524245 0.008973547576
-0.005104331255 0.04373486423 -0.04067941189 -0.2149664603 -0.008071672341 0.9765880754
-0.01891887856 -0.008056492805 -0.009724017143 0.9103629444 0.4137951488 -0.003589461477
-0.005083038211 0.04046866417 -0.04067181015 -0.205933894 -0.01428113037 0.9784616909
-0.005045662284 0.03395420933 -0.04065789986 -0.2142806593 -0.01190385858 0.9766995941
-0.01996515656 0.01307832956 -0.05368754959 0.9709985865 -0.1007236195 -0.2168328791
-0.02050224304 -0.001492070079 -0.0174829607 0.9928367177 0.1194136228 -0.003954577181
-0.005005470753 0.02502954388 -0.04064155197 -0.2015401372 0.0009681376261 0.9794797782
-0.01114104772 0.0518851366 -0.04332642841 -0.5467424998 0.01164753444 0.8372197882
-0.004996060371 0.0226012187 -0.04063945103 -0.1918063565 0.04820223087 0.9802483698
-0.01952482414 0.006495531559 -0.004576971531 0.9479456671 -0.2968516522 -0.1152306765
-0.005068152189 0.02016339016 -0.04044868469 0.1995286276 -0.08725275529 -0.9759996329
-0.01039309692 0.01777664948 -0.02595026779 0.5272685096 -0.8496026613 0.01277640935
-0.01306283092 0.01591779613 -0.01970615387 0.6663974276 -0.7455951424 -0.001533697142
-0.01839401627 0.04004604721 -0.05142401314 0.8796990848 -0.0001089164475 -0.4755307649
-0.01490614796 0.01420578575 -0.01539281082 0.7354780097 -0.6775109025 -0.007146623715
-0.01624817467 0.0125824461 -0.01225099182 0.8091137151 -0.5875133157 0.01277105653
-0.01738059044 0.01100681877 -0.009599637985 0.8612685994 -0.5081204993 -0.005473381542
-0.01952465057 -0.006495540142 -0.004577376842 0.9408613651 0.3170905022 -0.1193042545
-0.0170730381 0.01198735714 -0.04293358231 0.8672838977 -0.4661286184 -0.1747648475
-0.0189458847 -0.007974817753 -0.005933161736 0.9098989994 0.4148287853 -0.0009433272643
-0.01736713791 -0.01100793552 -0.00963104248 0.8606543314 0.5090877498 -0.01018748886
-0.01626399803 -0.01258095837 -0.01221404934 0.8091676181 0.5874253847 0.01338593467
-0.01284709644 0.01610297585 -0.02411411858 -0.6487406252 0.7609395974 0.01032135425
-0.01882235909 -0.008312937737 -0.02162075996 0.911139033 0.4120816956 -0.003786640906
-0.01614192581 0.01271884537 -0.01630776787 0.8027401838 -0.5963287431 -0.0004769003558
-0.01776410007 0.01034810781 -0.01246252918 0.8702678511 -0.4925529993 0.005040858863
-0.01891924858 0.008056469917 -0.00972314167 0.9107257755 -0.4129942814 -0.003779597867
-0.02050013828 0.001447129786 -0.005972895145 0.9973364423 -0.07289627057 0.002480850866
-0.02049660301 -0.001447169721 -0.005981247902 0.9973822485 0.07226965132 0.002397484012
-0.02008640575 -0.004355549216 -0.006954543591 0.9830917094 0.1830410859 -0.005162528886
-0.01950366783 -0.006561761379 -0.008337086678 0.9511548726 0.3086933354 0.003582313506
-0.01616300392 -0.01271684265 -0.01625795746 0.803048671 0.595912906 -0.0008003475278
-0.008312753439 0.05845737076 -0.04180427647 0.3700890354 -0.03335855494 -0.928397174
-0.008252312183 0.05187139034 -0.04177274609 -0.3708197174 0.01370059442 0.9286038073
-0.01874635315 -0.008493990898 -0.03001606369 0.9180207944 0.3964945889 -0.005464614342
-0.008205183268 0.04613513756 -0.04174875641 -0.3665320493 -0.001786201844 0.9304037115
-0.008186788321 0.04368391705 -0.0417393589 -0.3600061615 -0.001752244584 0.9329482801
-0.02021580887 0.003899645329 -0.0347815361 0.9832972416 -0.1818456863 -0.007660357585
-0.008142213345 0.03716480637 -0.04171760941 0.3984478958 -0.001885107646 -0.9171890322
-0.008105038285 0.03066851664 -0.04169901657 -0.3960476455 0.01708826813 0.9180709415
-0.008089215994 0.02742766428 -0.04169087315 -0.3946073361 0.01099454733 0.9187840716
-0.01578392076 0.058721735 -0.0474059124 0.8091736392 -0.001958898839 -0.5875663234
-0.008068903923 0.02257410097 -0.04168013287 -0.3857215511 0.07168941997 0.9198258053
-0.008080221415 0.02014740562 -0.04162737274 -0.5227383584 0.4271037677 0.7377851857
-0.009494272232 0.01825427055 -0.03613389969 0.5340505468 -0.8427752087 -0.06723065555
-0.01259656525 0.01629613113 -0.02869917107 0.6371691214 -0.7707019327 -0.005834521353
-0.01603328705 0.01285831261 -0.02045578194 0.7837201397 -0.6207325478 0.02176802177
-0.01889181519 0.008139872551 -0.01359424686 0.9082373063 -0.418383729 -0.007749245911
-0.0160597496 -0.01285577297 -0.02039248276 0.7968671778 0.6041147414 0.006933980727
-0.01989763641 0.005139454842 -0.01117834377 0.9615223913 -0.2746660908 0.005764515887
-0.01991355515 -0.005138825893 -0.01114027119 0.9613275201 0.2753343147 0.006357212179
-0.01813365364 -0.009676388741 -0.01541450691 0.8802920495 0.4743554594 0.008532626035
-0.0176625843 -0.01051051569 -0.01850099754 0.852192733 0.523144406 -0.009352874547
-0.01526176405 -0.01376400042 -0.02429446411 0.7414524763 0.6705494343 0.02473219521
-0.01257970524 -0.01629813004 -0.02873950386 0.639824336 0.768509021 -0.004324769235
