# .PCD v0.7 - Point Cloud Data file format
VERSION 0.7
FIELDS x y z normal_x normal_y normal_z
SIZE 4 4 4 4 4 4
TYPE F F F F F F
COUNT 1 1 1 1 1 1
WIDTH 578
HEIGHT 1
VIEWPOINT 0 0 0 1 0 0 0
POINTS 578
DATA ascii
0.01134270096 -0.01277298641 -0.004196795464 0.6559016053 -0.7548314629 -0.004748346128
-0.02045749474 0.002310305357 -0.02987641144 0.9919200148 -0.1247882276 0.02286006185
0.005780040741 0.01845307541 0 0.08999135354 0.4064257595 -0.9092412542
-0.01749462318 -0.01078321838 -0.002020168543 0.7584242472 0.5739832877 -0.3087650349
0.00960173893 -0.01412315273 -0.0009113800526 0.327539217 -0.7436746645 -0.5828087634
-0.01458236122 0.01452875233 -0.023937006 0.6649878606 -0.705415245 0.2453170955
0.009120106697 -0.01556453609 0 0.209236488 -0.3754168097 -0.9029298484
0.01454645061 0.04958721924 -0.04605583572 0.7407858762 0.001272208973 0.6717400294
0.004651033878 0.04837971497 -0.04057325363 0.2068809227 -0.00979280195 0.9783171188
0.009122040749 -0.01704929924 0 0.2094183041 -0.3533737787 -0.9117406136
0.002767480135 0.02850615692 -0.04019110107 0.1022089317 0.001200331687 0.9947622296
0.007448262215 0.01849380684 0 0.2279136244 0.5851425712 -0.7782438893
0.007445754528 0.01627092934 0 0.3047365437 0.4525461176 -0.8380558755
0.01155084896 0.03236988831 -0.04354550552 -0.5003706148 7.780595972e-05 -0.86581132
-0.02017111588 0.0106068325 -0.05310213089 0.9758779975 -0.1380820898 -0.1691019528
0.01121236038 0.01286995697 -0.007183805943 -0.6518999475 -0.7582110414 0.01193629385
0.0126370821 0.01145510387 -0.009900810242 0.7641921321 0.6449732196 0.004464449714
0.01126353168 -0.009349370956 -0.05485399628 0.6692571682 -0.6617139802 -0.3379784775
0.01556510067 0.006995292664 -0.01548523617 0.9162951812 0.4004400946 0.007132426463
-0.01242723989 0.04208939075 -0.04422882462 -0.6049397142 0.00075899465 0.7962709125
-0.002627684832 0.03808980179 -0.04017309952 0.08070523665 -0.0007282890159 -0.996737746
0.01620266914 0.005461472988 -0.01670127678 0.950841544 0.3096758684 0.001102131243
-0.019437994 -0.006769028187 -0.02010471725 0.9455104498 0.3255007074 -0.007699269608
0.01659486198 0.003910117149 -0.01744946861 0.9599366992 0.2800416829 0.009909049268
0.009003240585 0.04212853241 -0.04207489014 0.4465968894 -0.01358392239 0.8946321565
-0.002652232647 0.04217454147 -0.04017694473 -0.08895406793 0.003094446601 0.9960309223
0.01691885185 0.002350576639 -0.01806741905 0.9870683065 0.1600789489 0.008419530927
0.01705952644 0 -0.01833576393 0.9999633546 0 -0.0085609304
0.0160979538 -0.005747667789 -0.03770427704 0.9447638442 -0.3277122484 -0.005095186837
0.01691885185 -0.002350576639 -0.01806741905 0.9870266921 -0.1603484311 0.008166382584
-0.01984749985 0.005359118462 -0.02723357964 0.9656905567 -0.2591138026 -0.01737198965
-0.02027091026 0.003984489441 -0.04350474167 0.981885833 -0.1873497179 -0.02828946895
0.01153035688 0.0382141571 -0.04353250313 -0.4998324912 1.784434954e-05 -0.8661220933
0.01658938026 -0.003909988642 -0.01743902588 0.9635476352 -0.2675217272 0.002842549703
0.01620266914 -0.005461472988 -0.01670127678 0.9482209397 -0.3175904187 0.003657249196
0.01153957748 0.03570745087 -0.04353835297 -0.500085562 7.10270584e-05 -0.865975996
0.01701362705 2.890527248e-07 -0.04718298149 0.9948152151 -0.09322801289 -0.04063527239
0.01518714523 -0.007753284454 -0.0147643261 0.8869593863 -0.461791967 0.007157245246
0.01383435249 -0.01000000286 -0.012184165 0.8328093291 -0.5535595554 -0.0006633371629
-0.004292301893 0.04212209702 -0.04048234749 -0.2113831425 0.001110245052 0.977402647
-0.02055621147 -1.600384712e-08 -0.009596466064 0.999965355 -0.0006186032653 0.008300968531
0.01587382793 0.009266854286 -0.04870526505 0 0 1
0.0126370821 -0.01145510387 -0.009900810242 0.7652826788 -0.6436802633 0.004259123345
-0.009620324135 -0.01816997528 -0.001902735233 0.3703645114 0.8052282708 -0.4630740335
0.01122278023 -0.01287078857 -0.007203660488 0.6517438136 -0.758347877 -0.01176855358
-0.01040487099 -0.0177751503 -0.02592277718 0.5638000937 0.8259082697 -0.002232557522
-0.02023848534 -0.003737092733 -0.01813289642 0.9841980316 0.1769935063 0.00524722449
0.01462651682 0.03015968037 -0.04613228607 0.7817581528 0.0004671843196 0.6235815682
0.01110103035 -0.01297008228 -0.01025640011 0.6417898399 -0.7667995004 -0.01115022611
0.009468245506 -0.01422998619 -0.003857976675 0.5366271936 -0.8437365968 0.01182413992
-0.02046227646 0.0574282341 -0.05852898788 0.9833662545 -0.0006015538164 -0.1816327272
0.007447402477 -0.017752738 0 0.2121439914 -0.5068854879 -0.8355010647
0.01641366577 0.002582005978 -0.05785289764 0.9564239914 -0.2156218407 -0.1968765361
0.005778708935 0.01697421074 0 0.08999135354 0.4064257595 -0.9092412542
-0.01983540344 0.005417056084 -0.03146879768 0.9647617036 -0.2625256818 -0.0177516681
-0.008993944168 0.05022117996 -0.04206992531 -0.4477161096 -0.000779945492 0.8941754173
0.006960160255 0.01561364746 -0.002277617455 -0.5979802182 -0.7383726083 0.3118101185
0.0110874548 0.01296898937 -0.01023025608 -0.6419908037 -0.7666300942 0.01122972515
-0.02054883099 -3.546476364e-09 -0.002177222133 0.9425680191 -0.0004056877999 -0.3340140188
0.01146638584 0.05248270035 -0.04349190903 -0.4981417856 5.255872028e-05 -0.867095588
0.01255896378 0.01154663658 -0.01306594276 0.7589783903 0.6510934146 0.00540078185
0.01449474239 0.009025751114 -0.0381644516 0.8690396122 0.4945563654 0.01357033326
-0.01709700203 -0.01148733234 -0.0258685379 0.8463519755 0.5325916479 0.005871128481
0.01378313923 0.01008158875 -0.01542510509 0.8271152635 0.5620021115 0.005828166476
-0.004073685646 -0.0167529335 0 0 -0 -1
0.01476669502 0.008581178665 -0.01732065964 0.8582537553 0.5130767601 0.01235838926
-0.01991355515 -0.005138825893 -0.01114027119 0.9710593702 0.2387852815 -0.005028815361
0.01661585331 0.01195628405 -0.05424670219 0 0 1
-0.02046721649 -0.0008045884371 -0.04755959702 0.9375815786 0.000332099096 0.347765256
0.0155447731 0.007053691864 -0.01882027817 0.9145872375 0.4043789238 -0.002805535707
-0.01981214523 0.01555194187 -0.05413362885 0.9674247963 -0.09804790837 -0.2334006667
0.01059477234 -0.01338296413 -0.02295025826 0.6030667704 -0.7976411258 -0.008894096013
0.008755436897 -0.01465922356 -0.01578516579 0.494783254 -0.8689769252 0.008284621714
0.01618796349 0.00550725317 -0.02005990028 0.9498258622 0.3127710745 -0.002255330063
0.01613607979 -0.005649071693 -0.030467556 0.9470449479 -0.3210906915 -0.00257572709
-0.02042788506 0.05066012955 -0.05830081558 0.9822394082 -0.0006408112078 -0.187630846
0.01658758545 0.003943067789 -0.02083020973 0.9595438515 0.2813902978 0.009751789053
0.01658104324 -0.003942913055 -0.02081761169 0.9596221298 -0.2811143612 0.01000419031
0.01618796349 -0.00550725317 -0.02005990028 0.9499341399 -0.3124427598 -0.002156793328
-0.002689208508 0.04791005325 -0.04018649292 -0.09040946667 0.00629145427 0.9958848056
0.01707175446 0 -0.02874665451 0.9999931875 -0 0.003691195204
0.01454279995 -0.008948526382 -0.03454334259 0.8711207297 -0.4910643832 0.002108495691
-0.01983094788 -0.005536043644 -0.04017695999 0.9630199866 0.2688718595 -0.01733287613
-0.01445889473 0.01220555258 0 0.4800685081 -0.548176394 -0.684862664
0.0155447731 -0.007053691864 -0.01882027817 0.9143766566 -0.404663054 0.0127727265
-0.00907727623 0.05927297974 -0.04211827469 -0.425852935 0.009114069409 0.9047464902
-0.01581799316 0.01314596462 -0.02901548576 0.767435181 -0.6410570706 -0.009437963928
0.01476669502 -0.008581178665 -0.01732065964 0.8582185119 -0.5126623098 0.02526542921
0.004744999886 0.02368233871 -0.04056774521 0.2098159035 -0.00182533365 0.9777392059
0.01378313923 -0.01008158875 -0.01542510509 0.8166880915 -0.5770248466 0.007930165377
0.01638794708 -0.004186536789 -0.04588310623 0.9456505151 -0.3193581701 -0.06128182855
-0.01837239838 -0.00356927228 0 0.5792957026 0.1219179672 -0.8059481982
0.01255896378 -0.01154663658 -0.01306594276 0.7325391235 -0.6807208869 0.002346630785
-0.006851246675 0.03203141403 -0.04121774673 -0.3392159026 0.007669298337 0.9406772843
0.008987234116 0.04546170807 -0.0420663414 0.4451401918 0.01250794581 0.8953735315
-0.002667424917 0.04462995911 -0.04018097687 -0.09456159681 0.0006178707118 0.9955188208
0.009315704346 -0.01433689499 -0.00681616497 0.5251207464 -0.850964066 0.01040961746
0.0008202388287 -0.01833197594 0 -0.02319543073 -0.4169291233 -0.9086429872
0.005779374838 -0.01771364307 0 0.2276024259 -0.5070269322 -0.8313367704
0.003293576598 0.01986703777 0 0.1702369538 0.3770885988 -0.9103974781
0.003292757034 0.01839234638 0 0.1702369538 0.3770885988 -0.9103974781
0.003292000651 0.01691836071 0 0.1702369538 0.3770885988 -0.9103974781
0.01707106972 0.00254508543 -0.05121740723 0.9989039264 -0.02807330389 -0.03745444459
0.001143894315 0.01704735756 -0.003945837021 -0.0224317476 0.9987412924 0.04486254114
-0.01070792866 0.01756200218 -0.02132905006 -0.5102578469 0.8599642469 0.009920870887
0.01570722485 0.007505634785 -0.04446983337 0.9136362566 0.3939996857 0.1001650547
0.006709217072 0.01572197723 -0.005044837475 -0.4697295066 -0.8827771275 0.007663801837
0.009131690979 0.01444276047 -0.009761928558 -0.5129170584 -0.8583628955 -0.01136797438
0.01247959709 0.01163963223 -0.01628163147 0.7538267376 0.6570423716 0.006369584066
-0.01451712799 0.05613661194 -0.04603599167 0.7090088068 0.0108469603 -0.7051161999
0.01373109055 0.01016450691 -0.01871891975 0.8245239067 0.5657949149 0.00603668973
0.007533619881 0.01534732151 -0.03494486237 0.5296389074 0.8482225427 0.001070415513
-0.005328875542 -0.01985877419 -0.004154572964 0 0 1
-0.01880131912 0.02203917313 -0.05222760391 0.9165735886 -0.0006907225966 -0.3998654519
-0.01890123558 0.04177325439 -0.05247189713 0.9240993987 -0.007315733364 -0.3820821656
-0.01736713791 -0.01100793552 -0.00963104248 0.859203198 0.5116313612 0.001792972673
0.01552410507 0.007113066196 -0.0222110157 0.912225384 0.4090352804 -0.0231298097
-0.004419438839 0.05938028336 -0.04053626251 0.1973026181 -0.02762341476 -0.9799533784
0.01270332909 -0.01084184361 -0.04592673874 0.7291613946 -0.6740781637 -0.118077474
0.01617292023 0.005553797245 -0.02347466469 0.9485429224 0.3166225109 -0.004063240376
-0.02007648182 0.004355885148 -0.006977992535 0.9706777271 -0.2403639697 0.0031483507
0.01658018684 0.003976574183 -0.02426795387 0.9629490862 0.2693627996 0.01314304196
-0.01603328705 0.01285831261 -0.02045578194 0.8023397518 -0.5967689537 -0.01085074142
-0.01559314251 0.01344713116 -0.03797764969 0.7563515817 -0.6541100158 -0.008507179741
-0.01981586266 0.05031332397 -0.05509846497 0.9691317168 0.01481735865 -0.2460978695
-0.01881665421 0.02613488865 -0.05226719284 0.9179500948 -0.0007074094347 -0.396695252
0.01611718178 -0.005697942734 -0.03405457687 0.9458816523 -0.3245015813 -0.00257363795
-0.0123319521 0.01649503517 -0.03341736221 -0.6238488596 0.7719627588 0.1220086038
0.01696640778 0.0094134655 -0.05498802948 0.9045753021 0.0004179181181 0.4263136736
-0.00426888895 0.03804170609 -0.04047111511 0.1907058999 -0.00100895424 -0.9816466991
0.01691435242 0.002390671968 -0.02491877937 0.9864019485 0.1641283893 0.008547967997
0.01002288437 -0.01382024384 -0.0364120369 0.5765234824 -0.8170529309 0.006721782518
0.01706760979 0 -0.02521727943 0.9999936928 -0 0.003551673458
0.0009055038691 0.03169705009 -0.04004825974 0.03760492709 0.002168384766 0.999290332
-0.008960096359 0.04612682343 -0.04205184555 -0.4120134829 0.001092375079 0.911177094
0.01691435242 -0.002390671968 -0.02491877937 0.986397558 -0.1641540254 0.008562334669
0.01452309895 0.0008669375181 -0.06201637268 0.8533661647 -0.3504023665 -0.3859849356
0.01239894962 0.011734128 -0.01954922676 0.7167685728 0.6973019492 0.003578350405
-0.02021468163 -0.003857856035 -0.03049801636 0.9836077281 0.1801923245 -0.006823743694
0.01657947159 -0.003976557016 -0.02426656151 0.9629803099 -0.2692306207 0.01355712396
0.01656641579 -0.004116896152 -0.03865641403 0.9592203426 -0.2826591315 -0.0003868804104
0.01617292023 -0.005553797245 -0.02347466469 0.9485999305 -0.3164558011 -0.003727979832
0.01664727211 0.0008539589643 -0.0543032074 0.9715184821 -0.1979283053 -0.1302928426
-0.01681503963 0.0100180006 0 0.4184633197 -0.1876358685 -0.888640102
-0.01506258011 0.01404974937 -0.01126482773 0.732165473 -0.6810437445 -0.0106366464
0.01552410507 -0.007113066196 -0.0222110157 0.9124166325 -0.4086242303 -0.02285010259
0.01472350216 -0.008652229309 -0.02065173149 0.8797760155 -0.4753806483 0.002720635512
0.01247959709 -0.01163963223 -0.01628163147 0.7554352688 -0.6551961207 0.005966416674
0.01097740459 -0.01307090664 -0.01335619164 0.6320058776 -0.7748919066 -0.01054057908
-0.008815104485 0.02176214981 -0.04198257446 -0.3870015267 0.1438633862 0.9107871016
0.006709217072 -0.01572197723 -0.005044837475 0.4693322441 -0.8829868292 -0.007842455962
0.002761292219 0.03014170456 -0.0401903038 0.100106306 0.01570661172 0.9948527679
-0.01049025822 0.05763731003 -0.04293138123 -0.5385922194 0.002482140492 0.8425629117
0.003292378843 -0.01765535355 0 0.1709177194 -0.4974287618 -0.8505008878
0.003293576598 -0.01986703777 0 0.1709177194 -0.4974287618 -0.8505008878
0.0008204423189 -0.01980181313 0 -0.02319543073 -0.4169291233 -0.9086429872
0.006413190365 0.01582760048 -0.007768598557 -0.4536398072 -0.8911215909 0.01064121956
0.009021479607 0.0379707756 -0.04208463478 0.4463081862 0.003393449294 0.894872889
0.008944958687 0.01455018997 -0.0127512331 -0.5007231348 -0.8655056028 -0.0132813314
0.01083183384 0.01317166138 -0.01646486092 -0.622697502 -0.782400417 0.009869577511
-0.002605501294 0.03401440239 -0.04017024422 -0.1322388058 0.002788214017 0.9912139648
0.0136781826 0.01024879074 -0.02206704521 0.8219041339 0.569593214 0.006096328642
-0.01230964708 0.02016547966 -0.04411221695 -0.6164009183 0.2658321502 0.7412038693
0.01413688278 -0.004284260273 -0.05702429199 0.8296739187 -0.4619640869 -0.3134172476
0.01467959213 0.008724459648 -0.0240381012 0.8784354004 0.4778443425 -0.004003962198
0.01506901741 0.007985671997 -0.02657013893 0.8748089016 0.4843569431 -0.01037966563
-0.002553885698 0.02183133316 -0.04016359711 0.06349205064 -0.03160592343 -0.9974817417
0.01657672501 0.00401074934 -0.02777228355 0.961691992 0.2741072852 0.003702517387
0.01464431095 0.02427915764 -0.04615060806 0.8146855103 0.0006266014743 0.5799026873
0.01691204453 0.002411233664 -0.02843229294 0.9839203236 0.1786079296 6.533993783e-05
0.01691204453 -0.002411233664 -0.02843229294 0.9839203236 -0.1786079296 6.533993783e-05
-0.00407561636 -0.01967268562 0 0 -0 -1
-0.01284709644 0.01610297585 -0.02411411858 0.6082073263 -0.7937776938 0.000906134317
0.01615465546 -0.005601030827 -0.02694147491 0.9542079985 -0.299143429 -0.0005516930215
-0.01075939274 -0.01755551338 -0.02121033096 0.5092988493 0.8605590749 -0.00726365917
0.01506901741 -0.007985671997 -0.02657013893 0.8748089016 -0.4843569431 -0.01037966563
-0.01519871044 0.01389891148 -0.00726680994 0.7409268854 -0.6715186194 0.009491801474
0.01467959213 -0.008724459648 -0.0240381012 0.8784354004 -0.4778443425 -0.004003962198
0.01613607979 0.005649071693 -0.030467556 0.9470449479 0.3210906915 -0.00257572709
0.0136781826 -0.01024879074 -0.02206704521 0.8219041339 -0.569593214 0.006096328642
-0.02038448906 0.04058293152 -0.05801289749 0.9808394722 -0.0007530944513 -0.194816228
-0.006496281624 0.01669852352 0 0.1840063118 -0.1592487638 -0.9699389199
0.01239894962 -0.011734128 -0.01954922676 0.7195535573 -0.6944289797 0.003327213307
-0.01867515755 0.008682845116 -0.03877711105 0.9041402974 -0.4271822602 -0.006755683726
0.008944958687 -0.01455018997 -0.0127512331 0.4996809606 -0.8661128409 0.01294157334
0.006413190365 -0.01582760048 -0.007768598557 0.4536398072 -0.8911215909 -0.01064121956
0.0008204423189 0.01980181313 0 0.006996354273 0.3460258792 -0.9381988819
-0.02057341003 0.004065579414 -0.05196688461 0.939938022 0.001198633145 0.3413430503
0.008162560463 0.01499570656 -0.02515205574 -0.4596023573 -0.8880136661 -0.01404998309
-0.002562440991 0.02426355839 -0.04016469955 -0.07997808542 0.004944964503 0.9967843564
0.0008202388287 0.01833197594 0 0.006996354272 0.3460258792 -0.9381988819
-0.01891924858 0.008056469917 -0.00972314167 0.918182123 -0.3961422869 0.003588521696
0.001819548011 0.01697459412 -0.001988124728 0.1972311072 0.8563087983 -0.4773207855
-0.01558191395 -0.01344825459 -0.03800588608 0.6681613851 0.7055591283 0.2361073484
0.01493890667 -0.004265325069 -0.05468260574 0.8767417325 -0.4188626332 -0.23638534
0.006113176823 0.01593464565 -0.01052904606 -0.4392092944 -0.8983402297 0.008945806622
0.009049602509 0.03050735855 -0.04209965897 0.4445479725 -0.00304671178 0.8957498634
0.01070101643 0.01327538013 -0.01965547371 -0.6130978694 -0.789951863 0.009330416139
0.01231698704 0.01183016586 -0.022870121 0.7100632689 0.7041261827 0.004058686798
-0.01489547014 0.02021393585 -0.04639743805 0.7155461018 -0.09738877348 -0.6917435962
0.01680537033 0.006039279461 -0.05869774246 0.9862162122 -0.1069906642 -0.1262164035
-0.01616300392 -0.01271684265 -0.01625795746 0.8105714277 0.5854815372 -0.01361360262
0.01547753143 0.007234666824 -0.02915747833 0.9009225343 0.4333554547 0.02327309914
0.016573349 0.004045518398 -0.03133744621 0.9607604009 0.2773529235 0.003848094198
-0.01989763641 0.005139454842 -0.01117834377 0.967555141 -0.2526411764 -0.003079782475
0.0158751421 -0.005843320847 -0.04481787109 0.9318851192 -0.3573146963 -0.06258060819
-0.002450634956 0.01971554184 0 0 0 -1
-0.004359187365 0.05195757484 -0.04051180267 -0.2132940637 0.004263729846 0.9769787424
0.0164016037 0.007818840027 -0.06195458221 0.9586246292 -0.1527023649 -0.2402515515
0.01690969849 0.002432150841 -0.03200656128 0.9835029838 0.1808915344 0.0003654873415
0.01156334066 0.02820458984 -0.04355343246 0.5007233888 -9.77300052e-06 0.865607352
-0.01992976952 -0.002136950493 0 0.7032622474 0.03296083613 -0.7101660331
0.006810489655 0.03035998726 -0.04118248367 0.3321420155 -0.003515052184 0.94322284
0.01707597351 0 -0.03233734131 0.9999947672 -0 0.003235063306
-0.002751064539 0.05614311218 -0.04020088196 -0.09361494574 -0.003080727429 0.9956037119
0.01452467537 0.05469184875 -0.04604153061 0.7161682603 0.001087582544 0.6979268157
-0.004074612141 0.01821246529 0 0 0 -1
0.01690969849 -0.002432150841 -0.03200656128 0.9835029838 -0.1808915344 0.0003654873415
0.01449985886 0.05981433868 -0.046023983 -0.061897227 0.003217368789 -0.9980773426
0.016573349 -0.004045518398 -0.03133744621 0.9607604009 -0.2773529235 0.003848094198
-0.01950366783 -0.006561761379 -0.008337086678 0.949847447 0.3126850293 -0.004230839633
0.01690487862 0.002475092888 -0.03934435272 0.9859429787 0.1665944518 0.01275661884
0.01547753143 -0.007234666824 -0.02915747833 0.9009225343 -0.4333554547 0.02327309914
0.01656641579 0.004116896152 -0.03865641403 0.9580856343 0.28636161 0.008303354643
0.01231698704 -0.01183016586 -0.022870121 -0.7132181696 0.7009320829 -0.003749369904
0.01072432613 -0.0132773056 -0.01970183945 0.6127363092 -0.7902307501 -0.009464514794
-0.01837137413 0 0 0.6593911445 0.03507449169 -0.7509814236
0.01440183449 0.006122414589 -0.06598534393 0.8481094963 -0.2613171829 -0.4608943613
0.006113176823 -0.01593464565 -0.01052904606 0.4392092944 -0.8983402297 -0.008945806622
0.001822873473 -0.01697496605 -0.001994739652 0.0578263713 -0.8862489289 -0.459585625
0.004851356983 -0.01637561798 -0.02191359901 0.3903198905 -0.9206038007 -0.01179089163
-0.0008186512589 0.01975858307 0 0 0 -1
-0.01189349079 0.01675369835 -0.00392695713 -0.5825962202 0.8126720325 0.01207525663
-0.0008184486628 0.01829196739 0 -0.1442513069 0.2921309413 -0.9454369749
-0.01826183891 0.009474843979 -0.00753570509 0.8827729838 -0.4697727173 0.005045113815
0.009064908028 0.02554459572 -0.04210783386 0.4495745546 0.01207036288 0.8931612543
-0.01456937981 -0.01453014469 -0.02396805763 0.6650176368 0.7054414117 0.2451610845
0.005809083462 0.01604314804 -0.01332703304 0.4316139389 0.9019795141 -0.01193163491
0.008563057899 0.01476990128 -0.01886485481 -0.4849289239 -0.8744972899 -0.009921119955
-0.01972337532 0.03202868652 -0.05470993805 0.9638539977 -0.0173749268 -0.2658638429
-0.01777197647 0.01205520058 -0.04560009003 0.8796423157 -0.3768703631 -0.2901691332
0.01608420753 0.005798474789 -0.04143041611 0.9456635147 0.3251134605 0.004664202319
0.01056812668 0.01338074398 -0.0228966732 -0.5978495819 -0.8016031057 0.002887623528
-0.0008600895405 0.02837209892 -0.04004584122 -0.05186234626 -0.007537270355 0.9986257991
0.00270821023 0.04162498474 -0.04018346786 0.1140215526 0.005421208631 0.993463485
-0.01493563557 0.02995513153 -0.04646025658 0.7089593904 -0.01872619563 -0.705000647
-0.02044684792 -0.002361159086 -0.03855797958 0.9346594399 1.04772717e-05 0.3555442748
0.01458954144 -0.008872589111 -0.0309828701 0.8723006962 -0.4887349553 0.01515384344
0.0122336731 0.01192778587 -0.02624575615 0.7087316325 0.7054776879 -0.0008396616822
0.01458954144 0.008872589111 -0.0309828701 0.8723006962 0.4887349553 0.01515384344
-0.02044614601 -0.002286011219 -0.02572079849 0.9926636034 0.1193176918 0.01955144173
-0.01725135231 -0.01124100208 -0.01753292656 0.8532378005 0.5213155887 0.01467354188
0.004705057144 0.03599294281 -0.04056771278 0.2092556428 0.003290142146 0.9778554346
-0.006770302296 0.05600490379 -0.04119178772 -0.3200454782 0.0006916842803 0.9474019281
0.01150650692 0.04407504272 -0.04351736832 -0.4991996403 0.0001557637367 -0.8664869848
0.01544741058 0.007296761513 -0.03270783615 0.9002747628 0.435193033 0.01060072576
0.01611718178 0.005697942734 -0.03405457687 0.9458816523 0.3245015813 -0.00257363795
-0.01782826424 0.0284919529 -0.05028141785 0.8685816735 0.002744447579 -0.495538439
0.01656991196 0.004080894947 -0.03496489334 0.9598191505 0.2805909723 0.003988046686
-0.01986598206 -0.005415783405 -0.03139093018 0.965267464 0.2606820285 -0.01742420725
0.01690730858 0.002453433752 -0.03564331436 0.9831725868 0.182677838 0.0006870264674
0.01149892235 -0.002602185249 -0.06375729752 0.7215266374 -0.4888525227 -0.4903289942
-0.018802248 0.008401338577 -0.02572834015 0.9107951654 -0.4126690942 0.01250541022
0.004594210148 0.05836154175 -0.04057468414 -0.2022932148 0.00153423706 -0.979323798
-0.01677664757 0.03822209167 -0.04868495178 0.7946185299 -0.006341785989 -0.6070759209
0.0008415847123 0.04398241043 -0.04004485512 0.03659246271 -0.003970012619 0.9993223858
0.01690730858 -0.002453433752 -0.03564331436 0.9831725868 -0.182677838 0.0006870264674
0.01700768471 0.009502989769 -0.05913736343 0.9868648655 -0.06032804111 -0.1498608175
0.01656991196 -0.004080894947 -0.03496489334 0.9598191505 -0.2805909723 0.003988046686
0.008941794395 0.05382469177 -0.04204206848 0.4413303517 0.01501975256 0.8972189965
0.01455303669 0.04788935471 -0.04605988693 0.9255544081 0.002635413654 0.3786054571
0.01707106972 0.004241923332 -0.05121808624 0.9965820619 0.08027406315 -0.0195004767
-0.01647821236 0.01364833355 -0.04448268509 0.8223986332 -0.4708021759 -0.3193834675
0.01544741058 -0.007296761513 -0.03270783615 0.9002747628 -0.435193033 0.01060072576
-0.01575808525 0.05623390198 -0.04737360382 0.768756213 0.002226421621 -0.6395380583
0.0122336731 -0.01192778587 -0.02624575615 -0.7072845996 0.7069206631 -0.003416315424
0.006706691265 0.05356918716 -0.04115869141 0.3263415609 0.004817285669 0.9452396413
0.008563057899 -0.01476990128 -0.01886485481 0.4833783343 -0.8753598402 0.009515047412
-0.0160597496 -0.01285577297 -0.02039248276 0.8042416591 0.5942004818 -0.01100642031
0.005809083462 -0.01604314804 -0.01332703304 -0.4316139389 0.9019795141 0.01193163491
0.0115874033 -0.006017603397 -0.05971996307 0.7150321729 -0.5727503159 -0.400856667
0.001143894315 -0.01704735756 -0.003945837021 0.02243171325 0.9987412961 -0.04486247468
0.01691885567 0.00777050066 -0.05894380951 0.9894126751 -0.08517788798 -0.1175044077
-0.01724399376 0.01124162483 -0.01755052948 0.8486790288 -0.5288554446 0.007471592773
-0.0008184486628 -0.01829196739 0 -0.1447283491 -0.2931470792 -0.9450494669
-0.0008186512589 -0.01975858307 0 0 -0 -1
-0.01421168613 -0.01487059498 -0.03296659088 0.6670528455 0.705502841 0.2393872231
-0.01915168381 0.01382582474 -0.05116748047 0.9367955734 -0.1929418974 -0.2918689395
-0.00245002985 0.01825213051 0 0 0 -1
-0.0001738309413 0.01704835129 -0.0046268363 -0.0224317476 0.9987412924 0.04486254114
0.008364382744 0.01488194847 -0.02198461533 -0.4726181551 -0.8811897167 -0.01169455137
-0.01800374699 0.05403111076 -0.05063065147 0.8754924172 -0.003625944381 -0.4832182528
0.01043310642 0.01348779583 -0.02618979645 -0.5884802994 -0.8085086131 0.002181680284
0.01600414085 -0.002552024841 -0.05293628693 0.9360957852 -0.3105367317 -0.1652017529
0.0026949929 0.04409510803 -0.04018268967 0.1093799659 0.004695132514 0.9939889229
0.01214266014 0.01202656555 -0.02966480064 0.7032685774 0.7109218242 -0.001862222995
0.01454279995 0.008948526382 -0.03454334259 0.8711207297 0.4910643832 0.002108495691
-0.0120887413 0.01368702126 0 0.4012110184 -0.4911599489 -0.7731698542
0.0160979538 0.005747667789 -0.03770427704 0.9446794435 0.3279884373 -0.002081832135
0.01690487862 -0.002475092888 -0.03934435272 0.9824302043 -0.186573744 -0.004596919995
0.01348949051 -0.01050864887 -0.03240241241 0.8126602135 -0.5827264683 0.003638753919
-0.0008669260144 0.03000001335 -0.04004620361 0.0407699423 0.0007653756234 -0.9991682671
0.01214266014 -0.01202656555 -0.02966480064 0.7058472717 -0.7083613371 -0.001960899773
0.008364382744 -0.01488194847 -0.02198461533 0.4709182942 -0.8821059435 0.01118323116
0.01294451618 -0.00765639925 -0.05443477249 0.7757023607 -0.5553391249 -0.2998071112
0.01220001793 -0.009315718651 -0.05281824493 0.7126603165 -0.6474453938 -0.2700550598
0.005500814438 -0.01615313911 -0.0161634388 -0.4181245494 0.9083322229 0.01021929628
0.01604230881 -0.004215803146 -0.04905541611 0.9259934815 -0.3607700223 -0.1112702262
-0.00903060627 0.05432726288 -0.04208951187 -0.4211442536 -0.002226769658 0.9069909366
-0.0001738309413 -0.01704835129 -0.0046268363 0.02243171325 0.9987412961 -0.04486247468
-0.00245002985 -0.01825213051 0 0 -0 -1
-0.0204360714 0.05234809494 -0.0583551178 0.9825245565 -0.0004567959816 -0.1861324452
-0.006585628033 0.02987094688 -0.04112179184 -0.3168764352 0.008120016739 0.9484320693
-0.002450634956 -0.01971554184 0 0 -0 -1
0.005188271046 0.01626465607 -0.01903917122 -0.4045359476 -0.914463991 0.01030903837
0.006725280285 0.05023374557 -0.04116331863 0.3251911167 -0.008479836423 0.945610295
0.0102959013 0.01359658051 -0.02953623009 -0.5797633738 -0.8147835266 0.001495032728
0.002664092541 0.04987369537 -0.04018693924 0.1132522719 0.004531142126 0.9935559328
0.0120416317 0.01212636471 -0.03312369156 -0.6982593749 -0.7158400084 0.002632060184
0.01538558674 0.007424211502 -0.03999493408 0.8981329761 0.4396566384 0.007694000621
-0.002678106546 0.04626913452 -0.04018371582 -0.09544569677 0.001660481057 0.9954332533
-0.01883477402 0.03023751831 -0.05231253052 0.9197217935 0.008763750272 -0.3924729536
0.01453589964 0.05213764191 -0.04604904366 0.8474873181 0.002127670843 0.5308113776
0.01692854118 0.002497530222 -0.04316526413 0.9849101017 0.171744873 -0.02134924118
0.0170644598 3.296136856e-08 -0.04344449806 0.9999111391 -0.01184205634 -0.006122066977
0.01687023926 -0.002496657848 -0.04304541016 0.9792771444 -0.2007032328 -0.02710141536
0.006832411766 0.02213277054 -0.04118521118 -0.3369595862 -0.0003408156475 -0.9415190498
-0.01789770508 0.03997175217 -0.05040181351 0.857200245 -0.01303460809 -0.5148182581
0.01653048325 -0.004152733326 -0.04234731293 0.9545268395 -0.2975306142 -0.01881611804
-0.02044592285 -0.002262050152 -0.02162765884 0.9927998687 0.118082882 0.02012097704
0.01604703331 -0.005797176838 -0.04135399628 0.953823919 -0.2992756342 -0.02557393892
0.01538558674 -0.007424211502 -0.03999493408 0.8919128502 -0.4519991378 -0.01372031557
-0.01254922247 0.05603905487 -0.04433295822 -0.610457916 0.001699799174 0.7920468695
-0.007609582424 0.01914067268 -0.0207757225 0 0 1
0.01298561192 -0.00927412796 -0.05048820114 0.7605511047 -0.6025505986 -0.2418569685
0.01449474239 -0.009025751114 -0.0381644516 0.8670711592 -0.4980848763 -0.009952933196
0.002788768053 0.02197383308 -0.04019384003 -0.0928218516 -0.0006210373628 -0.9956825389
0.01414160252 0.004366042137 -0.06540371704 0.8293078019 -0.3008760563 -0.470873835
-0.02023227692 0.003737271309 -0.01814811516 0.9836699858 -0.1799520576 0.003258229985
-0.02054030991 0.00569357729 -0.05206374741 0.9952666214 -0.06101238624 -0.07564285221
-0.01691956329 0.05636753845 -0.0489393425 0.8095442337 0.007937636609 -0.5870052195
-0.004199580193 0.02180235672 -0.04043709564 0.1888949594 -0.03802797038 -0.9812607033
0.01157417107 0.0240453949 -0.04356030655 0.5010189643 -7.690110158e-06 0.8654363046
0.0120416317 -0.01212636471 -0.03312369156 0.699981332 -0.7141560163 -0.002705408437
-0.01032259655 0.03635071564 -0.04279968262 -0.5294007217 -0.00232768009 0.8483687039
0.01031971073 -0.01359859943 -0.02958517838 0.5786164378 -0.8155966586 -0.002260174593
-0.02054406548 0.02753322983 -0.06210659027 0.9788885007 0.004314050367 0.2043494365
0.008162560463 -0.01499570656 -0.02515205574 0.457775867 -0.8889663365 0.01342043591
0.005188271046 -0.01626465607 -0.01903917122 0.4045359476 -0.914463991 -0.01030903837
-0.0009756481647 0.04964060211 -0.04006013107 -0.042162759 -0.001200665601 0.9991100341
-0.01558306599 0.01859873962 -0.04684705734 0.7749448688 -0.1716926776 -0.6082615184
0.01440415955 -0.007583215714 -0.04953834534 0.8623701136 -0.4764355731 -0.1712510784
0.01707106972 0.007706228256 -0.05520844269 0.9990947262 -0.001172186443 -0.0425247462
-0.005693702698 0.0196300106 0 0 0 -1
-0.006497754335 0.01815330124 0 0.1840063118 -0.1592487638 -0.9699389199
0.01015645218 0.01370714378 -0.03293741226 -0.5715459372 -0.8205695268 0.0009452240706
0.0119389019 0.01222784328 -0.03664080811 0.6935549936 0.7203956419 -0.003404404047
0.01333579254 0.01068788338 -0.03954291153 0.7993986563 0.6008006266 -0.0006288213792
-0.01135232162 -0.01714354324 -0.01233529377 0.5458487355 0.8378085845 -0.01122201535
0.01457133102 0.009111275673 -0.04210982513 0.8868224457 0.4543943781 0.08409339409
0.01643155479 0.005862921715 -0.04597452927 0.9698533853 0.2398308129 0.04319250189
-0.01039309692 0.01777664948 -0.02595026779 -0.4830007264 0.875618506 0.001590693681
0.01685774612 0.004198357582 -0.04685971451 0.9010613271 7.632324404e-05 0.4336916866
0.01672520256 -0.002516946793 -0.04658367157 0.9693920592 -0.2358194886 -0.06832425866
0.0152264185 -0.007483856678 -0.04347034073 0.8974000141 -0.4391686899 -0.04247442176
0.01376084518 -0.009936340809 -0.04233763313 0.8031384153 -0.594416839 -0.04046365552
-0.01435474491 0.0364420433 -0.04585247421 -0.6995136673 -0.01471080987 0.7144677889
-0.02053660107 0.03005284023 -0.06219500542 0.9749530172 0.004914350061 0.2223566132
-0.009154805183 0.01840089417 -0.006398845673 0 0 1
0.01333579254 -0.01068788338 -0.03954291153 0.8027005708 -0.5961840216 -0.01537550002
0.006799496174 0.03365826416 -0.04118053055 0.3369335454 0.003114660061 0.941523279
-0.0168105011 0.006438978195 0 0.2592925202 -0.1076437218 -0.9597813387
-0.01246039057 0.04617734337 -0.04425386238 -0.6064201036 -0.01120544263 0.7950654665
-0.0009160323143 0.03979302216 -0.0400488205 -0.03842862069 -0.001807699196 0.9992597127
0.0119389019 -0.01222784328 -0.03664080811 -0.6945644868 0.7194240993 0.003023088745
0.01144177246 0.05755082703 -0.04348059464 0.498091186 0.001000809288 0.8671240792
0.01017250729 -0.01370851803 -0.03297078705 0.5707760894 -0.8211035412 -0.001905363017
0.0079576087 -0.01511122799 -0.02836860085 -0.5415551532 0.8406612932 0.002570227027
-0.006496281624 -0.01669852352 0 0.1841425307 0.1594135027 -0.9698860054
0.01596145439 8.411407471e-07 -0.05687996483 0.9370343948 -0.272228194 -0.2187655216
-0.005693702698 -0.0196300106 0 0 -0 -1
0.01450847054 0.0581047554 -0.04603019333 0.7962464175 0.001784999569 0.6049697979
0.01451674175 0.05639727783 -0.04603604507 0.7962445789 0.001784982372 0.6049722179
0.007749446869 0.01522855949 -0.03163552666 0.5369302221 0.8436236012 -0.002270717701
-0.02039787292 0.04393294525 -0.05810168839 0.9812313606 -0.0003559455944 -0.1928338412
0.01455928898 0.04619322586 -0.04606357956 0.9255844915 0.002635753148 0.3785319034
-0.002764713526 0.05779586411 -0.04020386505 -0.09456738044 0.0062890306 0.995498598
-0.01645949936 -0.0123179121 -0.004385848522 0.8207317246 0.5713063241 0.002918929286
0.006815508842 0.02871255493 -0.04118327713 0.3325294139 -0.003626213726 0.9430859131
-0.01559435368 0.0365027771 -0.04716171646 0.777700676 0.001508630774 -0.6286329474
0.0145673008 0.04449934387 -0.04607131958 0.9293253461 0.002648670912 0.3692524687
0.01457939005 0.04196181488 -0.04608376503 0.7823265461 0.0006545236988 0.6228681617
0.01320739651 -0.004300206184 -0.05912332153 0.7909542955 -0.4801463039 -0.3792767186
0.01459083939 0.03942723846 -0.04609555435 0.7601156412 0.0003942794196 0.6497877012
-0.01208670235 0.01224491692 0 0 0 -1
0.006780609131 0.03861511612 -0.04117666626 0.3280643593 -0.003354201029 0.9446494194
0.009031564713 0.03548003769 -0.04209002304 0.4472382747 0.01233514663 0.894329788
0.01459804726 0.0377393837 -0.04610297394 0.7958621809 0.0007044313211 0.605477409
-0.01234046364 0.02826037216 -0.04415330887 0.6248386878 0.01354270963 -0.780636413
-0.01851260948 -0.008788978577 -0.04363945007 0.8886003253 0.451919802 0.07847263528
0.0146049366 0.03605285263 -0.04611006927 0.7298254309 0.0001036872385 0.6836335492
-0.004318253517 0.04621215439 -0.04049417114 -0.1929576016 -0.01288225196 0.9811225263
0.01461150932 0.03436758423 -0.04611683655 0.7626200573 0.0003768545329 0.6468465863
0.01463463783 0.02763794899 -0.04614064789 -0.6956709674 0.0001334263429 -0.7183605552
0.01463963127 0.02595809937 -0.0461457901 0.8146855103 0.0006266014743 0.5799026873
-0.00533321619 0.01985817909 -0.004145446777 0 0 1
0.01157800674 0.02238333702 -0.04356274033 -0.5010653136 7.295216273e-05 -0.8654094674
0.004491957188 0.01648622131 -0.0247904644 0.3752572958 0.9268524586 -0.01124641592
0.01001469612 0.01381953621 -0.03639482498 -0.5769950985 -0.8167101951 -0.007817515585
0.0164570961 -0.002535732508 -0.04992670822 0.9607560746 -0.2597630543 -0.09731865529
-0.02047156715 0.05912732315 -0.05859062195 0.9836905773 -0.000476775956 -0.1798683428
-0.01815881157 0.009674542427 -0.01535432816 0.8774647727 -0.4791731915 0.02118077451
-0.01970402241 0.02625425053 -0.0546191864 0.9624628501 0.001884000118 -0.2714069134
0.008902859688 0.06055130386 -0.04202621078 -0.4325922961 -0.003790047633 -0.9015816884
0.015544384 -0.005884663105 -0.04800967789 0.9129693377 -0.3906908937 -0.1176758857
-0.01975944901 0.04031098557 -0.0548670578 0.9665766284 0.01508155662 -0.2559339135
-0.01905489826 0.007958354712 -0.04221743774 0.9298333214 -0.3635019319 -0.05723932073
0.01492112255 -0.007537916183 -0.04670078659 0.8892145254 -0.4446226783 -0.1077413649
0.004723960876 0.03023972893 -0.04056372833 0.2094764007 -0.00973701004 0.9777652214
0.004642407417 0.05003844452 -0.04057367706 0.2046411728 0.01060537394 0.9787796057
-0.01560515118 0.03813714981 -0.0471762886 0.778747446 0.003281943974 -0.6273289761
0.01411921787 -0.009168828964 -0.04501666641 0.8479777999 -0.5233962132 -0.08360654762
-0.002718863249 0.05202066994 -0.04019358444 -0.1036692848 0.001627425241 0.994610492
0.01182696247 -0.01233048058 -0.04020207977 0.7075656881 -0.7057481874 -0.03564117004
-0.01209225368 -0.01585122538 0 0.3984734367 0.4641021513 -0.7910929866
0.007749446869 -0.01522855949 -0.03163552666 -0.5334547137 0.8458255366 0.002286949376
0.004491957188 -0.01648622131 -0.0247904644 -0.3752572958 0.9268524586 0.01124641592
-0.01837171555 0.002141510963 0 0.7256909298 -0.1526084709 -0.6708825002
0.01143418217 0.05924481583 -0.04347898865 -0.4982648299 -0.00137907591 -0.8670237929
-0.02022829437 0.003776540279 -0.02217078018 0.9835702178 -0.1802613967 -0.009770131144
-0.009015564919 0.05268320084 -0.0420814743 -0.4197428266 -0.001598413449 0.9076416719
-0.005652681351 0.01978549576 -0.03300223541 0 0 1
0.0143891077 -0.005951797009 -0.05350181961 0.8610203427 -0.4472334529 -0.2421284948
0.01144908619 0.05585900116 -0.04348204422 -0.4981040376 -0.0006998015742 -0.8671169921
-0.01887989426 0.03846920013 -0.05242150879 0.921596875 0.002207343262 -0.3881421488
0.01145750713 0.05416973114 -0.04348627853 -0.4979755511 -0.000419777366 -0.8671909676
0.01147913218 0.04995595741 -0.0435 0.4984104149 -7.134104548e-05 0.8669412052
-0.01489821005 0.02183543682 -0.04641355705 0.708337847 -0.05056578712 -0.7040600796
-0.009317095757 0.01846485901 -0.04073356247 -0.4438703517 0.2862569992 0.8491384112
0.01149904919 0.04575312042 -0.04351263809 0.4990109551 -6.908971661e-05 0.8665956738
-0.01669025803 0.020273983 -0.04852447128 0.7982982128 -0.05918779499 -0.5993469516
0.01151368237 0.04239857101 -0.04352192307 -0.4993641686 0.0001069918617 -0.8663921835
-0.015272789 -0.0136237402 -0.04313894653 0.6691139717 0.7055556486 0.2334046265
0.006691845894 0.05607621193 -0.04115486908 0.3212725747 0.0008686161228 0.9469863665
0.01152057648 0.04072363663 -0.04352629852 -0.4995723855 8.769135922e-05 -0.8662721419
-0.008904490948 0.01591970301 0 0.1757143887 -0.2984476387 -0.9381116461
-0.01993050766 -0.003561671019 0 0.7257751506 0.2143746012 -0.6536772607
0.01154535198 0.03403805542 -0.04354201889 0.5002644095 -7.621735344e-05 0.8658726897
-0.01980545616 0.04864078903 -0.05505661774 0.9675144561 0.007023771095 -0.2527181116
0.01157005978 0.02570832062 -0.0435576973 -0.5009076852 4.78847123e-05 -0.8655007156
-0.00890742588 0.01809446716 0 0.2292455049 -0.3966347987 -0.8888910704
-0.01379718399 0.015227561 -0.003241092205 0.6183668166 -0.7592852293 -0.2027521164
0.00987057209 0.01393380642 -0.03991001129 0.6348636136 0.7726236844 -0.0009135311798
-0.01209225368 0.01585122538 0 0.4674517345 -0.462402412 -0.7534406979
-0.01256619978 0.05768998337 -0.04434649849 -0.6115238293 0.01268061192 0.791124395
-0.01049855328 0.01371651745 0 0 0 -1
0.01707106972 0.005993405819 -0.05520675659 0.9971360672 -0.02396310272 -0.07173167451
0.01561119461 0.007855156898 -0.06441744232 0.9109269532 -0.2014274294 -0.360054269
0.01462803078 -0.002578175783 -0.05809144211 0.8536274226 -0.4136395331 -0.3165794687
0.01699813461 0.004278959751 -0.05505042648 0.9940277575 -0.07774548184 -0.0765797455
-0.002571797848 0.02669758797 -0.040165905 -0.08490183665 0.001051978735 0.9963887652
0.01686849594 0.002565312862 -0.05477396393 0.9874351305 -0.1285571504 -0.09189625692
-0.006698440552 -0.01945076561 -0.02667037201 0 0 1
0.0163843689 -0.0008526117802 -0.05374425888 0.9509586365 -0.2640624876 -0.1610859221
0.01557800484 -0.004242572308 -0.05203112793 0.905215582 -0.3840170159 -0.1819771459
-0.01042294979 0.05023286438 -0.04288038063 -0.5371392573 0.002298237341 0.8434904483
-0.009620944023 0.01816989517 -0.001901401997 -0.3706883343 0.8075738882 0.4587096838
0.01504650116 -0.005920777798 -0.05090235901 0.8820079168 -0.44160615 -0.164456812
-0.0123970747 0.03801140976 -0.04420604134 0.6041132811 -0.0009234351809 -0.7968979175
0.009073600769 0.02224078941 -0.04211248016 -0.450729643 0.02635771032 -0.8922712928
0.01365303802 -0.009226659775 -0.04794345856 0.8172279526 -0.5554504798 -0.1536659946
0.01150654602 -0.01241898918 -0.04338508987 0.7022740489 -0.7087561446 -0.0669020766
-0.006620893955 0.03636719131 -0.04113586998 -0.318477762 -0.00617805297 0.9479101998
0.009870776176 -0.01393382454 -0.03991044617 -0.6181386978 0.7858238119 0.0196338214
-0.01855900955 0.01211654568 -0.04808868027 0.9049131844 -0.3024053081 -0.2994714649
-0.008904490948 -0.01591970301 0 0.1758586188 0.2987027454 -0.9380034201
-0.00890742588 -0.01809446716 0 0.2294408287 0.3970148757 -0.8886709709
0.008917133331 0.05802479172 -0.04203056145 0.4413557003 8.549999813e-05 0.8973322342
0.01359464836 -0.005978401661 -0.05584659576 0.8129378616 -0.4924022075 -0.3109213714
0.008932016373 0.05550302887 -0.04203724289 0.4422573002 0.01316053909 0.8967916595
-0.01701312637 0.01161507225 -0.03018920708 0.8388399184 -0.5443400645 0.006440923586
0.008951505661 0.0521484108 -0.04204725647 0.4434485565 -0.01403865851 0.896189876
-0.008889751434 0.0363449173 -0.04201747894 -0.4081170651 -0.003985328294 0.9129209048
-0.01874635315 -0.008493990898 -0.03001606369 0.9065006077 0.4221018839 0.009308485095
0.008960904121 0.05047403717 -0.04205227661 0.4340422274 0.0006573752934 0.900892287
-0.01244673061 0.04454076576 -0.04424354553 -0.6055985752 -0.007474781461 0.7957351905
0.008974380016 0.04796612549 -0.04205947304 0.4437744276 0.0008533985395 0.8961381194
-0.004277916908 0.03967263794 -0.04047552872 -0.1982245035 0.004957028905 0.9801441088
0.009037881851 0.0338212738 -0.04209339905 0.447162071 0.01424299854 0.8943395436
0.009043893814 0.03216373444 -0.04209660721 0.4486857539 -0.01331163384 0.8935904513
0.00905755806 0.02802496624 -0.04210390854 0.4485849521 0.003323658434 0.8937340175
-0.01831173515 0.009378130913 -0.003749165058 0.88540056 -0.464802707 0.00492868402
-0.01050161028 0.01588539505 0 0.1781442523 -0.2571271434 -0.9498159072
-0.0167118063 0.02596918011 -0.04856544495 0.795178767 -0.002429147655 -0.6063702068
0.01707106972 0.01210093832 -0.05927849007 0.9922745766 -0.02895202241 -0.1206355877
0.01661737251 0.004308730125 -0.05829195786 0.9707333455 -0.1691469153 -0.170487809
0.0153944149 -0.002566191673 -0.05566111755 0.9055966797 -0.3556448376 -0.2311090719
-0.01693554497 0.05803016281 -0.04896688843 0.80986697 -0.01073417128 -0.5865153607
0.01376130772 -0.007623508453 -0.05215378952 0.823577862 -0.5178574612 -0.2313939393
-0.0205670042 -1.51693821e-08 -0.025415411 0.9298665745 4.674364069e-06 0.3678969333
0.01208666801 -0.01090078735 -0.04855804443 0.7047733043 -0.6853046158 -0.1834452862
0.01099467754 -0.01249430466 -0.04621320343 0.6493342761 -0.7491736128 -0.1307818636
0.009536736488 -0.0140335331 -0.04308183289 0.6262777393 -0.7768752084 -0.06512375759
-0.01049855328 -0.01371651745 0 0 -0 -1
0.00667634058 0.05858740234 -0.04115079498 0.3201481608 -0.0004750336355 0.9473673677
-0.0008741464019 0.03162904167 -0.0400465889 -0.03528922652 -0.002281880849 0.9993745362
-0.01939178085 -0.006914880753 -0.02838553238 0.9430686942 0.3325231648 -0.007055702947
0.006716149807 0.05190050507 -0.04116106796 0.3233670296 0.009718714665 0.9462237107
0.006746811628 0.0460751133 -0.04116875458 0.3272417336 0.0007689950864 0.9449403454
0.006766412735 0.04192668533 -0.04117346954 0.3293622025 0.009710806023 0.9441537162
-0.00999712944 -0.01800613785 -0.03086124992 -0.5496823516 -0.8353668316 0.003401319843
0.004619324923 0.05419387627 -0.04057440376 0.2042282366 0.002790789608 0.9789193219
0.006773672104 0.04027016068 -0.04117513275 0.3307297223 -0.008421112774 0.943687944
-0.01230488682 -0.01649827766 -0.03348291397 0.6279860335 0.7704596232 -0.10966089
-0.01943078232 0.006769402027 -0.02012239838 0.9474228777 -0.3199003804 -0.007323757072
-0.002778791666 0.05945081329 -0.04020687866 0.0973859363 -0.01057795177 -0.9951904774
0.006805152416 0.03200853729 -0.04118156815 0.3342086683 0.009348422513 0.9424527431
0.006822402 0.0262434845 -0.04118421745 0.3363893898 -0.00161319465 0.9417216022
-0.02056829929 -5.692243576e-09 -0.0295926075 0.931482067 5.940814048e-06 0.363787244
-0.0008506012261 0.02593229961 -0.04004533577 -0.04496611109 -0.00543260885 0.9989737412
0.006828661442 0.0237763443 -0.04118491364 0.33681242 -0.001094592713 0.9415711315
-0.01681762123 -0.01188150692 -0.03919086075 0.8390558831 0.5439704584 -0.009020280439
0.0167025528 0.01218741035 -0.062617836 0.9774736552 -0.07743603906 -0.1963387718
-0.0204281044 -0.002387712717 -0.04308448792 0.9360316533 -6.779028269e-05 0.3519158129
0.01653724861 0.009564821243 -0.06225260925 0.9744774924 -0.09021396001 -0.2055603516
0.0162054882 0.006073812008 -0.06152562332 0.9469163265 -0.1879999829 -0.2607785977
-0.01495908022 0.03402604961 -0.0464886055 0.7252183453 0.006735793406 -0.6884860062
-0.0144291954 0.04625458145 -0.04592912674 -0.7041593746 -0.01144441902 0.7099497169
-0.01891887856 -0.008056492805 -0.009724017143 0.9220682341 0.3869952094 -0.004987937282
-0.02043911362 0.01416864777 -0.06214095306 0.9428823799 0.0051272757 0.3330863682
0.01597959709 0.00433235836 -0.06103249359 0.9319613177 -0.2284993849 -0.2814891355
0.01573161602 0.002595458508 -0.06049191284 0.916261009 -0.2715351957 -0.2945070472
-0.01481632853 0.01608736229 -0.04432556343 0.7212366888 -0.494081006 -0.4854910897
0.01541031265 0.0008634634614 -0.05979243469 0.9071721559 -0.3020141144 -0.2929610117
-0.01047442341 0.05598803711 -0.04291953278 -0.5370962455 0.0004472134817 0.8435208492
-0.01989332771 -0.005301064014 -0.02300664711 0.9667592659 0.2550459565 -0.01811303054
0.01504574966 -0.0008615604043 -0.05899945831 0.8837604054 -0.3542223772 -0.3057679731
0.01024074745 -0.01255209541 -0.04856386948 -0.6794786294 0.7114960523 0.1791149345
-0.0120887413 -0.01368702126 0 0.3453800015 0.4592497188 -0.8184145346
-0.01969712257 0.02378410912 -0.05458483887 0.9620239643 -0.01240464373 -0.272682997
0.00460452795 0.05669277954 -0.04057463074 0.2029965417 -0.00735771227 0.9791518106
0.004633444309 0.0516990509 -0.04057402802 0.2088865328 0.004281229918 0.9779305126
-0.0200259304 0.01225389767 -0.05351306152 0.9761424067 -0.1207336516 -0.1804699067
0.004659325123 0.04672280121 -0.04057275391 0.2070917287 -0.007768452489 0.9782906864
0.004713675499 0.03352531815 -0.04056612015 0.2145379065 0.00497525318 0.9767029915
0.004682195187 0.04176232529 -0.04057081604 0.2133522107 0.002544033638 0.9769720375
0.004689152718 0.04011204147 -0.0405700264 0.209379658 0.006453564589 0.9778131265
-0.01367511368 -0.01509715652 0 -0.3830822393 -0.4422277521 0.8109763333
-0.01163203907 -0.01694561195 -0.008068717957 0.5637495835 0.8258668452 -0.01141757853
-0.0149095211 -0.01420543098 -0.01538493538 0.723027628 0.6907172048 -0.01186558694
0.004695778847 0.03846326447 -0.04056916046 0.2091217156 -0.008156434689 0.9778556032
0.004737404823 0.02613959789 -0.04056575584 0.2096032519 0.000253905379 0.9777864861
-0.02045363617 0.002215512037 -0.01368185616 0.9901367441 -0.1401033548 -0.0005271418732
0.004749620438 0.02204533386 -0.04056895447 -0.2063183312 0.03060389293 -0.9780062106
-0.0124745512 0.04781574821 -0.0442645607 -0.6072979747 0.009035886351 0.7944227606
-0.008676522255 0.01863791275 -0.01101345158 0 0 1
-0.01614192581 0.01271884537 -0.01630776787 0.8043761775 -0.5940585319 0.008568880518
-0.01419925531 0.01412772814 0 -0.4671252604 0.538784163 0.7010746157
-0.01471891244 0.01028633785 0 0.2263958349 -0.1406800171 -0.9638226283
0.01592089272 0.01136933422 -0.06510643768 0.9336238297 -0.1432917771 -0.3283504397
-0.01988683319 0.06040137863 -0.05537747574 0.9688014799 0.03077300607 -0.2459201387
-0.01902106857 0.05674155045 -0.05274690628 0.9262317792 0.00113628003 -0.3769527822
-0.01446132612 -0.01364301395 0 -0.4789278215 -0.5016357315 0.7204094216
0.01578440952 0.00961147213 -0.06480200958 0.9250382008 -0.1604183276 -0.3443403653
0.01514140129 0.004351163387 -0.06337892914 0.8896996848 -0.2623098465 -0.3736683226
-0.02052587318 0.03257692719 -0.06229782867 0.9946036799 -1.047535218e-06 0.1037473848
0.01539258289 0.006101154804 -0.06393367386 0.897307202 -0.2367496985 -0.3725444478
0.01414307117 -0.0008649349809 -0.06118016052 0.8303267452 -0.3973906712 -0.3906893276
-0.006719992757 0.05025043106 -0.0411732626 -0.3189598503 -0.001089143531 0.9477676021
0.01372291183 -0.002588199854 -0.06025631714 0.8188543249 -0.4260530373 -0.384651016
0.0008943561614 0.03414814949 -0.04004766655 0.04893247715 -0.005036494989 0.9987893904
0.01199856377 -0.007683804989 -0.05646806717 0.7134259909 -0.6002916034 -0.3614876851
0.01039374161 -0.01099059963 -0.05294402695 0.6912044713 -0.6714816776 -0.2671118407
-0.01471891244 -0.01028633785 0 0.2264042662 0.1477230469 -0.9627663318
-0.01445889473 -0.01220555258 0 0.5134243969 0.4460473984 -0.733101021
-0.01240874386 0.03964133835 -0.04421485519 -0.6043652569 0.008408099865 0.7966630029
-0.01190527344 -0.01675226974 -0.003901028633 0.5826431436 0.8126520815 -0.0111158294
-0.008672907829 -0.01863838959 -0.01102140713 0 0 1
